5.5044000000 2.8169000000 0.0900000000
5.5043000000 2.8721000000 0.1128000000
5.5034000000 4.0912000000 0.1424000000
5.5030000000 2.9851000000 0.1664000000
5.5015000000 2.5518000000 0.0496000000
5.4978000000 3.2832000000 0.2916000000
5.2635000000 4.3580000000 0.2090000000
5.2598000000 3.3960000000 0.5219000000
5.2593000000 3.4222000000 0.5369000000
5.2582000000 2.1328000000 0.0511000000
5.2576000000 4.1942000000 0.2840000000
5.2572000000 3.4117000000 0.5317000000
5.2567000000 4.0785000000 0.3367000000
5.2563000000 2.6006000000 0.1750000000
5.2562000000 3.6041000000 0.5456000000
5.2557000000 1.9572000000 0.0575000000
5.2555000000 5.1816000000 -0.0008000000
5.2554000000 4.9504000000 0.0347000000
5.2550000000 4.4697000000 0.1628000000
5.2547000000 3.7356000000 0.4877000000
5.2546000000 3.8405000000 0.4342000000
5.2538000000 3.8568000000 0.4336000000
5.2535000000 4.7522000000 0.1199000000
5.2534000000 3.7347000000 0.4790000000
5.2528000000 3.4205000000 0.5382000000
5.2523000000 3.9543000000 0.3912000000
5.2518000000 4.6853000000 0.0708000000
5.2514000000 4.9037000000 0.0529000000
5.2500000000 2.2773000000 0.1228000000
5.2497000000 4.6987000000 0.0717000000
5.2485000000 2.9882000000 0.3483000000
5.2473000000 4.8284000000 0.0901000000
5.2448000000 3.6280000000 0.5377000000
5.0103000000 4.8458000000 0.1902000000
5.0095000000 2.6087000000 0.3712000000
5.0090000000 4.2636000000 0.4405000000
5.0079000000 1.6401000000 0.0253000000
5.0077000000 3.2995000000 0.6717000000
5.0067000000 3.5699000000 0.7363000000
5.0065000000 5.5445000000 0.0361000000
5.0063000000 4.0182000000 0.5482000000
5.0062000000 3.6353000000 0.7151000000
5.0060000000 5.3393000000 0.0462000000
5.0057000000 3.2786000000 0.6610000000
5.0055000000 2.0342000000 0.1251000000
5.0049000000 4.4881000000 0.3447000000
5.0047000000 4.2067000000 0.4706000000
5.0045000000 1.4859000000 0.0416000000
5.0044000000 3.7321000000 0.6712000000
5.0043000000 3.3001000000 0.6698000000
5.0040000000 1.6979000000 0.0544000000
5.0038000000 2.4587000000 0.3090000000
5.0033000000 4.6613000000 0.2702000000
5.0027000000 1.4107000000 0.0036000000
5.0025000000 1.9478000000 0.0863000000
5.0024000000 3.3976000000 0.7166000000
5.0015000000 2.7282000000 0.4256000000
5.0010000000 4.7031000000 0.2564000000
5.0000000000 4.4384000000 0.3699000000
4.9995000000 4.3427000000 0.4090000000
4.9924000000 5.6427000000 0.0061000000
4.7612000000 4.7518000000 0.4147000000
4.7602000000 2.2587000000 0.4019000000
4.7600000000 5.4868000000 0.0939000000
4.7595000000 2.2731000000 0.4100000000
4.7592000000 2.9606000000 0.7083000000
4.7586000000 4.8501000000 0.3691000000
4.7581000000 4.2649000000 0.6292000000
4.7580000000 1.7407000000 0.1822000000
4.7575000000 5.4532000000 0.1116000000
4.7573000000 5.0742000000 0.2691000000
4.7571000000 4.1889000000 0.6611000000
4.7570000000 2.2989000000 0.4237000000
4.7565000000 5.8946000000 0.0697000000
4.7561000000 5.3546000000 0.1585000000
4.7555000000 2.6421000000 0.5758000000
4.7552000000 4.8547000000 0.3751000000
4.7548000000 3.6659000000 0.8910000000
4.7548000000 0.9916000000 0.0110000000
4.7545000000 5.5003000000 0.0953000000
4.7543000000 1.9679000000 0.2823000000
4.7540000000 1.0562000000 0.0365000000
4.7537000000 1.9578000000 0.2786000000
4.7535000000 1.1152000000 0.0686000000
4.7530000000 2.3154000000 0.4346000000
4.7529000000 2.8003000000 0.6463000000
4.7527000000 3.2946000000 0.8587000000
4.7526000000 2.8352000000 0.6610000000
4.7524000000 5.1816000000 0.2337000000
4.7521000000 1.4644000000 0.0687000000
4.7520000000 1.2353000000 0.0357000000
4.7519000000 1.0482000000 0.0378000000
4.7518000000 3.4702000000 1.0009000000
4.7513000000 3.2351000000 0.8319000000
4.7510000000 1.1017000000 0.0578000000
4.7505000000 3.8114000000 0.8285000000
4.7503000000 2.4436000000 0.4957000000
4.7495000000 1.0876000000 0.0572000000
4.7488000000 1.9975000000 0.3033000000
4.7479000000 1.7095000000 0.1780000000
4.7455000000 3.9786000000 0.7618000000
4.5123000000 4.7066000000 0.6181000000
4.5100000000 5.6911000000 0.1918000000
4.5088000000 3.8850000000 0.9754000000
4.5085000000 2.8832000000 0.8623000000
4.5082000000 1.8813000000 0.4355000000
4.5079000000 6.0755000000 0.1085000000
4.5074000000 1.9078000000 0.4396000000
4.5072000000 4.1584000000 0.8616000000
4.5070000000 4.6793000000 0.6353000000
4.5069000000 5.9537000000 0.0864000000
4.5067000000 4.0686000000 0.9007000000
4.5063000000 3.8278000000 1.0101000000
4.5059000000 2.5004000000 0.6996000000
4.5055000000 1.2143000000 0.1409000000
4.5054000000 4.5021000000 0.7143000000
4.5053000000 2.6235000000 0.7560000000
4.5052000000 1.8103000000 0.3991000000
4.5049000000 4.8147000000 0.5764000000
4.5048000000 5.7123000000 0.1907000000
4.5045000000 1.9651000000 0.4725000000
4.5043000000 6.0837000000 0.0974000000
4.5042000000 3.2916000000 1.0447000000
4.5038000000 2.4996000000 0.6991000000
4.5037000000 4.5976000000 0.6714000000
4.5036000000 5.9137000000 0.1035000000
4.5034000000 5.5945000000 0.2388000000
4.5033000000 5.8411000000 0.1390000000
4.5030000000 6.2529000000 0.0340000000
4.5029000000 6.1049000000 0.0915000000
4.5027000000 0.8835000000 0.0792000000
4.5022000000 3.2503000000 1.0248000000
4.5019000000 4.3360000000 0.7842000000
4.5015000000 1.4174000000 0.2384000000
4.5013000000 1.7439000000 0.3788000000
4.5011000000 4.8035000000 0.5853000000
4.5010000000 2.5023000000 0.7033000000
4.5008000000 2.1500000000 0.5542000000
4.5005000000 3.7989000000 1.0220000000
4.5002000000 0.5913000000 0.0285000000
4.5000000000 1.0938000000 0.0960000000
4.4995000000 3.4219000000 1.1054000000
4.4991000000 4.3514000000 0.7840000000
4.4990000000 3.6589000000 1.0871000000
4.4988000000 5.2153000000 0.4094000000
4.4982000000 1.7264000000 0.3713000000
4.4978000000 5.3631000000 0.3469000000
4.4970000000 1.0334000000 0.0685000000
4.4939000000 3.5773000000 1.1230000000
4.2611000000 6.7402000000 0.0772000000
4.2605000000 3.4666000000 1.3681000000
4.2603000000 4.5311000000 0.8810000000
4.2596000000 4.7029000000 0.8095000000
4.2595000000 6.4435000000 0.1332000000
4.2586000000 5.8033000000 0.3257000000
4.2585000000 6.3249000000 0.1147000000
4.2581000000 6.7806000000 0.0668000000
4.2579000000 2.1711000000 0.7478000000
4.2571000000 0.2635000000 0.0637000000
4.2570000000 3.8389000000 1.1838000000
4.2568000000 6.7711000000 0.0722000000
4.2566000000 2.0136000000 0.6755000000
4.2565000000 6.4779000000 0.1165000000
4.2564000000 2.7723000000 1.0068000000
4.2563000000 0.7390000000 0.1210000000
4.2560000000 5.5236000000 0.4625000000
4.2559000000 5.2730000000 0.5666000000
4.2557000000 4.5965000000 0.8584000000
4.2555000000 6.7090000000 0.0210000000
4.2551000000 4.7597000000 0.7900000000
4.2550000000 0.7910000000 0.1449000000
4.2546000000 3.9186000000 1.1557000000
4.2545000000 2.1300000000 0.7299000000
4.2544000000 2.9874000000 1.1011000000
4.2542000000 2.3237000000 0.8090000000
4.2540000000 1.8038000000 0.5856000000
4.2539000000 6.6693000000 0.0356000000
4.2536000000 5.1713000000 0.6086000000
4.2535000000 5.7258000000 0.3776000000
4.2533000000 6.5805000000 0.0781000000
4.2532000000 4.7768000000 0.7814000000
4.2530000000 0.1765000000 0.0410000000
4.2528000000 0.5774000000 0.1306000000
4.2527000000 4.8136000000 0.7692000000
4.2526000000 2.5908000000 0.9239000000
4.2525000000 0.8278000000 0.1711000000
4.2522000000 0.8854000000 0.1909000000
4.2520000000 6.2962000000 0.1280000000
4.2518000000 3.8652000000 1.1871000000
4.2517000000 1.0978000000 0.2866000000
4.2511000000 4.7901000000 0.7744000000
4.2508000000 1.4603000000 0.4392000000
4.2504000000 3.4646000000 1.3722000000
4.2501000000 0.1812000000 0.0362000000
4.2499000000 0.5605000000 0.1289000000
4.2495000000 1.3010000000 0.3741000000
4.2490000000 0.5069000000 0.1012000000
4.2485000000 1.6619000000 0.5266000000
4.2479000000 1.4677000000 0.4425000000
4.2463000000 0.7556000000 0.1415000000
4.2421000000 1.1859000000 0.3351000000
4.0115000000 2.4744000000 1.0621000000
4.0110000000 5.4985000000 0.6528000000
4.0101000000 4.9796000000 0.8760000000
4.0097000000 6.2475000000 0.3349000000
4.0090000000 3.4351000000 1.4757000000
4.0084000000 5.2706000000 0.7541000000
4.0080000000 1.4258000000 0.6049000000
4.0075000000 4.2831000000 1.1879000000
4.0074000000 5.6966000000 0.5694000000
4.0073000000 2.0810000000 0.8896000000
4.0070000000 4.0614000000 1.2798000000
4.0066000000 0.9539000000 0.4062000000
4.0064000000 2.6994000000 1.1618000000
4.0063000000 3.0781000000 1.3229000000
4.0062000000 2.8457000000 1.2188000000
4.0061000000 5.5047000000 0.6538000000
4.0059000000 1.4567000000 0.6245000000
4.0058000000 4.9762000000 0.8855000000
4.0055000000 0.7164000000 0.3070000000
4.0054000000 0.2871000000 0.1136000000
4.0052000000 0.8793000000 0.3697000000
4.0050000000 4.6924000000 1.0032000000
4.0049000000 2.9361000000 1.2646000000
4.0044000000 6.2742000000 0.3219000000
4.0044000000 5.2677000000 0.7533000000
4.0041000000 4.5549000000 1.0666000000
4.0040000000 3.1290000000 1.3513000000
4.0035000000 2.5725000000 1.1070000000
4.0033000000 1.5944000000 0.6795000000
4.0030000000 2.8393000000 1.2263000000
4.0029000000 2.8492000000 1.2292000000
4.0026000000 3.8783000000 1.3568000000
4.0023000000 0.1941000000 0.1486000000
4.0020000000 2.1272000000 0.9088000000
4.0015000000 0.5379000000 0.2283000000
4.0013000000 2.1180000000 0.9199000000
4.0012000000 3.3274000000 1.4395000000
4.0008000000 5.2771000000 0.7588000000
4.0005000000 0.7814000000 0.3344000000
4.0003000000 5.8133000000 0.5206000000
4.0000000000 4.4034000000 1.1332000000
3.9998000000 0.1982000000 0.1464000000
3.9994000000 0.5955000000 0.2516000000
3.9993000000 4.3568000000 1.1568000000
3.9988000000 1.7445000000 0.7512000000
3.7638000000 6.7539000000 0.1988000000
3.7618000000 5.2025000000 0.9644000000
3.7606000000 4.0278000000 1.4763000000
3.7604000000 6.4928000000 0.4714000000
3.7596000000 6.5829000000 0.4033000000
3.7593000000 2.7716000000 1.3801000000
3.7591000000 3.9727000000 1.4983000000
3.7588000000 5.9974000000 0.6251000000
3.7585000000 5.6784000000 0.7652000000
3.7583000000 6.9748000000 0.0777000000
3.7581000000 4.2461000000 1.3827000000
3.7577000000 1.6831000000 0.9051000000
3.7574000000 4.8477000000 1.1270000000
3.7569000000 1.1887000000 0.7009000000
3.7565000000 3.5225000000 1.7586000000
3.7565000000 3.1155000000 1.5294000000
3.7563000000 5.0362000000 1.0402000000
3.7560000000 4.7307000000 1.1727000000
3.7560000000 6.8284000000 0.1273000000
3.7559000000 2.7054000000 1.3471000000
3.7557000000 3.3646000000 1.6382000000
3.7553000000 4.8432000000 1.1233000000
3.7552000000 2.6507000000 1.3288000000
3.7551000000 1.4167000000 0.7914000000
3.7549000000 3.6369000000 1.6496000000
3.7546000000 3.6962000000 1.6254000000
3.7545000000 5.5705000000 0.8093000000
3.7543000000 5.5002000000 0.8448000000
3.7542000000 3.7430000000 1.5997000000
3.7539000000 2.4460000000 1.2373000000
3.7537000000 5.0202000000 1.0499000000
3.7535000000 2.7481000000 1.3771000000
3.7534000000 2.4248000000 1.2339000000
3.7531000000 2.0777000000 1.0822000000
3.7530000000 0.9472000000 0.5881000000
3.7528000000 3.9294000000 1.5232000000
3.7527000000 1.4492000000 0.8116000000
3.7525000000 6.5423000000 0.4339000000
3.7523000000 5.6196000000 0.7889000000
3.7522000000 3.3008000000 1.6131000000
3.7518000000 2.2519000000 1.1564000000
3.7517000000 5.3083000000 0.9302000000
3.7510000000 0.9150000000 0.5782000000
3.7508000000 6.1064000000 0.5879000000
3.7499000000 4.5818000000 1.2388000000
3.7496000000 0.7442000000 0.5069000000
3.7493000000 3.2662000000 1.5980000000
3.7487000000 6.2261000000 0.5309000000
3.7486000000 2.6129000000 1.3143000000
3.7481000000 4.1730000000 1.4173000000
3.5115000000 5.9373000000 0.8368000000
3.5113000000 1.1259000000 0.8547000000
3.5108000000 1.8256000000 1.1527000000
3.5099000000 5.2045000000 1.1555000000
3.5089000000 0.7237000000 0.5759000000
3.5087000000 5.1374000000 1.1868000000
3.5083000000 0.1396000000 0.0730000000
3.5083000000 4.9625000000 1.2604000000
3.5080000000 6.0410000000 0.8561000000
3.5077000000 0.9728000000 0.8410000000
3.5076000000 3.9164000000 1.7170000000
3.5070000000 5.1454000000 1.1820000000
3.5069000000 0.5886000000 0.4650000000
3.5068000000 5.4006000000 1.0742000000
3.5066000000 2.3345000000 1.3770000000
3.5064000000 0.5751000000 0.4498000000
3.5061000000 1.3648000000 0.9595000000
3.5060000000 4.9240000000 1.2834000000
3.5058000000 1.3926000000 0.9689000000
3.5055000000 4.1729000000 1.6053000000
3.5054000000 3.6215000000 1.8469000000
3.5052000000 6.8190000000 0.1383000000
3.5050000000 2.8177000000 1.5895000000
3.5048000000 2.8458000000 1.6038000000
3.5045000000 0.2749000000 0.1937000000
3.5040000000 5.2658000000 1.1380000000
3.5036000000 2.9533000000 1.6457000000
3.5035000000 4.8867000000 1.3013000000
3.5033000000 5.8403000000 0.8857000000
3.5032000000 3.8346000000 1.7530000000
3.5031000000 5.7783000000 0.9151000000
3.5027000000 0.6430000000 0.5118000000
3.5027000000 3.4870000000 1.9383000000
3.5024000000 5.9161000000 0.8521000000
3.5022000000 2.4597000000 1.4355000000
3.5020000000 5.7752000000 0.9119000000
3.5018000000 3.5592000000 1.9328000000
3.5013000000 1.3778000000 0.9690000000
3.5007000000 0.1996000000 0.1296000000
3.5005000000 5.2040000000 1.1580000000
3.5003000000 4.5696000000 1.4402000000
3.5000000000 0.5219000000 0.4039000000
3.4998000000 0.3467000000 0.2544000000
3.4996000000 1.4620000000 1.0030000000
3.4994000000 6.9765000000 0.0785000000
3.4993000000 0.8004000000 0.6515000000
3.4983000000 2.7488000000 1.5632000000
3.4971000000 3.6584000000 1.8267000000
3.4967000000 0.3748000000 0.2739000000
3.2616000000 7.0344000000 0.0311000000
3.2612000000 0.1843000000 0.1133000000
3.2603000000 5.8251000000 0.9950000000
3.2598000000 3.7093000000 1.9847000000
3.2593000000 3.9941000000 1.8664000000
3.2591000000 0.8198000000 0.6629000000
3.2588000000 5.1725000000 1.3590000000
3.2582000000 6.4464000000 0.4596000000
3.2580000000 2.6705000000 1.7086000000
3.2577000000 4.0760000000 1.8314000000
3.2574000000 4.7427000000 1.5446000000
3.2573000000 5.3192000000 1.3021000000
3.2571000000 5.5216000000 1.2068000000
3.2570000000 3.3462000000 2.0049000000
3.2568000000 1.8567000000 1.3620000000
3.2564000000 0.0612000000 0.0872000000
3.2563000000 2.1683000000 1.4943000000
3.2562000000 5.1640000000 1.3673000000
3.2560000000 6.7246000000 0.2142000000
3.2558000000 3.7106000000 1.9943000000
3.2557000000 5.4482000000 1.2408000000
3.2555000000 3.5961000000 2.0418000000
3.2554000000 4.8548000000 1.4993000000
3.2551000000 6.8790000000 0.0896000000
3.2550000000 3.4993000000 2.1350000000
3.2548000000 2.0159000000 1.4282000000
3.2546000000 5.2402000000 1.3319000000
3.2545000000 0.5251000000 0.4075000000
3.2544000000 1.0044000000 0.8245000000
3.2542000000 0.1379000000 0.0694000000
3.2541000000 6.8346000000 0.1247000000
3.2534000000 0.1030000000 0.1190000000
3.2533000000 5.0470000000 1.4137000000
3.2532000000 0.4853000000 0.3737000000
3.2531000000 0.6697000000 0.5369000000
3.2528000000 4.4524000000 1.6758000000
3.2524000000 2.3182000000 1.5543000000
3.2523000000 6.1424000000 0.7242000000
3.2521000000 1.2842000000 1.1321000000
3.2520000000 2.9357000000 1.8274000000
3.2516000000 2.2745000000 1.5410000000
3.2515000000 2.7970000000 1.7686000000
3.2514000000 1.2208000000 1.0194000000
3.2510000000 3.9124000000 1.9105000000
3.2506000000 1.8300000000 1.3459000000
3.2504000000 2.9629000000 1.8443000000
3.2500000000 5.1684000000 1.3647000000
3.2498000000 5.8881000000 0.9444000000
3.2498000000 1.7435000000 1.3157000000
3.2496000000 0.7815000000 0.6260000000
3.2491000000 0.5545000000 0.4358000000
3.2488000000 2.2128000000 1.5168000000
3.2485000000 2.7148000000 1.7381000000
3.2482000000 3.1509000000 1.9283000000
3.2467000000 3.7721000000 1.9676000000
3.2449000000 3.2571000000 1.9771000000
3.0125000000 6.0073000000 0.8342000000
3.0097000000 6.2509000000 0.6314000000
3.0093000000 5.0417000000 1.5969000000
3.0090000000 6.2272000000 0.6472000000
3.0085000000 5.7224000000 1.0866000000
3.0082000000 3.8342000000 2.1252000000
3.0080000000 2.4673000000 1.8080000000
3.0079000000 6.7392000000 0.2066000000
3.0078000000 2.0668000000 1.6365000000
3.0076000000 5.4447000000 1.3277000000
3.0073000000 4.7483000000 1.7340000000
3.0068000000 4.3997000000 1.8791000000
3.0065000000 3.7492000000 2.1619000000
3.0063000000 4.1402000000 1.9975000000
3.0058000000 6.9165000000 0.1251000000
3.0055000000 4.8754000000 1.6752000000
3.0053000000 2.8846000000 1.9886000000
3.0052000000 5.9559000000 0.8874000000
3.0050000000 5.0471000000 1.5985000000
3.0049000000 3.0879000000 2.0850000000
3.0048000000 0.9640000000 0.7880000000
3.0047000000 0.4501000000 0.3403000000
3.0043000000 2.2079000000 1.6969000000
3.0041000000 4.3507000000 1.9024000000
3.0038000000 5.1271000000 1.6268000000
3.0036000000 1.0563000000 0.8614000000
3.0033000000 1.0432000000 0.8583000000
3.0029000000 7.0440000000 0.0123000000
3.0030000000 4.7219000000 1.7447000000
3.0025000000 2.1217000000 1.6715000000
3.0025000000 3.3042000000 2.1717000000
3.0020000000 4.5791000000 1.8081000000
3.0016000000 6.7191000000 0.2260000000
3.0009000000 0.6781000000 0.5442000000
2.9998000000 1.5161000000 1.2710000000
2.9996000000 2.1805000000 1.6966000000
2.9994000000 4.6529000000 1.7783000000
2.9989000000 4.0344000000 2.0420000000
2.9988000000 1.1224000000 0.9247000000
2.9985000000 1.3595000000 1.1336000000
2.9971000000 1.7378000000 1.5230000000
2.9955000000 0.6247000000 0.4979000000
2.9945000000 0.2057000000 0.1335000000
2.7621000000 3.4246000000 2.4084000000
2.7606000000 3.8090000000 2.3180000000
2.7600000000 5.1089000000 1.6180000000
2.7594000000 2.5303000000 2.0183000000
2.7586000000 6.5190000000 0.3957000000
2.7584000000 1.4504000000 1.2098000000
2.7580000000 6.1497000000 0.7143000000
2.7573000000 2.4695000000 2.0013000000
2.7571000000 0.4378000000 0.3364000000
2.7568000000 6.6186000000 0.3124000000
2.7567000000 5.0437000000 1.6737000000
2.7563000000 2.3918000000 1.9628000000
2.7561000000 4.8140000000 1.9328000000
2.7559000000 2.5240000000 2.0191000000
2.7555000000 3.9639000000 2.2584000000
2.7553000000 1.2487000000 1.0401000000
2.7550000000 1.5203000000 1.2715000000
2.7548000000 5.1814000000 1.5537000000
2.7549000000 3.6573000000 2.3890000000
2.7545000000 1.6075000000 1.3432000000
2.7538000000 0.6165000000 0.4882000000
2.7535000000 6.9356000000 0.1152000000
2.7530000000 0.2236000000 0.1470000000
2.7529000000 5.3512000000 1.4062000000
2.7526000000 5.7975000000 1.0235000000
2.7523000000 2.8178000000 2.1561000000
2.7522000000 1.8758000000 1.5754000000
2.7519000000 6.2507000000 0.6292000000
2.7517000000 2.1876000000 1.9104000000
2.7515000000 5.2907000000 1.4579000000
2.7514000000 0.5014000000 0.3886000000
2.7510000000 2.4849000000 2.0085000000
2.7511000000 1.1408000000 0.9418000000
2.7508000000 0.5519000000 0.4314000000
2.7504000000 0.7366000000 0.5902000000
2.7499000000 0.3525000000 0.2606000000
2.7499000000 4.3912000000 2.0788000000
2.7492000000 3.8819000000 2.2924000000
2.7487000000 2.3172000000 1.9966000000
2.7481000000 0.5907000000 0.4685000000
2.7475000000 0.4954000000 0.3834000000
2.7473000000 0.0201000000 0.0481000000
2.7470000000 1.4071000000 1.1720000000
2.5133000000 6.9990000000 0.0552000000
2.5125000000 6.2946000000 0.5904000000
2.5115000000 6.2940000000 0.5913000000
2.5107000000 0.8514000000 0.6937000000
2.5103000000 4.4856000000 2.1569000000
2.5099000000 4.9388000000 1.7613000000
2.5093000000 5.4082000000 1.3571000000
2.5084000000 6.2059000000 0.6681000000
2.5079000000 3.1880000000 2.4963000000
2.5074000000 6.4267000000 0.4761000000
2.5072000000 3.5989000000 2.6014000000
2.5072000000 2.7298000000 2.3601000000
2.5069000000 6.2053000000 0.6699000000
2.5064000000 4.4009000000 2.2949000000
2.5059000000 3.9266000000 2.4615000000
2.5055000000 6.8574000000 0.1058000000
2.5053000000 5.2252000000 1.5184000000
2.5052000000 0.9652000000 0.7924000000
2.5050000000 4.3967000000 2.2871000000
2.5049000000 0.2048000000 0.1277000000
2.5047000000 3.9395000000 2.4549000000
2.5046000000 5.4882000000 1.2951000000
2.5044000000 1.4521000000 1.2120000000
2.5042000000 6.9456000000 0.1039000000
2.5041000000 2.4335000000 2.0639000000
2.5040000000 1.1263000000 0.9273000000
2.5038000000 6.5526000000 0.3679000000
2.5035000000 3.3713000000 2.5745000000
2.5033000000 4.6405000000 2.0237000000
2.5033000000 2.1040000000 1.7740000000
2.5031000000 1.2269000000 1.0211000000
2.5030000000 0.2361000000 0.1600000000
2.5028000000 5.8360000000 0.9854000000
2.5025000000 0.5309000000 0.4139000000
2.5023000000 4.1723000000 2.3548000000
2.5020000000 6.6221000000 0.3090000000
2.5017000000 0.3066000000 0.2205000000
2.5015000000 6.9494000000 0.0988000000
2.5012000000 2.7072000000 2.3563000000
2.5006000000 3.1679000000 2.4910000000
2.4995000000 2.2730000000 1.9159000000
2.4992000000 3.6673000000 2.5808000000
2.4985000000 0.1952000000 0.1202000000
2.4979000000 1.4201000000 1.1857000000
2.4971000000 1.0245000000 0.8415000000
2.4949000000 3.7081000000 2.5684000000
2.2645000000 6.0329000000 0.8205000000
2.2616000000 3.4325000000 2.7883000000
2.2600000000 5.9664000000 0.8769000000
2.2595000000 1.6052000000 1.3417000000
2.2594000000 5.6172000000 1.1831000000
2.2592000000 1.9163000000 1.6052000000
2.2589000000 1.5577000000 1.2977000000
2.2585000000 5.0981000000 1.6297000000
2.2581000000 3.5032000000 2.8774000000
2.2580000000 1.6649000000 1.3965000000
2.2578000000 3.9783000000 2.6595000000
2.2574000000 0.1510000000 0.0815000000
2.2573000000 5.1949000000 1.5442000000
2.2571000000 3.1985000000 2.7500000000
2.2563000000 5.0036000000 1.7067000000
2.2562000000 6.3326000000 0.5643000000
2.2559000000 1.2319000000 1.0243000000
2.2557000000 6.6995000000 0.2415000000
2.2555000000 0.2071000000 0.1357000000
2.2553000000 5.9922000000 0.8554000000
2.2551000000 2.7264000000 2.3114000000
2.2550000000 0.2844000000 0.2004000000
2.2548000000 2.9254000000 2.4871000000
2.2547000000 4.0163000000 2.5665000000
2.2545000000 6.2713000000 0.6137000000
2.2544000000 1.9183000000 1.6144000000
2.2542000000 5.5051000000 1.2764000000
2.2541000000 3.8421000000 2.7530000000
2.2540000000 6.9360000000 0.1076000000
2.2539000000 5.8939000000 0.9378000000
2.2538000000 4.4978000000 2.1506000000
2.2535000000 1.1993000000 0.9925000000
2.2534000000 1.6141000000 1.3529000000
2.2532000000 1.2773000000 1.0603000000
2.2530000000 0.7615000000 0.6149000000
2.2529000000 0.0459000000 0.0715000000
2.2528000000 3.8262000000 2.7569000000
2.2527000000 1.1397000000 0.9437000000
2.2526000000 1.8129000000 1.5269000000
2.2524000000 3.9736000000 2.6679000000
2.2521000000 5.5945000000 1.1982000000
2.2520000000 5.7234000000 1.0889000000
2.2515000000 0.1642000000 0.0997000000
2.2510000000 0.3289000000 0.2382000000
2.2505000000 6.5174000000 0.3945000000
2.2504000000 3.2041000000 2.7591000000
2.2502000000 2.0745000000 1.7443000000
2.2492000000 0.5242000000 0.4105000000
2.2488000000 0.5999000000 0.4747000000
2.2485000000 3.2361000000 2.7801000000
2.2484000000 1.5445000000 1.2941000000
2.2483000000 0.6293000000 0.4981000000
2.2480000000 1.0702000000 0.8817000000
2.2474000000 5.5833000000 1.2123000000
2.2471000000 6.7792000000 0.1737000000
2.2463000000 0.1479000000 0.0829000000
2.0125000000 4.0524000000 2.5328000000
2.0117000000 5.5309000000 1.2541000000
2.0111000000 4.2408000000 2.3691000000
2.0107000000 5.7837000000 1.0345000000
2.0099000000 4.4908000000 2.1544000000
2.0094000000 4.7099000000 1.9642000000
2.0086000000 6.7080000000 0.2318000000
2.0082000000 5.1808000000 1.5533000000
2.0078000000 6.8108000000 0.1431000000
2.0076000000 2.7239000000 2.3140000000
2.0074000000 2.3969000000 2.0307000000
2.0069000000 5.6890000000 1.1196000000
2.0068000000 3.8574000000 2.6997000000
2.0066000000 2.5294000000 2.1476000000
2.0065000000 4.3854000000 2.2448000000
2.0063000000 5.0379000000 1.6801000000
2.0061000000 2.7934000000 2.3687000000
2.0060000000 0.8960000000 0.7326000000
2.0059000000 4.0634000000 2.5241000000
2.0055000000 4.6674000000 1.9991000000
2.0054000000 5.6310000000 1.1608000000
2.0053000000 0.9424000000 0.7713000000
2.0051000000 2.9312000000 2.4923000000
2.0049000000 4.0130000000 2.5689000000
2.0048000000 3.2734000000 2.7904000000
2.0046000000 3.5179000000 2.9459000000
2.0045000000 2.9479000000 2.5067000000
2.0040000000 5.2977000000 1.4543000000
2.0039000000 5.8757000000 0.9546000000
2.0037000000 0.3773000000 0.2825000000
2.0035000000 2.7132000000 2.3021000000
2.0032000000 0.4382000000 0.3357000000
2.0031000000 0.7990000000 0.6501000000
2.0029000000 5.8258000000 1.0009000000
2.0028000000 1.5442000000 1.2929000000
2.0027000000 5.1626000000 1.5699000000
2.0024000000 1.2392000000 1.0281000000
2.0023000000 0.8070000000 0.6549000000
2.0021000000 2.6984000000 2.2925000000
2.0018000000 6.2362000000 0.6488000000
2.0015000000 1.8268000000 1.5368000000
2.0015000000 5.3058000000 1.4422000000
2.0011000000 5.1647000000 1.5685000000
2.0010000000 6.0192000000 0.8326000000
2.0008000000 3.5286000000 2.9452000000
2.0006000000 0.3915000000 0.2908000000
2.0005000000 0.8373000000 0.6794000000
2.0002000000 6.2144000000 0.6621000000
1.9993000000 2.0097000000 1.7018000000
1.9988000000 2.9276000000 2.4889000000
1.9980000000 3.6304000000 2.9455000000
1.9976000000 2.0865000000 1.7620000000
1.9966000000 0.5026000000 0.3885000000
1.9957000000 3.6290000000 2.9468000000
1.7619000000 5.6963000000 1.1153000000
1.7616000000 5.7044000000 1.1040000000
1.7597000000 3.9363000000 2.6732000000
1.7595000000 3.8988000000 2.6985000000
1.7593000000 0.9027000000 0.7412000000
1.7585000000 0.1274000000 0.0614000000
1.7581000000 0.2342000000 0.1595000000
1.7577000000 6.1620000000 0.7049000000
1.7575000000 1.9190000000 1.6169000000
1.7570000000 2.6481000000 2.2438000000
1.7568000000 4.4816000000 2.1609000000
1.7568000000 5.1878000000 1.5503000000
1.7565000000 0.2202000000 0.1476000000
1.7564000000 2.2591000000 1.9096000000
1.7561000000 0.3836000000 0.2846000000
1.7559000000 3.1211000000 2.6828000000
1.7557000000 3.2468000000 2.6730000000
1.7555000000 5.9111000000 0.9263000000
1.7550000000 3.7170000000 2.7060000000
1.7548000000 4.5462000000 2.1055000000
1.7546000000 5.7543000000 1.0551000000
1.7543000000 6.1925000000 0.6734000000
1.7539000000 2.6150000000 2.2155000000
1.7538000000 6.8633000000 0.0913000000
1.7537000000 5.5063000000 1.2755000000
1.7535000000 4.4705000000 2.1690000000
1.7533000000 4.0583000000 2.5874000000
1.7533000000 3.0604000000 2.6593000000
1.7531000000 0.6948000000 0.5557000000
1.7529000000 2.9418000000 2.5619000000
1.7528000000 1.0312000000 0.8497000000
1.7524000000 0.8114000000 0.6608000000
1.7519000000 0.1595000000 0.0932000000
1.7517000000 1.2271000000 1.0119000000
1.7516000000 5.5765000000 1.2143000000
1.7513000000 3.2183000000 2.6601000000
1.7511000000 0.8259000000 0.6671000000
1.7509000000 2.8277000000 2.4038000000
1.7508000000 5.1737000000 1.5691000000
1.7507000000 1.0752000000 0.8825000000
1.7495000000 2.0287000000 1.7095000000
1.7489000000 3.9618000000 2.6568000000
1.7484000000 5.4650000000 1.3110000000
1.7478000000 6.6580000000 0.2762000000
1.7476000000 0.7308000000 0.5872000000
1.7475000000 1.7077000000 1.4290000000
1.7454000000 5.4212000000 1.3526000000
1.5126000000 5.6817000000 1.1251000000
1.5118000000 6.9721000000 0.0812000000
1.5113000000 6.7939000000 0.1636000000
1.5101000000 5.3039000000 1.4478000000
1.5088000000 2.8933000000 2.3358000000
1.5085000000 6.0738000000 0.7814000000
1.5080000000 5.8375000000 0.9848000000
1.5079000000 5.2903000000 1.4578000000
1.5073000000 0.9051000000 0.7401000000
1.5070000000 5.3561000000 1.4070000000
1.5066000000 4.1634000000 2.3273000000
1.5065000000 6.5938000000 0.3329000000
1.5062000000 2.0870000000 1.7580000000
1.5060000000 5.2350000000 1.5114000000
1.5059000000 1.4888000000 1.2430000000
1.5057000000 1.0402000000 0.8564000000
1.5050000000 0.0443000000 0.0697000000
1.5049000000 6.3765000000 0.5251000000
1.5046000000 2.8475000000 2.3089000000
1.5041000000 2.2614000000 1.9082000000
1.5039000000 6.8408000000 0.1130000000
1.5037000000 2.0732000000 1.7453000000
1.5035000000 2.5593000000 2.2364000000
1.5033000000 0.5318000000 0.4153000000
1.5030000000 3.0888000000 2.4189000000
1.5028000000 6.9365000000 0.1083000000
1.5027000000 4.2828000000 2.2683000000
1.5023000000 3.5583000000 2.6455000000
1.5021000000 2.6045000000 2.2669000000
1.5020000000 0.6492000000 0.5151000000
1.5018000000 0.1462000000 0.0821000000
1.5016000000 4.9004000000 1.8015000000
1.5008000000 3.8953000000 2.4398000000
1.5005000000 2.2323000000 1.8816000000
1.5000000000 1.6113000000 1.3467000000
1.4995000000 0.7598000000 0.6126000000
1.4992000000 0.5286000000 0.4119000000
1.4985000000 0.0049000000 0.0282000000
1.4980000000 5.4085000000 1.3629000000
1.4971000000 5.4415000000 1.3342000000
1.4956000000 2.9068000000 2.3307000000
1.2636000000 6.1081000000 0.7537000000
1.2620000000 5.8280000000 0.9963000000
1.2605000000 3.2900000000 2.3208000000
1.2593000000 1.1841000000 0.9828000000
1.2590000000 2.4808000000 1.9727000000
1.2589000000 2.9546000000 2.1780000000
1.2585000000 6.3988000000 0.5034000000
1.2581000000 6.8108000000 0.1460000000
1.2575000000 6.4652000000 0.4412000000
1.2573000000 0.8792000000 0.7181000000
1.2573000000 1.2803000000 1.0679000000
1.2570000000 4.6154000000 1.9422000000
1.2564000000 3.0551000000 2.2149000000
1.2563000000 5.2330000000 1.5124000000
1.2560000000 3.2135000000 2.2885000000
1.2556000000 1.5803000000 1.3208000000
1.2552000000 1.8949000000 1.5936000000
1.2549000000 5.4725000000 1.3024000000
1.2548000000 5.8047000000 1.0087000000
1.2546000000 4.2966000000 2.0797000000
1.2543000000 2.2622000000 1.9400000000
1.2542000000 2.5417000000 1.9959000000
1.2542000000 4.2705000000 2.0881000000
1.2539000000 6.3119000000 0.5802000000
1.2538000000 1.2379000000 1.0280000000
1.2536000000 2.6631000000 2.0488000000
1.2534000000 4.4637000000 2.0073000000
1.2532000000 0.7733000000 0.6235000000
1.2529000000 1.6731000000 1.4063000000
1.2528000000 1.5244000000 1.2663000000
1.2526000000 4.4792000000 1.9922000000
1.2523000000 2.2433000000 1.9263000000
1.2522000000 6.7319000000 0.2127000000
1.2511000000 0.4502000000 0.3493000000
1.2508000000 1.8077000000 1.5150000000
1.2506000000 5.4686000000 1.3049000000
1.2503000000 0.6265000000 0.4931000000
1.2498000000 1.8501000000 1.5563000000
1.2497000000 3.3681000000 2.3507000000
1.2491000000 1.8781000000 1.5781000000
1.2490000000 2.6444000000 2.0327000000
1.2482000000 1.6592000000 1.3895000000
1.2473000000 5.0872000000 1.6289000000
1.2433000000 0.0083000000 0.0368000000
1.0120000000 4.8325000000 1.6636000000
1.0108000000 3.6100000000 2.1936000000
1.0099000000 4.2844000000 1.8988000000
1.0096000000 6.3944000000 0.5052000000
1.0092000000 2.7227000000 1.8900000000
1.0090000000 1.3729000000 1.1411000000
1.0086000000 6.7666000000 0.1806000000
1.0081000000 0.7548000000 0.6054000000
1.0075000000 6.5985000000 0.3327000000
1.0074000000 6.6621000000 0.2700000000
1.0072000000 0.1185000000 0.1305000000
1.0071000000 4.3621000000 1.8619000000
1.0068000000 0.6619000000 0.5288000000
1.0066000000 1.2337000000 1.0264000000
1.0064000000 4.9343000000 1.6152000000
1.0063000000 6.2785000000 0.6035000000
1.0059000000 1.9268000000 1.5460000000
1.0056000000 3.3853000000 2.1691000000
1.0055000000 1.2007000000 0.9908000000
1.0054000000 1.5160000000 1.2659000000
1.0050000000 2.4475000000 1.7690000000
1.0051000000 4.4463000000 1.8294000000
1.0049000000 5.8972000000 0.9360000000
1.0047000000 4.6340000000 1.7434000000
1.0045000000 5.5716000000 1.2187000000
1.0043000000 6.2846000000 0.5996000000
1.0042000000 1.4780000000 1.2314000000
1.0040000000 0.9665000000 0.7850000000
1.0038000000 3.1687000000 2.0786000000
1.0035000000 0.3122000000 0.2232000000
1.0033000000 6.5936000000 0.3390000000
1.0032000000 1.1147000000 0.9203000000
1.0031000000 4.0185000000 2.0105000000
1.0028000000 7.0144000000 0.0459000000
1.0026000000 3.0452000000 2.0205000000
1.0024000000 3.8692000000 2.0777000000
1.0022000000 2.4757000000 1.7776000000
1.0023000000 1.5196000000 1.2692000000
1.0014000000 2.9490000000 1.9810000000
1.0013000000 2.5881000000 1.8301000000
1.0010000000 5.4831000000 1.2972000000
1.0007000000 0.7235000000 0.5827000000
1.0006000000 4.4586000000 1.8187000000
1.0003000000 4.7965000000 1.6731000000
0.9999000000 2.7984000000 1.9126000000
0.9997000000 2.9923000000 2.0009000000
0.9995000000 0.0747000000 0.0973000000
0.9985000000 0.1956000000 0.1267000000
0.9981000000 3.3439000000 2.1467000000
0.9974000000 0.4177000000 0.3160000000
0.9967000000 4.8401000000 1.6505000000
0.9959000000 1.0175000000 0.8349000000
0.7636000000 4.7802000000 1.5060000000
0.7622000000 5.5615000000 1.1639000000
0.7612000000 1.6239000000 1.2276000000
0.7608000000 5.7229000000 1.1443000000
0.7603000000 4.8216000000 1.4799000000
0.7597000000 0.4386000000 0.3359000000
0.7589000000 4.8275000000 1.4740000000
0.7583000000 1.3273000000 1.1573000000
0.7578000000 4.1652000000 1.7607000000
0.7576000000 4.5599000000 1.5946000000
0.7573000000 4.9748000000 1.4120000000
0.7571000000 0.3985000000 0.2973000000
0.7569000000 4.5850000000 1.5792000000
0.7568000000 5.6076000000 1.1372000000
0.7565000000 5.3634000000 1.2449000000
0.7562000000 0.2786000000 0.1939000000
0.7560000000 4.6124000000 1.5675000000
0.7558000000 1.0200000000 0.8368000000
0.7554000000 4.4846000000 1.6238000000
0.7552000000 5.1461000000 1.3393000000
0.7550000000 5.1020000000 1.3526000000
0.7549000000 4.8969000000 1.4484000000
0.7548000000 2.0707000000 1.4154000000
0.7548000000 4.8063000000 1.4813000000
0.7546000000 2.9353000000 1.7933000000
0.7544000000 4.0969000000 1.7896000000
0.7543000000 2.2239000000 1.4772000000
0.7541000000 3.5230000000 2.1038000000
0.7539000000 4.1599000000 1.7660000000
0.7538000000 5.0016000000 1.3936000000
0.7536000000 2.9176000000 1.7814000000
0.7534000000 3.8042000000 1.9130000000
0.7534000000 3.6830000000 1.9691000000
0.7530000000 5.1325000000 1.3438000000
0.7528000000 5.4650000000 1.1962000000
0.7527000000 4.7803000000 1.4973000000
0.7526000000 0.5830000000 0.4618000000
0.7525000000 1.5295000000 1.1844000000
0.7522000000 3.7136000000 1.9583000000
0.7521000000 3.5022000000 2.0947000000
0.7519000000 5.8851000000 0.9477000000
0.7517000000 2.5456000000 1.6193000000
0.7514000000 3.9066000000 1.8743000000
0.7512000000 5.3934000000 1.2291000000
0.7510000000 5.4419000000 1.2043000000
0.7510000000 3.1775000000 1.8978000000
0.7505000000 7.0180000000 0.0397000000
0.7504000000 1.0967000000 0.9019000000
0.7499000000 0.7050000000 0.5600000000
0.7497000000 1.6195000000 1.2175000000
0.7489000000 2.4023000000 1.5545000000
0.7480000000 3.8862000000 1.8807000000
0.7469000000 2.1579000000 1.4471000000
0.7456000000 1.6780000000 1.2395000000
0.5115000000 4.3223000000 1.5156000000
0.5113000000 2.1206000000 1.2553000000
0.5110000000 3.6489000000 1.8024000000
0.5097000000 4.5359000000 1.4169000000
0.5085000000 4.3034000000 1.5125000000
0.5079000000 0.8204000000 0.7290000000
0.5072000000 5.2039000000 1.1263000000
0.5071000000 2.7973000000 1.5441000000
0.5068000000 0.2591000000 0.1791000000
0.5066000000 2.0059000000 1.2004000000
0.5067000000 3.2630000000 1.7486000000
0.5063000000 6.1134000000 0.7893000000
0.5062000000 4.9573000000 1.2325000000
0.5060000000 6.5582000000 0.3645000000
0.5058000000 0.6984000000 0.5548000000
0.5056000000 6.7437000000 0.2009000000
0.5055000000 5.2374000000 1.1049000000
0.5054000000 4.3315000000 1.5013000000
0.5052000000 5.4508000000 1.0166000000
0.5051000000 4.2445000000 1.5409000000
0.5050000000 5.7570000000 0.8873000000
0.5047000000 2.7705000000 1.5305000000
0.5045000000 1.0951000000 0.8057000000
0.5042000000 5.9303000000 0.8114000000
0.5041000000 2.3884000000 1.3627000000
0.5040000000 6.6496000000 0.2842000000
0.5038000000 0.5961000000 0.4745000000
0.5037000000 3.8703000000 1.6972000000
0.5036000000 1.8531000000 1.1356000000
0.5033000000 2.8759000000 1.5720000000
0.5031000000 1.5464000000 1.0028000000
0.5028000000 2.6276000000 1.4660000000
0.5027000000 0.8754000000 0.7770000000
0.5025000000 5.2400000000 1.1062000000
0.5024000000 4.0314000000 1.6316000000
0.5021000000 3.3780000000 1.7893000000
0.5019000000 2.1463000000 1.2600000000
0.5018000000 1.7569000000 1.0889000000
0.5016000000 2.1572000000 1.2597000000
0.5015000000 5.7815000000 0.8746000000
0.5010000000 0.4736000000 0.3601000000
0.5006000000 6.8924000000 0.0745000000
0.5005000000 1.6820000000 1.0485000000
0.5003000000 5.1686000000 1.1360000000
0.5001000000 0.2413000000 0.1622000000
0.4999000000 1.2224000000 0.8616000000
0.4994000000 4.8091000000 1.2920000000
0.4993000000 1.0062000000 0.7621000000
0.4987000000 0.3127000000 0.2303000000
0.4983000000 1.5612000000 1.0013000000
0.4980000000 0.6146000000 0.4843000000
0.4975000000 3.8964000000 1.6881000000
0.4940000000 1.2764000000 0.8751000000
0.2637000000 6.2255000000 0.5013000000
0.2612000000 4.2690000000 1.3444000000
0.2597000000 7.0590000000 0.0775000000
0.2591000000 0.9046000000 0.5374000000
0.2585000000 3.3553000000 1.5968000000
0.2583000000 5.0463000000 1.0104000000
0.2580000000 4.4399000000 1.2676000000
0.2578000000 3.9865000000 1.4695000000
0.2576000000 4.1582000000 1.3902000000
0.2571000000 2.2808000000 1.1308000000
0.2568000000 6.8638000000 0.1010000000
0.2566000000 4.1981000000 1.3714000000
0.2562000000 3.6984000000 1.5881000000
0.2560000000 0.1411000000 0.0753000000
0.2560000000 4.6373000000 1.1797000000
0.2557000000 1.0481000000 0.5958000000
0.2555000000 0.7114000000 0.4529000000
0.2553000000 5.5892000000 0.7714000000
0.2550000000 4.5694000000 1.2108000000
0.2548000000 5.1074000000 0.9800000000
0.2547000000 6.6735000000 0.3223000000
0.2545000000 4.8558000000 1.0889000000
0.2544000000 3.3192000000 1.5816000000
0.2541000000 4.6344000000 1.1816000000
0.2539000000 0.7186000000 0.4573000000
0.2538000000 5.0705000000 0.9953000000
0.2535000000 2.4724000000 1.2212000000
0.2534000000 4.0608000000 1.4319000000
0.2533000000 4.1138000000 1.4103000000
0.2531000000 6.9358000000 0.1122000000
0.2531000000 1.7723000000 0.9054000000
0.2528000000 4.6051000000 1.1895000000
0.2525000000 4.6955000000 1.1568000000
0.2522000000 2.1276000000 1.0660000000
0.2521000000 2.6932000000 1.3082000000
0.2520000000 6.9386000000 0.1077000000
0.2518000000 1.1634000000 0.6516000000
0.2516000000 2.3284000000 1.1561000000
0.2515000000 4.2376000000 1.3484000000
0.2514000000 3.3094000000 1.5729000000
0.2513000000 2.3985000000 1.1804000000
0.2510000000 4.7344000000 1.1329000000
0.2508000000 5.6928000000 0.7241000000
0.2507000000 1.8558000000 0.9469000000
0.2498000000 2.0185000000 1.0114000000
0.2495000000 0.7956000000 0.4954000000
0.2494000000 2.9976000000 1.4361000000
0.2493000000 3.1665000000 1.5060000000
0.2488000000 4.5382000000 1.2143000000
0.2485000000 1.6093000000 0.8430000000
0.2473000000 2.4105000000 1.1826000000
0.2471000000 0.0382000000 0.0655000000
0.2436000000 0.3708000000 0.3399000000
0.0108000000 4.6997000000 0.9729000000
0.0100000000 6.5060000000 0.1945000000
0.0095000000 6.9671000000 0.0509000000
0.0093000000 5.6412000000 0.5604000000
0.0089000000 1.6242000000 0.6638000000
0.0085000000 3.6558000000 1.4236000000
0.0083000000 3.6722000000 1.4152000000
0.0080000000 5.4246000000 0.6581000000
0.0076000000 1.1779000000 0.4681000000
0.0071000000 6.3015000000 0.2772000000
0.0070000000 7.0481000000 0.0739000000
0.0067000000 2.9273000000 1.2279000000
0.0066000000 3.7473000000 1.3822000000
0.0062000000 6.2739000000 0.2894000000
0.0061000000 6.3052000000 0.2676000000
0.0057000000 3.2013000000 1.3419000000
0.0053000000 3.5204000000 1.5403000000
0.0052000000 6.6318000000 0.1339000000
0.0050000000 1.8441000000 0.7546000000
0.0048000000 5.0819000000 0.7986000000
0.0047000000 5.7993000000 0.4898000000
0.0046000000 6.6148000000 0.1402000000
0.0044000000 2.6240000000 1.0925000000
0.0041000000 2.9930000000 1.2515000000
0.0040000000 5.6129000000 0.5717000000
0.0038000000 3.4212000000 1.4367000000
0.0037000000 6.7950000000 0.1292000000
0.0036000000 5.6270000000 0.5620000000
0.0035000000 3.4975000000 1.5344000000
0.0033000000 4.9869000000 0.8385000000
0.0031000000 1.0494000000 0.4142000000
0.0030000000 3.6332000000 1.4298000000
0.0029000000 0.7256000000 0.2721000000
0.0028000000 5.2233000000 0.7332000000
0.0023000000 2.5196000000 1.0450000000
0.0023000000 5.1927000000 0.7534000000
0.0021000000 2.9710000000 1.2440000000
0.0018000000 4.9463000000 0.8535000000
0.0017000000 3.1875000000 1.3334000000
0.0015000000 5.7534000000 0.5076000000
0.0014000000 1.8716000000 0.7609000000
0.0012000000 2.3635000000 0.9836000000
0.0008000000 6.6348000000 0.1291000000
0.0002000000 6.3188000000 0.2632000000
-0.0003000000 0.0085000000 0.0221000000
-0.0004000000 2.6822000000 1.1132000000
-0.0005000000 2.0262000000 0.8268000000
-0.0011000000 5.1433000000 0.7778000000
-0.0015000000 1.8838000000 0.7734000000
-0.0019000000 2.6557000000 1.1023000000
-0.0024000000 2.8624000000 1.1892000000
-0.0034000000 1.1853000000 0.4690000000
-0.0049000000 4.9714000000 0.8421000000
-0.2395000000 2.0741000000 0.6671000000
-0.2405000000 4.2288000000 0.9890000000
-0.2410000000 1.3725000000 0.3699000000
-0.2415000000 6.5185000000 0.0663000000
-0.2417000000 2.9741000000 1.0607000000
-0.2419000000 3.2954000000 1.1980000000
-0.2422000000 6.5033000000 0.0723000000
-0.2426000000 5.3400000000 0.5040000000
-0.2428000000 6.4700000000 0.0872000000
-0.2434000000 2.0701000000 0.6637000000
-0.2439000000 6.5118000000 0.0686000000
-0.2441000000 2.1652000000 0.7069000000
-0.2442000000 2.6589000000 0.9175000000
-0.2443000000 1.0660000000 0.2379000000
-0.2445000000 5.9786000000 0.2244000000
-0.2445000000 1.7997000000 0.5547000000
-0.2446000000 2.4355000000 0.8189000000
-0.2450000000 3.9818000000 1.0859000000
-0.2451000000 0.2477000000 0.0241000000
-0.2454000000 1.9972000000 0.6384000000
-0.2455000000 4.0715000000 1.0502000000
-0.2457000000 4.9214000000 0.6826000000
-0.2458000000 4.3555000000 0.9261000000
-0.2461000000 0.5367000000 0.0794000000
-0.2463000000 5.4938000000 0.4330000000
-0.2465000000 4.7479000000 0.7604000000
-0.2467000000 4.2792000000 0.9586000000
-0.2471000000 3.5131000000 1.3545000000
-0.2473000000 4.6100000000 0.8143000000
-0.2475000000 3.5192000000 1.3516000000
-0.2476000000 0.9510000000 0.1817000000
-0.2477000000 3.7205000000 1.2043000000
-0.2478000000 1.6113000000 0.4641000000
-0.2480000000 4.1644000000 1.0111000000
-0.2481000000 5.2048000000 0.5597000000
-0.2485000000 5.9926000000 0.2153000000
-0.2489000000 0.7527000000 0.0937000000
-0.2490000000 1.7187000000 0.5093000000
-0.2493000000 0.8731000000 0.1539000000
-0.2496000000 3.2287000000 1.1618000000
-0.2500000000 1.0430000000 0.2294000000
-0.2502000000 4.7749000000 0.7414000000
-0.2504000000 2.8038000000 0.9807000000
-0.2506000000 6.3706000000 0.1253000000
-0.2508000000 1.5337000000 0.4299000000
-0.2513000000 1.2937000000 0.3247000000
-0.2515000000 1.2540000000 0.3041000000
-0.2519000000 0.7625000000 0.0892000000
-0.2524000000 5.0142000000 0.6351000000
-0.2539000000 1.1967000000 0.2804000000
-0.2552000000 2.4491000000 0.8210000000
-0.4894000000 4.9267000000 0.4962000000
-0.4899000000 3.3707000000 1.0491000000
-0.4905000000 5.3471000000 0.3171000000
-0.4911000000 6.2471000000 0.0734000000
-0.4915000000 1.4957000000 0.2309000000
-0.4922000000 2.2204000000 0.5447000000
-0.4932000000 5.6989000000 0.1618000000
-0.4933000000 4.5896000000 0.6457000000
-0.4935000000 3.8928000000 0.9430000000
-0.4937000000 5.3721000000 0.3001000000
-0.4939000000 4.9921000000 0.4684000000
-0.4940000000 3.5447000000 1.1486000000
-0.4941000000 3.0240000000 0.8928000000
-0.4945000000 6.1469000000 0.0413000000
-0.4947000000 2.1876000000 0.5261000000
-0.4950000000 2.2305000000 0.5491000000
-0.4953000000 6.3523000000 0.0245000000
-0.4955000000 2.5308000000 0.6771000000
-0.4958000000 5.7783000000 0.1224000000
-0.4960000000 4.2947000000 0.7678000000
-0.4962000000 4.6001000000 0.6337000000
-0.4963000000 4.5717000000 0.6443000000
-0.4965000000 0.7518000000 0.0541000000
-0.4971000000 3.9736000000 0.9051000000
-0.4973000000 1.3454000000 0.1638000000
-0.4975000000 4.8102000000 0.5438000000
-0.4976000000 1.6475000000 0.2959000000
-0.4979000000 1.2190000000 0.1086000000
-0.4982000000 2.1175000000 0.4996000000
-0.4983000000 2.9898000000 0.8751000000
-0.4983000000 5.3659000000 0.3006000000
-0.4987000000 1.7476000000 0.3358000000
-0.4993000000 3.4326000000 1.0675000000
-0.4995000000 2.1531000000 0.5085000000
-0.4997000000 3.3511000000 1.0305000000
-0.5000000000 3.4699000000 1.1398000000
-0.5007000000 3.0429000000 0.8950000000
-0.5010000000 2.5128000000 0.6642000000
-0.5015000000 1.3863000000 0.1821000000
-0.5017000000 4.9166000000 0.4943000000
-0.5022000000 1.7310000000 0.3282000000
-0.5047000000 2.9075000000 0.8365000000
-0.7382000000 5.5751000000 0.1073000000
-0.7402000000 1.8817000000 0.2107000000
-0.7413000000 4.2825000000 0.5870000000
-0.7428000000 4.0832000000 0.6704000000
-0.7434000000 5.9740000000 0.0027000000
-0.7436000000 4.1379000000 0.6568000000
-0.7439000000 4.8549000000 0.3378000000
-0.7442000000 4.1157000000 0.6577000000
-0.7445000000 2.3619000000 0.4153000000
-0.7447000000 2.3626000000 0.4165000000
-0.7448000000 3.8893000000 0.7567000000
-0.7450000000 5.3417000000 0.1304000000
-0.7451000000 5.2770000000 0.1542000000
-0.7452000000 3.8191000000 0.7854000000
-0.7457000000 4.8807000000 0.3219000000
-0.7458000000 2.6469000000 0.5388000000
-0.7462000000 4.6951000000 0.4059000000
-0.7464000000 4.9942000000 0.2731000000
-0.7466000000 1.2914000000 0.0271000000
-0.7468000000 4.2231000000 0.6128000000
-0.7472000000 3.5491000000 0.9606000000
-0.7474000000 1.0543000000 -0.0008000000
-0.7477000000 4.5021000000 0.4876000000
-0.7481000000 3.5970000000 0.8797000000
-0.7485000000 2.0825000000 0.2924000000
-0.7488000000 2.6481000000 0.5339000000
-0.7489000000 2.6963000000 0.5576000000
-0.7492000000 1.2561000000 0.0085000000
-0.7493000000 1.0926000000 0.0166000000
-0.7495000000 5.1807000000 0.1902000000
-0.7500000000 4.4813000000 0.4909000000
-0.7500000000 3.2866000000 0.8102000000
-0.7503000000 4.0609000000 0.6769000000
-0.7505000000 3.3936000000 0.8570000000
-0.7509000000 3.5876000000 0.8792000000
-0.7510000000 2.3192000000 0.3964000000
-0.7517000000 1.7101000000 0.1318000000
-0.7564000000 1.1655000000 0.0402000000
-0.9903000000 3.2566000000 0.6166000000
-0.9920000000 4.4241000000 0.3449000000
-0.9930000000 1.5883000000 0.0380000000
-0.9935000000 5.0937000000 0.1178000000
-0.9942000000 4.5148000000 0.2998000000
-0.9948000000 1.5837000000 0.0428000000
-0.9952000000 3.3000000000 0.6338000000
-0.9957000000 4.4441000000 0.3252000000
-0.9965000000 3.0954000000 0.5491000000
-0.9967000000 5.1206000000 0.1047000000
-0.9971000000 3.7082000000 0.6438000000
-0.9976000000 3.5619000000 0.7742000000
-0.9982000000 4.1729000000 0.4453000000
-0.9984000000 4.9197000000 0.1167000000
-0.9987000000 2.9129000000 0.4637000000
-0.9992000000 3.7122000000 0.6431000000
-0.9996000000 4.5124000000 0.2886000000
-1.0006000000 3.2775000000 0.6197000000
-1.0009000000 3.1114000000 0.5496000000
-1.0022000000 2.0609000000 0.0940000000
-1.0027000000 4.4337000000 0.3267000000
-1.0045000000 1.6828000000 0.0026000000
-1.0075000000 4.9879000000 0.0848000000
-1.2392000000 3.1382000000 0.3800000000
-1.2410000000 3.2515000000 0.4292000000
-1.2427000000 3.7071000000 0.4658000000
-1.2430000000 3.3292000000 0.4613000000
-1.2432000000 2.6097000000 0.1559000000
-1.2434000000 4.1836000000 0.2542000000
-1.2440000000 2.9340000000 0.2896000000
-1.2447000000 2.6264000000 0.1593000000
-1.2450000000 5.0290000000 0.0354000000
-1.2460000000 2.3579000000 0.1105000000
-1.2472000000 4.8787000000 0.0204000000
-1.2474000000 4.8031000000 0.0562000000
-1.2477000000 4.0109000000 0.3280000000
-1.2480000000 3.0050000000 0.3200000000
-1.2482000000 4.8054000000 0.0576000000
-1.2484000000 4.8778000000 0.0284000000
-1.2486000000 4.7362000000 0.0816000000
-1.2487000000 5.0023000000 0.0467000000
-1.2492000000 2.7992000000 0.2295000000
-1.2496000000 3.6359000000 0.4896000000
-1.2505000000 3.5286000000 0.5973000000
-1.2512000000 2.8175000000 0.2383000000
-1.2515000000 4.9527000000 0.0650000000
-1.2534000000 4.9292000000 0.0702000000
-1.4887000000 3.5655000000 0.4052000000
-1.4908000000 3.6855000000 0.2873000000
-1.4926000000 2.6927000000 0.0691000000
-1.4937000000 3.0821000000 0.1706000000
-1.4944000000 2.8372000000 0.0622000000
-1.4953000000 4.2046000000 0.1316000000
-1.4958000000 2.7825000000 0.1040000000
