7.2541000000 4.4019000000 0.0704000000
7.0120000000 4.2999000000 0.2265000000
7.0064000000 3.6981000000 0.0571000000
7.0058000000 4.4811000000 0.1243000000
7.0050000000 4.1387000000 0.2428000000
7.0038000000 4.2508000000 0.2540000000
7.0027000000 4.7074000000 0.0685000000
7.0021000000 4.2066000000 0.2692000000
6.9982000000 4.5593000000 0.0855000000
6.7640000000 4.1974000000 0.5042000000
6.7597000000 3.5642000000 0.1515000000
6.7581000000 4.8935000000 0.1383000000
6.7566000000 4.5789000000 0.3261000000
6.7558000000 3.2498000000 0.0492000000
6.7553000000 3.2200000000 0.0302000000
6.7543000000 3.5221000000 0.1405000000
6.7539000000 4.3786000000 0.4458000000
6.7534000000 5.3697000000 0.0097000000
6.7520000000 4.1940000000 0.5247000000
6.7510000000 3.8006000000 0.3082000000
6.7503000000 5.2214000000 0.1023000000
6.5128000000 4.1027000000 0.7304000000
6.5107000000 5.6924000000 0.0737000000
6.5090000000 3.1169000000 0.1447000000
6.5070000000 3.4669000000 0.3521000000
6.5065000000 3.4298000000 0.3339000000
6.5047000000 4.3086000000 0.7396000000
6.5036000000 2.6283000000 0.0136000000
6.5031000000 4.7343000000 0.4911000000
6.5028000000 4.6119000000 0.5672000000
6.5022000000 5.1645000000 0.2391000000
6.5005000000 4.6205000000 0.5612000000
6.2637000000 4.0946000000 0.9793000000
6.2619000000 2.2496000000 0.0377000000
6.2610000000 6.1500000000 0.0539000000
6.2605000000 5.1464000000 0.5037000000
6.2589000000 5.8360000000 0.0973000000
6.2583000000 3.4070000000 0.5736000000
6.2577000000 6.0988000000 0.0881000000
6.2569000000 6.2295000000 0.0121000000
6.2565000000 2.6936000000 0.1590000000
6.2561000000 5.4717000000 0.3125000000
6.2555000000 4.0656000000 0.9767000000
6.2550000000 6.0002000000 0.0735000000
6.2545000000 4.8813000000 0.6588000000
6.2543000000 4.4122000000 0.9381000000
6.2540000000 2.6753000000 0.1458000000
6.2525000000 3.3785000000 0.5668000000
6.2521000000 5.4004000000 0.3550000000
6.2515000000 5.3618000000 0.3796000000
6.2506000000 2.5253000000 0.0624000000
6.2484000000 2.5025000000 0.1253000000
6.0106000000 6.2902000000 0.0770000000
6.0095000000 3.2673000000 0.7496000000
6.0081000000 4.9555000000 0.8674000000
6.0078000000 4.5729000000 1.0923000000
6.0071000000 4.8025000000 0.9581000000
6.0068000000 3.0600000000 0.6204000000
6.0068000000 4.8518000000 0.9320000000
6.0064000000 4.4433000000 1.1727000000
6.0062000000 4.0735000000 1.2320000000
6.0056000000 3.8545000000 1.1047000000
6.0051000000 4.4912000000 1.1441000000
6.0043000000 1.9333000000 0.0359000000
6.0038000000 2.4561000000 0.2709000000
6.0033000000 5.7449000000 0.4083000000
6.0028000000 2.6435000000 0.3856000000
6.0023000000 5.5217000000 0.5453000000
6.0016000000 6.4080000000 0.0851000000
6.0015000000 2.9186000000 0.5471000000
6.0013000000 4.3928000000 1.2132000000
6.0009000000 4.9060000000 0.9022000000
6.0006000000 2.4906000000 0.2955000000
5.9988000000 4.4774000000 1.1600000000
5.7633000000 3.1040000000 0.9009000000
5.7606000000 6.6402000000 0.1298000000
5.7598000000 7.0324000000 0.0378000000
5.7593000000 1.3468000000 0.0152000000
5.7589000000 5.0093000000 1.0928000000
5.7583000000 1.6661000000 0.1403000000
5.7577000000 4.2193000000 1.5438000000
5.7576000000 3.8249000000 1.3379000000
5.7573000000 4.2019000000 1.5390000000
5.7570000000 7.0274000000 0.0553000000
5.7568000000 5.8430000000 0.6052000000
5.7564000000 5.7560000000 0.6531000000
5.7562000000 4.0110000000 1.4452000000
5.7558000000 4.8721000000 1.1697000000
5.7555000000 4.0900000000 1.4866000000
5.7551000000 4.2954000000 1.5168000000
5.7545000000 3.6955000000 1.2634000000
5.7543000000 1.6220000000 0.1086000000
5.7538000000 2.4087000000 0.5015000000
5.7535000000 4.1471000000 1.5254000000
5.7531000000 2.8538000000 0.7668000000
5.7523000000 3.0477000000 0.8848000000
5.7519000000 2.4168000000 0.5082000000
5.7515000000 3.1827000000 0.9598000000
5.7511000000 1.4442000000 0.0822000000
5.7507000000 4.5961000000 1.3414000000
5.7497000000 4.0929000000 1.5060000000
5.7485000000 5.0120000000 1.0989000000
5.7476000000 3.6509000000 1.2407000000
5.5133000000 6.3407000000 0.5567000000
5.5130000000 7.4677000000 0.0327000000
5.5118000000 5.1277000000 1.2827000000
5.5116000000 6.5058000000 0.4621000000
5.5106000000 2.3390000000 0.7077000000
5.5095000000 6.3937000000 0.5273000000
5.5091000000 2.9963000000 1.1002000000
5.5089000000 4.1756000000 1.7796000000
5.5083000000 6.0488000000 0.7390000000
5.5080000000 2.8858000000 1.0368000000
5.5072000000 1.9032000000 0.4528000000
5.5067000000 1.0408000000 0.1016000000
5.5066000000 1.9465000000 0.4795000000
5.5063000000 3.4113000000 1.3493000000
5.5060000000 5.5734000000 1.0209000000
5.5058000000 5.6943000000 0.9530000000
5.5054000000 4.5848000000 1.5993000000
5.5050000000 1.8190000000 0.4057000000
5.5047000000 2.1179000000 0.5888000000
5.5045000000 5.5816000000 1.0213000000
5.5043000000 1.0148000000 0.0879000000
5.5039000000 4.6999000000 1.5383000000
5.5037000000 7.1150000000 0.1051000000
5.5033000000 2.1695000000 0.6209000000
5.5031000000 3.4574000000 1.3757000000
5.5029000000 2.1434000000 0.6035000000
5.5021000000 1.4934000000 0.2139000000
5.5011000000 1.7105000000 0.3471000000
5.4995000000 1.6442000000 0.3125000000
5.4971000000 6.8635000000 0.2668000000
5.2629000000 7.1626000000 0.3375000000
5.2605000000 6.5572000000 0.6866000000
5.2600000000 1.4562000000 0.4459000000
5.2595000000 7.0257000000 0.4111000000
5.2586000000 0.8626000000 0.0934000000
5.2582000000 6.6620000000 0.6291000000
5.2576000000 5.9048000000 1.0750000000
5.2575000000 4.6100000000 1.8422000000
5.2574000000 4.3434000000 1.9955000000
5.2568000000 4.3481000000 1.9940000000
5.2565000000 1.8565000000 0.6888000000
5.2562000000 4.9741000000 1.6260000000
5.2555000000 6.3641000000 0.8109000000
5.2553000000 7.7139000000 0.0794000000
5.2552000000 3.1677000000 1.4603000000
5.2550000000 1.2435000000 0.3272000000
5.2547000000 1.9723000000 0.7507000000
5.2546000000 7.6757000000 0.1061000000
5.2544000000 3.0496000000 1.3894000000
5.2542000000 5.3087000000 1.4267000000
5.2537000000 3.8012000000 1.8382000000
5.2535000000 2.3712000000 0.9901000000
5.2534000000 7.3427000000 0.2242000000
5.2533000000 6.6432000000 0.6461000000
5.2530000000 1.4864000000 0.4758000000
5.2526000000 7.8937000000 0.0538000000
5.2525000000 5.8601000000 1.1124000000
5.2523000000 1.4958000000 0.4730000000
5.2520000000 3.9396000000 1.9211000000
5.2518000000 2.7349000000 1.2067000000
5.2514000000 1.0430000000 0.2099000000
5.2510000000 5.7575000000 1.1747000000
5.2508000000 0.8772000000 0.1119000000
5.2503000000 1.4757000000 0.4613000000
5.2494000000 2.0658000000 0.8220000000
5.2489000000 3.0619000000 1.4038000000
5.2480000000 6.6179000000 0.6636000000
5.2474000000 3.5860000000 1.7160000000
5.0145000000 7.9282000000 0.1261000000
5.0115000000 4.6080000000 2.1005000000
5.0101000000 5.1185000000 1.7938000000
5.0097000000 3.2000000000 1.7363000000
5.0094000000 6.5730000000 0.9374000000
5.0087000000 4.1148000000 2.2754000000
5.0080000000 4.8125000000 1.9793000000
5.0080000000 4.3635000000 2.2490000000
5.0077000000 7.3862000000 0.4573000000
5.0074000000 1.8823000000 0.9563000000
5.0071000000 7.6989000000 0.2756000000
5.0069000000 5.8911000000 1.3371000000
5.0067000000 6.1792000000 1.1725000000
5.0066000000 6.7112000000 0.8594000000
5.0064000000 5.0776000000 1.8262000000
5.0062000000 7.0579000000 0.6501000000
5.0058000000 3.6851000000 2.0266000000
5.0057000000 4.9281000000 1.9138000000
5.0053000000 4.2417000000 2.2968000000
5.0050000000 1.1441000000 0.5199000000
5.0047000000 4.9760000000 1.8865000000
5.0043000000 3.4827000000 1.9030000000
5.0040000000 5.8810000000 1.3561000000
5.0036000000 4.9750000000 1.8887000000
5.0032000000 3.4319000000 1.8797000000
5.0029000000 0.7599000000 0.3036000000
5.0024000000 0.2657000000 0.0808000000
5.0021000000 0.8452000000 0.3478000000
5.0016000000 4.1432000000 2.3002000000
5.0014000000 0.0241000000 0.0107000000
5.0011000000 0.9696000000 0.4257000000
5.0008000000 2.7320000000 1.4631000000
4.9999000000 3.2688000000 1.7852000000
4.9985000000 1.3292000000 0.6381000000
4.9979000000 3.4813000000 1.9159000000
4.7669000000 8.0432000000 0.3157000000
4.7624000000 3.0801000000 1.9121000000
4.7600000000 4.3112000000 2.5284000000
4.7593000000 2.3063000000 1.4694000000
4.7590000000 8.3839000000 0.1075000000
4.7587000000 7.0467000000 0.9160000000
4.7585000000 6.6428000000 1.1510000000
4.7579000000 7.5170000000 0.6402000000
4.7576000000 7.7578000000 0.4913000000
4.7572000000 3.5818000000 2.2175000000
4.7568000000 5.7959000000 1.6591000000
4.7567000000 5.4289000000 1.8793000000
4.7564000000 7.5780000000 0.5991000000
4.7563000000 0.0449000000 0.1207000000
4.7558000000 2.7248000000 1.7088000000
4.7557000000 2.1912000000 1.3965000000
4.7554000000 7.0811000000 0.9018000000
4.7551000000 3.7082000000 2.2943000000
4.7548000000 1.7944000000 1.1677000000
4.7545000000 3.2549000000 2.0272000000
4.7544000000 0.0401000000 0.1173000000
4.7543000000 4.9424000000 2.1549000000
4.7540000000 6.8385000000 1.0455000000
4.7538000000 3.7833000000 2.3424000000
4.7535000000 1.9782000000 1.2714000000
4.7531000000 8.1215000000 0.2785000000
4.7526000000 5.0442000000 2.0992000000
4.7524000000 1.2547000000 0.8484000000
4.7521000000 4.9465000000 2.1554000000
4.7519000000 2.9794000000 1.8641000000
4.7516000000 3.2231000000 2.0130000000
4.7512000000 1.5495000000 1.0186000000
4.7508000000 1.3103000000 0.8833000000
4.7505000000 0.7815000000 0.5675000000
4.7500000000 0.8659000000 0.6235000000
4.7496000000 5.6868000000 1.7238000000
4.7490000000 2.0850000000 1.3410000000
4.7485000000 4.3197000000 2.5338000000
4.7480000000 1.8604000000 1.2125000000
4.5162000000 5.4522000000 2.0976000000
4.5114000000 5.3567000000 2.1659000000
4.5105000000 1.0813000000 0.9901000000
4.5102000000 7.1174000000 1.1260000000
4.5099000000 8.2898000000 0.1519000000
4.5090000000 5.9219000000 1.8340000000
4.5085000000 2.3994000000 1.7795000000
4.5082000000 0.5778000000 0.6663000000
4.5079000000 6.4749000000 1.5043000000
4.5076000000 5.0376000000 2.3628000000
4.5074000000 7.7077000000 0.7633000000
4.5072000000 3.3326000000 2.3242000000
4.5070000000 3.4295000000 2.3865000000
4.5068000000 8.0805000000 0.3978000000
4.5066000000 8.2817000000 0.1595000000
4.5064000000 7.8302000000 0.6706000000
4.5062000000 1.0066000000 0.9563000000
4.5060000000 5.7408000000 1.9433000000
4.5058000000 6.4445000000 1.5300000000
4.5055000000 6.2453000000 1.6446000000
4.5053000000 5.2777000000 2.2256000000
4.5050000000 1.8775000000 1.4708000000
4.5048000000 4.4227000000 2.7287000000
4.5045000000 8.1120000000 0.3556000000
4.5043000000 0.3414000000 0.3919000000
4.5041000000 4.8950000000 2.4461000000
4.5039000000 1.2492000000 1.0947000000
4.5037000000 0.1097000000 0.1248000000
4.5035000000 3.3760000000 2.3530000000
4.5033000000 4.0314000000 2.7452000000
4.5030000000 3.1342000000 2.2142000000
4.5028000000 0.7338000000 0.7898000000
4.5025000000 0.2569000000 0.2923000000
4.5023000000 2.5389000000 1.8627000000
4.5020000000 2.5990000000 1.8963000000
4.5015000000 8.4100000000 0.0810000000
4.5012000000 1.9656000000 1.5212000000
4.5008000000 3.4191000000 2.3854000000
4.5005000000 3.7532000000 2.5855000000
4.4997000000 0.1850000000 0.2126000000
4.4990000000 2.0187000000 1.5587000000
4.4985000000 1.7062000000 1.3765000000
4.4981000000 3.6208000000 2.5066000000
4.4955000000 0.4317000000 0.5027000000
4.2630000000 6.2442000000 1.8938000000
4.2621000000 0.8330000000 0.9781000000
4.2614000000 3.8505000000 2.8839000000
4.2601000000 1.1703000000 1.3022000000
4.2595000000 5.1800000000 2.5250000000
4.2589000000 8.2697000000 0.1820000000
4.2585000000 6.4912000000 1.7535000000
4.2583000000 6.1209000000 1.9735000000
4.2581000000 7.3771000000 1.2113000000
4.2579000000 8.2950000000 0.1517000000
4.2575000000 2.4718000000 2.0718000000
4.2573000000 6.0048000000 2.0437000000
4.2570000000 0.2029000000 0.2272000000
4.2567000000 2.1258000000 1.8762000000
4.2565000000 6.5514000000 1.7182000000
4.2563000000 7.6579000000 0.8998000000
4.2561000000 5.5621000000 2.3104000000
4.2558000000 7.8668000000 0.6469000000
4.2556000000 0.0866000000 0.0970000000
4.2555000000 6.7054000000 1.6326000000
4.2552000000 2.6961000000 2.2132000000
4.2550000000 0.3402000000 0.3917000000
4.2549000000 3.5309000000 2.7052000000
4.2546000000 4.5908000000 2.8820000000
4.2544000000 2.4903000000 2.0913000000
4.2542000000 1.1221000000 1.2548000000
4.2539000000 5.5268000000 2.3291000000
4.2536000000 1.3408000000 1.4091000000
4.2534000000 1.8915000000 1.7397000000
4.2531000000 5.7424000000 2.2058000000
4.2525000000 4.9086000000 2.6958000000
4.2523000000 1.6119000000 1.5695000000
4.2521000000 5.1736000000 2.5414000000
4.2517000000 6.2036000000 1.9335000000
4.2513000000 3.0407000000 2.4136000000
4.2512000000 5.2253000000 2.5036000000
4.2508000000 7.0215000000 1.4503000000
4.2505000000 4.1350000000 3.0635000000
4.2503000000 7.8680000000 0.6465000000
4.2499000000 2.9796000000 2.3886000000
4.2494000000 1.0840000000 1.2386000000
4.2483000000 0.2593000000 0.2964000000
4.2479000000 0.4548000000 0.5361000000
4.2466000000 1.1224000000 1.2670000000
4.0138000000 7.5917000000 0.9747000000
4.0117000000 5.9603000000 2.3222000000
4.0110000000 8.4714000000 0.0073000000
4.0108000000 0.4768000000 0.5545000000
4.0098000000 4.2101000000 3.3390000000
4.0094000000 5.6450000000 2.5088000000
4.0086000000 8.1890000000 0.2722000000
4.0083000000 7.4145000000 1.1836000000
4.0081000000 7.8774000000 0.6335000000
4.0080000000 7.3121000000 1.3063000000
4.0073000000 7.8507000000 0.6657000000
4.0070000000 4.0174000000 3.2503000000
4.0068000000 6.6168000000 1.9383000000
4.0065000000 7.2727000000 1.3496000000
4.0063000000 0.9725000000 1.1392000000
4.0058000000 4.3768000000 3.2632000000
4.0054000000 5.4320000000 2.6416000000
4.0053000000 1.2569000000 1.4803000000
4.0051000000 3.5333000000 2.9654000000
4.0047000000 4.4733000000 3.2052000000
4.0045000000 0.3687000000 0.4300000000
4.0043000000 3.1679000000 2.7441000000
4.0041000000 4.4017000000 3.2504000000
4.0039000000 4.7717000000 3.0302000000
4.0037000000 2.9933000000 2.6433000000
4.0035000000 0.4949000000 0.5725000000
4.0034000000 6.2766000000 2.1450000000
4.0032000000 4.4025000000 3.2495000000
4.0030000000 4.3796000000 3.2624000000
4.0028000000 0.6294000000 0.7358000000
4.0024000000 0.2943000000 0.3387000000
4.0022000000 2.5934000000 2.4069000000
4.0019000000 5.0475000000 2.8697000000
4.0013000000 0.6123000000 0.7184000000
4.0009000000 5.3443000000 2.6971000000
4.0002000000 1.6859000000 1.8753000000
4.0000000000 2.2000000000 2.1792000000
3.9991000000 3.8479000000 3.1532000000
3.9973000000 1.8404000000 1.9632000000
3.7638000000 6.7990000000 1.9108000000
3.7608000000 4.1844000000 3.5780000000
3.7602000000 6.6269000000 2.1160000000
3.7593000000 8.4392000000 0.0507000000
3.7586000000 2.8971000000 2.8369000000
3.7583000000 6.2041000000 2.4390000000
3.7582000000 6.6870000000 2.0425000000
3.7577000000 4.6443000000 3.3587000000
3.7571000000 3.3972000000 3.1369000000
3.7570000000 7.4966000000 1.0865000000
3.7565000000 6.2746000000 2.3942000000
3.7563000000 6.7190000000 2.0113000000
3.7559000000 1.7624000000 2.0783000000
3.7558000000 2.6479000000 2.6850000000
3.7557000000 7.6699000000 0.8835000000
3.7555000000 8.2772000000 0.1651000000
3.7553000000 6.2526000000 2.4048000000
3.7551000000 3.9515000000 3.4643000000
3.7550000000 2.5554000000 2.6332000000
3.7549000000 1.5502000000 1.8236000000
3.7547000000 6.4113000000 2.2972000000
3.7545000000 3.6438000000 3.2828000000
3.7543000000 6.1130000000 2.4944000000
3.7540000000 3.4819000000 3.1888000000
3.7537000000 0.2403000000 0.2676000000
3.7534000000 2.5080000000 2.6122000000
3.7531000000 3.1131000000 2.9679000000
3.7528000000 6.7477000000 1.9723000000
3.7527000000 0.1676000000 0.1870000000
3.7524000000 3.5764000000 3.2481000000
3.7522000000 5.1805000000 3.0468000000
3.7517000000 1.0057000000 1.1839000000
3.7515000000 2.9948000000 2.9001000000
3.7512000000 4.2384000000 3.5813000000
3.7508000000 0.8805000000 1.0350000000
3.7505000000 3.4055000000 3.1410000000
3.7502000000 0.2886000000 0.3363000000
3.7499000000 0.3787000000 0.4403000000
3.7496000000 1.8089000000 2.1236000000
3.7493000000 4.3190000000 3.5571000000
3.7475000000 1.7296000000 2.0296000000
3.5146000000 7.7837000000 0.7522000000
3.5122000000 8.0879000000 0.3929000000
3.5110000000 6.2535000000 2.5619000000
3.5101000000 4.8886000000 3.4656000000
3.5093000000 6.6950000000 2.0366000000
3.5088000000 4.7963000000 3.5234000000
3.5084000000 1.0542000000 1.2424000000
3.5080000000 7.5441000000 1.0367000000
3.5077000000 4.9023000000 3.4618000000
3.5073000000 5.0847000000 3.3574000000
3.5072000000 4.2967000000 3.8250000000
3.5069000000 6.6966000000 2.0386000000
3.5067000000 0.4616000000 0.5416000000
3.5064000000 1.9770000000 2.3295000000
3.5063000000 1.6928000000 1.9919000000
3.5061000000 6.2870000000 2.5166000000
3.5058000000 3.9923000000 3.7382000000
3.5055000000 0.7374000000 0.8608000000
3.5054000000 0.7791000000 0.9149000000
3.5053000000 2.8555000000 3.0705000000
3.5049000000 6.4977000000 2.2684000000
3.5047000000 8.4768000000 0.0069000000
3.5045000000 0.9070000000 1.0712000000
3.5043000000 1.9930000000 2.3466000000
3.5042000000 1.4576000000 1.7203000000
3.5038000000 0.4031000000 0.4659000000
3.5036000000 3.7956000000 3.6315000000
3.5031000000 6.2831000000 2.5281000000
3.5028000000 1.2530000000 1.4729000000
3.5026000000 4.1354000000 3.8303000000
3.5022000000 1.1881000000 1.3992000000
3.5019000000 6.4778000000 2.2946000000
3.5017000000 2.9088000000 3.1059000000
3.5013000000 4.0715000000 3.7940000000
3.5012000000 2.2373000000 2.6408000000
3.5010000000 5.7568000000 2.9668000000
3.5006000000 4.9171000000 3.4616000000
3.5002000000 1.9766000000 2.3217000000
3.4997000000 3.8681000000 3.6842000000
3.4993000000 2.7751000000 3.0274000000
3.4987000000 1.1619000000 1.3676000000
3.4980000000 3.9448000000 3.7226000000
3.4955000000 1.5400000000 1.8099000000
3.2642000000 8.2535000000 0.1936000000
3.2630000000 7.5898000000 0.9801000000
3.2608000000 7.7292000000 0.8096000000
3.2600000000 6.6740000000 2.0627000000
3.2595000000 7.8550000000 0.6632000000
3.2591000000 3.5108000000 3.7144000000
3.2587000000 4.8810000000 3.7319000000
3.2583000000 7.3724000000 1.2354000000
3.2580000000 0.9542000000 1.1177000000
3.2578000000 5.1603000000 3.5651000000
3.2575000000 7.1959000000 1.4427000000
3.2573000000 7.0240000000 1.6537000000
3.2571000000 3.4496000000 3.6798000000
3.2568000000 8.2326000000 0.2171000000
3.2565000000 5.3174000000 3.4789000000
3.2563000000 3.0801000000 3.4606000000
3.2560000000 3.2762000000 3.5742000000
3.2556000000 4.4371000000 4.0020000000
3.2554000000 1.9334000000 2.2771000000
3.2553000000 7.0664000000 1.5995000000
3.2549000000 3.0817000000 3.4635000000
3.2546000000 3.9320000000 3.9645000000
3.2538000000 3.2950000000 3.5911000000
3.2535000000 0.2720000000 0.3167000000
3.2532000000 4.1744000000 4.0953000000
3.2530000000 0.6294000000 0.7353000000
3.2526000000 2.8466000000 3.2994000000
3.2523000000 6.7589000000 1.9610000000
3.2520000000 7.4827000000 1.1084000000
3.2518000000 2.1691000000 2.5561000000
3.2514000000 4.6318000000 3.8828000000
3.2508000000 3.3774000000 3.6404000000
3.2506000000 1.5993000000 1.8867000000
3.2500000000 4.5330000000 3.9478000000
3.2493000000 1.7701000000 2.0888000000
3.2490000000 5.0878000000 3.6172000000
3.2479000000 0.0395000000 0.1146000000
3.2460000000 2.0735000000 2.4471000000
3.0123000000 7.6563000000 0.8984000000
3.0114000000 4.1992000000 4.3535000000
3.0107000000 8.2057000000 0.2505000000
3.0102000000 0.5770000000 0.6762000000
3.0093000000 2.8432000000 3.3536000000
3.0090000000 3.9574000000 4.2291000000
3.0087000000 4.0972000000 4.3147000000
3.0082000000 1.1531000000 1.3580000000
3.0079000000 0.8888000000 1.0467000000
3.0077000000 7.7691000000 0.7699000000
3.0075000000 6.3636000000 2.4289000000
3.0072000000 4.4314000000 4.2519000000
3.0069000000 2.5588000000 3.0133000000
3.0065000000 3.9990000000 4.2612000000
3.0063000000 2.2073000000 2.6086000000
3.0062000000 3.8595000000 4.1738000000
3.0060000000 4.7641000000 4.0566000000
3.0058000000 2.5026000000 2.9520000000
3.0057000000 7.5761000000 0.9955000000
3.0055000000 6.5137000000 2.2514000000
3.0052000000 4.4742000000 4.2348000000
3.0051000000 4.5026000000 4.2120000000
3.0049000000 5.1977000000 3.7876000000
3.0047000000 3.6970000000 4.0850000000
3.0044000000 4.0856000000 4.3083000000
3.0040000000 3.5310000000 3.9849000000
3.0038000000 4.9350000000 3.9553000000
3.0036000000 3.8155000000 4.1497000000
3.0034000000 4.6743000000 4.1193000000
3.0033000000 5.1285000000 3.8302000000
3.0029000000 3.8718000000 4.1902000000
3.0026000000 8.1676000000 0.2951000000
3.0024000000 4.0771000000 4.3036000000
3.0021000000 4.4428000000 4.2547000000
3.0016000000 4.5806000000 4.1715000000
3.0013000000 0.4741000000 0.5433000000
3.0010000000 5.8160000000 3.0775000000
3.0009000000 2.1685000000 2.5570000000
3.0004000000 0.5493000000 0.6431000000
3.0001000000 0.4842000000 0.5681000000
2.9997000000 2.6606000000 3.1361000000
2.9991000000 6.9085000000 1.7888000000
2.9988000000 2.6914000000 3.1754000000
2.9984000000 1.6734000000 1.9691000000
2.9980000000 2.4030000000 2.8342000000
2.9967000000 0.5290000000 0.6173000000
2.7636000000 7.2756000000 1.3543000000
2.7625000000 7.0796000000 1.5842000000
2.7618000000 4.1536000000 4.5969000000
2.7601000000 3.1368000000 3.6979000000
2.7598000000 6.1844000000 2.6411000000
2.7594000000 7.0230000000 1.6497000000
2.7587000000 5.9075000000 2.9690000000
2.7584000000 8.1425000000 0.3234000000
2.7582000000 7.4455000000 1.1539000000
2.7578000000 4.3205000000 4.5772000000
2.7575000000 0.9062000000 1.0661000000
2.7571000000 2.0817000000 2.4541000000
2.7568000000 8.1392000000 0.3317000000
2.7567000000 2.8403000000 3.3446000000
2.7565000000 4.3088000000 4.5837000000
2.7562000000 3.2265000000 3.8033000000
2.7558000000 3.2422000000 3.8308000000
2.7555000000 3.8474000000 4.4240000000
2.7550000000 8.1393000000 0.3279000000
2.7548000000 1.4887000000 1.7510000000
2.7547000000 5.6993000000 3.2120000000
2.7544000000 4.0133000000 4.5215000000
2.7541000000 5.6106000000 3.3206000000
2.7538000000 5.2005000000 3.8073000000
2.7535000000 7.4082000000 1.1961000000
2.7533000000 4.8940000000 4.1737000000
2.7530000000 2.7437000000 3.2369000000
2.7527000000 6.9164000000 1.7765000000
2.7526000000 6.9955000000 1.6803000000
2.7523000000 5.8183000000 3.0765000000
2.7520000000 2.5097000000 2.9611000000
2.7519000000 4.2763000000 4.6146000000
2.7515000000 5.9435000000 2.9285000000
2.7510000000 1.6121000000 1.8986000000
2.7506000000 3.6219000000 4.2591000000
2.7500000000 4.0711000000 4.5695000000
2.7495000000 3.3811000000 3.9956000000
2.7491000000 0.1902000000 0.2106000000
2.7487000000 1.0104000000 1.1909000000
2.7478000000 0.2575000000 0.3011000000
2.7461000000 3.5635000000 4.1937000000
2.5180000000 8.4574000000 0.0985000000
2.5112000000 3.7383000000 4.4081000000
2.5108000000 7.7394000000 0.8020000000
2.5103000000 0.7346000000 0.8589000000
2.5098000000 3.7157000000 4.3887000000
2.5096000000 5.3404000000 3.6411000000
2.5088000000 7.4678000000 1.1248000000
2.5084000000 1.7516000000 2.0586000000
2.5082000000 0.6412000000 0.7475000000
2.5078000000 0.3636000000 0.4175000000
2.5073000000 7.5595000000 1.0160000000
2.5070000000 4.9653000000 4.0827000000
2.5067000000 3.2588000000 3.8474000000
2.5066000000 5.3886000000 3.5872000000
2.5062000000 1.7080000000 2.0149000000
2.5058000000 0.6355000000 0.7426000000
2.5055000000 5.0151000000 4.0254000000
2.5053000000 7.2580000000 1.3739000000
2.5049000000 1.4333000000 1.6890000000
2.5047000000 3.7668000000 4.4444000000
2.5044000000 3.7064000000 4.3781000000
2.5040000000 3.1267000000 3.6877000000
2.5038000000 5.7491000000 3.1538000000
2.5036000000 5.9872000000 2.8737000000
2.5033000000 2.3111000000 2.7215000000
2.5030000000 7.4660000000 1.1294000000
2.5028000000 0.5384000000 0.6270000000
2.5026000000 7.5792000000 0.9952000000
2.5025000000 0.5127000000 0.5979000000
2.5020000000 4.5220000000 4.6097000000
2.5018000000 1.0023000000 1.1754000000
2.5015000000 2.3492000000 2.7677000000
2.5011000000 6.2932000000 2.5163000000
2.5008000000 3.8993000000 4.6038000000
2.5005000000 2.8767000000 3.3995000000
2.5001000000 6.7845000000 1.9347000000
2.4998000000 4.1116000000 4.8157000000
2.4990000000 3.1592000000 3.7296000000
2.4984000000 2.1532000000 2.5398000000
2.4974000000 3.2972000000 3.8890000000
2.2638000000 8.4190000000 0.0721000000
2.2621000000 8.4810000000 0.0689000000
2.2613000000 1.8902000000 2.2309000000
2.2600000000 7.2453000000 1.3860000000
2.2595000000 3.1436000000 3.7140000000
2.2590000000 6.9346000000 1.7576000000
2.2584000000 1.2413000000 1.4591000000
2.2582000000 4.5314000000 4.5784000000
2.2579000000 3.9453000000 4.6204000000
2.2578000000 5.9275000000 2.9439000000
2.2574000000 7.9434000000 0.5668000000
2.2570000000 6.1113000000 2.7287000000
2.2566000000 6.9579000000 1.7271000000
2.2563000000 7.2434000000 1.3901000000
2.2560000000 5.1609000000 3.8543000000
2.2558000000 3.0045000000 3.5436000000
2.2556000000 2.2152000000 2.6140000000
2.2553000000 6.5620000000 2.1984000000
2.2553000000 6.4773000000 2.2940000000
2.2550000000 0.0471000000 0.1223000000
2.2546000000 4.9158000000 4.1446000000
2.2544000000 2.7224000000 3.2127000000
2.2540000000 6.9511000000 1.7307000000
2.2539000000 7.6391000000 0.9196000000
2.2538000000 3.7176000000 4.3885000000
2.2536000000 4.1203000000 4.7350000000
2.2531000000 6.2002000000 2.6231000000
2.2530000000 6.0496000000 2.8022000000
2.2527000000 8.3535000000 0.0800000000
2.2523000000 5.2852000000 3.7047000000
2.2521000000 5.6922000000 3.2244000000
2.2518000000 5.7491000000 3.1590000000
2.2517000000 4.9894000000 4.0570000000
2.2510000000 1.7925000000 2.1143000000
2.2508000000 3.4750000000 4.1034000000
2.2506000000 3.7970000000 4.4737000000
2.2502000000 4.5894000000 4.5054000000
2.2498000000 2.1078000000 2.4877000000
2.2493000000 0.6587000000 0.7708000000
2.2487000000 4.3819000000 4.6833000000
2.2479000000 1.2334000000 1.4505000000
2.2470000000 0.0946000000 0.1054000000
2.2438000000 0.3462000000 0.3987000000
2.2423000000 1.2635000000 1.4891000000
2.0131000000 5.7615000000 3.1464000000
2.0113000000 7.1358000000 1.5164000000
2.0110000000 7.7510000000 0.7899000000
2.0097000000 0.9519000000 1.1203000000
2.0096000000 7.7400000000 0.7985000000
2.0090000000 6.7850000000 1.9324000000
2.0087000000 5.7570000000 3.1472000000
2.0085000000 6.3261000000 2.4794000000
2.0079000000 8.4289000000 0.0648000000
2.0077000000 2.8415000000 3.3515000000
2.0073000000 1.5464000000 1.8228000000
2.0070000000 7.2244000000 1.4181000000
2.0066000000 5.6637000000 3.2610000000
2.0062000000 0.7697000000 0.9004000000
2.0059000000 6.5321000000 2.2276000000
2.0055000000 2.4547000000 2.8957000000
2.0053000000 7.3158000000 1.3026000000
2.0052000000 6.2557000000 2.5573000000
2.0050000000 8.1023000000 0.3776000000
2.0048000000 1.9633000000 2.3175000000
2.0045000000 1.7671000000 2.0791000000
2.0041000000 6.3274000000 2.4701000000
2.0038000000 1.8985000000 2.2410000000
2.0036000000 4.2759000000 4.4980000000
2.0034000000 0.8300000000 0.9735000000
2.0033000000 0.3826000000 0.4467000000
2.0031000000 4.2963000000 4.4873000000
2.0027000000 3.1574000000 3.7264000000
2.0026000000 0.3081000000 0.3565000000
2.0023000000 4.5807000000 4.3157000000
2.0018000000 3.2876000000 3.8885000000
2.0012000000 0.4213000000 0.4935000000
2.0010000000 1.0832000000 1.2680000000
2.0009000000 7.6339000000 0.9264000000
2.0004000000 0.7846000000 0.9188000000
2.0000000000 5.1715000000 3.8383000000
1.9993000000 2.2987000000 2.7097000000
1.9989000000 0.6000000000 0.7012000000
1.9987000000 0.6970000000 0.8177000000
1.9976000000 0.4263000000 0.4994000000
1.9953000000 4.1163000000 4.4674000000
1.7639000000 5.3060000000 3.6235000000
1.7629000000 8.3451000000 0.0861000000
1.7603000000 0.6869000000 0.8075000000
1.7594000000 1.8105000000 2.1345000000
1.7588000000 5.0482000000 3.7879000000
1.7583000000 0.4689000000 0.5458000000
1.7580000000 6.8993000000 1.7973000000
1.7577000000 4.9709000000 3.8383000000
1.7573000000 7.6064000000 0.9592000000
1.7571000000 2.6691000000 3.1516000000
1.7568000000 0.8956000000 1.0508000000
1.7567000000 6.8596000000 1.8466000000
1.7563000000 5.2250000000 3.6844000000
1.7560000000 1.0355000000 1.2145000000
1.7558000000 8.0237000000 0.4686000000
1.7556000000 5.5436000000 3.3983000000
1.7555000000 8.2995000000 0.1384000000
1.7552000000 2.0402000000 2.3998000000
1.7550000000 1.0233000000 1.1958000000
1.7547000000 8.0431000000 0.4479000000
1.7542000000 3.5889000000 3.9189000000
1.7540000000 7.5629000000 1.0163000000
1.7538000000 5.4103000000 3.5466000000
1.7533000000 3.4108000000 3.8110000000
1.7533000000 0.5726000000 0.6646000000
1.7528000000 6.9877000000 1.6885000000
1.7527000000 2.7080000000 3.1949000000
1.7525000000 2.7402000000 3.2367000000
1.7521000000 4.1347000000 4.2332000000
1.7518000000 3.7754000000 4.0217000000
1.7512000000 1.6785000000 1.9747000000
1.7509000000 1.2309000000 1.4526000000
1.7506000000 3.4853000000 3.8494000000
1.7506000000 7.4263000000 1.1690000000
1.7501000000 7.7346000000 0.8097000000
1.7499000000 0.5793000000 0.6780000000
1.7495000000 7.7257000000 0.8180000000
1.7487000000 0.2988000000 0.3494000000
1.7473000000 4.4189000000 4.1467000000
1.5150000000 6.6081000000 2.1393000000
1.5116000000 7.2764000000 1.3505000000
1.5110000000 7.6289000000 0.9329000000
1.5108000000 7.3753000000 1.2339000000
1.5104000000 1.5039000000 1.7724000000
1.5096000000 8.3679000000 0.1321000000
1.5092000000 1.9981000000 2.3559000000
1.5086000000 4.3577000000 3.9379000000
1.5080000000 8.4288000000 0.0632000000
1.5075000000 2.5181000000 2.9571000000
1.5071000000 3.8729000000 3.8240000000
1.5069000000 7.6607000000 0.8945000000
1.5066000000 6.5428000000 2.2213000000
1.5065000000 6.9140000000 1.7774000000
1.5062000000 6.8381000000 1.8667000000
1.5061000000 1.7836000000 2.1075000000
1.5059000000 2.3027000000 2.7214000000
1.5058000000 6.7550000000 1.9672000000
1.5055000000 3.9701000000 3.8770000000
1.5052000000 2.9798000000 3.2969000000
1.5050000000 0.6603000000 0.7679000000
1.5048000000 3.4887000000 3.5977000000
1.5047000000 0.9092000000 1.0698000000
1.5042000000 7.8677000000 0.6523000000
1.5041000000 7.1295000000 1.5297000000
1.5038000000 1.5067000000 1.7736000000
1.5033000000 2.0595000000 2.4312000000
1.5031000000 4.7407000000 3.7139000000
1.5031000000 1.4988000000 1.7682000000
1.5028000000 2.0439000000 2.4096000000
1.5023000000 1.0637000000 1.2516000000
1.5022000000 3.1569000000 3.3923000000
1.5020000000 2.1360000000 2.5198000000
1.5017000000 0.5052000000 0.5903000000
1.5014000000 1.4608000000 1.7151000000
1.5007000000 1.8738000000 2.2081000000
1.5002000000 2.2385000000 2.6371000000
1.4999000000 0.9589000000 1.1283000000
1.4995000000 2.7865000000 3.1773000000
1.4977000000 4.4823000000 3.8573000000
1.4953000000 0.3755000000 0.4293000000
1.2650000000 7.2742000000 1.3528000000
1.2639000000 5.6504000000 2.9287000000
1.2618000000 8.1385000000 0.3315000000
1.2601000000 3.9900000000 3.6463000000
1.2596000000 1.5635000000 1.8424000000
1.2587000000 2.1771000000 2.5503000000
1.2585000000 0.6518000000 0.7609000000
1.2579000000 3.2166000000 3.1784000000
1.2577000000 5.0293000000 3.2883000000
1.2571000000 0.5849000000 0.6849000000
1.2570000000 3.1386000000 3.1364000000
1.2567000000 7.6076000000 0.9579000000
1.2565000000 7.6726000000 0.8820000000
1.2562000000 0.1621000000 0.1818000000
1.2559000000 3.2727000000 3.2146000000
1.2554000000 5.6392000000 2.9259000000
1.2550000000 5.7185000000 2.8759000000
1.2550000000 1.2400000000 1.4598000000
1.2547000000 4.7499000000 3.4528000000
1.2545000000 7.5087000000 1.0780000000
1.2543000000 8.0817000000 0.3969000000
1.2541000000 4.4110000000 3.6479000000
1.2539000000 3.4358000000 3.3127000000
1.2537000000 3.8720000000 3.5644000000
1.2535000000 4.2300000000 3.7429000000
1.2533000000 4.6009000000 3.5355000000
1.2531000000 7.7300000000 0.8184000000
1.2529000000 5.7529000000 2.8612000000
1.2528000000 8.0013000000 0.4968000000
1.2526000000 0.0190000000 0.0884000000
1.2524000000 0.9168000000 1.0782000000
1.2522000000 1.5408000000 1.8094000000
1.2520000000 6.3624000000 2.4231000000
1.2517000000 0.5029000000 0.5883000000
1.2514000000 0.3069000000 0.3565000000
1.2510000000 1.8048000000 2.1284000000
1.2505000000 8.1619000000 0.3029000000
1.2501000000 1.5364000000 1.8108000000
1.2495000000 0.6367000000 0.7433000000
1.2489000000 5.4941000000 3.0069000000
1.2473000000 4.3005000000 3.7072000000
1.2460000000 4.2239000000 3.7345000000
1.2453000000 2.8862000000 2.9764000000
1.0118000000 7.8327000000 0.6948000000
1.0105000000 7.8568000000 0.6632000000
1.0097000000 4.2564000000 3.4784000000
1.0093000000 5.4708000000 2.7752000000
1.0088000000 7.2670000000 1.3565000000
1.0083000000 6.6303000000 2.0667000000
1.0080000000 4.4322000000 3.3820000000
1.0076000000 6.2953000000 2.2836000000
1.0074000000 8.0709000000 0.4094000000
1.0071000000 4.4695000000 3.3597000000
1.0069000000 7.9308000000 0.5767000000
1.0067000000 4.4681000000 3.3636000000
1.0065000000 8.3482000000 0.0875000000
1.0063000000 5.9084000000 2.5140000000
1.0059000000 3.6213000000 3.1647000000
1.0055000000 2.4781000000 2.4845000000
1.0053000000 8.3350000000 0.0965000000
1.0050000000 0.3063000000 0.3489000000
1.0047000000 6.1318000000 2.3755000000
1.0044000000 4.6493000000 3.2528000000
1.0043000000 0.6567000000 0.7729000000
1.0040000000 0.3954000000 0.4602000000
1.0039000000 1.6658000000 1.9454000000
1.0036000000 2.2846000000 2.3720000000
1.0033000000 5.7480000000 2.6055000000
1.0032000000 1.3930000000 1.6365000000
1.0029000000 7.6330000000 0.9310000000
1.0028000000 4.8866000000 3.1100000000
1.0025000000 8.3453000000 0.0857000000
1.0023000000 2.5788000000 2.5426000000
1.0021000000 2.4586000000 2.4707000000
1.0017000000 0.5846000000 0.6843000000
1.0013000000 1.4971000000 1.7643000000
1.0009000000 1.4314000000 1.6879000000
1.0001000000 6.0842000000 2.3992000000
0.9998000000 6.3710000000 2.2215000000
0.9997000000 6.2858000000 2.2814000000
0.9995000000 0.0671000000 0.0737000000
0.9966000000 2.3205000000 2.3887000000
0.9948000000 1.6980000000 1.9758000000
0.7608000000 6.0513000000 2.1744000000
0.7600000000 1.9246000000 1.9096000000
0.7591000000 4.9861000000 2.8086000000
0.7588000000 4.9441000000 2.8243000000
0.7586000000 7.1128000000 1.5247000000
0.7582000000 6.5586000000 1.8750000000
0.7580000000 3.3224000000 2.7289000000
0.7572000000 3.8560000000 3.0476000000
0.7567000000 8.1585000000 0.3087000000
0.7566000000 2.8914000000 2.4776000000
0.7564000000 7.4178000000 1.1805000000
0.7562000000 5.9861000000 2.2091000000
0.7559000000 6.1561000000 2.1058000000
0.7558000000 8.0744000000 0.4082000000
0.7555000000 2.0767000000 1.9945000000
0.7550000000 4.0034000000 3.1336000000
0.7548000000 2.8971000000 2.4787000000
0.7547000000 3.9962000000 3.1262000000
0.7544000000 6.9492000000 1.6369000000
0.7543000000 2.5270000000 2.2565000000
0.7540000000 1.3471000000 1.5396000000
0.7537000000 2.0859000000 2.0005000000
0.7535000000 7.1653000000 1.4597000000
0.7533000000 2.1781000000 2.0482000000
0.7529000000 2.6533000000 2.3336000000
0.7527000000 5.4368000000 2.5286000000
0.7524000000 3.4299000000 2.7898000000
0.7523000000 4.5925000000 3.0303000000
0.7521000000 2.0197000000 1.9565000000
0.7515000000 3.2664000000 2.6948000000
0.7514000000 7.2840000000 1.3387000000
0.7508000000 6.7246000000 1.7683000000
0.7503000000 2.0437000000 1.9687000000
0.7498000000 2.4923000000 2.2391000000
0.7496000000 5.2687000000 2.6258000000
0.7494000000 3.3274000000 2.7259000000
0.7490000000 5.6204000000 2.4150000000
0.7486000000 0.8152000000 0.9578000000
0.7479000000 1.5990000000 1.6971000000
0.7472000000 0.9366000000 1.1004000000
0.5127000000 5.1222000000 2.4741000000
0.5124000000 7.0190000000 1.3500000000
0.5116000000 6.2367000000 1.8113000000
0.5103000000 5.8032000000 2.0618000000
0.5099000000 5.8389000000 2.0438000000
0.5093000000 7.6299000000 0.9127000000
0.5088000000 5.6587000000 2.1528000000
0.5084000000 8.2683000000 0.1790000000
0.5079000000 7.3836000000 1.1305000000
0.5072000000 7.0811000000 1.3055000000
0.5069000000 5.7427000000 2.0987000000
0.5066000000 4.1974000000 2.9789000000
0.5063000000 5.6166000000 2.1693000000
0.5058000000 3.9363000000 2.8388000000
0.5057000000 6.1915000000 1.8302000000
0.5053000000 5.8617000000 2.0291000000
0.5052000000 4.6548000000 2.7391000000
0.5051000000 1.4287000000 1.3545000000
0.5047000000 2.8597000000 2.2042000000
0.5046000000 3.3597000000 2.4951000000
0.5044000000 6.5953000000 1.5911000000
0.5043000000 4.1732000000 2.9582000000
0.5040000000 4.0463000000 2.9011000000
0.5039000000 5.1175000000 2.4629000000
0.5036000000 6.5464000000 1.6197000000
0.5033000000 6.7714000000 1.4800000000
0.5030000000 2.2452000000 1.8285000000
0.5028000000 4.1758000000 2.9558000000
0.5025000000 1.0154000000 1.1039000000
0.5022000000 2.8845000000 2.2134000000
0.5019000000 1.8527000000 1.5986000000
0.5016000000 5.6674000000 2.1357000000
0.5014000000 6.4294000000 1.6835000000
0.5008000000 3.2278000000 2.4106000000
0.5004000000 1.7379000000 1.5298000000
0.4994000000 0.5697000000 0.6637000000
0.4991000000 1.3443000000 1.2973000000
0.4985000000 6.8885000000 1.4165000000
0.4975000000 3.6774000000 2.6777000000
0.2628000000 7.8153000000 0.6157000000
0.2614000000 6.3047000000 1.5080000000
0.2608000000 6.1601000000 1.6029000000
0.2593000000 7.7029000000 0.6886000000
0.2584000000 5.3355000000 2.0816000000
0.2580000000 1.7919000000 1.3140000000
0.2577000000 6.4432000000 1.4292000000
0.2575000000 5.7053000000 1.8620000000
0.2572000000 1.5343000000 1.1645000000
0.2568000000 8.1296000000 0.3415000000
0.2566000000 4.0362000000 2.6425000000
0.2563000000 3.9503000000 2.5916000000
0.2559000000 4.6937000000 2.4564000000
0.2557000000 5.0838000000 2.2304000000
0.2555000000 7.6227000000 0.7315000000
0.2554000000 5.7792000000 1.8183000000
0.2552000000 7.0159000000 1.0888000000
0.2550000000 2.9562000000 2.0012000000
0.2547000000 2.7309000000 1.8669000000
0.2543000000 6.5153000000 1.3873000000
0.2540000000 1.6320000000 1.2163000000
0.2539000000 3.9977000000 2.6151000000
0.2537000000 7.7227000000 0.6678000000
0.2533000000 7.4328000000 0.8332000000
0.2532000000 2.9038000000 1.9677000000
0.2529000000 2.0720000000 1.4743000000
0.2526000000 7.4611000000 0.8245000000
0.2525000000 2.9047000000 1.9708000000
0.2521000000 5.5727000000 1.9403000000
0.2517000000 2.6706000000 1.8295000000
0.2516000000 1.2934000000 1.0123000000
0.2510000000 0.0275000000 0.0942000000
0.2502000000 3.2359000000 2.1559000000
0.2499000000 5.7212000000 1.8471000000
0.2493000000 4.0194000000 2.6243000000
0.2488000000 4.4568000000 2.5924000000
0.2480000000 1.6485000000 1.2185000000
0.2474000000 4.3052000000 2.6831000000
0.0151000000 4.6414000000 2.2465000000
0.0104000000 7.3357000000 0.6449000000
0.0094000000 6.7088000000 1.0129000000
0.0085000000 6.1071000000 1.3708000000
0.0082000000 8.4241000000 0.0501000000
0.0078000000 6.1536000000 1.3418000000
0.0075000000 7.2641000000 0.6919000000
0.0073000000 6.5856000000 1.0882000000
0.0067000000 7.1017000000 0.7803000000
0.0062000000 6.7385000000 0.9882000000
0.0060000000 8.4358000000 0.0278000000
0.0058000000 3.1757000000 1.8692000000
0.0055000000 7.1897000000 0.7246000000
0.0053000000 0.3811000000 0.2235000000
0.0048000000 1.0529000000 0.6193000000
0.0047000000 6.6488000000 1.0484000000
0.0043000000 8.1312000000 0.1708000000
0.0041000000 3.4304000000 2.0277000000
0.0040000000 6.2310000000 1.2963000000
0.0035000000 3.0555000000 1.7991000000
0.0031000000 3.8360000000 2.2635000000
0.0028000000 2.9726000000 1.7540000000
0.0026000000 0.3177000000 0.1823000000
0.0022000000 4.6825000000 2.2056000000
0.0020000000 1.9565000000 1.1538000000
0.0018000000 0.2664000000 0.1543000000
0.0013000000 4.8695000000 2.0943000000
0.0008000000 5.5606000000 1.6889000000
0.0002000000 1.2054000000 0.7048000000
-0.0002000000 6.6962000000 1.0083000000
-0.0008000000 0.6303000000 0.3667000000
-0.0011000000 8.3969000000 0.0701000000
-0.0019000000 1.2814000000 0.7443000000
-0.0027000000 3.0366000000 1.7821000000
-0.0037000000 0.8308000000 0.4828000000
-0.0080000000 0.6516000000 0.3693000000
-0.2392000000 4.6776000000 1.9612000000
-0.2404000000 6.5257000000 0.8723000000
-0.2414000000 0.4659000000 0.0928000000
-0.2417000000 3.6163000000 1.8844000000
-0.2418000000 6.0192000000 1.1666000000
-0.2422000000 6.2582000000 1.0252000000
-0.2427000000 7.1623000000 0.4812000000
-0.2430000000 6.4319000000 0.9221000000
-0.2432000000 5.8182000000 1.2807000000
-0.2434000000 3.9486000000 2.0773000000
-0.2437000000 4.6663000000 1.9699000000
-0.2440000000 4.0144000000 2.1178000000
-0.2441000000 0.4942000000 0.1053000000
-0.2442000000 3.5590000000 1.8489000000
-0.2445000000 0.7822000000 0.2054000000
-0.2447000000 6.5769000000 0.8337000000
-0.2450000000 0.9167000000 0.2828000000
-0.2455000000 4.3057000000 2.1786000000
-0.2459000000 7.4217000000 0.3319000000
-0.2461000000 7.1394000000 0.5006000000
-0.2463000000 5.8147000000 1.2813000000
-0.2466000000 0.7619000000 0.1909000000
-0.2468000000 7.9372000000 0.1056000000
-0.2470000000 6.4615000000 0.8968000000
-0.2473000000 1.6600000000 0.7208000000
-0.2475000000 0.5953000000 0.0920000000
-0.2478000000 5.5605000000 1.4273000000
-0.2472000000 4.9779000000 1.7748000000
-0.2481000000 1.1417000000 0.4088000000
-0.2482000000 1.2308000000 0.4643000000
-0.2483000000 7.2742000000 0.4137000000
-0.2485000000 1.6674000000 0.7243000000
-0.2491000000 0.2703000000 0.0436000000
-0.2510000000 1.3009000000 0.4987000000
-0.2513000000 3.6001000000 1.8615000000
-0.2521000000 3.9152000000 2.0519000000
-0.2525000000 3.0199000000 1.5186000000
-0.2527000000 1.2613000000 0.4729000000
-0.2542000000 2.6820000000 1.3148000000
-0.2568000000 4.0147000000 2.1001000000
-0.4881000000 3.0492000000 1.2969000000
-0.4896000000 7.3676000000 0.1173000000
-0.4905000000 3.5766000000 1.6103000000
-0.4907000000 3.1991000000 1.3834000000
-0.4911000000 6.0157000000 0.9081000000
-0.4916000000 5.9612000000 0.9432000000
-0.4920000000 7.6151000000 0.0435000000
-0.4922000000 4.6762000000 1.7104000000
-0.4925000000 0.7290000000 0.0690000000
-0.4929000000 6.8866000000 0.3947000000
-0.4935000000 3.7808000000 1.7239000000
-0.4935000000 6.4865000000 0.6354000000
-0.4937000000 4.6286000000 1.7338000000
-0.4942000000 6.6984000000 0.5086000000
-0.4944000000 1.6551000000 0.4677000000
-0.4946000000 5.1782000000 1.4086000000
-0.4947000000 4.5262000000 1.7901000000
-0.4950000000 4.0122000000 1.8579000000
-0.4953000000 6.1011000000 0.8564000000
-0.4954000000 1.2376000000 0.2137000000
-0.4956000000 2.3492000000 0.8710000000
-0.4959000000 6.4134000000 0.6791000000
-0.4961000000 3.7335000000 1.6886000000
-0.4964000000 7.6131000000 0.0355000000
-0.4967000000 2.0898000000 0.7190000000
-0.4970000000 1.2892000000 0.2456000000
-0.4972000000 7.0472000000 0.2956000000
-0.4978000000 4.0446000000 1.8744000000
-0.4979000000 7.5421000000 0.0755000000
-0.4985000000 1.5664000000 0.4101000000
-0.4987000000 6.5300000000 0.5950000000
-0.4992000000 7.3875000000 0.0982000000
-0.4994000000 3.7050000000 1.6744000000
-0.4996000000 5.4056000000 1.2656000000
-0.5001000000 2.8897000000 1.1795000000
-0.5004000000 2.7730000000 1.1187000000
-0.5006000000 1.5068000000 0.3712000000
-0.5013000000 2.9121000000 1.1999000000
-0.5023000000 0.7088000000 0.0468000000
-0.5048000000 1.7422000000 0.5054000000
-0.7372000000 6.0741000000 0.6246000000
-0.7400000000 5.1710000000 1.1576000000
-0.7406000000 2.8457000000 0.9136000000
-0.7415000000 3.2051000000 1.1258000000
-0.7417000000 5.2681000000 1.1010000000
-0.7424000000 7.2020000000 0.1036000000
-0.7430000000 4.8059000000 1.3657000000
-0.7432000000 5.3708000000 1.0321000000
-0.7438000000 1.1473000000 0.0574000000
-0.7441000000 2.4993000000 0.7083000000
-0.7445000000 5.5968000000 0.9004000000
-0.7446000000 4.5820000000 1.5026000000
-0.7447000000 4.4801000000 1.5618000000
-0.7450000000 3.6942000000 1.4162000000
-0.7453000000 6.2517000000 0.5106000000
-0.7455000000 3.3913000000 1.2371000000
-0.7457000000 1.3994000000 0.1284000000
-0.7459000000 1.7452000000 0.2583000000
-0.7469000000 6.2870000000 0.4870000000
-0.7471000000 5.8123000000 0.7686000000
-0.7474000000 1.5518000000 0.1457000000
-0.7477000000 2.1010000000 0.4676000000
-0.7480000000 6.0992000000 0.5992000000
-0.7485000000 5.2355000000 1.1100000000
-0.7490000000 3.0616000000 1.0285000000
-0.7493000000 2.8201000000 0.8924000000
-0.7500000000 7.2657000000 0.0590000000
-0.7505000000 1.9925000000 0.4093000000
-0.7515000000 1.2935000000 0.0637000000
-0.7528000000 2.5058000000 0.7068000000
-0.9905000000 2.3966000000 0.3925000000
-0.9912000000 2.9953000000 0.7499000000
-0.9920000000 2.3902000000 0.3881000000
-0.9930000000 2.8765000000 0.6748000000
-0.9937000000 5.8971000000 0.4640000000
-0.9941000000 6.1699000000 0.3065000000
-0.9949000000 5.6435000000 0.6150000000
-0.9950000000 4.4258000000 1.3362000000
-0.9954000000 6.6245000000 0.1126000000
-0.9957000000 3.6421000000 1.1237000000
-0.9962000000 3.2282000000 0.8787000000
-0.9966000000 6.2110000000 0.2806000000
-0.9968000000 2.3731000000 0.3733000000
-0.9970000000 5.0073000000 0.9928000000
-0.9975000000 4.1402000000 1.4198000000
-0.9976000000 2.9014000000 0.6870000000
-0.9979000000 5.7393000000 0.5567000000
-0.9980000000 2.8829000000 0.6766000000
-0.9985000000 4.1877000000 1.4261000000
-0.9989000000 4.2743000000 1.4188000000
-0.9992000000 2.6519000000 0.5371000000
-0.9995000000 6.4381000000 0.1449000000
-1.0001000000 6.3542000000 0.1943000000
-1.0012000000 3.4946000000 1.0328000000
-1.0022000000 2.3517000000 0.3546000000
-1.0027000000 3.2781000000 0.9027000000
-1.2395000000 5.8262000000 0.2627000000
-1.2416000000 6.4185000000 0.0504000000
-1.2422000000 4.5115000000 1.0266000000
-1.2425000000 2.1393000000 0.0670000000
-1.2431000000 5.3736000000 0.5225000000
-1.2440000000 2.7791000000 0.3592000000
-1.2443000000 6.2058000000 0.1018000000
-1.2444000000 2.0280000000 0.0679000000
-1.2449000000 6.0044000000 0.1461000000
-1.2453000000 3.4532000000 0.7560000000
-1.2458000000 3.2682000000 0.6490000000
-1.2463000000 2.4161000000 0.1448000000
-1.2470000000 3.9647000000 1.0638000000
-1.2473000000 5.7412000000 0.3004000000
-1.2478000000 3.8212000000 0.9781000000
-1.2482000000 2.5425000000 0.2160000000
-1.2486000000 5.2104000000 0.6187000000
-1.2490000000 3.6514000000 0.8729000000
-1.2492000000 1.9927000000 0.0400000000
-1.2496000000 5.1106000000 0.6765000000
-1.2503000000 3.9705000000 1.0635000000
-1.2516000000 3.1203000000 0.5522000000
-1.2525000000 4.4409000000 1.0587000000
-1.2537000000 3.7240000000 0.9152000000
-1.4902000000 2.4351000000 0.0617000000
-1.4911000000 4.4313000000 0.8215000000
-1.4927000000 3.2613000000 0.3887000000
-1.4933000000 2.8949000000 0.1751000000
-1.4938000000 5.4941000000 0.1971000000
-1.4944000000 5.9499000000 0.0736000000
-1.4950000000 2.9264000000 0.1936000000
-1.4954000000 3.6666000000 0.6246000000
-1.4957000000 2.7929000000 0.1126000000
-1.4961000000 2.5585000000 0.0466000000
-1.4969000000 3.0488000000 0.2611000000
-1.4976000000 3.2067000000 0.3592000000
-1.4986000000 2.4820000000 0.0757000000
-1.4993000000 2.3969000000 0.0213000000
-1.5004000000 2.9633000000 0.2107000000
-1.5009000000 2.7374000000 0.0689000000
-1.5026000000 4.5290000000 0.7567000000
-1.5060000000 3.9221000000 0.7697000000
-1.7396000000 4.6721000000 0.4266000000
-1.7418000000 5.5403000000 0.0639000000
-1.7436000000 5.0997000000 0.1771000000
-1.7439000000 4.5095000000 0.5240000000
-1.7445000000 4.8365000000 0.3278000000
-1.7456000000 3.3191000000 0.1663000000
-1.7459000000 3.3358000000 0.1764000000
-1.7467000000 3.3575000000 0.1890000000
-1.7469000000 4.3856000000 0.5881000000
-1.7478000000 3.0907000000 0.1046000000
-1.7487000000 4.4675000000 0.5389000000
-1.7497000000 4.3593000000 0.6017000000
-1.7502000000 4.8789000000 0.2935000000
-1.7508000000 4.1972000000 0.6606000000
-1.7525000000 5.1120000000 0.1569000000
-1.7540000000 5.3256000000 0.1036000000
-1.9909000000 5.2127000000 -0.0042000000
-1.9920000000 4.0693000000 0.3571000000
-1.9932000000 4.8806000000 0.1262000000
-1.9937000000 3.6431000000 0.1065000000
-1.9944000000 4.4749000000 0.2816000000
-1.9955000000 3.5474000000 0.1206000000
-1.9957000000 4.5637000000 0.2305000000
-1.9968000000 4.5737000000 0.2242000000
-1.9986000000 3.4105000000 0.0382000000
