5.2570000000 3.5074000000 0.6114000000
5.2569000000 3.9310000000 0.5930000000
5.2565000000 2.7184000000 0.3383000000
5.2560000000 1.8947000000 0.0583000000
5.2557000000 3.8963000000 0.5973000000
5.2554000000 5.0673000000 0.1955000000
5.2553000000 1.6756000000 0.0562000000
5.2552000000 2.0305000000 0.1097000000
5.2550000000 2.3935000000 0.2247000000
5.2544000000 3.0260000000 0.4485000000
5.2541000000 3.4255000000 0.5782000000
5.2536000000 2.7236000000 0.3458000000
5.2532000000 2.4325000000 0.2497000000
5.2525000000 2.6416000000 0.3189000000
5.2523000000 5.3996000000 0.0878000000
5.2521000000 2.2395000000 0.1852000000
5.2519000000 4.0145000000 0.5601000000
5.2516000000 2.9101000000 0.4094000000
5.2508000000 1.9053000000 0.0645000000
5.2505000000 5.1294000000 0.1779000000
5.2501000000 4.9969000000 0.2237000000
5.2489000000 2.7025000000 0.3345000000
5.2470000000 3.8324000000 0.6237000000
5.2453000000 2.1149000000 0.1433000000
5.0113000000 6.1549000000 0.0482000000
5.0098000000 5.6713000000 0.1386000000
5.0096000000 3.8309000000 0.7637000000
5.0091000000 4.0320000000 0.6989000000
5.0088000000 5.8333000000 0.0827000000
5.0086000000 4.3100000000 0.6048000000
5.0079000000 3.4245000000 0.7238000000
5.0078000000 6.0681000000 0.0862000000
5.0075000000 2.3645000000 0.3675000000
5.0073000000 4.6187000000 0.4980000000
5.0072000000 5.1461000000 0.3161000000
5.0067000000 6.1077000000 0.0652000000
5.0066000000 3.3857000000 0.7145000000
5.0064000000 1.9929000000 0.2409000000
5.0062000000 2.0200000000 0.2504000000
5.0060000000 5.6142000000 0.1616000000
5.0059000000 5.5084000000 0.1946000000
5.0058000000 3.0961000000 0.6186000000
5.0055000000 5.2049000000 0.2926000000
5.0053000000 3.1174000000 0.6202000000
5.0051000000 1.8992000000 0.2069000000
5.0049000000 1.4654000000 0.0609000000
5.0047000000 1.1623000000 0.0320000000
5.0044000000 3.1338000000 0.6290000000
5.0036000000 2.8261000000 0.5196000000
5.0033000000 1.3290000000 0.0138000000
5.0029000000 3.9148000000 0.7436000000
5.0025000000 5.1880000000 0.3041000000
5.0023000000 4.6479000000 0.4867000000
5.0023000000 5.4602000000 0.2143000000
5.0017000000 2.2986000000 0.3524000000
5.0015000000 3.3098000000 0.6844000000
5.0013000000 2.8211000000 0.5245000000
5.0010000000 2.9990000000 0.5824000000
5.0005000000 3.7594000000 0.7928000000
5.0000000000 2.7352000000 0.4940000000
4.9996000000 5.9817000000 0.0357000000
4.9990000000 2.8638000000 0.5378000000
4.9978000000 2.6284000000 0.4578000000
4.9966000000 1.1408000000 0.0345000000
4.9956000000 1.8786000000 0.2089000000
4.7632000000 6.6317000000 0.0302000000
4.7611000000 6.0145000000 0.1700000000
4.7604000000 4.4786000000 0.6913000000
4.7593000000 1.6098000000 0.2492000000
4.7590000000 6.0348000000 0.1615000000
4.7588000000 6.6881000000 0.0128000000
4.7585000000 2.2439000000 0.4710000000
4.7583000000 2.6114000000 0.5960000000
4.7581000000 2.2340000000 0.4705000000
4.7580000000 5.0453000000 0.4958000000
4.7575000000 6.5767000000 0.0493000000
4.7574000000 5.1360000000 0.4636000000
4.7570000000 6.6333000000 0.0317000000
4.7568000000 3.5346000000 0.9129000000
4.7566000000 3.7698000000 0.9321000000
4.7568000000 2.1693000000 0.4487000000
4.7563000000 5.8025000000 0.2424000000
4.7563000000 2.8260000000 0.6745000000
4.7558000000 2.8670000000 0.6900000000
4.7555000000 0.6612000000 0.0112000000
4.7551000000 1.6278000000 0.2636000000
4.7550000000 1.3908000000 0.1797000000
4.7549000000 4.4035000000 0.7201000000
4.7548000000 0.9189000000 0.0205000000
4.7545000000 5.0281000000 0.5112000000
4.7544000000 5.4667000000 0.3554000000
4.7540000000 5.8091000000 0.2395000000
4.7538000000 4.7440000000 0.6091000000
4.7535000000 2.4023000000 0.5326000000
4.7533000000 4.9741000000 0.5295000000
4.7532000000 2.3952000000 0.5300000000
4.7530000000 1.2292000000 0.1269000000
4.7530000000 1.3878000000 0.1783000000
4.7526000000 6.1267000000 0.1350000000
4.7524000000 4.7880000000 0.5872000000
4.7520000000 3.3980000000 0.8682000000
4.7518000000 3.7987000000 0.9330000000
4.7515000000 3.2835000000 0.8270000000
4.7513000000 1.6514000000 0.2751000000
4.7511000000 1.6663000000 0.2824000000
4.7509000000 6.6371000000 0.0365000000
4.7505000000 1.5001000000 0.2209000000
4.7498000000 2.4219000000 0.5340000000
4.7485000000 1.0756000000 0.0835000000
4.7480000000 4.2468000000 0.7800000000
4.7478000000 2.0642000000 0.4157000000
4.7453000000 1.7885000000 0.3222000000
4.5142000000 4.5152000000 0.8186000000
4.5123000000 6.4932000000 0.1524000000
4.5111000000 7.1443000000 0.0055000000
4.5106000000 3.2111000000 0.9519000000
4.5101000000 1.9296000000 0.5098000000
4.5098000000 5.8749000000 0.3681000000
4.5095000000 7.1326000000 0.0127000000
4.5092000000 6.9513000000 0.0723000000
4.5083000000 7.1171000000 0.0176000000
4.5079000000 7.0236000000 0.0479000000
4.5073000000 3.2947000000 0.9801000000
4.5071000000 7.1362000000 0.0081000000
4.5068000000 2.6838000000 0.7779000000
4.5065000000 1.5349000000 0.3814000000
4.5064000000 2.3095000000 0.6417000000
4.5063000000 6.5966000000 0.1257000000
4.5061000000 5.4489000000 0.5132000000
4.5060000000 0.4133000000 0.0700000000
4.5060000000 3.3115000000 0.9854000000
4.5057000000 7.0790000000 0.0317000000
4.5056000000 5.0472000000 0.6473000000
4.5055000000 6.5171000000 0.1467000000
4.5053000000 4.9563000000 0.6812000000
4.5052000000 2.5616000000 0.7302000000
4.5050000000 0.6284000000 0.0723000000
4.5049000000 1.8814000000 0.4953000000
4.5048000000 1.2692000000 0.2916000000
4.5045000000 3.5122000000 1.0538000000
4.5045000000 1.1869000000 0.2668000000
4.5042000000 2.8914000000 0.8376000000
4.5040000000 0.7881000000 0.1255000000
4.5038000000 2.4989000000 0.7074000000
4.5036000000 5.2126000000 0.5946000000
4.5035000000 6.8369000000 0.0436000000
4.5034000000 2.5815000000 0.7310000000
4.5032000000 3.4197000000 1.0241000000
4.5030000000 5.5533000000 0.4732000000
4.5029000000 4.1827000000 0.9448000000
4.5026000000 1.8337000000 0.4822000000
4.5025000000 1.5827000000 0.3978000000
4.5024000000 0.5593000000 0.0505000000
4.5024000000 6.1357000000 0.2827000000
4.5022000000 0.4433000000 0.0144000000
4.5019000000 5.2600000000 0.5739000000
4.5018000000 2.1396000000 0.5873000000
4.5017000000 7.0572000000 0.0400000000
4.5015000000 5.4785000000 0.5064000000
4.5013000000 0.4183000000 0.0748000000
4.5012000000 6.0692000000 0.3013000000
4.5010000000 3.1840000000 0.9434000000
4.5008000000 5.7829000000 0.4001000000
4.5006000000 6.5192000000 0.1490000000
4.5004000000 2.4991000000 0.7089000000
4.5000000000 5.0276000000 0.6572000000
4.4993000000 1.0076000000 0.2058000000
4.4991000000 0.5467000000 0.0466000000
4.4990000000 3.6075000000 1.0907000000
4.4975000000 2.5228000000 0.7186000000
4.4970000000 2.9433000000 0.8632000000
4.4968000000 5.2674000000 0.5751000000
4.2637000000 6.6655000000 0.2378000000
4.2619000000 6.5974000000 0.2635000000
4.2614000000 4.6803000000 0.9217000000
4.2602000000 7.1287000000 0.0795000000
4.2592000000 1.6018000000 0.5483000000
4.2590000000 1.4741000000 0.5058000000
4.2588000000 4.7596000000 0.8876000000
4.2587000000 6.1641000000 0.4102000000
4.2585000000 1.0995000000 0.3794000000
4.2583000000 6.0762000000 0.4440000000
4.2579000000 4.2622000000 1.0602000000
4.2578000000 0.7276000000 0.2528000000
4.2577000000 3.9708000000 1.1639000000
4.2575000000 5.7549000000 0.5470000000
4.2570000000 3.4807000000 1.1863000000
4.2566000000 6.9179000000 0.1587000000
4.2563000000 2.0645000000 0.7078000000
4.2562000000 5.8587000000 0.5177000000
4.2560000000 1.5235000000 0.5202000000
4.2558000000 6.8984000000 0.1631000000
4.2558000000 6.2742000000 0.3783000000
4.2554000000 6.1584000000 0.4169000000
4.2551000000 6.4984000000 0.3015000000
4.2550000000 3.9435000000 1.1728000000
4.2548000000 3.4190000000 1.1685000000
4.2548000000 2.3488000000 0.8002000000
4.2546000000 4.2475000000 1.0693000000
4.2543000000 4.8941000000 0.8465000000
4.2543000000 1.5968000000 0.5415000000
4.2542000000 2.6754000000 0.9092000000
4.2540000000 5.1736000000 0.7522000000
4.2540000000 5.0339000000 0.7993000000
4.2538000000 4.7131000000 0.9138000000
4.2538000000 0.3669000000 0.1312000000
4.2535000000 6.8146000000 0.1989000000
4.2533000000 4.3924000000 1.0164000000
4.2531000000 3.4918000000 1.2003000000
4.2529000000 2.1334000000 0.7276000000
4.2525000000 3.2522000000 1.1128000000
4.2523000000 4.1892000000 1.0894000000
4.2525000000 0.0700000000 0.0206000000
4.2522000000 3.0910000000 1.0583000000
4.2518000000 6.6922000000 0.2363000000
4.2515000000 1.6699000000 0.5763000000
4.2513000000 1.7486000000 0.6016000000
4.2510000000 4.7162000000 0.9146000000
4.2508000000 0.3350000000 0.1220000000
4.2505000000 1.4485000000 0.4994000000
4.2501000000 2.8032000000 0.9605000000
4.2499000000 5.8004000000 0.5448000000
4.2495000000 3.3652000000 1.1528000000
4.2493000000 6.2668000000 0.3850000000
4.2492000000 2.9521000000 1.0137000000
4.2473000000 3.6690000000 1.2459000000
4.2418000000 3.7553000000 1.2425000000
4.0122000000 4.8245000000 1.0183000000
4.0108000000 6.1935000000 0.5502000000
4.0103000000 4.6750000000 1.0588000000
4.0099000000 3.8632000000 1.3453000000
4.0088000000 6.5094000000 0.4387000000
4.0085000000 6.7676000000 0.3496000000
4.0083000000 3.6572000000 1.3792000000
4.0081000000 5.2712000000 0.8634000000
4.0080000000 1.8609000000 0.7907000000
4.0076000000 6.2582000000 0.5341000000
4.0074000000 3.5041000000 1.3460000000
4.0073000000 2.2098000000 0.9005000000
4.0069000000 4.7291000000 1.0483000000
4.0068000000 1.7405000000 0.7420000000
4.0065000000 3.2154000000 1.2416000000
4.0062000000 2.2800000000 0.9274000000
4.0061000000 3.6242000000 1.3800000000
4.0059000000 6.3898000000 0.4819000000
4.0057000000 0.9192000000 0.4696000000
4.0056000000 2.9484000000 1.1604000000
4.0053000000 6.5539000000 0.4244000000
4.0051000000 1.1416000000 0.5440000000
4.0048000000 3.2315000000 1.2505000000
4.0046000000 1.7263000000 0.7433000000
4.0044000000 3.9945000000 1.2964000000
4.0043000000 0.8644000000 0.4430000000
4.0040000000 0.6120000000 0.3589000000
4.0038000000 2.9452000000 1.1512000000
4.0037000000 4.3382000000 1.1836000000
4.0036000000 5.9912000000 0.6189000000
4.0034000000 0.7981000000 0.4191000000
4.0033000000 3.2082000000 1.2441000000
4.0031000000 1.4364000000 0.6473000000
4.0030000000 1.0404000000 0.5072000000
4.0029000000 4.4356000000 1.1512000000
4.0027000000 0.1482000000 0.1025000000
4.0023000000 2.1327000000 0.8795000000
4.0023000000 2.5645000000 1.0252000000
4.0019000000 2.8349000000 1.1205000000
4.0018000000 1.7251000000 0.7389000000
4.0016000000 0.1907000000 0.1420000000
4.0015000000 0.3759000000 0.2471000000
4.0013000000 3.9482000000 1.3268000000
4.0010000000 7.1329000000 0.1677000000
4.0009000000 0.2955000000 0.2075000000
4.0007000000 0.5865000000 0.3581000000
4.0003000000 1.1071000000 0.5308000000
3.9995000000 0.9732000000 0.4846000000
3.9993000000 1.2345000000 0.5733000000
3.9988000000 0.5168000000 0.3184000000
3.9983000000 0.9289000000 0.4695000000
3.9976000000 1.4401000000 0.6460000000
3.9964000000 1.1526000000 0.5498000000
3.7641000000 7.0817000000 0.2072000000
3.7633000000 5.2851000000 1.0017000000
3.7621000000 2.0997000000 1.0091000000
3.7603000000 3.8851000000 1.4837000000
3.7599000000 7.1672000000 0.1479000000
3.7596000000 5.6645000000 0.8780000000
3.7593000000 5.0987000000 1.0728000000
3.7581000000 4.0045000000 1.4442000000
3.7578000000 4.0680000000 1.4224000000
3.7575000000 6.3270000000 0.6502000000
3.7574000000 1.1552000000 0.6887000000
3.7571000000 3.1239000000 1.3637000000
3.7570000000 0.0084000000 0.0161000000
3.7569000000 0.5294000000 0.3662000000
3.7568000000 1.2417000000 0.7196000000
3.7567000000 6.6779000000 0.4769000000
3.7565000000 2.3620000000 1.1020000000
3.7564000000 0.5568000000 0.3864000000
3.7561000000 1.4643000000 0.7953000000
3.7559000000 7.0403000000 0.2329000000
3.7558000000 1.8320000000 0.9203000000
3.7555000000 3.0219000000 1.3201000000
3.7553000000 3.9738000000 1.4564000000
3.7553000000 5.2980000000 1.0028000000
3.7552000000 5.5771000000 0.9125000000
3.7550000000 2.4393000000 1.1329000000
3.7549000000 3.3840000000 1.4495000000
3.7548000000 3.7837000000 1.5200000000
3.7547000000 3.5048000000 1.4896000000
3.7545000000 4.2608000000 1.3591000000
3.7542000000 2.4167000000 1.1199000000
3.7540000000 0.9265000000 0.6020000000
3.7538000000 6.5628000000 0.5418000000
3.7537000000 6.7993000000 0.3972000000
3.7535000000 1.8229000000 0.9198000000
3.7533000000 3.3443000000 1.4362000000
3.7532000000 2.7475000000 1.2392000000
3.7531000000 4.1583000000 1.3962000000
3.7528000000 3.8764000000 1.4906000000
3.7526000000 1.4497000000 0.7971000000
3.7522000000 5.9465000000 0.7838000000
3.7521000000 5.5128000000 0.9313000000
3.7520000000 3.5888000000 1.5234000000
3.7519000000 2.2210000000 1.0614000000
3.7517000000 5.6668000000 0.8822000000
3.7514000000 4.7079000000 1.2107000000
3.7510000000 5.7044000000 0.8728000000
3.7509000000 7.2060000000 0.1170000000
3.7508000000 6.3351000000 0.6543000000
3.7505000000 1.1105000000 0.6790000000
3.7503000000 0.7510000000 0.5092000000
3.7500000000 5.5631000000 0.9185000000
3.7497000000 5.7965000000 0.8450000000
3.7489000000 0.9281000000 0.6069000000
3.7486000000 0.3551000000 0.2517000000
3.7474000000 6.3960000000 0.6309000000
3.7465000000 1.1664000000 0.7010000000
3.5135000000 0.2488000000 0.1754000000
3.5125000000 6.9223000000 0.3048000000
3.5116000000 5.0117000000 1.2464000000
3.5104000000 5.9775000000 0.9116000000
3.5099000000 3.0034000000 1.4613000000
3.5098000000 6.7707000000 0.4179000000
3.5095000000 5.0869000000 1.2251000000
3.5093000000 3.1373000000 1.5092000000
3.5088000000 2.3303000000 1.2394000000
3.5087000000 3.6652000000 1.6856000000
3.5084000000 5.8976000000 0.9475000000
3.5083000000 7.2211000000 0.1056000000
3.5081000000 5.1576000000 1.1939000000
3.5078000000 2.3619000000 1.2493000000
3.5075000000 6.6808000000 0.4736000000
3.5073000000 2.5153000000 1.3017000000
3.5071000000 4.7324000000 1.3417000000
3.5069000000 6.6329000000 0.5126000000
3.5065000000 5.0059000000 1.2479000000
3.5064000000 2.8119000000 1.4043000000
3.5062000000 0.8633000000 0.5860000000
3.5060000000 0.6664000000 0.4608000000
3.5060000000 7.1162000000 0.1777000000
3.5059000000 1.2464000000 0.8376000000
3.5058000000 6.8237000000 0.3759000000
3.5056000000 7.1433000000 0.1570000000
3.5053000000 4.8555000000 1.3004000000
3.5050000000 5.2320000000 1.1753000000
3.5049000000 1.2306000000 0.8313000000
3.5048000000 3.0921000000 1.4974000000
3.5046000000 5.7708000000 0.9904000000
3.5042000000 2.2951000000 1.2273000000
3.5040000000 5.2425000000 1.1730000000
3.5038000000 4.1741000000 1.5351000000
3.5035000000 1.4789000000 0.9549000000
3.5035000000 3.7811000000 1.6665000000
3.5032000000 6.6649000000 0.4862000000
3.5029000000 5.0944000000 1.2215000000
3.5024000000 0.0046000000 0.0135000000
3.5022000000 0.4549000000 0.3196000000
3.5019000000 4.8324000000 1.3115000000
3.5020000000 1.3539000000 0.8959000000
3.5016000000 1.3634000000 0.8993000000
3.5013000000 5.7111000000 1.0128000000
3.5009000000 1.0476000000 0.7197000000
3.5005000000 1.8569000000 1.0840000000
3.5004000000 0.3293000000 0.2324000000
3.4995000000 2.7194000000 1.3808000000
3.4993000000 0.4500000000 0.3107000000
3.4986000000 3.6110000000 1.6827000000
3.4984000000 5.2154000000 1.1862000000
3.4963000000 0.3980000000 0.2818000000
3.2629000000 7.2073000000 0.1162000000
3.2608000000 3.5593000000 1.8056000000
3.2603000000 5.8645000000 1.0332000000
3.2599000000 1.2406000000 0.8502000000
3.2595000000 3.0872000000 1.6431000000
3.2593000000 2.9392000000 1.5892000000
3.2588000000 6.2229000000 0.7879000000
3.2580000000 5.6923000000 1.1365000000
3.2578000000 0.8623000000 0.5904000000
3.2577000000 2.0697000000 1.2907000000
3.2573000000 5.1821000000 1.3401000000
3.2570000000 6.7500000000 0.4305000000
3.2568000000 3.9546000000 1.7545000000
3.2566000000 4.1402000000 1.6952000000
3.2562000000 4.8952000000 1.4338000000
3.2561000000 5.1973000000 1.3281000000
3.2560000000 4.1884000000 1.6783000000
3.2558000000 7.1225000000 0.1749000000
3.2557000000 3.1772000000 1.6730000000
3.2555000000 6.3511000000 0.6975000000
3.2554000000 5.6389000000 1.1655000000
3.2552000000 3.0233000000 1.6253000000
3.2551000000 5.8342000000 1.0502000000
3.2547000000 7.1021000000 0.1851000000
3.2545000000 0.9524000000 0.6601000000
3.2540000000 2.3919000000 1.4078000000
3.2538000000 1.4180000000 0.9647000000
3.2538000000 3.3080000000 1.7221000000
3.2535000000 3.9172000000 1.7682000000
3.2531000000 2.6775000000 1.5049000000
3.2530000000 6.4483000000 0.6346000000
3.2526000000 1.7661000000 1.1841000000
3.2524000000 1.2238000000 0.8426000000
3.2523000000 3.9326000000 1.7659000000
3.2522000000 0.0092000000 0.0118000000
3.2520000000 4.7487000000 1.4898000000
3.2516000000 6.7079000000 0.4543000000
3.2513000000 0.4649000000 0.3233000000
3.2510000000 2.9816000000 1.6106000000
3.2510000000 1.7990000000 1.1967000000
3.2510000000 3.0428000000 1.6317000000
3.2507000000 3.7808000000 1.8140000000
3.2505000000 0.4344000000 0.3008000000
3.2504000000 2.0484000000 1.2956000000
3.2503000000 4.6933000000 1.5022000000
3.2500000000 4.0796000000 1.7193000000
3.2489000000 1.9286000000 1.2495000000
3.2471000000 2.5571000000 1.4685000000
3.2467000000 1.9348000000 1.2583000000
3.2447000000 4.2962000000 1.6483000000
3.0119000000 7.3900000000 0.0627000000
3.0107000000 4.7304000000 1.6341000000
3.0098000000 3.0923000000 1.7942000000
3.0094000000 1.7941000000 1.2277000000
3.0093000000 3.5205000000 1.9373000000
3.0091000000 6.5725000000 0.5478000000
3.0086000000 5.7063000000 1.1367000000
3.0081000000 7.2689000000 0.0765000000
3.0077000000 7.2558000000 0.0800000000
3.0076000000 2.4858000000 1.5889000000
3.0073000000 5.9559000000 0.9696000000
3.0070000000 6.4308000000 0.6469000000
3.0069000000 5.9633000000 0.9584000000
3.0065000000 4.9887000000 1.5531000000
3.0061000000 4.9747000000 1.5565000000
3.0060000000 1.1289000000 0.7705000000
3.0058000000 4.4338000000 1.7383000000
3.0057000000 2.4883000000 1.5817000000
3.0053000000 1.4020000000 0.9595000000
3.0051000000 6.6396000000 0.5008000000
3.0050000000 6.4838000000 0.6143000000
3.0048000000 3.3796000000 1.8870000000
3.0047000000 4.4503000000 1.7365000000
3.0046000000 4.4248000000 1.7441000000
3.0043000000 3.4769000000 1.9219000000
3.0042000000 0.0989000000 0.0733000000
3.0041000000 4.6856000000 1.6568000000
3.0040000000 2.9506000000 1.7421000000
3.0039000000 1.4234000000 0.9660000000
3.0036000000 0.5581000000 0.3833000000
3.0034000000 5.7047000000 1.1404000000
3.0031000000 6.9347000000 0.2995000000
3.0029000000 1.7714000000 1.2139000000
3.0028000000 2.4806000000 1.5838000000
3.0025000000 0.2537000000 0.1756000000
3.0024000000 6.1774000000 0.8173000000
3.0023000000 2.5218000000 1.6040000000
3.0019000000 1.9071000000 1.3032000000
3.0015000000 4.3507000000 1.7739000000
3.0014000000 1.4762000000 1.0100000000
3.0013000000 7.0256000000 0.2402000000
3.0008000000 3.7800000000 1.9644000000
3.0007000000 1.6378000000 1.1190000000
3.0003000000 5.1625000000 1.4800000000
3.0002000000 1.3363000000 0.9184000000
3.0000000000 2.3927000000 1.5579000000
2.9994000000 6.6908000000 0.4733000000
2.9989000000 2.2794000000 1.5227000000
2.9980000000 1.4678000000 1.0092000000
2.9979000000 1.7023000000 1.1608000000
2.9960000000 0.0291000000 0.0281000000
2.7623000000 6.8445000000 0.3610000000
2.7620000000 4.1396000000 1.9827000000
2.7610000000 3.8154000000 2.0911000000
2.7603000000 5.6972000000 1.1420000000
2.7600000000 6.4817000000 0.6136000000
2.7595000000 6.2003000000 0.8053000000
2.7586000000 4.7616000000 1.7609000000
2.7583000000 7.3952000000 0.0691000000
2.7577000000 6.4085000000 0.6584000000
2.7575000000 5.3259000000 1.4002000000
2.7572000000 5.0864000000 1.5596000000
2.7571000000 3.8956000000 2.0729000000
2.7570000000 4.5771000000 1.8365000000
2.7566000000 0.0194000000 0.0167000000
2.7564000000 2.9780000000 1.8991000000
2.7563000000 0.1199000000 0.0886000000
2.7562000000 5.8685000000 1.0277000000
2.7560000000 6.6250000000 0.5120000000
2.7558000000 3.9205000000 2.0579000000
2.7556000000 4.9414000000 1.6587000000
2.7555000000 3.1227000000 1.9483000000
2.7554000000 6.3862000000 0.6711000000
2.7551000000 3.2321000000 1.9938000000
2.7549000000 1.4508000000 0.9957000000
2.7548000000 6.1810000000 0.8158000000
2.7547000000 6.5004000000 0.6006000000
2.7546000000 5.3957000000 1.3466000000
2.7542000000 0.9821000000 0.6700000000
2.7538000000 5.5327000000 1.2536000000
2.7537000000 4.0244000000 2.0303000000
2.7534000000 3.4395000000 2.0574000000
2.7532000000 5.4243000000 1.3309000000
2.7531000000 6.8310000000 0.3738000000
2.7528000000 6.1738000000 0.8188000000
2.7526000000 2.1047000000 1.4381000000
2.7523000000 2.8121000000 1.8459000000
2.7522000000 3.2732000000 2.0015000000
2.7520000000 0.1851000000 0.1330000000
2.7517000000 1.9251000000 1.3207000000
2.7516000000 3.1497000000 1.9622000000
2.7515000000 4.0948000000 2.0040000000
2.7514000000 2.4174000000 1.6452000000
2.7513000000 3.5071000000 2.0806000000
2.7511000000 0.5870000000 0.4059000000
2.7509000000 1.1434000000 0.7808000000
2.7507000000 0.3605000000 0.2473000000
2.7504000000 0.9180000000 0.6267000000
2.7502000000 3.0840000000 1.9392000000
2.7501000000 4.3669000000 1.9110000000
2.7495000000 3.3195000000 2.0211000000
2.7490000000 1.6841000000 1.1460000000
2.7485000000 0.6187000000 0.4292000000
2.7483000000 0.7996000000 0.5467000000
2.7480000000 3.9281000000 2.0635000000
2.7476000000 3.7297000000 2.1187000000
2.7472000000 4.1402000000 1.9904000000
2.7455000000 0.2823000000 0.2005000000
2.5121000000 5.0024000000 1.6193000000
2.5115000000 6.8333000000 0.3722000000
2.5100000000 3.4475000000 2.2021000000
2.5092000000 4.9005000000 1.6838000000
2.5090000000 1.0239000000 0.7007000000
2.5088000000 0.0866000000 0.0648000000
2.5084000000 6.8235000000 0.3763000000
2.5080000000 1.5188000000 1.0406000000
2.5077000000 6.7070000000 0.4541000000
2.5071000000 0.7912000000 0.5496000000
2.5070000000 6.7528000000 0.4265000000
2.5068000000 5.6242000000 1.1935000000
2.5067000000 5.8387000000 1.0419000000
2.5065000000 4.4535000000 1.9874000000
2.5063000000 3.1845000000 2.1158000000
2.5062000000 6.3309000000 0.7122000000
2.5060000000 4.8696000000 1.7114000000
2.5057000000 1.7751000000 1.2107000000
2.5055000000 5.3525000000 1.3799000000
2.5054000000 4.2239000000 2.1049000000
2.5051000000 1.9336000000 1.3225000000
2.5049000000 3.5571000000 2.2422000000
2.5047000000 4.7470000000 1.7860000000
2.5045000000 4.9337000000 1.6623000000
2.5044000000 6.3161000000 0.7182000000
2.5043000000 6.3060000000 0.7380000000
2.5041000000 3.5290000000 2.2388000000
2.5039000000 2.1153000000 1.4392000000
2.5038000000 4.5365000000 1.9300000000
2.5037000000 7.2068000000 0.1180000000
2.5036000000 2.5127000000 1.7205000000
2.5033000000 5.0285000000 1.5999000000
2.5030000000 6.7488000000 0.4317000000
2.5029000000 2.1128000000 1.4447000000
2.5028000000 6.6139000000 0.5165000000
2.5023000000 5.2181000000 1.4694000000
2.5019000000 4.8344000000 1.7340000000
2.5017000000 4.2265000000 2.1006000000
2.5015000000 1.2576000000 0.8595000000
2.5015000000 1.6718000000 1.1439000000
2.5011000000 5.3981000000 1.3489000000
2.5007000000 6.3526000000 0.6949000000
2.5004000000 3.0003000000 2.0365000000
2.5002000000 3.2787000000 2.1501000000
2.5000000000 1.5102000000 1.0307000000
2.4998000000 0.8034000000 0.5545000000
2.4995000000 3.9174000000 2.2107000000
2.4994000000 0.4659000000 0.3251000000
2.4993000000 5.2970000000 1.4201000000
2.4988000000 2.3057000000 1.5761000000
2.4973000000 4.2967000000 2.0761000000
2.4956000000 1.6044000000 1.1005000000
2.4954000000 1.7975000000 1.2287000000
2.2606000000 5.0248000000 1.5987000000
2.2597000000 3.7946000000 2.3911000000
2.2595000000 4.1996000000 2.1629000000
2.2592000000 6.7660000000 0.4247000000
2.2591000000 6.4265000000 0.6483000000
2.2589000000 7.1198000000 0.1775000000
2.2587000000 6.1668000000 0.8260000000
2.2584000000 4.1158000000 2.2155000000
2.2581000000 2.6262000000 1.7965000000
2.2578000000 5.2208000000 1.4631000000
2.2575000000 1.7848000000 1.2252000000
2.2571000000 4.6096000000 1.8830000000
2.2568000000 1.3047000000 0.8964000000
2.2567000000 0.1113000000 0.0843000000
2.2563000000 0.6543000000 0.4494000000
2.2560000000 5.1963000000 1.4824000000
2.2561000000 7.3028000000 0.0520000000
2.2558000000 4.6138000000 1.8770000000
2.2556000000 6.1656000000 0.8270000000
2.2555000000 5.5968000000 1.2161000000
2.2552000000 2.3878000000 1.6337000000
2.2549000000 2.2132000000 1.5149000000
2.2548000000 4.2952000000 2.0998000000
2.2547000000 3.3682000000 2.2841000000
2.2544000000 3.6365000000 2.4098000000
2.2543000000 1.1745000000 0.8030000000
2.2541000000 0.3973000000 0.2835000000
2.2540000000 7.2652000000 0.0746000000
2.2538000000 7.0749000000 0.2017000000
2.2537000000 6.1886000000 0.8122000000
2.2535000000 1.8132000000 1.2363000000
2.2534000000 5.2298000000 1.4550000000
2.2531000000 4.4188000000 2.0170000000
2.2530000000 2.7153000000 1.8484000000
2.2527000000 2.7656000000 1.8865000000
2.2525000000 3.8235000000 2.3853000000
2.2524000000 4.1152000000 2.2227000000
2.2523000000 1.4936000000 1.0232000000
2.2520000000 1.4888000000 1.0185000000
2.2516000000 2.4226000000 1.6481000000
2.2512000000 6.6048000000 0.5222000000
2.2510000000 3.2831000000 2.2376000000
2.2507000000 2.7574000000 1.8805000000
2.2503000000 2.8184000000 1.9216000000
2.2499000000 0.5074000000 0.3544000000
2.2496000000 6.6689000000 0.4814000000
2.2495000000 2.5360000000 1.7313000000
2.2489000000 2.5059000000 1.7098000000
2.2480000000 0.2899000000 0.2014000000
2.2475000000 5.4126000000 1.3380000000
2.2467000000 6.9657000000 0.2869000000
2.2451000000 2.3854000000 1.6308000000
2.0125000000 6.8271000000 0.3741000000
2.0095000000 4.4364000000 2.0037000000
2.0085000000 4.1044000000 2.2267000000
2.0082000000 6.8319000000 0.3753000000
2.0080000000 5.8041000000 1.0712000000
2.0076000000 3.3698000000 2.2923000000
2.0075000000 6.8845000000 0.3368000000
2.0074000000 6.4010000000 0.6662000000
2.0073000000 5.3627000000 1.3692000000
2.0072000000 1.1125000000 0.7662000000
2.0071000000 6.7464000000 0.4270000000
2.0066000000 3.5332000000 2.3819000000
2.0063000000 3.6711000000 2.4180000000
2.0061000000 6.5368000000 0.5768000000
2.0059000000 7.2862000000 0.0585000000
2.0057000000 7.0930000000 0.1944000000
2.0056000000 7.2833000000 0.0653000000
2.0055000000 3.0941000000 2.1089000000
2.0053000000 2.1184000000 1.4464000000
2.0050000000 5.3835000000 1.3540000000
2.0048000000 1.2840000000 0.8850000000
2.0044000000 2.4360000000 1.6608000000
2.0042000000 3.6001000000 2.4068000000
2.0043000000 1.5113000000 1.0385000000
2.0037000000 1.1857000000 0.8165000000
2.0035000000 3.5806000000 2.4053000000
2.0032000000 7.2551000000 0.0823000000
2.0033000000 3.5526000000 2.3865000000
2.0031000000 1.6418000000 1.1298000000
2.0028000000 1.1920000000 0.8191000000
2.0027000000 3.9019000000 2.3554000000
2.0025000000 7.3409000000 0.0248000000
2.0024000000 7.0498000000 0.2224000000
2.0022000000 6.6728000000 0.4771000000
2.0018000000 3.2045000000 2.1825000000
2.0016000000 0.3029000000 0.2126000000
2.0014000000 1.2837000000 0.8743000000
2.0012000000 6.9784000000 0.2697000000
2.0008000000 2.4630000000 1.6808000000
2.0007000000 3.3105000000 2.2577000000
2.0006000000 6.4453000000 0.6358000000
2.0004000000 3.3664000000 2.2874000000
1.9999000000 0.5533000000 0.3857000000
1.9998000000 3.6820000000 2.4269000000
1.9995000000 0.3327000000 0.2336000000
1.9988000000 4.2591000000 2.1184000000
1.9986000000 0.1990000000 0.1472000000
1.9985000000 0.0930000000 0.0669000000
1.9980000000 0.6227000000 0.4298000000
1.7631000000 3.4756000000 2.2265000000
1.7615000000 5.4613000000 1.3039000000
1.7605000000 5.5408000000 1.2548000000
1.7597000000 5.3338000000 1.3923000000
1.7595000000 6.8579000000 0.3571000000
1.7592000000 5.0240000000 1.6030000000
1.7589000000 3.9259000000 2.2140000000
1.7588000000 5.1072000000 1.5411000000
1.7587000000 5.3546000000 1.3780000000
1.7586000000 2.3661000000 1.6150000000
1.7582000000 6.8282000000 0.3756000000
1.7578000000 7.0953000000 0.1988000000
1.7574000000 0.6362000000 0.4398000000
1.7573000000 3.8753000000 2.2277000000
1.7572000000 2.5902000000 1.7668000000
1.7570000000 3.0761000000 2.0779000000
1.7565000000 6.0918000000 0.8774000000
1.7563000000 4.7867000000 1.7671000000
1.7561000000 6.6707000000 0.4802000000
1.7556000000 6.2043000000 0.7931000000
1.7554000000 0.6568000000 0.4522000000
1.7553000000 2.8747000000 1.9653000000
1.7550000000 6.0805000000 0.8832000000
1.7549000000 1.2420000000 0.8522000000
1.7546000000 4.2622000000 2.0836000000
1.7544000000 6.5344000000 0.5776000000
1.7544000000 5.9518000000 0.9709000000
1.7543000000 0.8252000000 0.5677000000
1.7541000000 1.7482000000 1.1900000000
1.7538000000 2.9924000000 2.0272000000
1.7536000000 1.9295000000 1.3171000000
1.7535000000 6.1027000000 0.8687000000
1.7532000000 4.9226000000 1.6702000000
1.7529000000 1.2507000000 0.8614000000
1.7526000000 2.6251000000 1.7892000000
1.7524000000 4.1666000000 2.1328000000
1.7521000000 4.1065000000 2.1487000000
1.7520000000 3.2138000000 2.1298000000
1.7519000000 6.9594000000 0.2883000000
1.7515000000 0.3128000000 0.2118000000
1.7511000000 0.1799000000 0.1317000000
1.7506000000 5.7996000000 1.0755000000
1.7503000000 3.5869000000 2.2555000000
1.7495000000 2.1371000000 1.4593000000
1.7488000000 3.2728000000 2.1487000000
1.7471000000 4.2870000000 2.0739000000
1.7469000000 3.6452000000 2.2613000000
1.5117000000 4.3824000000 1.9157000000
1.5101000000 4.0307000000 2.0235000000
1.5093000000 3.2337000000 1.9969000000
1.5088000000 7.0256000000 0.2445000000
1.5082000000 7.3719000000 0.0788000000
1.5079000000 2.6148000000 1.7740000000
1.5075000000 6.7207000000 0.4480000000
1.5072000000 0.0333000000 0.0252000000
1.5069000000 6.7561000000 0.4208000000
1.5068000000 6.5505000000 0.5652000000
1.5066000000 7.2083000000 0.1209000000
1.5060000000 6.5654000000 0.5532000000
1.5058000000 2.5531000000 1.7326000000
1.5055000000 3.2934000000 2.0171000000
1.5052000000 6.1172000000 0.8570000000
1.5050000000 2.1918000000 1.5003000000
1.5045000000 5.4148000000 1.3403000000
1.5043000000 1.9651000000 1.3379000000
1.5041000000 6.4981000000 0.5973000000
1.5040000000 3.4199000000 2.0578000000
1.5039000000 6.5473000000 0.5653000000
1.5038000000 2.2384000000 1.5319000000
1.5035000000 6.4285000000 0.6492000000
1.5033000000 2.0924000000 1.4289000000
1.5031000000 6.4855000000 0.6068000000
1.5030000000 5.2432000000 1.4501000000
1.5026000000 3.8828000000 2.0814000000
1.5025000000 3.5875000000 2.1127000000
1.5023000000 0.1539000000 0.1140000000
1.5022000000 0.1099000000 0.0810000000
1.5020000000 1.7236000000 1.1756000000
1.5019000000 5.4919000000 1.2842000000
1.5013000000 1.6250000000 1.1092000000
1.5012000000 1.0808000000 0.7373000000
1.5008000000 0.8281000000 0.5726000000
1.5004000000 0.6109000000 0.4209000000
1.5002000000 1.4638000000 0.9998000000
1.5001000000 0.9514000000 0.6520000000
1.4995000000 6.4542000000 0.6329000000
1.4993000000 3.9944000000 2.0399000000
1.4987000000 2.5723000000 1.7422000000
1.4977000000 7.3322000000 0.0354000000
1.4972000000 3.6773000000 2.1249000000
1.4965000000 5.9454000000 0.9732000000
1.2621000000 7.3357000000 0.0331000000
1.2613000000 7.2255000000 0.1034000000
1.2606000000 2.3097000000 1.5348000000
1.2601000000 4.4578000000 1.7314000000
1.2595000000 6.2816000000 0.7447000000
1.2589000000 6.8358000000 0.3747000000
1.2585000000 2.8672000000 1.7284000000
1.2581000000 3.9466000000 1.9076000000
1.2579000000 3.5361000000 1.9532000000
1.2574000000 3.9258000000 1.9146000000
1.2572000000 4.6330000000 1.6816000000
1.2571000000 4.5534000000 1.7019000000
1.2568000000 7.0023000000 0.2545000000
1.2563000000 6.8511000000 0.3569000000
1.2562000000 5.2561000000 1.4357000000
1.2560000000 3.6810000000 1.9956000000
1.2560000000 5.3253000000 1.3939000000
1.2558000000 5.7027000000 1.1419000000
1.2556000000 4.2746000000 1.8033000000
1.2554000000 1.1035000000 0.7520000000
1.2555000000 1.8157000000 1.2406000000
1.2551000000 6.6966000000 0.4653000000
1.2548000000 0.9160000000 0.6310000000
1.2543000000 7.3326000000 0.0309000000
1.2541000000 2.7239000000 1.6744000000
1.2540000000 5.4928000000 1.2809000000
1.2538000000 3.1395000000 1.8145000000
1.2536000000 4.2174000000 1.8196000000
1.2535000000 2.8552000000 1.7160000000
1.2534000000 3.7042000000 1.9813000000
1.2532000000 1.3068000000 0.8941000000
1.2530000000 4.5184000000 1.7172000000
1.2529000000 1.9209000000 1.3158000000
1.2528000000 5.5363000000 1.2552000000
1.2526000000 1.6327000000 1.1170000000
1.2525000000 3.4379000000 1.9160000000
1.2525000000 3.7185000000 1.9725000000
1.2523000000 5.5181000000 1.2605000000
1.2521000000 5.9200000000 0.9897000000
1.2520000000 4.8837000000 1.5938000000
1.2517000000 1.5325000000 1.0471000000
1.2516000000 1.5682000000 1.0792000000
1.2513000000 1.0356000000 0.7091000000
1.2511000000 1.4427000000 0.9920000000
1.2506000000 0.5685000000 0.3957000000
1.2504000000 4.0220000000 1.8858000000
1.2502000000 4.1485000000 1.8387000000
1.2500000000 3.4985000000 1.9347000000
1.2496000000 1.9560000000 1.3418000000
1.2490000000 1.9697000000 1.3424000000
1.2488000000 4.2899000000 1.7882000000
1.2486000000 0.1332000000 0.1027000000
1.2482000000 5.7129000000 1.1362000000
1.2475000000 0.8204000000 0.5637000000
1.2458000000 3.2988000000 1.8644000000
1.2450000000 0.8270000000 0.5731000000
1.0130000000 4.9920000000 1.4103000000
1.0118000000 5.3197000000 1.2996000000
1.0112000000 4.2786000000 1.6525000000
1.0099000000 0.3378000000 0.2360000000
1.0094000000 1.9323000000 1.2503000000
1.0090000000 7.0635000000 0.2142000000
1.0086000000 5.5465000000 1.2059000000
1.0083000000 2.5129000000 1.4517000000
1.0081000000 1.4834000000 1.0193000000
1.0077000000 7.2198000000 0.1049000000
1.0074000000 4.6702000000 1.5142000000
1.0070000000 3.9789000000 1.7595000000
1.0068000000 5.5118000000 1.2301000000
1.0064000000 3.8526000000 1.7961000000
1.0061000000 6.4794000000 0.6122000000
1.0059000000 1.4239000000 0.9767000000
1.0058000000 7.2822000000 0.0631000000
1.0055000000 2.7604000000 1.5349000000
1.0053000000 2.0489000000 1.2921000000
1.0052000000 6.9473000000 0.2881000000
1.0050000000 1.2041000000 0.8277000000
1.0047000000 2.2285000000 1.3612000000
1.0046000000 3.6422000000 1.8277000000
1.0045000000 6.1269000000 0.8517000000
1.0043000000 6.5657000000 0.5496000000
1.0041000000 6.0320000000 0.9167000000
1.0040000000 6.6905000000 0.4758000000
1.0038000000 5.7730000000 1.0921000000
1.0036000000 1.4103000000 0.9683000000
1.0035000000 6.2885000000 0.7436000000
1.0033000000 0.6264000000 0.4314000000
1.0032000000 2.2366000000 1.3534000000
1.0031000000 5.4251000000 1.2606000000
1.0030000000 2.5196000000 1.4552000000
1.0028000000 5.3667000000 1.2743000000
1.0028000000 4.1917000000 1.6750000000
1.0026000000 5.5485000000 1.2082000000
1.0026000000 3.9674000000 1.7531000000
1.0024000000 6.0456000000 0.9065000000
1.0023000000 0.9122000000 0.6270000000
1.0021000000 6.8970000000 0.3296000000
1.0020000000 0.9164000000 0.6286000000
1.0018000000 2.5008000000 1.4459000000
1.0018000000 6.3796000000 0.6833000000
1.0015000000 4.9386000000 1.4214000000
1.0013000000 3.0225000000 1.6258000000
1.0012000000 1.0822000000 0.7423000000
1.0011000000 1.4085000000 0.9598000000
1.0010000000 5.9189000000 0.9917000000
1.0008000000 1.3372000000 0.9150000000
1.0005000000 1.2075000000 0.8267000000
1.0004000000 1.8560000000 1.2256000000
1.0003000000 5.6710000000 1.1459000000
0.9998000000 4.3985000000 1.6018000000
0.9996000000 2.9772000000 1.6095000000
0.9994000000 1.1320000000 0.7813000000
0.9993000000 0.3656000000 0.2560000000
0.9990000000 5.0270000000 1.3887000000
0.9988000000 4.8550000000 1.4469000000
0.9987000000 2.8485000000 1.5626000000
0.9984000000 1.1272000000 0.7720000000
0.9982000000 2.7713000000 1.5357000000
0.9978000000 3.5070000000 1.7880000000
0.9971000000 1.4602000000 1.0007000000
0.9965000000 2.0997000000 1.3083000000
0.7642000000 5.5750000000 1.0675000000
0.7609000000 3.2521000000 1.5616000000
0.7601000000 4.2186000000 1.5251000000
0.7592000000 0.2315000000 0.1634000000
0.7590000000 4.3959000000 1.4649000000
0.7585000000 6.5440000000 0.5698000000
0.7584000000 6.9306000000 0.3032000000
0.7582000000 2.1655000000 1.1868000000
0.7579000000 3.6309000000 1.6793000000
0.7577000000 6.0684000000 0.8832000000
0.7573000000 4.7591000000 1.3386000000
0.7571000000 3.3692000000 1.5970000000
0.7568000000 6.5365000000 0.5745000000
0.7566000000 1.1412000000 0.7848000000
0.7563000000 0.8634000000 0.5952000000
0.7562000000 5.1257000000 1.2143000000
0.7560000000 6.0681000000 0.8846000000
0.7560000000 4.2491000000 1.5110000000
0.7559000000 3.5352000000 1.6459000000
0.7556000000 2.3910000000 1.2634000000
0.7555000000 6.5382000000 0.5726000000
0.7552000000 0.5010000000 0.3479000000
0.7551000000 5.9735000000 0.9168000000
0.7550000000 2.9322000000 1.4432000000
0.7547000000 7.1261000000 0.1718000000
0.7545000000 2.6753000000 1.3587000000
0.7543000000 4.0035000000 1.5944000000
0.7542000000 0.7633000000 0.5274000000
0.7540000000 2.4586000000 1.2861000000
0.7539000000 1.1893000000 0.8117000000
0.7537000000 1.4812000000 0.9560000000
0.7536000000 2.9707000000 1.4553000000
0.7535000000 6.4588000000 0.6245000000
0.7534000000 3.5212000000 1.6474000000
0.7533000000 4.3460000000 1.4784000000
0.7529000000 5.8526000000 0.9598000000
0.7527000000 2.5159000000 1.3031000000
0.7525000000 0.8290000000 0.5726000000
0.7523000000 6.8300000000 0.3744000000
0.7521000000 0.9416000000 0.6508000000
0.7519000000 4.0500000000 1.5838000000
0.7518000000 4.5399000000 1.4095000000
0.7517000000 1.0505000000 0.7210000000
0.7515000000 5.9149000000 0.9473000000
0.7507000000 2.8270000000 1.4085000000
0.7505000000 1.1987000000 0.8174000000
0.7503000000 6.0213000000 0.8925000000
0.7500000000 3.3097000000 1.5751000000
0.7498000000 3.7176000000 1.6780000000
0.7495000000 0.2267000000 0.1576000000
0.7490000000 2.8889000000 1.4325000000
0.7488000000 1.5299000000 0.9686000000
0.7479000000 1.0989000000 0.7551000000
0.7475000000 3.5608000000 1.6580000000
0.7473000000 5.0434000000 1.2367000000
0.7470000000 3.1671000000 1.5250000000
0.7463000000 6.2069000000 0.7963000000
0.7444000000 0.9250000000 0.6302000000
0.5134000000 3.2122000000 1.4023000000
0.5124000000 5.2027000000 1.0501000000
0.5120000000 6.6940000000 0.4632000000
0.5104000000 5.7942000000 0.8404000000
0.5099000000 4.2076000000 1.3813000000
0.5092000000 1.1584000000 0.7018000000
0.5088000000 1.8481000000 0.9271000000
0.5079000000 4.4049000000 1.3152000000
0.5077000000 5.8112000000 0.8329000000
0.5075000000 4.6443000000 1.2332000000
0.5072000000 2.8412000000 1.2716000000
0.5070000000 3.5200000000 1.4984000000
0.5068000000 2.8509000000 1.2781000000
0.5067000000 1.4435000000 0.7993000000
0.5065000000 2.2762000000 1.0768000000
0.5063000000 3.6080000000 1.5321000000
0.5061000000 4.9358000000 1.1303000000
0.5058000000 4.2038000000 1.3824000000
0.5055000000 6.6297000000 0.5054000000
0.5051000000 3.2391000000 1.4047000000
0.5049000000 2.8675000000 1.2790000000
0.5048000000 1.1933000000 0.7066000000
0.5046000000 4.9316000000 1.1294000000
0.5045000000 2.9358000000 1.3007000000
0.5043000000 4.0703000000 1.4220000000
0.5041000000 3.5388000000 1.5086000000
0.5039000000 2.6333000000 1.1986000000
0.5039000000 6.4382000000 0.6040000000
0.5037000000 0.6246000000 0.4288000000
0.5035000000 6.4219000000 0.6126000000
0.5034000000 1.8868000000 0.9466000000
0.5031000000 1.4144000000 0.7780000000
0.5031000000 5.6051000000 0.9017000000
0.5028000000 0.3923000000 0.2739000000
0.5026000000 2.3372000000 1.1000000000
0.5024000000 0.0395000000 0.0415000000
0.5023000000 3.2605000000 1.4041000000
0.5021000000 1.2652000000 0.7334000000
0.5020000000 4.8400000000 1.1569000000
0.5018000000 5.7623000000 0.8488000000
0.5015000000 3.6533000000 1.5286000000
0.5013000000 1.9651000000 0.9712000000
0.5010000000 0.9580000000 0.6190000000
0.5007000000 0.9303000000 0.6064000000
0.5003000000 7.3589000000 0.0127000000
0.4998000000 2.6913000000 1.2208000000
0.4996000000 2.1283000000 1.0237000000
0.4995000000 3.1937000000 1.3886000000
0.4993000000 0.6780000000 0.4683000000
0.4984000000 1.8868000000 0.9431000000
0.4980000000 1.0744000000 0.6707000000
0.4973000000 6.6413000000 0.5016000000
0.4968000000 1.1802000000 0.7021000000
0.2636000000 6.6919000000 0.3930000000
0.2616000000 5.8234000000 0.6862000000
0.2613000000 6.3443000000 0.5073000000
0.2595000000 3.6417000000 1.3883000000
0.2589000000 5.5839000000 0.7650000000
0.2581000000 3.5460000000 1.3679000000
0.2579000000 0.3085000000 0.2180000000
0.2575000000 7.1831000000 0.1325000000
0.2572000000 5.2996000000 0.8664000000
0.2569000000 6.7493000000 0.3677000000
0.2566000000 5.9366000000 0.6490000000
0.2563000000 0.4579000000 0.2992000000
0.2560000000 6.1787000000 0.5587000000
0.2559000000 1.5889000000 0.6972000000
0.2557000000 3.2369000000 1.2560000000
0.2556000000 3.3491000000 1.2939000000
0.2553000000 1.9266000000 0.8160000000
0.2551000000 4.6772000000 1.0740000000
0.2547000000 3.1405000000 1.2255000000
0.2545000000 0.9148000000 0.4637000000
0.2544000000 2.2061000000 0.9044000000
0.2543000000 3.1084000000 1.2183000000
0.2540000000 2.4612000000 0.9914000000
0.2538000000 0.7193000000 0.4062000000
0.2537000000 5.2245000000 0.8942000000
0.2535000000 0.3052000000 0.2229000000
0.2533000000 2.4464000000 0.9881000000
0.2532000000 0.8592000000 0.4510000000
0.2530000000 4.3209000000 1.1914000000
0.2529000000 1.7567000000 0.7517000000
0.2528000000 5.8436000000 0.6746000000
0.2525000000 3.6506000000 1.3829000000
0.2525000000 7.0292000000 0.2337000000
0.2521000000 4.8206000000 1.0207000000
0.2518000000 2.9744000000 1.1685000000
0.2515000000 0.8229000000 0.4367000000
0.2513000000 5.1559000000 0.9079000000
0.2510000000 7.1086000000 0.1870000000
0.2509000000 6.1686000000 0.5608000000
0.2508000000 2.3574000000 0.9539000000
0.2505000000 6.5042000000 0.4484000000
0.2503000000 1.8358000000 0.7814000000
0.2501000000 1.0048000000 0.4946000000
0.2492000000 5.5082000000 0.7829000000
0.2488000000 4.8442000000 1.0073000000
0.2485000000 4.0962000000 1.2666000000
0.2475000000 4.3527000000 1.1788000000
0.2460000000 0.5687000000 0.3475000000
0.2454000000 3.2737000000 1.2651000000
0.2428000000 0.5256000000 0.3239000000
0.0129000000 5.3012000000 0.7137000000
0.0108000000 4.6555000000 0.9379000000
0.0100000000 2.5334000000 0.8712000000
0.0096000000 3.4203000000 1.1755000000
0.0090000000 3.5018000000 1.2007000000
0.0088000000 5.9855000000 0.4796000000
0.0084000000 6.0577000000 0.4582000000
0.0082000000 5.9837000000 0.4803000000
0.0078000000 7.1607000000 0.0853000000
0.0074000000 6.3887000000 0.3484000000
0.0070000000 6.5247000000 0.2958000000
0.0064000000 5.7683000000 0.5546000000
0.0063000000 4.0743000000 1.1283000000
0.0058000000 4.8067000000 0.8825000000
0.0055000000 4.0497000000 1.1370000000
0.0053000000 6.7535000000 0.2155000000
0.0051000000 1.2759000000 0.4433000000
0.0050000000 4.4023000000 1.0146000000
0.0048000000 4.5639000000 0.9609000000
0.0046000000 6.1242000000 0.4362000000
0.0044000000 4.5777000000 0.9568000000
0.0043000000 6.0035000000 0.4736000000
0.0041000000 2.5175000000 0.8678000000
0.0039000000 4.5792000000 0.9579000000
0.0037000000 5.1237000000 0.7762000000
0.0036000000 5.0069000000 0.8118000000
0.0035000000 1.1115000000 0.3832000000
0.0034000000 2.5183000000 0.8636000000
0.0032000000 2.0029000000 0.6904000000
0.0031000000 3.6143000000 1.2366000000
0.0028000000 5.7388000000 0.5653000000
0.0025000000 5.6435000000 0.5988000000
0.0025000000 3.0031000000 1.0275000000
0.0023000000 5.2788000000 0.7228000000
0.0021000000 6.0455000000 0.4566000000
0.0020000000 1.4119000000 0.4852000000
0.0018000000 6.8502000000 0.1875000000
0.0013000000 6.1261000000 0.4323000000
0.0010000000 6.2694000000 0.3838000000
0.0006000000 1.3642000000 0.4650000000
0.0005000000 5.0877000000 0.7847000000
0.0003000000 1.6097000000 0.5505000000
0.0000000000 0.8601000000 0.2983000000
-0.0001000000 4.0351000000 1.1417000000
-0.0002000000 2.7554000000 0.9451000000
-0.0005000000 3.3745000000 1.1483000000
-0.0008000000 2.2654000000 0.7775000000
-0.0011000000 5.1339000000 0.7619000000
-0.0015000000 2.1722000000 0.7413000000
-0.0022000000 0.5515000000 0.1908000000
-0.0030000000 1.6495000000 0.5689000000
-0.0034000000 2.4672000000 0.8466000000
-0.0045000000 1.2881000000 0.4404000000
-0.2383000000 5.5108000000 0.4989000000
-0.2398000000 6.8942000000 0.0245000000
-0.2400000000 5.5589000000 0.4805000000
-0.2405000000 4.8733000000 0.7141000000
-0.2412000000 7.1588000000 0.0082000000
-0.2425000000 5.7586000000 0.4108000000
-0.2430000000 1.0319000000 0.2095000000
-0.2432000000 4.7001000000 0.7749000000
-0.2433000000 3.0622000000 0.9030000000
-0.2440000000 6.1788000000 0.2702000000
-0.2443000000 0.6557000000 0.0898000000
-0.2445000000 2.2778000000 0.6384000000
-0.2447000000 5.6232000000 0.4597000000
-0.2452000000 6.3095000000 0.2300000000
-0.2453000000 6.2257000000 0.2472000000
-0.2454000000 4.4302000000 0.8668000000
-0.2456000000 3.0575000000 0.9003000000
-0.2457000000 0.2387000000 0.0172000000
-0.2460000000 4.8796000000 0.7063000000
-0.2464000000 0.2235000000 0.0112000000
-0.2466000000 1.8362000000 0.4879000000
-0.2468000000 0.6300000000 0.0765000000
-0.2468000000 5.7040000000 0.4268000000
-0.2472000000 1.5693000000 0.3920000000
-0.2474000000 0.8741000000 0.1570000000
-0.2475000000 2.6618000000 0.7569000000
-0.2477000000 3.5635000000 1.0800000000
-0.2480000000 3.8067000000 1.0692000000
-0.2480000000 3.5749000000 1.0762000000
-0.2489000000 5.9817000000 0.3337000000
-0.2491000000 2.4715000000 0.6998000000
-0.2493000000 2.0712000000 0.5684000000
-0.2495000000 1.6843000000 0.4356000000
-0.2499000000 0.3484000000 0.0510000000
-0.2502000000 1.2611000000 0.2916000000
-0.2508000000 0.6306000000 0.0724000000
-0.2510000000 2.9211000000 0.8524000000
-0.2512000000 5.4368000000 0.5171000000
-0.2516000000 5.4154000000 0.5191000000
-0.2529000000 3.6895000000 1.1023000000
-0.2531000000 0.6368000000 0.0713000000
-0.2535000000 0.4277000000 0.0728000000
-0.2547000000 3.0272000000 0.8856000000
-0.4869000000 4.5494000000 0.6771000000
-0.4886000000 4.8129000000 0.5850000000
-0.4897000000 1.8238000000 0.3462000000
-0.4906000000 6.7097000000 0.0178000000
-0.4912000000 6.1166000000 0.1380000000
-0.4914000000 4.9940000000 0.5280000000
-0.4920000000 3.0271000000 0.7438000000
-0.4924000000 6.6127000000 0.0439000000
-0.4929000000 6.5384000000 0.0721000000
-0.4932000000 5.5858000000 0.3200000000
-0.4934000000 6.4173000000 0.0446000000
-0.4938000000 2.0806000000 0.4227000000
-0.4942000000 6.3168000000 0.0748000000
-0.4944000000 1.6553000000 0.2761000000
-0.4945000000 6.2456000000 0.0965000000
-0.4951000000 3.0959000000 0.7656000000
-0.4952000000 2.4415000000 0.5416000000
-0.4954000000 4.5476000000 0.6794000000
-0.4955000000 5.9205000000 0.2046000000
-0.4956000000 3.0885000000 0.7668000000
-0.4959000000 5.2383000000 0.4423000000
-0.4962000000 0.8121000000 0.0650000000
-0.4966000000 3.0838000000 0.7703000000
-0.4968000000 3.0086000000 0.7349000000
-0.4970000000 5.5338000000 0.3374000000
-0.4973000000 6.2790000000 0.0845000000
-0.4974000000 2.8935000000 0.6975000000
-0.4982000000 5.1152000000 0.4801000000
-0.4984000000 1.0627000000 0.0771000000
-0.4985000000 5.6422000000 0.3039000000
-0.4989000000 3.8936000000 0.8947000000
-0.4996000000 1.5406000000 0.2376000000
-0.4998000000 2.0553000000 0.4075000000
-0.5000000000 3.5712000000 0.9240000000
-0.5003000000 1.0191000000 0.0560000000
-0.5006000000 4.3163000000 0.7496000000
-0.5010000000 1.9862000000 0.3857000000
-0.5013000000 0.6607000000 0.0085000000
-0.5015000000 1.4585000000 0.2061000000
-0.5018000000 4.2451000000 0.7723000000
-0.5028000000 2.5582000000 0.5810000000
-0.5034000000 3.0987000000 0.7601000000
-0.7391000000 5.9039000000 0.0682000000
-0.7412000000 5.7784000000 0.1088000000
-0.7427000000 4.0742000000 0.6922000000
-0.7431000000 5.2773000000 0.2689000000
-0.7435000000 3.4622000000 0.7468000000
-0.7440000000 4.3628000000 0.5922000000
-0.7442000000 1.8549000000 0.2001000000
-0.7446000000 2.1089000000 0.2864000000
-0.7449000000 5.3459000000 0.2570000000
-0.7452000000 3.8784000000 0.7514000000
-0.7455000000 5.6453000000 0.1513000000
-0.7456000000 4.9806000000 0.3821000000
-0.7458000000 4.8602000000 0.4226000000
-0.7460000000 2.6609000000 0.4697000000
-0.7463000000 3.2360000000 0.6745000000
