5.7625000000 3.0205000000 0.0038000000
5.7574000000 3.0567000000 0.0326000000
5.7564000000 3.5654000000 0.0362000000
5.7560000000 3.1632000000 0.0322000000
5.7557000000 3.4674000000 0.0255000000
5.7537000000 3.3197000000 0.0474000000
5.7531000000 3.5842000000 0.0242000000
5.7513000000 3.3393000000 0.0693000000
5.5120000000 3.3070000000 0.2649000000
5.5089000000 3.2830000000 0.2646000000
5.5082000000 4.0524000000 0.0636000000
5.5067000000 3.5150000000 0.2137000000
5.5048000000 3.3455000000 0.3609000000
5.5035000000 3.8201000000 0.0846000000
5.5029000000 4.0806000000 0.0575000000
5.5014000000 2.9183000000 0.0865000000
5.5007000000 3.5961000000 0.1720000000
5.5001000000 3.5962000000 0.1692000000
5.4985000000 2.6765000000 0.0007000000
5.2592000000 3.6931000000 0.3944000000
5.2586000000 4.3650000000 0.0732000000
5.2583000000 3.9287000000 0.2292000000
5.2575000000 3.8862000000 0.2588000000
5.2571000000 4.5542000000 0.0218000000
5.2560000000 3.3551000000 0.6654000000
5.2558000000 4.4988000000 0.0638000000
5.2553000000 3.5598000000 0.4840000000
5.2549000000 3.3329000000 0.6514000000
5.2545000000 3.2695000000 0.5513000000
5.2540000000 2.8804000000 0.2864000000
5.2540000000 2.8957000000 0.2973000000
5.2533000000 3.6759000000 0.4019000000
5.2532000000 2.8665000000 0.2758000000
5.2529000000 4.0598000000 0.1369000000
5.2521000000 3.7722000000 0.3441000000
5.2500000000 2.2398000000 0.0767000000
5.2463000000 3.1804000000 0.5017000000
5.0101000000 3.7917000000 0.6175000000
5.0084000000 4.9928000000 0.0165000000
5.0066000000 2.9317000000 0.6204000000
5.0063000000 4.7223000000 0.0539000000
5.0057000000 4.9655000000 0.0442000000
5.0051000000 1.7053000000 0.0006000000
5.0050000000 2.3698000000 0.2365000000
5.0048000000 4.4857000000 0.1448000000
5.0047000000 1.7612000000 0.0412000000
5.0043000000 3.6457000000 0.7226000000
5.0040000000 3.5024000000 0.8226000000
5.0033000000 4.8518000000 0.0362000000
5.0028000000 3.3424000000 0.9513000000
5.0021000000 3.6599000000 0.7227000000
5.0013000000 2.9141000000 0.6074000000
5.0002000000 2.3552000000 0.2254000000
4.9979000000 3.1929000000 0.8045000000
4.9957000000 3.2998000000 0.8832000000
4.7607000000 3.9591000000 0.8008000000
4.7595000000 5.3596000000 0.0594000000
4.7582000000 3.9354000000 0.8205000000
4.7574000000 3.8961000000 0.8404000000
4.7565000000 4.0108000000 0.7668000000
4.7561000000 2.4482000000 0.5821000000
4.7559000000 3.8628000000 0.8679000000
4.7554000000 1.2874000000 0.0075000000
4.7550000000 2.6683000000 0.7381000000
4.7548000000 2.8605000000 0.8640000000
4.7548000000 2.3642000000 0.5229000000
4.7544000000 1.4531000000 0.0542000000
4.7542000000 3.9987000000 0.7799000000
4.7540000000 2.3921000000 0.5417000000
4.7538000000 2.9003000000 0.8973000000
4.7535000000 1.4703000000 0.0698000000
4.7533000000 2.4896000000 0.6154000000
4.7529000000 3.2801000000 1.1649000000
4.7528000000 1.2713000000 0.0031000000
4.7528000000 1.9394000000 0.2316000000
4.7525000000 1.3494000000 0.0611000000
4.7519000000 5.1358000000 0.0774000000
4.7513000000 3.6872000000 0.9967000000
4.7509000000 1.5840000000 0.0651000000
4.7506000000 1.8836000000 0.1978000000
4.7503000000 4.9419000000 0.1342000000
4.7489000000 1.9763000000 0.2727000000
4.7485000000 5.1151000000 0.0917000000
4.7469000000 2.3220000000 0.5042000000
4.7456000000 3.0789000000 1.0303000000
4.5110000000 4.6843000000 0.5981000000
4.5092000000 4.8332000000 0.4960000000
4.5088000000 1.3866000000 0.1444000000
4.5078000000 5.4420000000 0.1548000000
4.5077000000 1.4787000000 0.2127000000
4.5076000000 5.3363000000 0.1523000000
4.5074000000 5.0186000000 0.3707000000
4.5071000000 5.3881000000 0.1165000000
4.5068000000 5.1386000000 0.2917000000
4.5066000000 4.5412000000 0.6955000000
4.5065000000 1.5887000000 0.2899000000
4.5062000000 3.1293000000 1.3479000000
4.5060000000 4.2617000000 0.8955000000
4.5058000000 2.7069000000 1.0573000000
4.5055000000 3.3726000000 1.4831000000
4.5053000000 3.8256000000 1.1964000000
4.5050000000 2.6908000000 1.0490000000
4.5047000000 2.0146000000 0.5777000000
4.5045000000 3.0701000000 1.3147000000
4.5042000000 0.9408000000 0.0702000000
4.5043000000 1.3768000000 0.1422000000
4.5038000000 2.2530000000 0.7489000000
4.5037000000 5.8057000000 0.0603000000
4.5035000000 2.9861000000 1.2500000000
4.5033000000 4.0986000000 1.0088000000
4.5031000000 1.0678000000 0.0828000000
4.5029000000 4.1496000000 0.9720000000
4.5025000000 4.4602000000 0.7598000000
4.5020000000 1.5815000000 0.2908000000
4.5017000000 2.1083000000 0.6468000000
4.5013000000 0.9771000000 0.0226000000
4.5005000000 2.4886000000 0.9144000000
4.5000000000 4.2586000000 0.9070000000
4.4994000000 2.8461000000 1.1656000000
4.4992000000 5.8740000000 0.0135000000
4.4976000000 2.3774000000 0.8389000000
4.2612000000 5.6190000000 0.2492000000
4.2603000000 4.0424000000 1.3385000000
4.2602000000 5.5350000000 0.3077000000
4.2592000000 3.7315000000 1.5547000000
4.2589000000 6.0202000000 0.0528000000
4.2586000000 5.6747000000 0.2174000000
4.2578000000 0.7531000000 0.0892000000
4.2572000000 1.7717000000 0.7117000000
4.2569000000 5.3609000000 0.4356000000
4.2567000000 4.4020000000 1.0919000000
4.2565000000 3.4935000000 1.7121000000
4.2562000000 1.4701000000 0.5095000000
4.2560000000 3.3802000000 1.7743000000
4.2557000000 6.0699000000 0.0238000000
4.2554000000 3.0727000000 1.6064000000
4.2553000000 5.2647000000 0.4997000000
4.2552000000 5.1037000000 0.6102000000
4.2548000000 0.8165000000 0.1329000000
4.2547000000 5.1931000000 0.5550000000
4.2543000000 3.0448000000 1.5897000000
4.2540000000 5.8955000000 0.1509000000
4.2540000000 5.1637000000 0.5794000000
4.2539000000 4.2274000000 1.2166000000
4.2538000000 3.7278000000 1.5622000000
4.2536000000 3.7671000000 1.5324000000
4.2532000000 5.9523000000 0.1129000000
4.2530000000 3.6010000000 1.6489000000
4.2526000000 6.1168000000 0.0712000000
4.2524000000 1.8694000000 0.7886000000
4.2523000000 4.2787000000 1.1829000000
4.2522000000 3.3702000000 1.8603000000
4.2518000000 0.4125000000 0.0122000000
4.2516000000 1.8146000000 0.7465000000
4.2514000000 2.6818000000 1.3513000000
4.2513000000 4.3149000000 1.1569000000
4.2510000000 5.4822000000 0.3556000000
4.2506000000 5.2103000000 0.5483000000
4.2504000000 6.3266000000 -0.0008000000
4.2498000000 1.0937000000 0.2568000000
4.2492000000 4.2862000000 1.1845000000
4.2491000000 5.1863000000 0.5681000000
4.2488000000 0.5342000000 0.0199000000
4.2486000000 0.7834000000 0.1169000000
4.2478000000 3.9979000000 1.3839000000
4.2473000000 0.8535000000 0.1623000000
4.2468000000 2.4595000000 1.2022000000
4.0120000000 3.6380000000 1.9099000000
4.0106000000 4.1199000000 1.5774000000
4.0098000000 6.6913000000 0.0364000000
4.0097000000 6.6153000000 0.0172000000
4.0095000000 3.8713000000 1.7512000000
4.0085000000 6.4973000000 0.0267000000
4.0079000000 0.7658000000 0.3156000000
4.0073000000 6.7243000000 0.0180000000
4.0068000000 3.1759000000 1.9725000000
4.0064000000 0.1183000000 0.0270000000
4.0065000000 6.1869000000 0.1654000000
4.0062000000 4.3422000000 1.4348000000
4.0060000000 0.3277000000 0.0987000000
4.0058000000 3.0485000000 1.8876000000
4.0058000000 1.3885000000 0.7469000000
4.0055000000 6.3774000000 0.1082000000
4.0053000000 2.6374000000 1.6065000000
4.0051000000 1.8615000000 1.0750000000
4.0050000000 3.1535000000 1.9610000000
4.0047000000 4.0414000000 1.6456000000
4.0043000000 4.9953000000 0.9861000000
4.0041000000 2.8898000000 1.7817000000
4.0039000000 3.5328000000 1.9916000000
4.0038000000 5.5222000000 0.6302000000
4.0037000000 5.6336000000 0.5465000000
4.0035000000 1.2423000000 0.6500000000
4.0033000000 3.8362000000 1.7819000000
4.0032000000 2.1695000000 1.2895000000
4.0031000000 4.0415000000 1.6457000000
4.0029000000 2.6448000000 1.6141000000
4.0028000000 2.5046000000 1.5250000000
4.0026000000 3.7194000000 1.8593000000
4.0024000000 5.4807000000 0.6583000000
4.0023000000 2.6054000000 1.5930000000
4.0020000000 6.7412000000 0.0089000000
4.0020000000 4.2130000000 1.5263000000
4.0015000000 3.0938000000 1.9276000000
4.0010000000 3.2088000000 2.0055000000
4.0007000000 2.7971000000 1.7235000000
4.0001000000 1.1839000000 0.6125000000
3.9998000000 1.9144000000 1.1172000000
3.9993000000 2.7807000000 1.7175000000
3.9990000000 3.4956000000 2.0257000000
3.9988000000 5.3536000000 0.7471000000
3.9976000000 1.5255000000 0.8512000000
3.9956000000 0.4254000000 0.1700000000
3.7628000000 5.9474000000 0.6214000000
3.7613000000 4.8753000000 1.3559000000
3.7606000000 3.8922000000 2.0335000000
3.7602000000 5.9641000000 0.6083000000
3.7598000000 2.6779000000 1.9271000000
3.7593000000 2.8909000000 2.0735000000
3.7592000000 1.2386000000 0.9330000000
3.7585000000 5.1187000000 1.1941000000
3.7583000000 5.6507000000 0.8311000000
3.7582000000 1.2910000000 0.9791000000
3.7579000000 2.3782000000 1.7249000000
3.7577000000 0.8407000000 0.6682000000
3.7575000000 3.8542000000 2.0603000000
3.7573000000 5.2723000000 1.0882000000
3.7570000000 0.1344000000 0.1795000000
3.7567000000 2.0596000000 1.5038000000
3.7565000000 6.5239000000 0.1982000000
3.7564000000 5.4599000000 0.9618000000
3.7562000000 1.4059000000 1.0600000000
3.7558000000 5.4468000000 0.9764000000
3.7555000000 0.4690000000 0.4098000000
3.7553000000 4.4758000000 1.6430000000
3.7552000000 4.3926000000 1.7010000000
3.7550000000 5.9027000000 0.6606000000
3.7545000000 4.5226000000 1.6126000000
3.7544000000 2.6227000000 1.9003000000
3.7542000000 1.2102000000 0.9270000000
3.7540000000 0.2211000000 0.2210000000
3.7538000000 1.8853000000 1.3892000000
3.7535000000 1.1419000000 0.8809000000
3.7530000000 1.5708000000 1.1781000000
3.7528000000 6.5588000000 0.2252000000
3.7525000000 2.2802000000 1.6596000000
3.7522000000 0.4597000000 0.4075000000
3.7521000000 2.4988000000 1.8173000000
3.7518000000 0.4065000000 0.3708000000
3.7514000000 2.1896000000 1.6085000000
3.7512000000 0.0925000000 0.1433000000
3.7509000000 4.1003000000 1.8987000000
3.7494000000 1.1755000000 0.9051000000
3.7490000000 2.4449000000 1.7799000000
3.7480000000 2.2805000000 1.6707000000
3.7457000000 3.4551000000 2.3555000000
3.5140000000 4.3386000000 2.0214000000
3.5128000000 6.7363000000 0.0791000000
3.5120000000 2.1077000000 1.8288000000
3.5113000000 6.7533000000 0.0566000000
3.5110000000 4.2688000000 2.0744000000
3.5091000000 6.5429000000 0.1997000000
3.5088000000 5.1641000000 1.4661000000
3.5083000000 5.8865000000 0.9654000000
3.5082000000 5.0463000000 1.5427000000
3.5080000000 0.7210000000 0.9341000000
3.5077000000 3.2978000000 2.6490000000
3.5072000000 5.0682000000 1.5275000000
3.5069000000 5.4567000000 1.2633000000
3.5067000000 1.6372000000 1.5111000000
3.5066000000 2.1802000000 1.8892000000
3.5065000000 6.4213000000 0.3638000000
3.5064000000 1.9370000000 1.7224000000
3.5063000000 3.9088000000 2.3245000000
3.5062000000 1.6530000000 1.5267000000
3.5060000000 5.0502000000 1.5384000000
3.5060000000 4.5221000000 1.9089000000
3.5057000000 2.6592000000 2.2166000000
3.5055000000 0.4745000000 0.5951000000
3.5047000000 2.2794000000 1.9591000000
3.5045000000 0.0731000000 0.1179000000
3.5041000000 1.5673000000 1.4686000000
3.5039000000 4.9811000000 1.5860000000
3.5037000000 1.8695000000 1.6716000000
3.5035000000 2.7384000000 2.2760000000
3.5035000000 2.4526000000 2.0770000000
3.5031000000 2.9251000000 2.4104000000
3.5030000000 4.8113000000 1.7040000000
3.5029000000 2.1226000000 1.8510000000
3.5026000000 4.4387000000 1.9640000000
3.5022000000 3.6117000000 2.5383000000
3.5019000000 0.6920000000 0.9220000000
3.5018000000 1.1277000000 1.1664000000
3.5016000000 2.8231000000 2.3381000000
3.5015000000 4.8018000000 1.7179000000
3.5013000000 2.0715000000 1.8209000000
3.5011000000 1.0666000000 1.1270000000
3.5007000000 0.9044000000 1.0186000000
3.5003000000 2.6494000000 2.2147000000
3.5001000000 0.5755000000 0.7920000000
3.4998000000 3.8733000000 2.3612000000
3.4981000000 2.0338000000 1.7965000000
3.4970000000 1.6568000000 1.5354000000
3.4962000000 0.7129000000 0.9357000000
3.2603000000 5.6443000000 1.4136000000
3.2600000000 6.4739000000 0.2893000000
3.2588000000 3.4719000000 2.9215000000
3.2584000000 5.4164000000 1.5869000000
3.2576000000 2.3345000000 2.2896000000
3.2573000000 3.5434000000 2.8750000000
3.2570000000 1.5350000000 1.7398000000
3.2568000000 0.2547000000 0.2894000000
3.2565000000 5.6157000000 1.4303000000
3.2561000000 3.4648000000 2.9298000000
3.2560000000 2.5222000000 2.4202000000
3.2557000000 1.6117000000 1.7987000000
3.2556000000 3.2191000000 2.8931000000
3.2554000000 5.1880000000 1.7429000000
3.2552000000 3.7853000000 2.7095000000
3.2550000000 3.8608000000 2.6654000000
3.2549000000 2.1729000000 2.1823000000
3.2548000000 0.7891000000 1.0253000000
3.2545000000 1.7366000000 1.8820000000
3.2543000000 5.3747000000 1.6276000000
3.2541000000 5.3059000000 1.6688000000
3.2540000000 5.9005000000 1.0752000000
3.2537000000 1.0815000000 1.4810000000
3.2535000000 4.3045000000 2.3524000000
3.2534000000 3.5538000000 2.8735000000
3.2533000000 6.2817000000 0.5570000000
3.2530000000 3.1328000000 2.8383000000
3.2528000000 3.6762000000 2.7934000000
3.2526000000 2.8171000000 2.6282000000
3.2523000000 0.5079000000 0.6409000000
3.2521000000 3.8448000000 2.6718000000
3.2520000000 1.7355000000 1.8867000000
3.2514000000 0.8315000000 1.0809000000
3.2513000000 3.3612000000 3.0523000000
3.2510000000 2.8369000000 2.6436000000
3.2507000000 2.2027000000 2.2084000000
3.2506000000 2.6978000000 2.5512000000
3.2503000000 0.6614000000 0.8468000000
3.2500000000 2.6095000000 2.4890000000
3.2496000000 0.4553000000 0.5699000000
3.2494000000 3.3748000000 2.9754000000
3.2490000000 1.0818000000 1.4784000000
3.2486000000 3.4506000000 2.9485000000
3.2480000000 1.1848000000 1.5630000000
3.2464000000 4.6635000000 2.1187000000
3.2450000000 2.0156000000 2.0881000000
3.0129000000 4.8309000000 2.2813000000
3.0113000000 0.0164000000 0.0345000000
3.0107000000 6.5028000000 0.2474000000
3.0098000000 3.5921000000 3.1368000000
3.0094000000 3.9015000000 2.9253000000
3.0090000000 2.8663000000 2.9511000000
3.0085000000 2.6336000000 2.7888000000
3.0077000000 5.1853000000 2.0277000000
3.0073000000 4.8811000000 2.2533000000
3.0071000000 5.3837000000 1.7917000000
3.0068000000 6.1843000000 0.6894000000
3.0067000000 3.1749000000 3.1656000000
3.0064000000 0.3221000000 0.3896000000
3.0060000000 0.2002000000 0.2161000000
3.0057000000 3.9676000000 2.8820000000
3.0055000000 2.8881000000 2.9641000000
3.0052000000 3.8318000000 2.9847000000
3.0050000000 4.6403000000 2.4256000000
3.0049000000 2.5569000000 2.7381000000
3.0047000000 4.4528000000 2.5489000000
3.0045000000 2.6805000000 2.8273000000
3.0042000000 1.8964000000 2.2937000000
3.0039000000 6.4701000000 0.2977000000
3.0038000000 1.4736000000 2.0209000000
3.0034000000 5.1026000000 2.0895000000
3.0030000000 0.6214000000 0.7954000000
3.0028000000 4.2552000000 2.6873000000
3.0023000000 1.8252000000 2.2424000000
3.0022000000 5.3177000000 1.8811000000
3.0020000000 4.0755000000 2.8118000000
3.0019000000 4.1493000000 2.7677000000
3.0018000000 2.2335000000 2.5205000000
3.0016000000 0.5558000000 0.7016000000
3.0010000000 2.8261000000 2.9365000000
3.0002000000 5.1242000000 2.1502000000
2.9998000000 5.8810000000 1.1075000000
2.9995000000 6.7337000000 0.0827000000
2.9993000000 1.3826000000 1.8402000000
2.9991000000 0.3755000000 0.4582000000
2.9988000000 4.7718000000 2.3398000000
2.9980000000 0.2573000000 0.2981000000
2.9958000000 4.0123000000 2.8583000000
2.7628000000 5.3774000000 1.7961000000
2.7603000000 4.5466000000 2.7748000000
2.7599000000 5.8591000000 1.1325000000
2.7595000000 4.6219000000 2.7267000000
2.7587000000 3.5304000000 3.4803000000
2.7579000000 5.2332000000 1.9930000000
2.7575000000 3.6874000000 3.3702000000
2.7573000000 4.6036000000 2.7455000000
2.7570000000 0.0605000000 0.0992000000
2.7567000000 4.5430000000 2.7821000000
2.7566000000 6.3035000000 0.5292000000
2.7563000000 4.6767000000 2.7528000000
2.7561000000 4.4025000000 2.8829000000
2.7558000000 3.8837000000 3.2429000000
2.7556000000 5.2623000000 1.9590000000
2.7555000000 1.5085000000 2.0154000000
2.7552000000 2.5760000000 3.0548000000
2.7551000000 5.7712000000 1.2619000000
2.7546000000 2.9892000000 3.3436000000
2.7545000000 4.2198000000 3.0042000000
2.7544000000 2.0342000000 2.7284000000
2.7543000000 3.5686000000 3.4576000000
2.7538000000 3.0408000000 3.3755000000
2.7536000000 1.5460000000 2.0652000000
2.7534000000 2.9426000000 3.3053000000
2.7531000000 4.6358000000 2.7239000000
2.7528000000 2.3491000000 2.9003000000
2.7526000000 4.8404000000 2.5862000000
2.7521000000 1.2533000000 1.6612000000
2.7514000000 1.2753000000 1.6946000000
2.7513000000 3.3528000000 3.6463000000
2.7512000000 0.8701000000 1.1342000000
2.7508000000 3.4263000000 3.5552000000
2.7500000000 4.6698000000 2.7584000000
2.7498000000 4.4353000000 2.8667000000
2.7491000000 5.1197000000 2.1521000000
2.7485000000 0.1080000000 0.1622000000
2.7484000000 2.2530000000 2.8337000000
2.7480000000 3.4049000000 3.6290000000
2.7475000000 1.1900000000 1.5732000000
2.7422000000 0.5449000000 0.6857000000
2.5118000000 6.0944000000 0.8144000000
2.5105000000 5.3132000000 1.8901000000
2.5098000000 6.6324000000 0.1493000000
2.5091000000 6.6756000000 0.0875000000
2.5085000000 4.9030000000 2.4473000000
2.5079000000 1.0152000000 1.3307000000
2.5075000000 6.6077000000 0.1853000000
2.5071000000 4.2017000000 3.3138000000
2.5069000000 0.6275000000 0.8037000000
2.5068000000 2.3308000000 3.1974000000
2.5065000000 4.2979000000 3.2288000000
2.5062000000 4.8609000000 2.5135000000
2.5058000000 6.3211000000 0.5013000000
2.5055000000 4.6936000000 2.7432000000
2.5051000000 3.8811000000 3.5342000000
2.5049000000 5.5150000000 1.6131000000
2.5045000000 4.7919000000 2.6041000000
2.5044000000 6.5038000000 0.2520000000
2.5043000000 3.7151000000 3.6521000000
2.5038000000 1.8677000000 2.5075000000
2.5035000000 2.7670000000 3.4854000000
2.5034000000 3.7583000000 3.6278000000
2.5032000000 3.6902000000 3.6689000000
2.5029000000 5.6089000000 1.4849000000
2.5025000000 0.0905000000 0.1379000000
2.5024000000 4.2438000000 3.3516000000
2.5023000000 4.1759000000 3.3430000000
2.5021000000 1.1349000000 1.5017000000
2.5018000000 6.4113000000 0.3754000000
2.5014000000 1.9617000000 2.6332000000
2.5010000000 4.5815000000 2.8873000000
2.5008000000 0.4465000000 0.5573000000
2.5005000000 4.0744000000 3.4152000000
2.5004000000 4.7830000000 2.6164000000
2.5000000000 1.2599000000 1.6748000000
2.4996000000 4.9580000000 2.3777000000
2.4993000000 0.3590000000 0.4291000000
2.4990000000 1.3573000000 1.8106000000
2.4985000000 3.0568000000 3.6904000000
2.4976000000 6.4790000000 0.2900000000
2.4968000000 0.4361000000 0.5381000000
2.2605000000 1.8922000000 2.5422000000
2.2597000000 4.6817000000 2.7526000000
2.2593000000 6.7509000000 0.0602000000
2.2590000000 5.1427000000 2.1185000000
2.2588000000 1.6588000000 2.2225000000
2.2583000000 6.2238000000 0.6337000000
2.2574000000 4.9369000000 2.4002000000
2.2572000000 6.5327000000 0.2145000000
2.2567000000 6.1194000000 0.7765000000
2.2562000000 4.4938000000 3.0134000000
2.2560000000 4.5306000000 2.9619000000
2.2558000000 4.3191000000 3.2480000000
2.2558000000 4.5084000000 2.9878000000
2.2556000000 2.3157000000 3.1265000000
2.2552000000 6.2552000000 0.5865000000
2.2549000000 3.5257000000 4.0804000000
2.2546000000 1.3702000000 1.8220000000
2.2543000000 5.2436000000 1.9882000000
2.2541000000 3.7941000000 3.8866000000
2.2538000000 0.9894000000 1.2939000000
2.2535000000 5.4416000000 1.7041000000
2.2533000000 5.4911000000 1.6355000000
2.2533000000 6.0590000000 0.8658000000
2.2531000000 4.9221000000 2.4200000000
2.2530000000 1.7108000000 2.2896000000
2.2525000000 1.7756000000 2.3778000000
2.2522000000 0.1130000000 0.1713000000
2.2519000000 3.2758000000 4.1335000000
2.2516000000 3.1827000000 4.0619000000
2.2515000000 2.9175000000 3.9494000000
2.2511000000 1.6198000000 2.1652000000
2.2510000000 3.4746000000 4.1155000000
2.2505000000 4.6467000000 2.8021000000
2.2499000000 6.0523000000 0.8698000000
2.2494000000 5.2718000000 1.9402000000
2.2493000000 4.4448000000 3.0803000000
2.2490000000 2.1752000000 2.9335000000
2.2471000000 0.5990000000 0.7617000000
2.2468000000 1.3658000000 1.8231000000
2.2448000000 5.2439000000 1.9756000000
2.0133000000 5.3866000000 1.7846000000
2.0129000000 4.6614000000 2.7823000000
2.0108000000 6.6976000000 0.0588000000
2.0104000000 4.9300000000 2.4139000000
2.0098000000 5.4359000000 1.7096000000
2.0096000000 5.5383000000 1.5727000000
2.0091000000 1.6033000000 2.1467000000
2.0086000000 3.5507000000 4.3583000000
2.0083000000 4.7282000000 2.6941000000
2.0075000000 5.4674000000 1.6753000000
2.0071000000 5.6108000000 1.4796000000
2.0066000000 3.3823000000 4.4537000000
2.0065000000 5.5035000000 1.6276000000
2.0062000000 5.2860000000 1.9241000000
2.0058000000 6.1700000000 0.7081000000
2.0059000000 5.5822000000 1.5184000000
2.0057000000 1.9313000000 2.5954000000
2.0053000000 1.1410000000 1.5061000000
2.0053000000 4.6153000000 2.8400000000
2.0050000000 2.7541000000 3.7338000000
2.0049000000 4.9735000000 2.3537000000
2.0048000000 1.3370000000 1.7803000000
2.0044000000 3.0494000000 4.1285000000
2.0042000000 1.4467000000 1.9286000000
2.0041000000 3.4154000000 4.4500000000
2.0038000000 4.5349000000 2.9540000000
2.0035000000 0.5267000000 0.6658000000
2.0031000000 4.4616000000 3.0551000000
2.0029000000 3.5821000000 4.2597000000
2.0027000000 0.6984000000 0.8994000000
2.0024000000 0.0174000000 0.0473000000
2.0023000000 3.2546000000 4.4674000000
2.0021000000 0.7985000000 1.0365000000
2.0020000000 3.7422000000 4.0419000000
2.0018000000 3.9145000000 3.8056000000
2.0015000000 1.7488000000 2.3417000000
2.0014000000 0.8893000000 1.1617000000
2.0013000000 3.4314000000 4.4262000000
2.0011000000 0.4666000000 0.5798000000
2.0009000000 6.6746000000 0.0843000000
2.0003000000 0.1612000000 0.1657000000
2.0002000000 3.4255000000 4.5034000000
1.9999000000 2.0602000000 2.7741000000
1.9995000000 0.8840000000 1.1517000000
1.9993000000 4.4795000000 3.0285000000
1.9990000000 1.5073000000 2.0174000000
1.9986000000 1.1272000000 1.4932000000
1.9980000000 0.4325000000 0.5369000000
1.9970000000 3.0154000000 4.0836000000
1.9965000000 4.3407000000 3.2249000000
1.7603000000 0.7626000000 0.9910000000
1.7598000000 2.3278000000 3.1391000000
1.7596000000 5.9703000000 0.9795000000
1.7595000000 4.5382000000 2.9540000000
1.7588000000 5.2313000000 1.9918000000
1.7584000000 6.4412000000 0.3369000000
1.7583000000 4.3344000000 3.2331000000
1.7578000000 5.8744000000 1.1134000000
1.7576000000 0.0717000000 0.1149000000
1.7575000000 1.0044000000 1.3165000000
1.7570000000 4.2393000000 3.3636000000
1.7568000000 5.8283000000 1.1741000000
1.7567000000 6.6307000000 0.1482000000
1.7564000000 3.9539000000 3.7552000000
1.7560000000 3.1197000000 4.2294000000
1.7558000000 4.4958000000 3.0101000000
1.7556000000 3.5726000000 4.1957000000
1.7554000000 6.6199000000 0.1656000000
1.7551000000 6.2919000000 0.5400000000
1.7549000000 1.5679000000 2.0998000000
1.7547000000 2.2734000000 3.0648000000
1.7545000000 4.8946000000 2.4576000000
1.7540000000 0.5736000000 0.7277000000
1.7539000000 0.4877000000 0.6042000000
1.7538000000 3.6924000000 4.0840000000
1.7537000000 2.1812000000 2.9394000000
1.7535000000 4.8529000000 2.5255000000
1.7532000000 5.9056000000 1.0729000000
1.7531000000 2.1105000000 2.8411000000
1.7530000000 4.3474000000 3.2171000000
1.7527000000 1.0194000000 1.3411000000
1.7525000000 3.0170000000 4.1415000000
1.7523000000 1.3743000000 1.8317000000
1.7522000000 5.9974000000 0.9475000000
1.7520000000 4.4573000000 3.0615000000
1.7519000000 2.4751000000 3.3448000000
1.7515000000 2.7025000000 3.6557000000
1.7513000000 0.6441000000 0.8234000000
1.7510000000 3.5568000000 4.2091000000
1.7507000000 0.8291000000 1.0791000000
1.7505000000 4.5199000000 2.9750000000
1.7496000000 3.4154000000 4.2887000000
1.7495000000 2.9581000000 4.0556000000
1.7490000000 1.2303000000 1.6370000000
1.7486000000 1.7658000000 2.3650000000
1.7482000000 3.0805000000 4.1923000000
1.7480000000 3.9398000000 3.7702000000
1.7475000000 1.1119000000 1.4696000000
1.7473000000 3.1459000000 4.1852000000
1.7458000000 4.5385000000 2.9544000000
1.7446000000 1.9263000000 2.5884000000
1.5087000000 6.1737000000 0.7006000000
1.5085000000 5.2087000000 2.0346000000
1.5080000000 2.8737000000 3.7108000000
1.5073000000 3.2587000000 3.9720000000
1.5071000000 4.9069000000 2.4448000000
1.5065000000 5.3620000000 1.8191000000
1.5063000000 5.9560000000 1.0033000000
1.5063000000 0.3374000000 0.4015000000
1.5060000000 6.0042000000 0.9278000000
1.5058000000 5.0924000000 2.1882000000
1.5056000000 4.2212000000 3.3748000000
1.5055000000 3.9378000000 3.6497000000
1.5053000000 4.9725000000 2.3524000000
1.5053000000 5.0067000000 2.3102000000
1.5049000000 0.4323000000 0.5353000000
1.5047000000 2.1644000000 2.9153000000
1.5045000000 1.4913000000 1.9856000000
1.5042000000 5.3856000000 1.7880000000
1.5041000000 4.8462000000 2.5264000000
1.5037000000 0.3334000000 0.3960000000
1.5034000000 1.5397000000 2.0561000000
1.5031000000 4.9305000000 2.4177000000
1.5030000000 3.1616000000 3.8990000000
1.5028000000 5.1383000000 2.1306000000
1.5026000000 2.8470000000 3.6891000000
1.5024000000 0.9145000000 1.1981000000
1.5023000000 2.6975000000 3.6382000000
1.5021000000 0.4363000000 0.5356000000
1.5020000000 1.2339000000 1.6381000000
1.5017000000 0.8683000000 1.1332000000
1.5013000000 3.4137000000 3.9984000000
1.5011000000 1.6545000000 2.2140000000
1.5006000000 6.4302000000 0.3516000000
1.5003000000 4.5478000000 2.9365000000
1.5002000000 3.9451000000 3.6394000000
1.5000000000 6.4525000000 0.3243000000
1.4998000000 5.9022000000 1.0753000000
1.4995000000 3.6159000000 3.8649000000
1.4988000000 3.6740000000 3.8279000000
1.4985000000 2.5650000000 3.5186000000
1.4983000000 1.7794000000 2.3894000000
1.4977000000 2.8179000000 3.6606000000
1.4973000000 5.5464000000 1.5673000000
1.4957000000 1.9109000000 2.5659000000
1.4947000000 2.5603000000 3.5140000000
1.2609000000 4.5679000000 2.8905000000
1.2595000000 0.6795000000 0.8745000000
1.2583000000 4.2371000000 3.1516000000
1.2583000000 3.8008000000 3.4514000000
1.2580000000 4.2897000000 3.1227000000
1.2577000000 6.7147000000 0.0326000000
1.2573000000 2.1334000000 2.9324000000
1.2571000000 5.0839000000 2.2000000000
1.2565000000 5.4935000000 1.6384000000
1.2560000000 1.8063000000 2.4290000000
1.2558000000 4.5726000000 2.8849000000
1.2553000000 3.1056000000 3.5719000000
1.2552000000 2.1646000000 2.9683000000
1.2550000000 6.0009000000 0.9406000000
1.2550000000 6.1630000000 0.7149000000
1.2548000000 3.6805000000 3.5344000000
1.2546000000 0.9169000000 1.2005000000
1.2543000000 0.6136000000 0.7806000000
1.2542000000 5.5725000000 1.5298000000
1.2541000000 4.2595000000 3.1264000000
1.2539000000 6.3661000000 0.4377000000
1.2537000000 1.2039000000 1.5955000000
1.2535000000 1.4978000000 1.9985000000
1.2533000000 5.6884000000 1.3668000000
1.2530000000 0.5208000000 0.6567000000
1.2530000000 5.5564000000 1.5499000000
1.2528000000 3.3397000000 3.7848000000
1.2527000000 0.1634000000 0.1626000000
1.2525000000 3.8767000000 3.3936000000
1.2522000000 0.1953000000 0.2070000000
1.2520000000 4.7196000000 2.6992000000
1.2518000000 2.5404000000 3.1821000000
1.2516000000 1.6241000000 2.1826000000
1.2515000000 5.9557000000 1.0034000000
1.2514000000 1.0926000000 1.4446000000
1.2511000000 4.1471000000 3.2031000000
1.2507000000 0.1307000000 0.1254000000
1.2505000000 3.8126000000 3.4345000000
1.2504000000 1.5525000000 2.0730000000
1.2503000000 1.0030000000 1.3184000000
1.2498000000 0.9232000000 1.2126000000
1.2494000000 4.1346000000 3.2085000000
1.2492000000 1.7702000000 2.3753000000
1.2489000000 1.0479000000 1.3781000000
1.2484000000 4.8172000000 2.5692000000
1.2477000000 5.9192000000 1.0524000000
1.2466000000 0.5736000000 0.7287000000
1.2456000000 5.3699000000 1.8055000000
1.0118000000 1.5746000000 2.1058000000
1.0106000000 3.6863000000 3.2296000000
1.0103000000 5.9890000000 0.9587000000
1.0091000000 3.0231000000 3.2186000000
1.0087000000 0.7688000000 0.9938000000
1.0085000000 2.2911000000 2.7149000000
1.0083000000 4.0362000000 2.9908000000
1.0077000000 1.2026000000 1.5940000000
1.0074000000 2.6009000000 2.9325000000
1.0071000000 6.6102000000 0.1809000000
1.0068000000 5.4971000000 1.6307000000
1.0065000000 4.5337000000 2.6503000000
1.0064000000 4.0176000000 3.0057000000
1.0063000000 0.5882000000 0.7484000000
1.0058000000 1.5334000000 2.0483000000
1.0055000000 3.9459000000 3.0473000000
1.0055000000 4.2394000000 2.8463000000
1.0054000000 4.0004000000 3.0158000000
1.0052000000 5.3528000000 1.8296000000
1.0051000000 4.0087000000 3.0105000000
1.0050000000 0.2158000000 0.2360000000
1.0047000000 0.2350000000 0.2664000000
1.0046000000 1.7166000000 2.3538000000
1.0045000000 2.8028000000 3.0656000000
1.0043000000 0.6323000000 0.8081000000
1.0042000000 6.4457000000 0.3253000000
1.0040000000 1.4336000000 1.9092000000
1.0034000000 5.7744000000 1.2497000000
1.0032000000 4.1586000000 2.9045000000
1.0029000000 4.9276000000 2.4253000000
1.0028000000 5.3032000000 1.8944000000
1.0027000000 3.9906000000 3.0154000000
1.0025000000 5.6246000000 1.4611000000
1.0024000000 5.9571000000 0.9999000000
1.0022000000 6.3726000000 0.4237000000
1.0020000000 4.1285000000 2.9187000000
1.0017000000 4.1027000000 2.9360000000
1.0015000000 1.1793000000 1.5555000000
1.0014000000 0.8276000000 1.0773000000
1.0010000000 1.3834000000 1.8390000000
1.0008000000 4.1238000000 2.9278000000
1.0005000000 1.6848000000 2.3116000000
1.0003000000 0.4313000000 0.5321000000
1.0001000000 2.8135000000 3.0628000000
0.9998000000 6.6830000000 0.0757000000
0.9995000000 5.4609000000 1.6795000000
0.9993000000 4.3658000000 2.7533000000
0.9985000000 6.4273000000 0.3541000000
0.9973000000 0.4130000000 0.5087000000
0.9965000000 1.1136000000 1.4719000000
0.7610000000 6.5256000000 0.2221000000
0.7603000000 5.6557000000 1.4148000000
0.7594000000 5.7033000000 1.3555000000
0.7592000000 3.3259000000 3.1803000000
0.7586000000 6.4571000000 0.3149000000
0.7583000000 6.2494000000 0.5968000000
0.7573000000 3.1087000000 2.9752000000
0.7571000000 4.9841000000 2.0421000000
0.7567000000 3.9067000000 2.7844000000
0.7565000000 2.0771000000 2.2669000000
0.7564000000 1.8584000000 2.1186000000
0.7562000000 1.7214000000 2.0252000000
0.7561000000 5.6732000000 1.3939000000
0.7556000000 1.7920000000 2.0673000000
0.7554000000 1.1646000000 1.5386000000
0.7553000000 5.1905000000 1.8978000000
0.7550000000 6.4073000000 0.3842000000
0.7549000000 0.5402000000 0.6788000000
0.7547000000 4.5790000000 2.3170000000
0.7545000000 4.7240000000 2.2208000000
0.7542000000 2.2700000000 2.3973000000
0.7540000000 5.9372000000 1.0267000000
0.7539000000 0.2214000000 0.2481000000
0.7538000000 2.5036000000 2.5573000000
0.7537000000 4.3411000000 2.4811000000
0.7535000000 4.1380000000 2.6188000000
0.7531000000 5.7395000000 1.2996000000
0.7528000000 2.4066000000 2.4907000000
0.7527000000 3.7407000000 2.8906000000
0.7525000000 3.6033000000 2.9851000000
0.7523000000 0.5263000000 0.6699000000
0.7522000000 5.5437000000 1.5676000000
0.7520000000 4.7187000000 2.2188000000
0.7519000000 2.8029000000 2.7648000000
0.7516000000 0.6880000000 0.8871000000
0.7515000000 5.3810000000 1.7397000000
0.7513000000 3.5076000000 3.0441000000
0.7512000000 0.7690000000 0.9986000000
0.7509000000 4.0549000000 2.6692000000
0.7508000000 3.6263000000 2.9693000000
0.7507000000 4.2569000000 2.5348000000
0.7505000000 0.0826000000 0.1289000000
0.7499000000 0.2348000000 0.2655000000
0.7499000000 3.4921000000 3.0591000000
0.7494000000 1.0069000000 1.3297000000
0.7492000000 0.5181000000 0.6543000000
0.7490000000 0.2293000000 0.2576000000
0.7472000000 6.2026000000 0.6640000000
0.7462000000 4.4646000000 2.3818000000
0.5142000000 6.5327000000 0.2112000000
0.5104000000 3.5668000000 2.7204000000
0.5098000000 2.9918000000 2.6001000000
0.5094000000 5.8246000000 1.1416000000
0.5089000000 6.3980000000 0.3937000000
0.5084000000 1.7368000000 1.7413000000
0.5083000000 3.2638000000 2.7869000000
0.5078000000 0.4450000000 0.5519000000
0.5076000000 6.3642000000 0.4374000000
0.5075000000 6.2690000000 0.5804000000
0.5072000000 2.8356000000 2.4972000000
0.5071000000 3.5686000000 2.7156000000
0.5070000000 4.1070000000 2.3424000000
0.5068000000 3.6589000000 2.6563000000
0.5065000000 3.3823000000 2.8205000000
0.5060000000 2.7869000000 2.4633000000
0.5059000000 3.2866000000 2.8004000000
0.5056000000 0.1067000000 0.1607000000
0.5051000000 2.4518000000 2.2264000000
0.5049000000 2.4668000000 2.2332000000
0.5047000000 3.0926000000 2.6684000000
0.5044000000 4.5742000000 2.0214000000
0.5042000000 3.9298000000 2.4679000000
0.5040000000 4.2588000000 2.2353000000
0.5038000000 2.1280000000 2.0018000000
0.5037000000 2.0542000000 1.9529000000
0.5036000000 5.9774000000 0.9674000000
0.5035000000 1.4064000000 1.5052000000
0.5033000000 0.0982000000 0.1468000000
0.5031000000 6.5663000000 0.1603000000
0.5030000000 4.3360000000 2.1759000000
0.5027000000 0.7573000000 0.9757000000
0.5026000000 1.8198000000 1.7881000000
0.5025000000 5.3185000000 1.5143000000
0.5021000000 6.3921000000 0.4065000000
0.5021000000 2.8491000000 2.5002000000
0.5017000000 4.5280000000 2.0502000000
0.5016000000 1.6976000000 1.6999000000
0.5014000000 0.2486000000 0.2817000000
0.5012000000 2.8954000000 2.5269000000
0.5011000000 0.2386000000 0.2697000000
0.5010000000 5.6551000000 1.2719000000
0.5008000000 2.4673000000 2.2357000000
0.5006000000 1.3722000000 1.4849000000
0.4992000000 6.6181000000 0.1657000000
0.4986000000 1.1621000000 1.3296000000
0.4983000000 0.8992000000 1.2073000000
0.4980000000 3.2672000000 2.7794000000
0.4966000000 3.7764000000 2.5625000000
0.4953000000 2.6840000000 2.3771000000
0.2609000000 6.4516000000 0.3227000000
0.2597000000 1.9643000000 1.5996000000
0.2585000000 5.1458000000 1.3345000000
0.2580000000 6.1675000000 0.6281000000
0.2579000000 5.0491000000 1.4002000000
0.2576000000 4.7726000000 1.5886000000
0.2575000000 5.2892000000 1.2372000000
0.2568000000 3.6938000000 2.3297000000
0.2564000000 5.6378000000 0.9952000000
0.2562000000 3.7278000000 2.3088000000
0.2562000000 6.1437000000 0.6461000000
0.2558000000 6.4854000000 0.2747000000
0.2556000000 3.7989000000 2.2581000000
0.2552000000 0.7812000000 0.7848000000
0.2551000000 0.8801000000 0.8464000000
0.2550000000 0.7401000000 0.7549000000
0.2545000000 2.9826000000 2.2934000000
0.2543000000 3.3955000000 2.5859000000
0.2541000000 0.4201000000 0.5738000000
0.2539000000 6.4074000000 0.3782000000
0.2535000000 1.8936000000 1.5388000000
0.2532000000 2.9746000000 2.2900000000
0.2531000000 4.2442000000 1.9461000000
0.2527000000 2.7901000000 2.1600000000
0.2524000000 4.3448000000 1.8842000000
0.2523000000 3.9254000000 2.1670000000
0.2522000000 6.5516000000 0.1791000000
0.2520000000 5.7484000000 0.9121000000
0.2516000000 2.4779000000 1.9457000000
0.2512000000 3.3998000000 2.5773000000
0.2511000000 1.9121000000 1.5542000000
0.2508000000 4.3247000000 1.8886000000
0.2503000000 6.0165000000 0.7370000000
0.2501000000 2.7491000000 2.1314000000
0.2499000000 2.1873000000 1.7405000000
0.2496000000 2.7069000000 2.0969000000
0.2493000000 4.0681000000 2.0689000000
0.2489000000 6.7245000000 0.0197000000
0.2485000000 0.5815000000 0.6357000000
0.2483000000 0.8414000000 0.8139000000
0.2480000000 1.8866000000 1.5323000000
0.2478000000 1.1673000000 1.0330000000
0.2473000000 1.6852000000 1.3952000000
0.2444000000 0.8150000000 0.7829000000
0.0100000000 3.7413000000 2.0031000000
0.0090000000 3.0907000000 2.0768000000
0.0085000000 5.8171000000 0.5793000000
0.0082000000 4.8221000000 1.2590000000
0.0079000000 3.8063000000 1.9588000000
0.0071000000 5.8941000000 0.5245000000
0.0071000000 4.0312000000 1.8003000000
0.0063000000 6.6166000000 0.0886000000
0.0060000000 0.8214000000 0.5113000000
0.0059000000 4.1228000000 1.7365000000
0.0057000000 5.5492000000 0.7581000000
0.0055000000 6.0098000000 0.4416000000
0.0055000000 3.6837000000 2.0415000000
0.0054000000 3.9727000000 1.8438000000
0.0050000000 1.0630000000 0.6733000000
0.0049000000 5.1288000000 1.0465000000
0.0048000000 6.7711000000 0.0822000000
0.0046000000 2.4090000000 1.6015000000
0.0043000000 1.4323000000 0.9318000000
0.0042000000 3.3781000000 2.2248000000
0.0041000000 1.7560000000 1.1577000000
0.0040000000 2.5741000000 1.7149000000
0.0038000000 3.8992000000 1.8872000000
0.0035000000 1.0380000000 0.6528000000
0.0033000000 5.5154000000 0.7818000000
0.0031000000 1.8683000000 1.2328000000
0.0030000000 3.7865000000 1.9660000000
0.0028000000 0.5383000000 0.3144000000
0.0026000000 1.0252000000 0.6488000000
0.0024000000 6.1588000000 0.3375000000
0.0022000000 0.7695000000 0.4751000000
0.0020000000 1.0343000000 0.6494000000
0.0015000000 6.0969000000 0.3739000000
0.0014000000 2.7275000000 1.8164000000
0.0011000000 2.0401000000 1.3469000000
0.0009000000 2.9818000000 1.9923000000
0.0005000000 0.1802000000 0.1385000000
0.0001000000 2.7210000000 1.8112000000
-0.0002000000 0.5647000000 0.3303000000
-0.0004000000 0.9108000000 0.5733000000
-0.0007000000 1.1288000000 0.7150000000
-0.0008000000 3.1192000000 2.0825000000
-0.0013000000 2.0014000000 1.3132000000
-0.0020000000 2.6960000000 1.7882000000
-0.0029000000 0.2222000000 0.1651000000
-0.0038000000 2.5079000000 1.6584000000
-0.0047000000 1.8945000000 1.2358000000
-0.2350000000 5.1760000000 0.7318000000
-0.2370000000 2.2068000000 1.1806000000
-0.2372000000 6.0848000000 0.1791000000
-0.2397000000 6.2390000000 0.0651000000
-0.2403000000 5.1381000000 0.7476000000
-0.2408000000 5.2190000000 0.6920000000
-0.2413000000 1.5422000000 0.7108000000
-0.2424000000 2.2471000000 1.2045000000
-0.2426000000 1.1481000000 0.4390000000
-0.2427000000 2.4568000000 1.3379000000
-0.2428000000 6.4806000000 0.0474000000
-0.2430000000 5.2169000000 0.6867000000
-0.2431000000 6.4685000000 0.0581000000
-0.2433000000 2.4273000000 1.3195000000
-0.2437000000 3.9297000000 1.5725000000
-0.2440000000 2.9966000000 1.7121000000
-0.2442000000 4.5345000000 1.1630000000
-0.2443000000 3.4183000000 1.9163000000
-0.2445000000 0.3672000000 0.0498000000
-0.2448000000 5.5931000000 0.4388000000
-0.2451000000 5.4436000000 0.5303000000
-0.2452000000 3.5523000000 1.8297000000
-0.2453000000 4.9797000000 0.8519000000
-0.2456000000 5.5815000000 0.4368000000
-0.2457000000 0.7044000000 0.1343000000
-0.2457000000 2.6599000000 1.4768000000
-0.2459000000 3.1088000000 1.7839000000
-0.2460000000 2.6810000000 1.4910000000
-0.2463000000 2.3517000000 1.2620000000
-0.2469000000 4.5997000000 1.1080000000
-0.2470000000 3.1849000000 1.8299000000
-0.2474000000 5.3247000000 0.6085000000
-0.2475000000 0.8205000000 0.2167000000
-0.2476000000 1.5527000000 0.7111000000
-0.2478000000 4.0210000000 1.5119000000
-0.2481000000 2.5065000000 1.3665000000
-0.2484000000 5.3048000000 0.6215000000
-0.2486000000 3.7185000000 1.7168000000
-0.2487000000 3.2172000000 1.8553000000
-0.2489000000 2.9101000000 1.6453000000
-0.2492000000 0.4446000000 0.0206000000
-0.2497000000 2.4375000000 1.3200000000
-0.2499000000 2.2471000000 1.1898000000
-0.2509000000 0.2516000000 0.0361000000
-0.2511000000 1.7628000000 0.8545000000
-0.2515000000 2.1945000000 1.1509000000
-0.2520000000 1.6611000000 0.7824000000
-0.2530000000 0.9760000000 0.3118000000
-0.2536000000 2.5219000000 1.3735000000
-0.4868000000 3.6834000000 1.4571000000
-0.4904000000 4.8697000000 0.6326000000
-0.4908000000 3.5553000000 1.5387000000
-0.4912000000 5.4360000000 0.2452000000
-0.4914000000 1.7546000000 0.5573000000
-0.4922000000 4.1385000000 1.1340000000
-0.4927000000 3.8416000000 1.3369000000
-0.4930000000 4.9789000000 0.5525000000
-0.4932000000 2.9079000000 1.3555000000
-0.4935000000 3.9862000000 1.2348000000
-0.4937000000 3.8195000000 1.3505000000
-0.4944000000 5.8111000000 0.0540000000
-0.4945000000 1.3835000000 0.2990000000
-0.4947000000 1.9245000000 0.6746000000
-0.4950000000 4.7121000000 0.7376000000
-0.4952000000 0.7264000000 0.0795000000
-0.4953000000 3.7217000000 1.4210000000
-0.4954000000 2.3232000000 0.9460000000
-0.4956000000 5.4555000000 0.2274000000
-0.4957000000 5.3047000000 0.3261000000
-0.4958000000 3.5488000000 1.5347000000
-0.4960000000 4.4379000000 0.9235000000
-0.4961000000 3.2864000000 1.6102000000
-0.4962000000 5.4581000000 0.2231000000
-0.4965000000 4.0860000000 1.1658000000
-0.4972000000 3.1041000000 1.4867000000
-0.4973000000 1.5816000000 0.4356000000
-0.4974000000 4.8079000000 0.6654000000
-0.4977000000 4.8532000000 0.6340000000
-0.4978000000 5.6546000000 0.1638000000
-0.4980000000 1.1579000000 0.1413000000
-0.4985000000 1.9569000000 0.6885000000
-0.4989000000 2.3466000000 0.9632000000
-0.4993000000 6.0346000000 0.0440000000
-0.4999000000 5.3549000000 0.2912000000
-0.5006000000 4.5471000000 0.8406000000
-0.5008000000 3.1406000000 1.5044000000
-0.5010000000 3.2052000000 1.5436000000
-0.5015000000 1.0646000000 0.1476000000
-0.5025000000 3.2058000000 1.5446000000
-0.5026000000 3.9962000000 1.2215000000
-0.7366000000 2.4856000000 0.7752000000
-0.7382000000 3.9050000000 0.9990000000
-0.7407000000 2.0108000000 0.4371000000
-0.7421000000 4.9498000000 0.2825000000
-0.7424000000 2.6508000000 0.8780000000
-0.7429000000 3.2708000000 1.3041000000
-0.7430000000 1.4771000000 0.1522000000
-0.7435000000 5.5026000000 0.0463000000
-0.7437000000 4.5883000000 0.5229000000
-0.7440000000 1.9517000000 0.3913000000
-0.7441000000 4.7148000000 0.4349000000
-0.7447000000 5.6496000000 0.0171000000
-0.7450000000 4.0173000000 0.9143000000
-0.7451000000 1.5594000000 0.1241000000
-0.7454000000 4.9326000000 0.2865000000
-0.7457000000 4.2358000000 0.7584000000
-0.7460000000 1.2053000000 0.0320000000
-0.7461000000 5.6692000000 0.0081000000
-0.7462000000 4.0211000000 0.9119000000
-0.7464000000 2.2099000000 0.5674000000
-0.7465000000 1.7583000000 0.2623000000
-0.7468000000 4.4050000000 0.6423000000
-0.7470000000 2.5576000000 0.8080000000
-0.7477000000 3.4451000000 1.3072000000
-0.7480000000 4.0406000000 0.8979000000
-0.7481000000 4.0224000000 0.9176000000
-0.7483000000 5.0364000000 0.2093000000
-0.7485000000 5.6290000000 0.0260000000
-0.7486000000 2.5023000000 0.7697000000
-0.7488000000 4.3452000000 0.6824000000
-0.7490000000 1.9622000000 0.4018000000
-0.7499000000 2.5899000000 0.8315000000
-0.7508000000 4.1867000000 0.7951000000
-0.7512000000 1.1329000000 0.0557000000
-0.7518000000 2.4267000000 0.7091000000
-0.7536000000 1.5820000000 0.1333000000
-0.9895000000 3.4813000000 0.9928000000
-0.9919000000 2.6287000000 0.5691000000
-0.9924000000 2.2787000000 0.3264000000
-0.9928000000 3.3235000000 1.0937000000
-0.9931000000 3.9103000000 0.6964000000
-0.9937000000 4.6812000000 0.1682000000
-0.9939000000 5.2029000000 0.0248000000
-0.9941000000 4.5103000000 0.2842000000
-0.9946000000 2.3393000000 0.3611000000
-0.9947000000 2.6527000000 0.5734000000
-0.9950000000 4.6091000000 0.2117000000
-0.9954000000 4.9246000000 0.0666000000
-0.9956000000 2.8409000000 0.7120000000
-0.9958000000 3.0068000000 0.8206000000
-0.9961000000 3.0116000000 0.8265000000
-0.9964000000 1.5088000000 0.0153000000
-0.9972000000 3.9175000000 0.6850000000
-0.9973000000 3.3778000000 1.0395000000
-0.9976000000 5.1719000000 0.0451000000
-0.9981000000 4.1631000000 0.5125000000
-0.9984000000 4.8147000000 0.1369000000
-0.9985000000 2.4502000000 0.4335000000
-0.9989000000 3.0962000000 0.8731000000
-0.9994000000 2.1768000000 0.2460000000
-1.0002000000 2.1338000000 0.2142000000
-1.0005000000 4.5218000000 0.2699000000
-1.0010000000 1.7907000000 0.0572000000
-1.0017000000 2.2379000000 0.2834000000
-1.0028000000 3.6457000000 0.8625000000
-1.0033000000 2.0283000000 0.1373000000
-1.2366000000 2.5351000000 0.2150000000
-1.2399000000 3.5581000000 0.6417000000
-1.2415000000 4.0421000000 0.3005000000
-1.2431000000 3.0892000000 0.5791000000
-1.2437000000 2.8845000000 0.4423000000
-1.2442000000 3.4943000000 0.6774000000
-1.2446000000 2.9601000000 0.4923000000
-1.2450000000 3.8776000000 0.4194000000
-1.2458000000 3.3309000000 0.8024000000
-1.2462000000 2.1200000000 0.0621000000
-1.2462000000 3.5088000000 0.6708000000
-1.2466000000 4.5924000000 0.0733000000
-1.2468000000 4.1969000000 0.1934000000
-1.2480000000 2.7956000000 0.3756000000
-1.2492000000 4.1494000000 0.2249000000
-1.2496000000 3.5417000000 0.6438000000
-1.2504000000 4.5958000000 0.0658000000
-1.2515000000 2.0037000000 0.0501000000
-1.2515000000 3.0730000000 0.5649000000
-1.2521000000 2.7965000000 0.3743000000
-1.2530000000 3.0899000000 0.5778000000
-1.4870000000 3.5632000000 0.3458000000
-1.4918000000 4.1997000000 0.0437000000
-1.4929000000 4.1025000000 0.0434000000
-1.4948000000 3.4942000000 0.3845000000
-1.4955000000 3.6563000000 0.2674000000
-1.4966000000 3.1876000000 0.3477000000
-1.4974000000 4.3712000000 -0.0017000000
-1.4976000000 3.0601000000 0.2627000000
-1.4985000000 2.9425000000 0.1761000000
-1.4990000000 3.0122000000 0.2292000000
-1.4995000000 2.4127000000 0.0367000000
-1.5009000000 2.5799000000 0.0739000000
-1.5018000000 3.5617000000 0.3347000000
-1.7418000000 3.8561000000 0.0641000000
-1.7425000000 2.9156000000 0.0133000000
-1.7439000000 3.0395000000 0.0251000000
-1.7442000000 3.7052000000 0.0870000000
-1.7453000000 3.9266000000 0.0138000000
-1.7473000000 3.5716000000 0.1019000000
-1.7476000000 3.8214000000 0.0835000000
-1.7486000000 3.4597000000 0.1756000000
-1.7496000000 3.0583000000 0.0330000000
