5.2612000000 2.9481000000 0.1258000000
5.2547000000 3.2044000000 0.1227000000
5.2539000000 2.9912000000 0.0811000000
5.2523000000 2.7049000000 0.0656000000
5.2489000000 3.2537000000 0.1012000000
5.2478000000 3.0568000000 0.1298000000
5.0100000000 3.3576000000 0.2832000000
5.0077000000 3.3203000000 0.3086000000
5.0072000000 3.9625000000 0.0817000000
5.0068000000 3.0615000000 0.3757000000
5.0060000000 2.7496000000 0.1968000000
5.0055000000 3.2855000000 0.3303000000
5.0044000000 3.6218000000 0.1379000000
5.0043000000 3.1913000000 0.3895000000
5.0033000000 2.7704000000 0.2124000000
5.0018000000 3.4818000000 0.2210000000
5.0008000000 3.8079000000 0.1034000000
5.0003000000 2.5617000000 0.0860000000
4.9998000000 3.4985000000 0.2112000000
4.9988000000 3.1736000000 0.3849000000
4.7617000000 4.1053000000 0.0992000000
4.7602000000 3.6780000000 0.3465000000
4.7595000000 3.0778000000 0.6258000000
4.7590000000 3.1462000000 0.6468000000
4.7571000000 2.0413000000 0.1058000000
4.7566000000 4.3452000000 0.0339000000
4.7560000000 1.9147000000 0.0253000000
4.7556000000 2.8199000000 0.4868000000
4.7548000000 3.2001000000 0.6306000000
4.7543000000 2.6533000000 0.3918000000
4.7541000000 2.1957000000 0.1301000000
4.7532000000 4.0793000000 0.1196000000
4.7528000000 2.5833000000 0.3565000000
4.7519000000 2.5138000000 0.3177000000
4.7513000000 2.0382000000 0.1051000000
4.7508000000 3.7950000000 0.2927000000
4.7505000000 2.6070000000 0.3703000000
4.7500000000 2.3157000000 0.2027000000
4.7485000000 2.3221000000 0.2049000000
4.7474000000 2.7531000000 0.4584000000
4.7469000000 3.8692000000 0.2513000000
4.5147000000 1.4007000000 0.0532000000
4.5100000000 4.4561000000 0.1479000000
4.5095000000 1.3349000000 0.0175000000
4.5091000000 4.4170000000 0.1730000000
4.5085000000 4.4932000000 0.1228000000
4.5076000000 3.3155000000 0.8153000000
4.5070000000 1.5155000000 0.0444000000
4.5069000000 3.8694000000 0.4962000000
4.5067000000 4.7856000000 0.1043000000
4.5058000000 1.7639000000 0.1306000000
4.5055000000 1.6933000000 0.0852000000
4.5050000000 2.3971000000 0.4938000000
4.5038000000 2.6718000000 0.6603000000
4.5035000000 1.6469000000 0.1314000000
4.5032000000 1.7597000000 0.1256000000
4.5025000000 1.4006000000 0.0595000000
4.5019000000 3.7042000000 0.5988000000
4.5010000000 1.9623000000 0.2464000000
4.5004000000 4.0213000000 0.4195000000
4.5000000000 3.1777000000 0.8959000000
4.4989000000 3.4518000000 0.7459000000
4.4980000000 3.8710000000 0.5068000000
4.4966000000 1.5003000000 0.0528000000
4.2600000000 5.3476000000 0.0195000000
4.2593000000 2.4789000000 0.7929000000
4.2592000000 4.3172000000 0.4839000000
4.2583000000 5.1910000000 0.0480000000
4.2580000000 4.4455000000 0.4107000000
4.2576000000 1.0949000000 0.0570000000
4.2570000000 4.6478000000 0.2881000000
4.2567000000 3.9192000000 0.7223000000
4.2565000000 3.6552000000 0.8767000000
4.2563000000 3.9085000000 0.7270000000
4.2560000000 2.7375000000 0.9473000000
4.2558000000 5.2090000000 0.0353000000
4.2555000000 2.3635000000 0.7324000000
4.2551000000 5.2352000000 0.0961000000
4.2550000000 1.7494000000 0.3680000000
4.2545000000 1.6870000000 0.3358000000
4.2543000000 4.8072000000 0.2010000000
4.2540000000 4.4240000000 0.4266000000
4.2538000000 4.4277000000 0.4252000000
4.2533000000 1.8062000000 0.4010000000
4.2527000000 3.2937000000 1.0969000000
4.2525000000 4.0261000000 0.6599000000
4.2523000000 1.3360000000 0.1322000000
4.2521000000 2.3296000000 0.7192000000
4.2518000000 1.0283000000 0.0967000000
4.2514000000 1.2808000000 0.1012000000
4.2506000000 1.4815000000 0.2210000000
4.2503000000 1.1884000000 0.1190000000
4.2500000000 4.0903000000 0.6303000000
4.2499000000 1.9257000000 0.4852000000
4.2495000000 3.1792000000 1.1476000000
4.2490000000 4.6132000000 0.3181000000
4.2478000000 2.5882000000 0.8728000000
4.2457000000 5.0908000000 0.1165000000
4.0126000000 5.4270000000 0.0810000000
4.0102000000 4.2943000000 0.7507000000
4.0098000000 3.6980000000 1.1073000000
4.0096000000 3.2873000000 1.3411000000
4.0085000000 3.5336000000 1.2060000000
4.0083000000 5.0208000000 0.3241000000
4.0082000000 3.2334000000 1.3795000000
4.0075000000 4.0764000000 0.8821000000
4.0074000000 4.0670000000 0.8866000000
4.0072000000 5.2694000000 0.1817000000
4.0071000000 3.1238000000 1.4145000000
4.0066000000 3.0185000000 1.3687000000
4.0064000000 3.3604000000 1.3120000000
4.0059000000 0.5665000000 0.0788000000
4.0058000000 3.9691000000 0.9483000000
4.0057000000 4.2943000000 0.7590000000
4.0054000000 5.8164000000 0.0056000000
4.0050000000 1.9808000000 0.7627000000
4.0048000000 2.5954000000 1.1265000000
4.0042000000 3.7103000000 1.1057000000
4.0040000000 3.7834000000 1.0539000000
4.0038000000 3.5039000000 1.2209000000
4.0035000000 1.7078000000 0.6021000000
4.0033000000 4.5216000000 0.6283000000
4.0028000000 1.0679000000 0.2285000000
4.0025000000 0.5067000000 0.0538000000
4.0025000000 4.6993000000 0.5204000000
4.0023000000 3.9116000000 0.9869000000
4.0021000000 4.6094000000 0.5769000000
4.0019000000 1.2018000000 0.3082000000
4.0016000000 4.1539000000 0.8408000000
4.0015000000 2.0734000000 0.8158000000
4.0013000000 4.2541000000 0.7854000000
4.0009000000 1.7267000000 0.6151000000
4.0008000000 1.2350000000 0.3239000000
4.0008000000 1.9108000000 0.7200000000
4.0006000000 1.9416000000 0.7470000000
3.9999000000 1.0585000000 0.2249000000
3.9996000000 1.1971000000 0.3041000000
3.9988000000 0.5943000000 0.1028000000
3.9985000000 0.5667000000 0.0905000000
3.9978000000 0.6028000000 0.0326000000
3.9963000000 1.1063000000 0.2569000000
3.7606000000 3.7568000000 1.3261000000
3.7602000000 5.9253000000 0.1213000000
3.7598000000 1.5955000000 0.7833000000
3.7594000000 6.0325000000 0.0574000000
3.7592000000 2.8715000000 1.5355000000
3.7587000000 5.7722000000 0.1415000000
3.7585000000 3.3403000000 1.5754000000
3.7581000000 2.0176000000 1.0384000000
3.7578000000 1.9607000000 1.0016000000
3.7572000000 4.3947000000 0.9566000000
3.7571000000 2.7356000000 1.4581000000
3.7570000000 2.2794000000 1.1920000000
3.7568000000 0.0886000000 0.0510000000
3.7566000000 3.9442000000 1.2151000000
3.7565000000 3.1009000000 1.6569000000
3.7564000000 2.0970000000 1.0933000000
3.7560000000 6.0899000000 0.0987000000
3.7559000000 1.3702000000 0.6578000000
3.7555000000 2.7857000000 1.4902000000
3.7553000000 4.3549000000 0.9755000000
3.7550000000 2.2749000000 1.1951000000
3.7547000000 5.0796000000 0.5495000000
3.7544000000 5.3815000000 0.3734000000
3.7543000000 2.6712000000 1.4250000000
3.7541000000 3.7681000000 1.3245000000
3.7540000000 0.7771000000 0.3097000000
3.7539000000 2.7541000000 1.4770000000
3.7538000000 4.7894000000 0.7263000000
3.7536000000 0.9032000000 0.3841000000
3.7533000000 2.5863000000 1.3740000000
3.7533000000 4.5950000000 0.8386000000
3.7531000000 4.0065000000 1.1927000000
3.7530000000 3.4956000000 1.4825000000
3.7527000000 1.8330000000 0.9329000000
3.7522000000 3.8736000000 1.2671000000
3.7517000000 4.5739000000 0.8493000000
3.7512000000 0.6408000000 0.2333000000
3.7510000000 4.6068000000 0.8319000000
3.7508000000 0.2738000000 0.0910000000
3.7505000000 0.8931000000 0.3777000000
3.7503000000 2.7540000000 1.4801000000
3.7499000000 0.9285000000 0.4033000000
3.7498000000 0.1080000000 0.0744000000
3.7482000000 0.8971000000 0.3852000000
3.7478000000 0.5979000000 0.2080000000
3.7462000000 2.1123000000 1.1069000000
3.7456000000 2.5284000000 1.3459000000
3.5123000000 3.8152000000 1.5402000000
3.5110000000 5.1213000000 0.7708000000
3.5103000000 4.5774000000 1.0983000000
3.5087000000 3.3351000000 1.8267000000
3.5084000000 0.7323000000 0.5401000000
3.5079000000 3.4713000000 1.7531000000
3.5078000000 5.5115000000 0.5483000000
3.5075000000 5.5120000000 0.5490000000
3.5072000000 6.0591000000 0.2103000000
3.5069000000 3.0163000000 1.8781000000
3.5067000000 2.4019000000 1.5175000000
3.5063000000 0.5707000000 0.4448000000
3.5061000000 3.1169000000 1.9211000000
3.5059000000 6.2684000000 0.0684000000
3.5057000000 5.5954000000 0.5008000000
3.5056000000 2.6326000000 1.6600000000
3.5054000000 3.3724000000 1.8196000000
3.5052000000 4.3225000000 1.2520000000
3.5050000000 2.3414000000 1.4882000000
3.5051000000 1.6870000000 1.1005000000
3.5049000000 2.7520000000 1.7269000000
3.5048000000 0.2464000000 0.2314000000
3.5045000000 4.5767000000 1.1017000000
3.5042000000 3.2940000000 1.8600000000
3.5040000000 3.2526000000 1.8829000000
3.5039000000 5.2034000000 0.7363000000
3.5037000000 5.6825000000 0.4513000000
3.5034000000 1.0139000000 0.7066000000
3.5033000000 4.9874000000 0.8598000000
3.5031000000 1.1907000000 0.8040000000
3.5027000000 3.5702000000 1.6976000000
3.5025000000 1.3961000000 0.9319000000
3.5023000000 2.2125000000 1.4131000000
3.5022000000 5.2757000000 0.6851000000
3.5021000000 5.0405000000 0.8332000000
3.5019000000 2.0532000000 1.3176000000
3.5018000000 4.9938000000 0.8586000000
3.5015000000 4.8057000000 0.9729000000
3.5013000000 5.2014000000 0.7381000000
3.5012000000 1.4694000000 0.9772000000
3.5011000000 0.3141000000 0.2861000000
3.5005000000 3.8649000000 1.5296000000
3.5000000000 4.5407000000 1.1242000000
3.4999000000 1.8964000000 1.2294000000
3.4996000000 5.1236000000 0.7860000000
3.4993000000 2.0947000000 1.3482000000
3.4989000000 2.0411000000 1.3121000000
3.4986000000 2.7758000000 1.7436000000
3.4976000000 2.6837000000 1.6934000000
3.4961000000 0.6432000000 0.4954000000
3.2617000000 6.0399000000 0.2582000000
3.2602000000 4.1909000000 1.5792000000
3.2588000000 5.2081000000 0.9806000000
3.2585000000 5.3097000000 0.9178000000
3.2583000000 5.4922000000 0.8106000000
3.2573000000 4.7306000000 1.2670000000
3.2569000000 3.0648000000 2.1619000000
3.2567000000 2.3688000000 1.7516000000
3.2559000000 1.3167000000 1.1333000000
3.2557000000 0.2686000000 0.3119000000
3.2555000000 0.7358000000 0.7867000000
3.2554000000 5.5367000000 0.7808000000
3.2552000000 4.5766000000 1.3506000000
3.2550000000 5.0836000000 1.0534000000
3.2547000000 1.7747000000 1.4057000000
3.2543000000 2.6860000000 1.9462000000
3.2545000000 3.5608000000 1.9557000000
3.2541000000 1.8173000000 1.4341000000
3.2539000000 1.5455000000 1.2755000000
3.2538000000 3.4176000000 2.0447000000
3.2535000000 0.0050000000 0.0694000000
3.2533000000 3.9226000000 1.7436000000
3.2530000000 1.2794000000 1.1121000000
3.2530000000 5.5536000000 0.7626000000
3.2525000000 2.7526000000 1.9819000000
3.2522000000 5.9584000000 0.3587000000
3.2521000000 0.1413000000 0.1566000000
3.2519000000 6.1293000000 0.1517000000
3.2518000000 2.8700000000 2.0507000000
3.2516000000 5.8880000000 0.4375000000
3.2514000000 1.0645000000 0.9945000000
3.2510000000 3.4523000000 2.0260000000
3.2506000000 2.5037000000 1.8389000000
3.2503000000 0.7692000000 0.8155000000
3.2502000000 2.6148000000 1.9073000000
3.2500000000 0.8723000000 0.8792000000
3.2498000000 2.1900000000 1.6597000000
3.2493000000 0.9212000000 0.9104000000
3.2483000000 3.4124000000 2.0486000000
3.2464000000 0.4917000000 0.5713000000
3.2440000000 0.5584000000 0.6299000000
3.0114000000 2.7296000000 2.2175000000
3.0103000000 1.6405000000 1.5817000000
3.0095000000 3.9635000000 1.9639000000
3.0091000000 4.1058000000 1.8862000000
3.0087000000 1.6841000000 1.6043000000
3.0082000000 3.8260000000 2.0537000000
3.0074000000 2.2619000000 1.9459000000
3.0070000000 0.6350000000 0.7349000000
3.0067000000 1.6350000000 1.5797000000
3.0065000000 0.1137000000 0.1245000000
3.0062000000 2.4630000000 2.0629000000
3.0060000000 3.8275000000 2.0501000000
3.0059000000 2.0830000000 1.8445000000
3.0056000000 2.4806000000 2.0728000000
3.0055000000 5.2006000000 1.2251000000
3.0051000000 2.1553000000 1.8892000000
3.0050000000 4.0685000000 1.9139000000
3.0048000000 3.0426000000 2.4120000000
3.0046000000 4.8081000000 1.4774000000
3.0045000000 4.4955000000 1.6587000000
3.0042000000 5.4567000000 0.9442000000
3.0040000000 4.5688000000 1.6182000000
3.0038000000 0.2421000000 0.2777000000
3.0037000000 3.0902000000 2.4212000000
3.0036000000 3.2032000000 2.4197000000
3.0034000000 2.9466000000 2.3526000000
3.0033000000 1.8123000000 1.6852000000
3.0032000000 1.3201000000 1.3957000000
3.0031000000 1.7401000000 1.6434000000
3.0029000000 0.3630000000 0.4206000000
3.0027000000 3.3435000000 2.3433000000
3.0026000000 4.8325000000 1.4637000000
3.0025000000 3.3878000000 2.3157000000
3.0024000000 5.8863000000 0.4446000000
3.0019000000 6.0472000000 0.2511000000
3.0017000000 3.7538000000 2.1034000000
3.0016000000 0.3550000000 0.4093000000
3.0015000000 2.6032000000 2.1511000000
3.0013000000 2.5658000000 2.1342000000
3.0010000000 1.8237000000 1.7012000000
3.0006000000 1.2762000000 1.3757000000
3.0004000000 1.1058000000 1.2542000000
2.9994000000 5.6332000000 0.7398000000
2.9992000000 0.7598000000 0.8883000000
2.9991000000 2.0204000000 1.8106000000
2.9982000000 3.4408000000 2.2903000000
2.9980000000 0.4928000000 0.5762000000
2.9974000000 1.4007000000 1.4459000000
2.9965000000 0.5937000000 0.6944000000
2.9957000000 2.9185000000 2.3470000000
2.7617000000 3.9821000000 2.2024000000
2.7610000000 5.8091000000 0.5286000000
2.7603000000 6.2113000000 0.1315000000
2.7593000000 4.8336000000 1.6638000000
2.7591000000 2.3670000000 2.2618000000
2.7590000000 2.9958000000 2.6291000000
2.7583000000 3.8034000000 2.3188000000
2.7581000000 2.8947000000 2.5748000000
2.7580000000 2.1884000000 2.1583000000
2.7575000000 3.1805000000 2.6739000000
2.7573000000 3.9762000000 2.2098000000
2.7568000000 5.0941000000 1.3745000000
2.7565000000 3.6637000000 2.4032000000
2.7562000000 0.1989000000 0.2327000000
2.7560000000 5.8144000000 0.5252000000
2.7559000000 4.0878000000 2.1460000000
2.7557000000 5.6331000000 0.7376000000
2.7556000000 3.9407000000 2.2384000000
2.7553000000 2.0003000000 2.0496000000
2.7552000000 3.0028000000 2.6386000000
2.7548000000 2.9834000000 2.6293000000
2.7544000000 3.2111000000 2.6745000000
2.7543000000 6.0679000000 0.2247000000
2.7541000000 4.2312000000 2.0720000000
2.7540000000 5.3597000000 1.0616000000
2.7539000000 5.6567000000 0.7090000000
2.7537000000 1.4232000000 1.6509000000
2.7535000000 0.3180000000 0.3628000000
2.7531000000 1.9812000000 2.0420000000
2.7527000000 5.9846000000 0.3197000000
2.7525000000 0.5263000000 0.6066000000
2.7524000000 3.8904000000 2.2780000000
2.7522000000 1.4377000000 1.6619000000
2.7519000000 2.3392000000 2.2586000000
2.7518000000 5.9628000000 0.3459000000
2.7515000000 2.0106000000 2.0585000000
2.7513000000 0.2132000000 0.2435000000
2.7511000000 0.2957000000 0.3416000000
2.7510000000 0.6850000000 0.8030000000
2.7508000000 1.4123000000 1.6364000000
2.7505000000 0.3921000000 0.4469000000
2.7499000000 2.3999000000 2.2919000000
2.7496000000 4.9361000000 1.5639000000
2.7495000000 1.4412000000 1.6705000000
2.7483000000 4.5205000000 1.9060000000
2.7474000000 1.2911000000 1.5108000000
2.7460000000 3.6519000000 2.4225000000
2.5140000000 5.4144000000 0.9972000000
2.5134000000 3.3239000000 2.8509000000
2.5131000000 5.4503000000 0.9562000000
2.5103000000 4.6601000000 1.8873000000
2.5097000000 3.1512000000 2.9370000000
2.5095000000 1.9137000000 2.2313000000
2.5088000000 4.7743000000 1.7514000000
2.5085000000 2.0154000000 2.2994000000
2.5083000000 5.8998000000 0.4223000000
2.5077000000 2.9606000000 2.8691000000
2.5073000000 3.0829000000 2.9280000000
2.5070000000 5.9585000000 0.3572000000
2.5069000000 6.2162000000 0.1224000000
2.5067000000 1.0674000000 1.2566000000
2.5063000000 5.6016000000 0.7810000000
2.5061000000 5.6389000000 0.7313000000
2.5059000000 2.9935000000 2.8912000000
2.5058000000 0.9576000000 1.1205000000
2.5057000000 3.6066000000 2.6925000000
2.5056000000 3.8340000000 2.5612000000
2.5055000000 3.8945000000 2.5329000000
2.5053000000 1.2922000000 1.5144000000
2.5051000000 2.9379000000 2.8592000000
2.5049000000 2.4258000000 2.5591000000
2.5045000000 4.5623000000 2.0045000000
2.5043000000 4.8081000000 1.7093000000
2.5043000000 5.5526000000 0.8343000000
2.5040000000 5.3812000000 1.0341000000
2.5038000000 6.2053000000 0.1384000000
2.5035000000 2.1349000000 2.3872000000
2.5034000000 3.4710000000 2.7759000000
2.5032000000 1.5358000000 1.8006000000
2.5030000000 4.4647000000 2.1169000000
2.5030000000 4.6918000000 1.8507000000
2.5028000000 1.0769000000 1.2551000000
2.5025000000 2.0728000000 2.3503000000
2.5023000000 1.1382000000 1.3303000000
2.5020000000 2.9180000000 2.8488000000
2.5018000000 2.8727000000 2.8216000000
2.5016000000 2.1887000000 2.4193000000
2.5015000000 0.3388000000 0.3894000000
2.5012000000 4.8500000000 1.6594000000
2.5010000000 0.2388000000 0.2670000000
2.5007000000 3.3280000000 2.8613000000
2.5004000000 2.9221000000 2.8506000000
2.5001000000 1.0461000000 1.2271000000
2.5000000000 4.9968000000 1.4902000000
2.4993000000 3.5504000000 2.7362000000
2.4992000000 2.7607000000 2.7578000000
2.4989000000 3.0144000000 2.9114000000
2.4983000000 1.9009000000 2.2116000000
2.4978000000 2.3781000000 2.5346000000
2.4972000000 1.2106000000 1.4167000000
2.4968000000 0.1789000000 0.2004000000
2.4953000000 1.5876000000 1.8626000000
2.2610000000 4.7181000000 1.8127000000
2.2602000000 5.5231000000 0.8673000000
2.2591000000 5.5466000000 0.8426000000
2.2584000000 4.1887000000 2.4459000000
2.2578000000 3.4791000000 3.0182000000
2.2574000000 0.9863000000 1.1549000000
2.2570000000 5.1654000000 1.2904000000
2.2569000000 5.6995000000 0.6590000000
2.2568000000 2.7444000000 2.9954000000
2.2565000000 1.2711000000 1.4898000000
2.2561000000 4.4470000000 2.1374000000
2.2561000000 3.1845000000 3.1904000000
2.2559000000 1.7862000000 2.0963000000
2.2555000000 1.6226000000 1.9063000000
2.2553000000 4.7948000000 1.7288000000
2.2548000000 1.8428000000 2.1569000000
2.2546000000 5.8907000000 0.4347000000
2.2545000000 4.0507000000 2.5966000000
2.2544000000 5.9939000000 0.3085000000
2.2538000000 0.5917000000 0.6912000000
2.2537000000 1.7744000000 2.0807000000
2.2534000000 4.6061000000 1.9508000000
2.2530000000 2.6822000000 2.9646000000
2.2528000000 5.1909000000 1.2629000000
2.2526000000 1.0007000000 1.1715000000
2.2525000000 1.0019000000 1.1756000000
2.2524000000 1.2128000000 1.4228000000
2.2521000000 2.2652000000 2.6409000000
2.2520000000 3.9119000000 2.7489000000
2.2518000000 2.5014000000 2.8571000000
2.2516000000 3.3058000000 3.1272000000
2.2513000000 4.5980000000 1.9584000000
2.2513000000 2.5217000000 2.8777000000
2.2511000000 3.8203000000 2.8102000000
2.2510000000 2.4813000000 2.8503000000
2.2502000000 2.3804000000 2.7693000000
2.2498000000 0.2823000000 0.3295000000
2.2495000000 1.6780000000 1.9654000000
2.2485000000 4.0456000000 2.6152000000
2.2483000000 1.6184000000 1.8957000000
2.2477000000 2.3547000000 2.7471000000
2.2468000000 6.1264000000 0.1560000000
2.2440000000 0.4701000000 0.5457000000
2.0119000000 4.4592000000 2.1246000000
2.0098000000 4.7237000000 1.8124000000
2.0088000000 1.4060000000 1.6502000000
2.0082000000 5.7712000000 0.5733000000
2.0076000000 5.3637000000 1.0542000000
2.0070000000 5.6587000000 0.7023000000
2.0066000000 4.1103000000 2.5330000000
2.0063000000 6.0335000000 0.2642000000
2.0058000000 1.5108000000 1.7691000000
2.0057000000 5.3762000000 1.0439000000
2.0056000000 3.6665000000 3.0542000000
2.0055000000 3.2521000000 3.4181000000
2.0052000000 5.5696000000 0.8166000000
2.0051000000 3.6675000000 3.0567000000
2.0049000000 4.3812000000 2.2139000000
2.0047000000 2.4926000000 2.9291000000
2.0045000000 3.6342000000 3.0934000000
2.0043000000 4.2805000000 2.3320000000
2.0042000000 1.4329000000 1.6800000000
2.0041000000 3.5081000000 3.2173000000
2.0038000000 2.8417000000 3.2908000000
2.0037000000 0.9864000000 1.1503000000
2.0032000000 4.2082000000 2.4159000000
2.0030000000 4.4706000000 2.1052000000
2.0027000000 2.5903000000 3.0471000000
2.0024000000 1.7687000000 2.0724000000
2.0023000000 2.2294000000 2.6164000000
2.0021000000 0.8482000000 0.9916000000
2.0020000000 1.4222000000 1.6652000000
2.0019000000 3.8633000000 2.8235000000
2.0018000000 1.2474000000 1.4585000000
2.0011000000 1.3157000000 1.5453000000
2.0008000000 0.9544000000 1.1162000000
2.0007000000 4.0336000000 2.6241000000
2.0003000000 3.2100000000 3.4429000000
2.0001000000 2.4840000000 2.9163000000
1.9999000000 3.0322000000 3.4267000000
1.9995000000 1.0155000000 1.1901000000
1.9993000000 1.6756000000 1.9635000000
1.9987000000 3.8853000000 2.8056000000
1.9984000000 0.7039000000 0.8231000000
1.9967000000 2.0416000000 2.3972000000
1.9941000000 0.1195000000 0.1300000000
1.7628000000 5.6389000000 0.7312000000
1.7601000000 1.7381000000 2.0401000000
1.7590000000 4.6640000000 1.8807000000
1.7584000000 3.3568000000 3.4248000000
1.7582000000 4.2114000000 2.4124000000
1.7580000000 5.2193000000 1.2259000000
1.7576000000 3.2396000000 3.5315000000
1.7570000000 3.4496000000 3.3118000000
1.7568000000 2.0791000000 2.4376000000
1.7566000000 3.7440000000 2.9620000000
1.7565000000 2.4146000000 2.8282000000
1.7563000000 5.7483000000 0.6071000000
1.7560000000 1.3479000000 1.5794000000
1.7558000000 2.4349000000 2.8628000000
1.7557000000 5.1379000000 1.3198000000
1.7556000000 3.7687000000 2.9344000000
1.7553000000 4.7213000000 1.8139000000
1.7551000000 2.0707000000 2.4346000000
1.7550000000 0.6153000000 0.7157000000
1.7548000000 4.0090000000 2.6537000000
1.7546000000 3.9067000000 2.7746000000
1.7544000000 3.8062000000 2.8918000000
1.7542000000 4.2092000000 2.4144000000
1.7541000000 3.0186000000 3.5304000000
1.7538000000 4.8033000000 1.7146000000
1.7535000000 3.9090000000 2.7692000000
1.7534000000 3.6337000000 3.0965000000
1.7530000000 0.9640000000 1.1301000000
1.7525000000 5.1568000000 1.3036000000
1.7523000000 1.8710000000 2.2029000000
1.7520000000 5.5956000000 0.7795000000
1.7518000000 5.8472000000 0.4882000000
1.7513000000 2.3014000000 2.7048000000
1.7510000000 5.9012000000 0.4254000000
1.7509000000 4.6238000000 1.9282000000
1.7507000000 1.3398000000 1.5759000000
1.7504000000 0.8639000000 1.0085000000
1.7499000000 4.0815000000 2.5693000000
1.7495000000 0.1309000000 0.1477000000
1.7492000000 2.0089000000 2.3573000000
1.7483000000 1.4695000000 1.7200000000
1.7466000000 1.4013000000 1.6429000000
1.5136000000 3.5295000000 3.1467000000
1.5116000000 5.8666000000 0.4631000000
1.5096000000 0.7568000000 0.8831000000
1.5091000000 3.0159000000 3.3087000000
1.5085000000 5.8804000000 0.4497000000
1.5083000000 1.0854000000 1.2681000000
1.5081000000 0.7437000000 0.8695000000
1.5078000000 2.1513000000 2.5236000000
1.5076000000 6.0819000000 0.2061000000
1.5075000000 3.5597000000 3.1117000000
1.5073000000 1.7706000000 2.0799000000
1.5071000000 5.5215000000 0.8703000000
1.5070000000 4.8691000000 1.6348000000
1.5070000000 2.3285000000 2.7385000000
1.5065000000 1.5201000000 1.7824000000
1.5063000000 4.2660000000 2.3496000000
1.5061000000 1.3067000000 1.5336000000
1.5058000000 4.8866000000 1.6178000000
1.5056000000 0.1096000000 0.1198000000
1.5054000000 5.2867000000 1.1427000000
1.5053000000 6.0569000000 0.2367000000
1.5048000000 6.0501000000 0.2464000000
1.5047000000 6.1729000000 0.0996000000
1.5045000000 2.4513000000 2.8815000000
1.5042000000 1.6127000000 1.8958000000
1.5040000000 1.9252000000 2.2633000000
1.5036000000 0.1307000000 0.1475000000
1.5032000000 1.4836000000 1.7416000000
1.5028000000 5.0342000000 1.4440000000
1.5025000000 5.1294000000 1.3410000000
1.5023000000 2.4740000000 2.9061000000
1.5020000000 2.7046000000 3.1061000000
1.5018000000 0.7716000000 0.9042000000
1.5016000000 3.5422000000 3.1336000000
1.5014000000 4.4954000000 2.0753000000
1.5011000000 1.9459000000 2.2896000000
1.5009000000 4.4738000000 2.1047000000
1.5006000000 4.2877000000 2.3231000000
1.5004000000 0.5972000000 0.6926000000
1.5003000000 1.8045000000 2.1118000000
1.5001000000 1.0647000000 1.2446000000
1.4998000000 2.2911000000 2.6901000000
1.4997000000 3.5025000000 3.1532000000
1.4994000000 3.7269000000 2.9670000000
1.4993000000 2.8988000000 3.2300000000
1.4988000000 3.4112000000 3.2111000000
1.4983000000 4.8259000000 1.6892000000
1.4973000000 0.6528000000 0.7630000000
1.4956000000 0.5794000000 0.6815000000
1.2606000000 0.7604000000 0.8887000000
1.2597000000 4.9953000000 1.4885000000
1.2590000000 4.2720000000 2.3463000000
1.2586000000 5.6252000000 0.7501000000
1.2583000000 4.1358000000 2.4852000000
1.2578000000 5.1165000000 1.3496000000
1.2576000000 3.8196000000 2.7193000000
1.2573000000 3.7169000000 2.7810000000
1.2571000000 6.0290000000 0.2718000000
1.2567000000 2.8605000000 2.9626000000
1.2561000000 1.6984000000 1.9966000000
1.2560000000 2.8568000000 2.9569000000
1.2559000000 5.4066000000 1.0026000000
1.2556000000 5.5358000000 0.8492000000
1.2552000000 4.0740000000 2.5475000000
1.2551000000 4.6069000000 1.9535000000
1.2550000000 4.0350000000 2.5716000000
1.2543000000 0.0055000000 0.0807000000
1.2543000000 1.9012000000 2.2323000000
1.2537000000 5.0590000000 1.4138000000
1.2535000000 2.8874000000 2.9707000000
1.2534000000 5.3207000000 1.1026000000
1.2532000000 2.3125000000 2.6359000000
1.2530000000 2.6100000000 2.8118000000
1.2529000000 3.9317000000 2.6469000000
1.2524000000 3.1298000000 3.0964000000
1.2523000000 4.6040000000 1.9550000000
1.2521000000 3.7146000000 2.7727000000
1.2519000000 2.8453000000 2.9453000000
1.2515000000 0.1929000000 0.2181000000
1.2514000000 4.2203000000 2.3993000000
1.2513000000 1.8872000000 2.2166000000
1.2510000000 1.8787000000 2.2047000000
1.2508000000 2.3877000000 2.6740000000
1.2503000000 0.5642000000 0.6581000000
1.2499000000 1.7069000000 2.0052000000
1.2497000000 3.5431000000 2.8743000000
1.2495000000 1.4735000000 1.7269000000
1.2487000000 0.1621000000 0.1776000000
1.2477000000 3.3013000000 3.0084000000
1.2470000000 1.1061000000 1.2986000000
1.0121000000 5.2136000000 1.2349000000
1.0113000000 3.4690000000 2.6760000000
1.0107000000 4.5980000000 1.9400000000
1.0096000000 1.4489000000 1.7008000000
1.0082000000 5.6908000000 0.6698000000
1.0075000000 4.0777000000 2.3108000000
1.0073000000 4.4660000000 2.0569000000
1.0070000000 5.4700000000 0.9292000000
1.0064000000 4.1773000000 2.2488000000
1.0061000000 4.3831000000 2.1337000000
1.0060000000 3.9615000000 2.3770000000
1.0059000000 2.2377000000 2.3312000000
1.0057000000 5.1835000000 1.2706000000
1.0054000000 3.9439000000 2.3871000000
1.0051000000 1.9624000000 2.1718000000
1.0046000000 2.9523000000 2.7578000000
1.0041000000 2.3713000000 2.4120000000
1.0039000000 3.4330000000 2.6863000000
1.0037000000 2.3289000000 2.3886000000
1.0034000000 5.1710000000 1.2826000000
1.0033000000 3.4624000000 2.6631000000
1.0033000000 4.4057000000 2.1138000000
1.0031000000 3.3903000000 2.7135000000
1.0028000000 4.8568000000 1.6535000000
1.0027000000 4.8931000000 1.6124000000
1.0025000000 4.4021000000 2.1163000000
1.0022000000 2.6423000000 2.5717000000
1.0021000000 0.5569000000 0.6486000000
1.0020000000 0.2056000000 0.2304000000
1.0018000000 3.9460000000 2.3866000000
1.0013000000 0.5601000000 0.6543000000
1.0010000000 0.7762000000 0.9074000000
1.0010000000 1.4215000000 1.6686000000
1.0005000000 4.3510000000 2.1441000000
1.0001000000 2.8021000000 2.6654000000
0.9998000000 3.1505000000 2.8299000000
0.9993000000 1.1343000000 1.3303000000
0.9989000000 4.8442000000 1.6670000000
0.9981000000 1.3778000000 1.6175000000
0.9965000000 2.1505000000 2.2746000000
0.9965000000 1.1121000000 1.3035000000
0.7606000000 0.8231000000 0.9619000000
0.7601000000 3.0719000000 2.5757000000
0.7592000000 5.1295000000 1.3315000000
0.7593000000 3.5882000000 2.3461000000
0.7587000000 3.0872000000 2.5663000000
0.7585000000 5.6815000000 0.6838000000
0.7583000000 3.3337000000 2.4947000000
0.7580000000 4.1091000000 2.0413000000
0.7578000000 5.5859000000 0.7936000000
0.7574000000 3.3187000000 2.5069000000
0.7572000000 2.9980000000 2.5374000000
0.7569000000 3.7812000000 2.2275000000
0.7566000000 1.8280000000 1.8394000000
0.7564000000 2.4540000000 2.2084000000
0.7561000000 3.3337000000 2.4892000000
0.7559000000 4.9230000000 1.5356000000
0.7557000000 5.2933000000 1.1416000000
0.7550000000 6.1356000000 0.1514000000
0.7549000000 6.0550000000 0.2423000000
0.7548000000 4.3990000000 1.8647000000
0.7547000000 3.7401000000 2.2554000000
0.7545000000 3.5685000000 2.3526000000
0.7542000000 3.7111000000 2.2664000000
0.7540000000 2.8380000000 2.4321000000
0.7538000000 3.2392000000 2.5529000000
0.7537000000 2.2465000000 2.0841000000
0.7536000000 0.5694000000 0.6685000000
0.7535000000 1.9841000000 1.9279000000
0.7534000000 6.2462000000 0.0988000000
0.7532000000 0.2678000000 0.3053000000
0.7528000000 2.1261000000 2.0148000000
0.7527000000 2.1115000000 2.0020000000
0.7521000000 2.6070000000 2.3003000000
0.7520000000 1.2954000000 1.5005000000
0.7518000000 0.0268000000 0.0974000000
0.7510000000 5.8044000000 0.5389000000
0.7508000000 3.1407000000 2.5887000000
0.7506000000 5.1062000000 1.3625000000
0.7501000000 3.2666000000 2.5223000000
0.7500000000 4.1405000000 2.0154000000
0.7499000000 4.6100000000 1.7299000000
0.7494000000 2.4641000000 2.2030000000
0.7488000000 3.6542000000 2.2895000000
0.7486000000 1.5022000000 1.6456000000
0.7478000000 5.7537000000 0.5913000000
0.7467000000 2.7394000000 2.3687000000
0.5123000000 4.4932000000 1.5611000000
0.5106000000 6.2490000000 0.0866000000
0.5103000000 2.4169000000 1.9405000000
0.5094000000 2.0419000000 1.7120000000
0.5090000000 1.7702000000 1.5584000000
0.5085000000 5.6837000000 0.6782000000
0.5082000000 5.8756000000 0.4507000000
0.5079000000 5.4025000000 0.9894000000
0.5077000000 2.6069000000 2.0492000000
0.5075000000 5.3400000000 1.0379000000
0.5072000000 4.2515000000 1.7000000000
0.5068000000 5.0321000000 1.2389000000
0.5067000000 4.4778000000 1.5618000000
0.5061000000 4.4863000000 1.5550000000
0.5060000000 3.0320000000 2.2932000000
0.5059000000 0.0507000000 0.1250000000
0.5058000000 5.6307000000 0.7354000000
0.5056000000 4.2906000000 1.6701000000
0.5054000000 1.3871000000 1.3290000000
0.5053000000 2.6795000000 2.0850000000
0.5049000000 1.9766000000 1.6717000000
0.5048000000 0.2021000000 0.2287000000
0.5047000000 2.7395000000 2.1180000000
0.5045000000 5.6949000000 0.6637000000
0.5044000000 1.9973000000 1.6798000000
0.5043000000 2.5391000000 2.0030000000
0.5042000000 5.8044000000 0.5371000000
0.5038000000 4.2331000000 1.7012000000
0.5037000000 5.1034000000 1.1889000000
0.5034000000 5.7973000000 0.5460000000
0.5032000000 1.6565000000 1.4822000000
0.5031000000 5.2033000000 1.1349000000
0.5028000000 1.6389000000 1.4704000000
0.5027000000 0.8010000000 0.9171000000
0.5025000000 3.5833000000 2.0863000000
0.5024000000 1.3678000000 1.3100000000
0.5022000000 3.5312000000 2.1131000000
0.5021000000 5.4022000000 0.9941000000
0.5019000000 5.9116000000 0.4081000000
0.5015000000 0.6666000000 0.7741000000
0.5014000000 3.0750000000 2.3159000000
0.5013000000 1.5159000000 1.3959000000
0.5012000000 4.3571000000 1.6264000000
0.5010000000 0.3656000000 0.4224000000
0.5009000000 3.8276000000 1.9406000000
0.5007000000 2.4900000000 1.9738000000
0.5007000000 2.0305000000 1.6966000000
0.5004000000 4.5285000000 1.5296000000
0.5003000000 3.3854000000 2.2011000000
0.5000000000 1.2156000000 1.2142000000
0.4995000000 4.6866000000 1.4354000000
0.4991000000 1.1704000000 1.1904000000
0.4988000000 1.0504000000 1.1198000000
0.4982000000 5.8969000000 0.4287000000
0.4978000000 5.6186000000 0.7576000000
0.4966000000 5.7389000000 0.6169000000
0.4956000000 0.0007000000 0.0720000000
0.2627000000 5.8493000000 0.4657000000
0.2613000000 2.5079000000 1.7402000000
0.2603000000 5.7133000000 0.5752000000
0.2595000000 5.7635000000 0.5353000000
0.2592000000 5.9560000000 0.3602000000
0.2586000000 5.1040000000 0.9397000000
0.2582000000 0.5027000000 0.5371000000
0.2580000000 6.2939000000 0.1109000000
0.2579000000 2.7563000000 1.8805000000
0.2567000000 6.2565000000 0.0748000000
0.2563000000 3.8236000000 1.6903000000
0.2561000000 5.9273000000 0.3816000000
0.2559000000 3.3945000000 1.9464000000
0.2557000000 5.2714000000 0.8439000000
0.2553000000 2.9933000000 2.0202000000
0.2550000000 4.7901000000 1.1250000000
0.2549000000 3.3419000000 1.9786000000
0.2548000000 3.4721000000 1.8976000000
0.2546000000 3.2672000000 2.0176000000
0.2544000000 5.8699000000 0.4440000000
0.2542000000 2.7578000000 1.8773000000
0.2538000000 4.4243000000 1.3383000000
0.2534000000 1.3153000000 1.0280000000
0.2532000000 4.0495000000 1.5581000000
0.2528000000 4.4672000000 1.3124000000
0.2528000000 3.2614000000 2.0204000000
0.2525000000 2.1718000000 1.5295000000
0.2523000000 4.3183000000 1.3975000000
0.2522000000 2.4052000000 1.6723000000
0.2520000000 1.1760000000 0.9430000000
0.2518000000 1.7886000000 1.3017000000
0.2517000000 4.9557000000 1.0188000000
0.2515000000 4.8923000000 1.0579000000
0.2511000000 3.6086000000 1.8167000000
0.2510000000 1.6923000000 1.2435000000
0.2508000000 2.2429000000 1.5700000000
0.2505000000 5.3284000000 0.8032000000
0.2502000000 4.0254000000 1.5677000000
0.2500000000 0.7476000000 0.6856000000
0.2498000000 1.0359000000 0.8518000000
0.2493000000 3.8993000000 1.6445000000
0.2492000000 0.1963000000 0.2254000000
0.2489000000 4.6251000000 1.2178000000
0.2483000000 1.3187000000 1.0207000000
0.2478000000 4.9103000000 1.0435000000
0.2460000000 0.4904000000 0.5127000000
0.2432000000 0.5580000000 0.5669000000
0.0136000000 6.1993000000 0.0290000000
0.0116000000 4.4004000000 1.1062000000
0.0107000000 5.9117000000 0.2081000000
0.0100000000 4.8861000000 0.8141000000
0.0085000000 2.6806000000 1.5801000000
0.0075000000 1.9586000000 1.1549000000
0.0066000000 5.9268000000 0.1972000000
0.0065000000 5.9232000000 0.1975000000
0.0063000000 4.6808000000 0.9333000000
0.0058000000 2.7461000000 1.6117000000
0.0056000000 4.3924000000 1.1062000000
0.0054000000 3.0667000000 1.7992000000
0.0053000000 4.6577000000 0.9442000000
0.0051000000 2.8393000000 1.6765000000
0.0048000000 6.2531000000 0.0567000000
0.0046000000 6.1025000000 0.0940000000
0.0043000000 5.9876000000 0.1597000000
0.0041000000 0.1450000000 0.0758000000
0.0040000000 4.6528000000 0.9464000000
0.0039000000 1.7440000000 1.0208000000
0.0037000000 5.4112000000 0.4972000000
0.0034000000 0.8490000000 0.4933000000
0.0028000000 4.6220000000 0.9623000000
0.0027000000 3.0997000000 1.7972000000
0.0026000000 5.0737000000 0.7001000000
0.0025000000 1.9483000000 1.1387000000
0.0023000000 4.3631000000 1.1155000000
0.0020000000 4.5952000000 0.9811000000
0.0016000000 2.3272000000 1.3673000000
0.0015000000 4.6043000000 0.9704000000
0.0011000000 1.4595000000 0.8549000000
0.0008000000 2.7295000000 1.6072000000
0.0006000000 3.3549000000 1.7111000000
0.0004000000 2.4271000000 1.4232000000
0.0000000000 0.1136000000 0.1319000000
-0.0006000000 2.2530000000 1.3211000000
-0.0009000000 2.9508000000 1.7259000000
-0.0011000000 0.3747000000 0.2111000000
-0.0015000000 6.0221000000 0.1339000000
-0.0021000000 4.0085000000 1.3230000000
-0.0032000000 0.5356000000 0.3024000000
-0.0037000000 0.8805000000 0.5047000000
-0.0046000000 1.4566000000 0.8460000000
-0.0058000000 4.9741000000 0.7504000000
-0.2369000000 5.6521000000 0.1089000000
-0.2400000000 5.8549000000 0.0593000000
-0.2406000000 4.2125000000 0.9563000000
-0.2410000000 5.8239000000 0.0762000000
-0.2413000000 5.7000000000 0.0747000000
-0.2417000000 5.0022000000 0.4911000000
-0.2422000000 3.6081000000 1.3091000000
-0.2428000000 2.3616000000 1.1326000000
-0.2433000000 3.7806000000 1.2109000000
-0.2439000000 5.6607000000 0.1066000000
-0.2440000000 2.6516000000 1.3054000000
-0.2442000000 2.3116000000 1.1005000000
-0.2443000000 4.0860000000 1.0295000000
-0.2447000000 3.2617000000 1.5025000000
-0.2448000000 2.8581000000 1.4312000000
-0.2452000000 3.3362000000 1.4715000000
-0.2454000000 2.0095000000 0.9254000000
-0.2457000000 1.7945000000 0.7970000000
-0.2459000000 1.4197000000 0.5791000000
-0.2461000000 4.6245000000 0.7084000000
-0.2465000000 0.9318000000 0.2895000000
-0.2467000000 0.5058000000 0.1134000000
-0.2470000000 4.1774000000 0.9730000000
-0.2475000000 1.0087000000 0.3380000000
-0.2478000000 2.8649000000 1.4256000000
-0.2480000000 5.0550000000 0.4480000000
-0.2483000000 1.5838000000 0.6649000000
-0.2488000000 0.8444000000 0.2319000000
-0.2489000000 4.4689000000 0.8019000000
-0.2492000000 3.9350000000 1.1160000000
-0.2497000000 1.9384000000 0.8761000000
-0.2501000000 3.9299000000 1.1123000000
-0.2503000000 5.3149000000 0.2956000000
-0.2510000000 0.4376000000 0.0680000000
-0.2517000000 4.8358000000 0.5839000000
-0.2518000000 2.0009000000 0.9076000000
-0.2522000000 5.9634000000 0.0616000000
-0.2525000000 2.4650000000 1.1867000000
-0.4880000000 2.9162000000 1.2154000000
-0.4909000000 4.0341000000 0.8049000000
-0.4924000000 5.5586000000 0.0561000000
-0.4927000000 5.1275000000 0.1584000000
-0.4939000000 3.2059000000 1.2954000000
-0.4942000000 3.1836000000 1.2905000000
-0.4943000000 1.4455000000 0.3413000000
-0.4947000000 5.6080000000 0.0221000000
-0.4949000000 1.9247000000 0.6181000000
-0.4951000000 5.3833000000 0.0819000000
-0.4955000000 3.4129000000 1.1666000000
-0.4956000000 0.7453000000 0.0736000000
-0.4960000000 4.7436000000 0.3835000000
-0.4967000000 4.2923000000 0.6486000000
-0.4970000000 3.1274000000 1.3067000000
-0.4972000000 1.1814000000 0.1749000000
-0.4975000000 4.0920000000 0.7657000000
-0.4978000000 2.7630000000 1.1122000000
-0.4988000000 0.9241000000 0.1085000000
-0.4990000000 2.5367000000 0.9762000000
-0.4995000000 2.1301000000 0.7360000000
-0.4997000000 1.4533000000 0.3405000000
-0.5010000000 3.8984000000 0.8757000000
-0.5023000000 2.3340000000 0.8511000000
-0.5038000000 5.6048000000 0.0195000000
-0.5041000000 2.2688000000 0.8154000000
-0.7390000000 2.4773000000 0.6960000000
-0.7402000000 3.7512000000 0.7168000000
-0.7418000000 5.2131000000 0.0068000000
-0.7423000000 3.1091000000 1.0459000000
-0.7431000000 3.8999000000 0.6331000000
-0.7432000000 2.5053000000 0.7133000000
-0.7442000000 3.6636000000 0.7714000000
-0.7443000000 4.6053000000 0.2085000000
-0.7445000000 4.3076000000 0.3854000000
-0.7447000000 2.9480000000 0.9699000000
-0.7450000000 4.6741000000 0.1696000000
-0.7455000000 1.3858000000 0.1227000000
-0.7457000000 1.7355000000 0.2581000000
-0.7460000000 4.2019000000 0.4462000000
-0.7466000000 2.3929000000 0.6379000000
-0.7469000000 4.2649000000 0.4119000000
-0.7472000000 4.4022000000 0.3283000000
-0.7475000000 2.1884000000 0.5133000000
-0.7478000000 1.5687000000 0.1538000000
-0.7480000000 4.6222000000 0.2018000000
-0.7484000000 1.8698000000 0.3290000000
-0.7488000000 2.5145000000 0.7066000000
-0.7495000000 3.6839000000 0.7460000000
-0.7502000000 1.4433000000 0.0767000000
-0.7505000000 4.7139000000 0.1394000000
-0.7507000000 1.6891000000 0.2263000000
-0.7511000000 4.3887000000 0.3370000000
-0.7518000000 2.3041000000 0.5787000000
-0.7521000000 3.9070000000 0.6166000000
-0.7535000000 1.9670000000 0.3741000000
-0.9897000000 2.2475000000 0.3078000000
-0.9916000000 4.3259000000 0.1202000000
-0.9932000000 4.3935000000 0.0794000000
-0.9943000000 3.8356000000 0.4022000000
-0.9953000000 4.4789000000 0.1066000000
-0.9955000000 3.3008000000 0.7218000000
-0.9960000000 3.4082000000 0.6625000000
-0.9962000000 4.2928000000 0.1357000000
-0.9964000000 3.0637000000 0.7829000000
-0.9970000000 3.3440000000 0.6981000000
-0.9970000000 3.9208000000 0.3555000000
-0.9975000000 4.5927000000 0.0393000000
-0.9980000000 2.0981000000 0.2048000000
-0.9982000000 4.3764000000 0.0879000000
-0.9984000000 4.2207000000 0.1735000000
-0.9988000000 2.9753000000 0.7277000000
-0.9996000000 3.6841000000 0.4985000000
-0.9999000000 3.2853000000 0.7313000000
-1.0001000000 1.7731000000 0.0892000000
-1.0005000000 1.5360000000 0.0220000000
-1.0013000000 3.3934000000 0.6658000000
-1.0025000000 3.8276000000 0.4113000000
-1.0040000000 3.6070000000 0.5375000000
-1.0059000000 2.3201000000 0.3347000000
-1.2401000000 2.2278000000 0.1125000000
-1.2417000000 2.6552000000 0.2872000000
-1.2432000000 4.2719000000 0.0398000000
-1.2452000000 3.8117000000 0.1632000000
-1.2459000000 4.0639000000 0.0928000000
-1.2469000000 2.6123000000 0.2584000000
-1.2483000000 2.9290000000 0.4461000000
-1.2490000000 3.2281000000 0.5088000000
-1.2507000000 3.2440000000 0.4974000000
-1.2510000000 2.1846000000 0.0746000000
-1.2517000000 2.4542000000 0.1598000000
-1.2533000000 3.6963000000 0.2286000000
-1.4927000000 3.3113000000 0.2011000000
-1.4937000000 2.8004000000 0.1172000000
-1.4950000000 3.0555000000 0.2683000000
-1.4960000000 3.7422000000 0.1034000000
-1.4964000000 3.0090000000 0.2372000000
-1.4977000000 2.5333000000 0.1040000000
-1.4995000000 2.5007000000 0.0787000000
-1.7394000000 3.4499000000 0.0262000000
-1.7417000000 2.9539000000 0.1035000000
-1.7434000000 3.2820000000 0.0502000000
-1.7464000000 3.4384000000 0.0272000000
-1.7471000000 3.0630000000 0.0904000000
-1.7481000000 3.0477000000 0.0795000000
-1.7497000000 2.8758000000 0.0519000000
