2.5075000000 4.0408000000 1.9872000000
2.5072000000 1.5444000000 1.6262000000
2.5070000000 5.1623000000 0.9589000000
2.5070000000 5.2795000000 0.8282000000
2.5069000000 4.9212000000 1.2119000000
2.5068000000 3.2823000000 2.3894000000
2.5068000000 5.4209000000 0.6757000000
2.5067000000 4.6169000000 1.5398000000
2.5064000000 1.2529000000 1.3110000000
2.5063000000 5.7138000000 0.3682000000
2.5062000000 5.6943000000 0.3889000000
2.5061000000 3.1788000000 2.4504000000
2.5060000000 4.0092000000 2.0099000000
2.5059000000 4.4204000000 1.7262000000
2.5056000000 1.0366000000 1.0853000000
2.5056000000 5.1984000000 0.9186000000
2.5052000000 1.4047000000 1.4732000000
2.5049000000 0.5671000000 0.5821000000
2.5049000000 5.7346000000 0.3479000000
2.5047000000 0.3892000000 0.3955000000
2.5046000000 5.5836000000 0.5055000000
2.5045000000 4.7985000000 1.3457000000
2.5043000000 2.2991000000 2.1239000000
2.5043000000 5.4852000000 0.6125000000
2.5042000000 2.9183000000 2.4678000000
2.5040000000 0.2930000000 0.2925000000
2.5040000000 2.1453000000 2.0506000000
2.5038000000 4.4183000000 1.7353000000
2.5038000000 2.0863000000 2.0193000000
2.5035000000 3.1640000000 2.4610000000
2.5033000000 5.0474000000 1.0781000000
2.5032000000 4.3359000000 1.8216000000
2.5031000000 6.0213000000 0.1147000000
2.5030000000 5.2567000000 0.8536000000
2.5029000000 1.0942000000 1.1485000000
2.5028000000 3.1854000000 2.4455000000
2.5026000000 2.6159000000 2.3050000000
2.5024000000 3.9322000000 2.0459000000
2.5023000000 4.1216000000 1.9468000000
2.5024000000 0.5632000000 0.5778000000
2.5022000000 3.1327000000 2.4742000000
2.5021000000 1.2009000000 1.2582000000
2.5020000000 3.2986000000 2.3926000000
2.5019000000 1.7123000000 1.7865000000
2.5017000000 0.8656000000 0.8957000000
2.5016000000 2.7935000000 2.3993000000
2.5015000000 3.0628000000 2.5020000000
2.5013000000 3.8404000000 2.0966000000
2.5011000000 0.9305000000 0.9706000000
2.5009000000 4.7473000000 1.4013000000
2.5008000000 0.8213000000 0.8589000000
2.5007000000 0.1157000000 0.1007000000
2.5005000000 2.8190000000 2.4106000000
2.5004000000 5.4787000000 0.6147000000
2.5003000000 1.0996000000 1.1496000000
2.4990000000 1.7975000000 1.8514000000
2.4988000000 3.0873000000 2.4961000000
2.4983000000 2.0346000000 1.9971000000
2.4982000000 0.0555000000 0.1096000000
2.4980000000 0.1342000000 0.1173000000
2.4980000000 0.0832000000 0.0695000000
2.4978000000 0.6354000000 0.6533000000
2.4970000000 1.5158000000 1.5882000000
2.4958000000 3.7742000000 2.1432000000
2.4951000000 0.0841000000 0.0720000000
2.2628000000 5.7424000000 0.3378000000
2.2617000000 1.4892000000 1.5657000000
2.2609000000 4.5523000000 1.6012000000
2.2602000000 4.9682000000 1.1589000000
2.2598000000 5.5959000000 0.4923000000
2.2595000000 5.7329000000 0.3458000000
2.2594000000 2.1733000000 2.2708000000
2.2586000000 2.7074000000 2.5774000000
2.2578000000 2.6310000000 2.5360000000
2.2578000000 6.0595000000 0.0731000000
2.2579000000 2.5317000000 2.4839000000
2.2577000000 3.8283000000 2.3177000000
2.2576000000 5.5275000000 0.5591000000
2.2575000000 5.6677000000 0.4194000000
2.2574000000 0.9289000000 0.9693000000
2.2574000000 0.1724000000 0.1640000000
2.2570000000 5.3567000000 0.7469000000
2.2569000000 5.5469000000 0.5452000000
2.2568000000 5.1023000000 1.0215000000
2.2568000000 4.8271000000 1.3105000000
2.2563000000 1.4760000000 1.5531000000
2.2562000000 5.0796000000 1.0469000000
2.2561000000 4.8792000000 1.2580000000
2.2561000000 5.6315000000 0.4508000000
2.2559000000 5.6768000000 0.4062000000
2.2558000000 6.0076000000 0.0565000000
2.2558000000 0.3446000000 0.3424000000
2.2556000000 4.0543000000 2.1375000000
2.2555000000 2.6360000000 2.5432000000
2.2555000000 3.1902000000 2.6731000000
2.2553000000 1.6514000000 1.7334000000
2.2551000000 4.1920000000 1.9899000000
2.2551000000 4.1780000000 2.0064000000
2.2550000000 2.1037000000 2.2066000000
2.2549000000 5.1802000000 0.9387000000
2.2548000000 1.5848000000 1.6682000000
2.2548000000 3.7265000000 2.3883000000
2.2545000000 4.0248000000 2.1734000000
2.2545000000 1.9889000000 2.0998000000
2.2544000000 3.6928000000 2.4090000000
2.2543000000 5.9460000000 0.1172000000
2.2541000000 5.8298000000 0.2415000000
2.2540000000 4.4729000000 1.6851000000
2.2539000000 1.2692000000 1.3311000000
2.2539000000 5.5942000000 0.4963000000
2.2537000000 2.1569000000 2.2606000000
2.2536000000 0.5496000000 0.5641000000
2.2535000000 4.5412000000 1.6204000000
2.2535000000 5.3238000000 0.7824000000
2.2533000000 1.7408000000 1.8320000000
2.2533000000 5.9625000000 0.1032000000
2.2532000000 3.0377000000 2.7355000000
2.2530000000 3.4000000000 2.5697000000
2.2529000000 5.8993000000 0.1694000000
2.2528000000 4.3224000000 1.8496000000
2.2527000000 3.2744000000 2.6317000000
2.2523000000 0.9512000000 0.9945000000
2.2522000000 5.0659000000 1.0613000000
2.2521000000 3.1888000000 2.6804000000
2.2521000000 2.7799000000 2.6207000000
2.2519000000 0.4484000000 0.4564000000
2.2518000000 3.6724000000 2.4216000000
2.2515000000 3.5013000000 2.5145000000
2.2513000000 4.0456000000 2.1444000000
2.2512000000 2.8834000000 2.6726000000
2.2508000000 2.7250000000 2.5931000000
2.2508000000 2.7964000000 2.6272000000
2.2506000000 0.5362000000 0.5481000000
2.2506000000 3.9405000000 2.2441000000
2.2505000000 0.3791000000 0.3844000000
2.2498000000 2.9647000000 2.7195000000
2.2499000000 4.3407000000 1.8348000000
2.2497000000 5.8166000000 0.2611000000
2.2494000000 0.6647000000 0.6890000000
2.2493000000 0.0492000000 0.1066000000
2.2492000000 1.8430000000 1.9465000000
2.2489000000 3.2950000000 2.6291000000
2.2483000000 1.6269000000 1.7101000000
2.2476000000 2.5313000000 2.4892000000
2.2469000000 0.1914000000 0.1818000000
2.2464000000 5.5188000000 0.5724000000
2.2458000000 0.1170000000 0.1026000000
2.2430000000 3.3728000000 2.5925000000
2.2425000000 0.7157000000 0.7449000000
2.0150000000 5.7053000000 0.3808000000
2.0105000000 4.7390000000 1.4081000000
2.0098000000 1.8337000000 1.9336000000
2.0095000000 4.8631000000 1.2717000000
2.0092000000 4.8312000000 1.3091000000
2.0083000000 0.9478000000 0.9909000000
2.0080000000 1.5682000000 1.6503000000
2.0080000000 5.0347000000 1.0925000000
2.0079000000 5.1969000000 0.9157000000
2.0072000000 4.5684000000 1.5898000000
2.0070000000 5.2291000000 0.8877000000
2.0070000000 1.4199000000 1.4967000000
2.0068000000 1.0580000000 1.1042000000
2.0067000000 1.6316000000 1.7175000000
2.0067000000 3.2885000000 2.8516000000
2.0066000000 3.7917000000 2.4184000000
2.0063000000 2.1173000000 2.2364000000
2.0060000000 4.4698000000 1.6933000000
2.0060000000 3.6711000000 2.5393000000
2.0057000000 3.5044000000 2.7107000000
2.0055000000 2.3528000000 2.4874000000
2.0054000000 4.1431000000 2.0404000000
2.0053000000 4.6426000000 1.5173000000
2.0051000000 3.2036000000 2.8993000000
2.0050000000 2.7736000000 2.8473000000
2.0048000000 6.0525000000 0.0760000000
2.0049000000 1.0232000000 1.0676000000
2.0048000000 0.9552000000 0.9954000000
2.0048000000 4.0691000000 2.1191000000
2.0047000000 1.0992000000 1.1466000000
2.0047000000 3.6128000000 2.6107000000
2.0046000000 0.8020000000 0.8325000000
2.0046000000 1.0794000000 1.1337000000
2.0044000000 0.3037000000 0.3015000000
2.0041000000 3.9191000000 2.2801000000
2.0041000000 5.2007000000 0.9164000000
2.0040000000 4.4535000000 1.7074000000
2.0039000000 3.5642000000 2.6434000000
2.0038000000 0.0449000000 0.0975000000
2.0039000000 4.1937000000 1.9886000000
2.0037000000 5.5092000000 0.5853000000
2.0036000000 5.1168000000 1.0063000000
2.0035000000 2.2077000000 2.3281000000
2.0035000000 3.3833000000 2.7936000000
2.0033000000 4.6687000000 1.4794000000
2.0033000000 2.3033000000 2.4285000000
2.0032000000 3.8273000000 2.3826000000
2.0031000000 3.6740000000 2.5424000000
2.0030000000 0.6476000000 0.6640000000
2.0029000000 4.7446000000 1.3993000000
2.0027000000 0.7538000000 0.7829000000
2.0025000000 2.2747000000 2.4063000000
2.0025000000 1.6200000000 1.7038000000
2.0023000000 0.9454000000 0.9875000000
2.0020000000 5.8690000000 0.2050000000
2.0018000000 2.5269000000 2.6570000000
2.0018000000 0.7262000000 0.7537000000
2.0018000000 0.2903000000 0.2878000000
2.0016000000 0.5250000000 0.5321000000
2.0015000000 0.7062000000 0.7354000000
2.0015000000 1.0222000000 1.0621000000
2.0014000000 0.6047000000 0.6219000000
2.0014000000 4.9733000000 1.1519000000
2.0012000000 2.8897000000 2.9075000000
2.0008000000 0.2244000000 0.2199000000
2.0007000000 5.8402000000 0.2307000000
2.0005000000 3.9514000000 2.2453000000
2.0004000000 5.2223000000 0.8928000000
2.0004000000 3.8545000000 2.3527000000
2.0003000000 3.7776000000 2.4317000000
2.0002000000 2.1186000000 2.2421000000
1.9998000000 1.6775000000 1.7618000000
1.9997000000 4.7880000000 1.3527000000
1.9996000000 0.9305000000 0.9697000000
1.9995000000 2.0792000000 2.1942000000
1.9993000000 3.5607000000 2.6584000000
1.9993000000 2.0974000000 2.2150000000
1.9992000000 1.8594000000 1.9623000000
1.9991000000 2.7700000000 2.8518000000
1.9987000000 2.8066000000 2.8714000000
1.9984000000 3.5990000000 2.6209000000
1.9982000000 2.6154000000 2.7465000000
1.9980000000 5.8181000000 0.2540000000
1.9979000000 2.6317000000 2.7548000000
1.9977000000 0.0921000000 0.0762000000
1.9974000000 0.7070000000 0.7386000000
1.9970000000 2.4414000000 2.5829000000
1.9954000000 2.3089000000 2.4404000000
1.9925000000 1.4578000000 1.5315000000
1.7612000000 2.7184000000 2.8724000000
1.7603000000 4.9618000000 1.1706000000
1.7597000000 1.2595000000 1.3214000000
1.7595000000 0.8281000000 0.8568000000
1.7590000000 3.6217000000 2.5981000000
1.7586000000 5.6373000000 0.4462000000
1.7583000000 2.2566000000 2.3855000000
1.7579000000 2.5536000000 2.6963000000
1.7578000000 6.1042000000 0.0281000000
1.7578000000 5.3423000000 0.7605000000
1.7575000000 2.6304000000 2.7852000000
1.7574000000 5.1869000000 0.9186000000
1.7573000000 4.0493000000 2.1413000000
1.7572000000 1.4242000000 1.4944000000
1.7568000000 0.5145000000 0.5310000000
1.7566000000 3.8779000000 2.3230000000
1.7566000000 5.0755000000 1.0500000000
1.7564000000 0.4955000000 0.5030000000
1.7563000000 2.5212000000 2.6632000000
1.7562000000 4.3363000000 1.8397000000
1.7560000000 0.1213000000 0.1041000000
1.7561000000 0.7776000000 0.8019000000
1.7559000000 5.6271000000 0.4568000000
1.7558000000 1.1894000000 1.2452000000
1.7557000000 5.6883000000 0.3987000000
1.7555000000 4.0076000000 2.1917000000
1.7554000000 0.3866000000 0.3909000000
1.7553000000 1.0758000000 1.1267000000
1.7552000000 0.1712000000 0.1578000000
1.7551000000 2.4684000000 2.6124000000
1.7551000000 0.5277000000 0.5387000000
1.7550000000 1.0003000000 1.0416000000
1.7548000000 0.7567000000 0.7877000000
1.7547000000 0.6616000000 0.6855000000
1.7546000000 5.4404000000 0.6582000000
1.7545000000 3.6759000000 2.5440000000
1.7545000000 0.0355000000 0.0963000000
1.7543000000 5.4585000000 0.6436000000
1.7543000000 5.0371000000 1.0878000000
1.7543000000 5.7778000000 0.3010000000
1.7542000000 2.6482000000 2.8037000000
1.7540000000 2.1704000000 2.2917000000
1.7539000000 2.8560000000 3.0213000000
1.7537000000 6.0224000000 0.1159000000
1.7537000000 0.0342000000 0.0901000000
1.7536000000 1.9994000000 2.1103000000
1.7535000000 2.9929000000 3.1573000000
1.7535000000 0.7349000000 0.7637000000
1.7534000000 2.3429000000 2.4769000000
1.7534000000 0.5954000000 0.6170000000
1.7533000000 4.5852000000 1.5731000000
1.7533000000 2.8533000000 3.0175000000
1.7532000000 4.7177000000 1.4328000000
1.7531000000 3.2639000000 2.9794000000
1.7530000000 4.4880000000 1.6711000000
1.7530000000 1.1184000000 1.1669000000
1.7525000000 3.0784000000 3.1457000000
1.7525000000 4.6815000000 1.4667000000
1.7523000000 1.0781000000 1.1279000000
1.7523000000 1.0608000000 1.1136000000
1.7520000000 3.4861000000 2.7433000000
1.7518000000 4.3490000000 1.8211000000
1.7517000000 2.5431000000 2.6849000000
1.7515000000 2.5054000000 2.6515000000
1.7515000000 1.2287000000 1.2911000000
1.7515000000 2.9990000000 3.1450000000
1.7513000000 2.8432000000 3.0071000000
1.7513000000 3.7407000000 2.4773000000
1.7512000000 0.6322000000 0.6570000000
1.7509000000 3.0060000000 3.1436000000
1.7508000000 3.5049000000 2.7198000000
1.7507000000 2.5509000000 2.6997000000
1.7506000000 0.5160000000 0.5306000000
1.7505000000 4.6574000000 1.4942000000
1.7504000000 0.8940000000 0.9280000000
1.7504000000 1.0018000000 1.0485000000
1.7503000000 5.0518000000 1.0680000000
1.7502000000 3.3880000000 2.8549000000
1.7502000000 4.3878000000 1.7895000000
1.7501000000 0.9548000000 0.9931000000
1.7498000000 1.0597000000 1.1125000000
1.7498000000 1.7821000000 1.8838000000
1.7496000000 2.4699000000 2.6098000000
1.7492000000 0.5030000000 0.5145000000
1.7491000000 1.5790000000 1.6642000000
1.7489000000 2.9567000000 3.1395000000
1.7487000000 1.1298000000 1.1911000000
1.7486000000 5.2803000000 0.8304000000
1.7482000000 2.8750000000 3.0447000000
1.7477000000 0.6707000000 0.6972000000
1.7465000000 0.5696000000 0.5879000000
1.5123000000 2.5233000000 2.6586000000
1.5113000000 2.8511000000 2.8976000000
1.5103000000 5.3250000000 0.7794000000
1.5091000000 5.9588000000 0.1083000000
1.5088000000 4.9946000000 1.1359000000
1.5088000000 5.4974000000 0.6004000000
1.5088000000 5.2925000000 0.8228000000
1.5087000000 5.0691000000 1.0553000000
1.5085000000 4.6604000000 1.4908000000
1.5083000000 4.1327000000 2.0513000000
1.5083000000 3.3827000000 2.7928000000
1.5082000000 3.3107000000 2.8470000000
1.5077000000 0.4476000000 0.4530000000
1.5075000000 4.6015000000 1.5526000000
1.5075000000 3.5933000000 2.6266000000
1.5073000000 1.5987000000 1.6825000000
1.5072000000 4.2814000000 1.8919000000
1.5070000000 4.3905000000 1.7816000000
1.5068000000 5.8148000000 0.2642000000
1.5067000000 2.4341000000 2.5751000000
1.5065000000 0.0084000000 0.0626000000
1.5064000000 2.7867000000 2.8564000000
1.5063000000 2.5814000000 2.7118000000
1.5062000000 2.0914000000 2.2102000000
1.5063000000 4.1512000000 2.0351000000
1.5060000000 2.5836000000 2.7181000000
1.5058000000 0.4603000000 0.4670000000
1.5057000000 5.3757000000 0.7263000000
1.5055000000 2.9924000000 2.9534000000
1.5054000000 4.2992000000 1.8781000000
1.5053000000 5.2016000000 0.9172000000
1.5052000000 5.0357000000 1.0884000000
1.5051000000 0.4757000000 0.4875000000
1.5049000000 1.6529000000 1.7428000000
1.5048000000 4.6416000000 1.5098000000
1.5047000000 4.0661000000 2.1232000000
1.5046000000 5.1718000000 0.9442000000
1.5045000000 3.1051000000 2.9496000000
1.5045000000 3.8279000000 2.3744000000
1.5040000000 5.5508000000 0.5364000000
1.5038000000 3.4277000000 2.7626000000
1.5037000000 4.1956000000 1.9798000000
1.5036000000 2.4488000000 2.5896000000
1.5035000000 2.8354000000 2.8808000000
1.5033000000 2.9110000000 2.9152000000
1.5032000000 5.8758000000 0.1929000000
1.5031000000 2.8247000000 2.8749000000
1.5030000000 2.1245000000 2.2475000000
1.5029000000 2.1960000000 2.3191000000
1.5029000000 1.2437000000 1.3024000000
1.5027000000 2.7087000000 2.8001000000
1.5027000000 3.6778000000 2.5356000000
1.5026000000 1.4552000000 1.5292000000
1.5020000000 4.3799000000 1.7948000000
1.5018000000 5.9388000000 0.1280000000
1.5018000000 5.1017000000 1.0215000000
1.5015000000 1.3971000000 1.4650000000
1.5013000000 1.7730000000 1.8677000000
1.5012000000 4.8461000000 1.2913000000
1.5011000000 2.3559000000 2.4894000000
1.5008000000 5.7473000000 0.3360000000
1.5004000000 0.3105000000 0.3099000000
1.5003000000 4.4213000000 1.7421000000
1.5003000000 5.2878000000 0.8191000000
1.5003000000 4.1281000000 2.0559000000
1.5002000000 2.0183000000 2.1337000000
1.5002000000 0.7180000000 0.7420000000
1.5000000000 3.6092000000 2.6147000000
1.4998000000 3.3606000000 2.8081000000
1.4995000000 1.2042000000 1.2644000000
1.4991000000 1.4979000000 1.5750000000
1.4988000000 0.4592000000 0.4687000000
1.4988000000 2.5770000000 2.7072000000
1.4983000000 3.1785000000 2.9103000000
1.4981000000 3.9904000000 2.2096000000
1.4980000000 1.6484000000 1.7387000000
1.4975000000 0.9265000000 0.9623000000
1.4968000000 4.2131000000 1.9717000000
1.4956000000 3.0348000000 2.9563000000
1.4956000000 0.8031000000 0.8406000000
1.4928000000 3.6036000000 2.6153000000
1.2633000000 5.3887000000 0.7154000000
1.2611000000 5.0672000000 1.0561000000
1.2609000000 4.4020000000 1.7653000000
1.2605000000 1.9376000000 2.0437000000
1.2599000000 1.2856000000 1.3491000000
1.2595000000 0.7135000000 0.7384000000
1.2591000000 6.1013000000 0.0278000000
1.2581000000 4.9026000000 1.2342000000
1.2575000000 2.5283000000 2.4874000000
1.2575000000 5.1259000000 0.9963000000
1.2573000000 3.2211000000 2.6635000000
1.2570000000 3.8941000000 2.2893000000
1.2569000000 4.0477000000 2.1409000000
1.2568000000 3.6460000000 2.4367000000
1.2567000000 2.7848000000 2.6268000000
1.2567000000 4.2198000000 1.9633000000
1.2563000000 2.1418000000 2.2443000000
1.2564000000 3.4778000000 2.5336000000
1.2558000000 2.6465000000 2.5493000000
1.2557000000 2.1930000000 2.2912000000
1.2558000000 4.5893000000 1.5659000000
1.2557000000 1.9941000000 2.1024000000
1.2556000000 1.3818000000 1.4534000000
1.2554000000 5.7542000000 0.3217000000
1.2553000000 3.5970000000 2.4616000000
1.2552000000 5.2560000000 0.8546000000
1.2551000000 5.1197000000 1.0010000000
1.2550000000 4.7137000000 1.4348000000
1.2550000000 5.7808000000 0.2938000000
1.2548000000 2.6187000000 2.5336000000
1.2547000000 4.4269000000 1.7369000000
1.2546000000 3.9529000000 2.2291000000
1.2546000000 5.7389000000 0.3403000000
1.2545000000 3.8665000000 2.2951000000
1.2545000000 2.7222000000 2.5823000000
1.2543000000 2.4947000000 2.4659000000
1.2542000000 3.4676000000 2.5250000000
1.2540000000 3.6163000000 2.4471000000
1.2539000000 0.8289000000 0.8642000000
1.2534000000 2.8654000000 2.6637000000
1.2533000000 4.9188000000 1.2208000000
1.2532000000 5.7347000000 0.3512000000
1.2528000000 0.5636000000 0.5809000000
1.2528000000 3.8199000000 2.3241000000
1.2526000000 3.2136000000 2.6583000000
1.2526000000 2.3507000000 2.3906000000
1.2524000000 3.3018000000 2.6104000000
1.2523000000 5.4299000000 0.6705000000
1.2520000000 4.2097000000 1.9707000000
1.2520000000 0.1222000000 0.1102000000
1.2519000000 4.6508000000 1.5022000000
1.2520000000 5.6430000000 0.4437000000
1.2518000000 0.5897000000 0.6081000000
1.2518000000 5.4248000000 0.6773000000
1.2517000000 3.9067000000 2.2747000000
1.2516000000 0.6319000000 0.6552000000
1.2511000000 3.3694000000 2.5757000000
1.2510000000 2.6296000000 2.5345000000
1.2509000000 3.7696000000 2.3649000000
1.2508000000 4.8871000000 1.2501000000
1.2508000000 5.3154000000 0.7919000000
1.2507000000 2.8765000000 2.6698000000
1.2506000000 5.8259000000 0.2449000000
1.2505000000 3.3646000000 2.5791000000
1.2504000000 4.6246000000 1.5287000000
1.2499000000 0.1678000000 0.1633000000
1.2498000000 2.9616000000 2.7097000000
1.2496000000 5.8351000000 0.2365000000
1.2493000000 2.1255000000 2.2213000000
1.2491000000 2.7016000000 2.5750000000
1.2490000000 2.0109000000 2.1174000000
1.2490000000 5.6653000000 0.4165000000
1.2491000000 1.5532000000 1.6343000000
1.2485000000 2.5219000000 2.4732000000
1.2469000000 5.9827000000 0.0809000000
1.2443000000 4.2589000000 1.9146000000
1.0130000000 4.3338000000 1.8274000000
1.0121000000 4.6759000000 1.4638000000
1.0104000000 0.1830000000 0.1710000000
1.0098000000 3.9755000000 2.0266000000
1.0095000000 1.3501000000 1.4199000000
1.0091000000 2.8428000000 2.4239000000
1.0089000000 1.9897000000 1.9699000000
1.0086000000 4.5703000000 1.5837000000
1.0085000000 4.5183000000 1.6452000000
1.0083000000 0.0185000000 0.0751000000
1.0082000000 5.1479000000 0.9723000000
1.0081000000 3.7777000000 2.1367000000
1.0080000000 4.1268000000 1.9494000000
1.0078000000 4.8218000000 1.3243000000
1.0076000000 1.8598000000 1.8922000000
1.0078000000 3.4214000000 2.3263000000
1.0075000000 3.6351000000 2.2099000000
1.0073000000 0.2935000000 0.2874000000
1.0073000000 5.9509000000 0.1136000000
1.0072000000 0.0656000000 0.0485000000
1.0070000000 2.0276000000 1.9871000000
1.0069000000 5.8272000000 0.2432000000
1.0069000000 2.0093000000 1.9795000000
1.0068000000 5.0688000000 1.0559000000
1.0067000000 5.4952000000 0.6043000000
1.0067000000 1.6693000000 1.7393000000
1.0065000000 5.2633000000 0.8466000000
1.0064000000 0.8629000000 0.8948000000
1.0063000000 6.0716000000 0.0620000000
1.0060000000 4.1960000000 1.9143000000
1.0060000000 0.5373000000 0.5513000000
1.0056000000 3.0887000000 2.4825000000
1.0055000000 4.0946000000 1.9667000000
1.0055000000 3.9943000000 2.0205000000
1.0053000000 4.3981000000 1.7490000000
1.0053000000 1.1541000000 1.2104000000
1.0052000000 2.6422000000 2.3092000000
1.0051000000 3.9490000000 2.0404000000
1.0050000000 2.9908000000 2.4865000000
1.0049000000 1.1515000000 1.2071000000
1.0048000000 2.6366000000 2.3174000000
1.0047000000 4.1394000000 1.9426000000
1.0045000000 3.7554000000 2.1453000000
1.0045000000 0.8659000000 0.9026000000
1.0043000000 3.7487000000 2.1477000000
1.0041000000 2.5696000000 2.2754000000
1.0041000000 0.9973000000 1.0397000000
1.0040000000 4.3203000000 1.8281000000
1.0039000000 2.9334000000 2.4701000000
1.0039000000 1.2289000000 1.2844000000
1.0038000000 5.1204000000 1.0001000000
1.0038000000 3.9280000000 2.0511000000
1.0038000000 2.1647000000 2.0627000000
1.0037000000 6.0085000000 0.0597000000
1.0037000000 2.5002000000 2.2378000000
1.0036000000 3.9619000000 2.0366000000
1.0034000000 4.2390000000 1.8767000000
1.0033000000 1.0045000000 1.0462000000
1.0032000000 3.3411000000 2.3602000000
1.0031000000 4.1928000000 1.9109000000
1.0029000000 1.2459000000 1.3039000000
1.0028000000 3.2176000000 2.4325000000
1.0027000000 4.4218000000 1.7278000000
1.0026000000 2.3488000000 2.1519000000
1.0026000000 0.1627000000 0.1502000000
1.0025000000 3.8319000000 2.1015000000
1.0024000000 5.4984000000 0.5991000000
1.0022000000 4.6982000000 1.4503000000
1.0022000000 5.6859000000 0.3966000000
1.0021000000 0.1638000000 0.1582000000
1.0019000000 6.1061000000 0.0927000000
1.0020000000 4.8545000000 1.2867000000
1.0018000000 0.8055000000 0.8353000000
1.0018000000 1.4430000000 1.5125000000
1.0017000000 3.6506000000 2.1964000000
1.0015000000 5.2829000000 0.8275000000
1.0011000000 1.1661000000 1.2231000000
1.0009000000 1.5895000000 1.6781000000
1.0009000000 1.5854000000 1.6667000000
1.0006000000 0.2562000000 0.2501000000
1.0005000000 4.2941000000 1.8387000000
1.0003000000 3.7662000000 2.1357000000
1.0001000000 3.5040000000 2.2728000000
0.9997000000 0.2929000000 0.2875000000
0.9997000000 1.2523000000 1.3118000000
0.9996000000 3.5307000000 2.2577000000
0.9995000000 1.7865000000 1.8416000000
0.9994000000 1.3703000000 1.4403000000
0.9989000000 6.0054000000 0.0523000000
0.9988000000 1.0652000000 1.1082000000
0.9987000000 5.6758000000 0.4102000000
0.9987000000 1.5226000000 1.5989000000
0.9983000000 2.4580000000 2.2109000000
0.9979000000 5.4029000000 0.6963000000
0.9978000000 3.8051000000 2.1165000000
0.9979000000 0.9793000000 1.0216000000
0.9976000000 1.6370000000 1.7163000000
0.9969000000 0.2220000000 0.2180000000
0.9949000000 0.6598000000 0.6729000000
0.9945000000 2.3564000000 2.1566000000
0.9944000000 1.6738000000 1.7360000000
0.7601000000 5.5307000000 0.5602000000
0.7600000000 6.0475000000 0.0830000000
0.7595000000 4.7252000000 1.3819000000
0.7592000000 2.9444000000 2.2493000000
0.7588000000 2.1567000000 1.8329000000
0.7586000000 3.7755000000 1.9085000000
0.7583000000 2.0434000000 1.7653000000
0.7582000000 5.1122000000 1.0024000000
0.7576000000 1.8712000000 1.6790000000
0.7571000000 6.0647000000 0.0701000000
0.7569000000 5.8476000000 0.2200000000
0.7569000000 4.4358000000 1.5533000000
0.7568000000 3.8996000000 1.8357000000
0.7566000000 0.7996000000 0.8324000000
0.7565000000 1.6770000000 1.5754000000
0.7564000000 1.0784000000 1.1268000000
0.7564000000 4.7380000000 1.3752000000
0.7563000000 0.3704000000 0.3732000000
0.7563000000 6.0328000000 0.1023000000
0.7557000000 4.9164000000 1.2167000000
0.7555000000 3.2965000000 2.1616000000
0.7555000000 3.0343000000 2.2741000000
0.7554000000 0.2401000000 0.2330000000
0.7553000000 4.8402000000 1.2845000000
0.7550000000 3.9002000000 1.8377000000
0.7550000000 0.3602000000 0.3583000000
0.7550000000 2.5075000000 2.0139000000
0.7549000000 3.7098000000 1.9354000000
0.7548000000 0.2685000000 0.2650000000
0.7544000000 4.2403000000 1.6586000000
0.7543000000 4.3945000000 1.5742000000
0.7539000000 4.9987000000 1.1265000000
0.7538000000 2.1638000000 1.8282000000
0.7536000000 5.5468000000 0.5443000000
0.7535000000 4.2897000000 1.6238000000
0.7535000000 0.5579000000 0.5745000000
0.7534000000 5.7166000000 0.3679000000
0.7533000000 5.3185000000 0.7929000000
0.7531000000 5.2485000000 0.8637000000
0.7525000000 2.8833000000 2.2160000000
0.7525000000 3.1249000000 2.2457000000
0.7524000000 0.9969000000 1.0407000000
0.7524000000 4.3366000000 1.6059000000
0.7523000000 4.9631000000 1.1699000000
0.7523000000 3.4998000000 2.0504000000
0.7522000000 0.7840000000 0.8107000000
0.7521000000 1.1398000000 1.1922000000
0.7518000000 5.1336000000 0.9841000000
0.7517000000 4.8401000000 1.2795000000
0.7517000000 2.2219000000 1.8555000000
0.7515000000 0.3711000000 0.3764000000
0.7511000000 3.6492000000 1.9658000000
0.7509000000 2.4109000000 1.9520000000
0.7506000000 1.8641000000 1.6622000000
0.7504000000 1.6484000000 1.5482000000
0.7503000000 3.2401000000 2.1854000000
0.7501000000 1.5999000000 1.5236000000
0.7501000000 1.9019000000 1.6835000000
0.7500000000 4.4413000000 1.5474000000
0.7498000000 1.2468000000 1.2934000000
0.7496000000 1.2754000000 1.3178000000
0.7490000000 5.6657000000 0.4236000000
0.7488000000 1.1525000000 1.2111000000
0.7484000000 2.1989000000 1.8381000000
0.7480000000 2.0925000000 1.7819000000
0.7479000000 2.2499000000 1.8670000000
0.7477000000 0.2068000000 0.1998000000
0.7474000000 0.6138000000 0.6298000000
0.7466000000 4.9509000000 1.1819000000
0.7463000000 5.9289000000 0.1386000000
0.7458000000 2.2798000000 1.8773000000
0.5108000000 3.0040000000 2.0350000000
0.5105000000 4.6779000000 1.1985000000
0.5099000000 3.9263000000 1.5931000000
0.5093000000 1.4265000000 1.2079000000
0.5091000000 0.1436000000 0.1313000000
0.5085000000 1.9455000000 1.4870000000
0.5080000000 2.0711000000 1.5487000000
0.5075000000 1.2154000000 1.0941000000
0.5075000000 5.5599000000 0.5349000000
0.5074000000 5.3200000000 0.7849000000
0.5073000000 4.7277000000 1.1661000000
0.5073000000 3.9134000000 1.6027000000
0.5065000000 3.5648000000 1.7855000000
0.5065000000 5.6293000000 0.4589000000
0.5060000000 3.3103000000 1.9211000000
0.5059000000 3.5685000000 1.7880000000
0.5057000000 4.3487000000 1.3645000000
0.5056000000 1.8485000000 1.4320000000
0.5054000000 3.9415000000 1.5851000000
0.5053000000 2.8524000000 1.9684000000
0.5053000000 4.6496000000 1.2151000000
0.5051000000 5.2647000000 0.8306000000
0.5050000000 3.2168000000 1.9717000000
0.5049000000 6.0511000000 0.0819000000
0.5050000000 4.7562000000 1.1530000000
0.5047000000 4.6213000000 1.2164000000
0.5045000000 3.4460000000 1.8500000000
0.5045000000 0.1265000000 0.1209000000
0.5045000000 6.0009000000 0.0617000000
0.5043000000 5.1574000000 0.9186000000
0.5043000000 3.0157000000 2.0329000000
0.5041000000 5.8018000000 0.2711000000
0.5041000000 1.2326000000 1.1053000000
0.5040000000 3.9070000000 1.5994000000
0.5038000000 1.4335000000 1.2094000000
0.5037000000 2.9359000000 2.0104000000
0.5033000000 0.2313000000 0.2233000000
0.5031000000 3.4133000000 1.8661000000
0.5031000000 4.7986000000 1.1242000000
0.5029000000 4.2159000000 1.4308000000
0.5030000000 1.4190000000 1.1977000000
0.5029000000 3.0849000000 2.0259000000
0.5028000000 5.0458000000 0.9969000000
0.5028000000 1.2821000000 1.1175000000
0.5026000000 3.1383000000 2.0104000000
0.5026000000 0.3260000000 0.3259000000
0.5025000000 2.5282000000 1.7937000000
0.5025000000 5.0502000000 0.9945000000
0.5025000000 2.8336000000 1.9513000000
0.5024000000 0.2434000000 0.2336000000
0.5024000000 5.4611000000 0.6354000000
0.5023000000 4.2480000000 1.4229000000
0.5023000000 3.0711000000 2.0325000000
0.5021000000 2.2023000000 1.6161000000
0.5021000000 0.4245000000 0.4299000000
0.5020000000 2.7194000000 1.8916000000
0.5015000000 4.6129000000 1.2216000000
0.5015000000 0.3194000000 0.3183000000
0.5014000000 3.5522000000 1.7884000000
0.5013000000 3.6565000000 1.7309000000
0.5012000000 3.2492000000 1.9487000000
0.5011000000 3.1538000000 2.0053000000
0.5010000000 4.5278000000 1.2666000000
0.5010000000 5.1482000000 0.9154000000
0.5010000000 3.8750000000 1.6134000000
0.5009000000 2.3292000000 1.6826000000
0.5008000000 3.9553000000 1.5705000000
0.5007000000 4.9583000000 1.0380000000
0.5006000000 1.3894000000 1.1787000000
0.5006000000 2.8421000000 1.9538000000
0.5004000000 3.0839000000 2.0189000000
0.5003000000 2.7893000000 1.9289000000
0.5002000000 1.3516000000 1.1631000000
0.5000000000 4.5307000000 1.2656000000
0.4995000000 0.8961000000 0.8961000000
0.4994000000 2.3391000000 1.6844000000
0.4994000000 0.3112000000 0.3069000000
0.4989000000 5.0101000000 1.0040000000
0.4985000000 3.8641000000 1.6190000000
0.4983000000 3.4385000000 1.8419000000
0.4983000000 0.3866000000 0.3918000000
0.4980000000 4.4455000000 1.3105000000
0.4976000000 0.2675000000 0.2559000000
0.4975000000 0.4685000000 0.4773000000
0.4975000000 2.0813000000 1.5476000000
0.4960000000 0.2730000000 0.2665000000
0.4952000000 0.0572000000 0.1157000000
0.4943000000 0.2898000000 0.2873000000
0.2614000000 0.9693000000 0.7350000000
0.2614000000 5.3965000000 0.5838000000
0.2613000000 4.4508000000 1.0897000000
0.2610000000 5.0518000000 0.7704000000
0.2610000000 5.2126000000 0.6819000000
0.2609000000 5.2186000000 0.6836000000
0.2606000000 3.6584000000 1.5095000000
0.2596000000 4.7853000000 0.8992000000
0.2588000000 3.9419000000 1.3564000000
0.2580000000 2.9748000000 1.8025000000
0.2578000000 4.9745000000 0.8046000000
0.2577000000 0.2158000000 0.2110000000
0.2575000000 4.2258000000 1.2041000000
0.2573000000 1.6110000000 1.0743000000
0.2570000000 2.2770000000 1.4298000000
0.2567000000 5.5387000000 0.4945000000
0.2565000000 1.4485000000 0.9813000000
0.2563000000 5.7419000000 0.3260000000
0.2561000000 4.8087000000 0.8953000000
0.2560000000 4.1178000000 1.2614000000
0.2558000000 2.1874000000 1.3838000000
0.2558000000 2.8696000000 1.7426000000
0.2555000000 2.2512000000 1.4136000000
0.2556000000 4.6022000000 1.0053000000
0.2554000000 5.8096000000 0.2685000000
0.2553000000 5.1937000000 0.6869000000
0.2552000000 2.7839000000 1.7001000000
0.2551000000 4.4753000000 1.0731000000
0.2553000000 0.3911000000 0.3736000000
0.2549000000 1.7430000000 1.1395000000
0.2544000000 3.1611000000 1.7706000000
0.2542000000 5.3861000000 0.5821000000
0.2541000000 4.5807000000 1.0084000000
0.2540000000 0.5473000000 0.4918000000
0.2539000000 0.8240000000 0.6461000000
0.2538000000 1.0884000000 0.7946000000
0.2538000000 1.0028000000 0.7441000000
0.2535000000 6.0723000000 0.0576000000
0.2530000000 2.1710000000 1.3717000000
0.2528000000 0.1954000000 0.1817000000
0.2528000000 1.5514000000 1.0398000000
0.2525000000 1.0657000000 0.7803000000
0.2525000000 0.9802000000 0.7378000000
0.2525000000 3.8151000000 1.4188000000
0.2523000000 4.5080000000 1.0486000000
0.2522000000 4.6084000000 0.9925000000
0.2521000000 3.0281000000 1.8079000000
0.2521000000 4.2564000000 1.1828000000
0.2520000000 5.5846000000 0.4557000000
0.2519000000 5.8879000000 0.1821000000
0.2517000000 2.7965000000 1.7012000000
0.2516000000 1.3580000000 0.9363000000
0.2515000000 5.5861000000 0.4587000000
0.2515000000 3.3427000000 1.6664000000
0.2511000000 0.5769000000 0.5212000000
0.2510000000 1.1264000000 0.8096000000
0.2509000000 5.3092000000 0.6212000000
0.2506000000 4.2686000000 1.1706000000
0.2505000000 0.1779000000 0.1672000000
0.2503000000 1.0839000000 0.7866000000
0.2501000000 2.1026000000 1.3288000000
0.2498000000 4.1819000000 1.2126000000
0.2494000000 0.7458000000 0.6074000000
0.2491000000 5.1066000000 0.7292000000
0.2490000000 4.6124000000 0.9917000000
0.2489000000 5.9627000000 0.1004000000
0.2490000000 5.5390000000 0.4940000000
0.2489000000 2.0525000000 1.2980000000
0.2488000000 0.1304000000 0.1129000000
0.2484000000 1.4178000000 0.9525000000
0.2483000000 1.7348000000 1.1262000000
0.2483000000 0.0183000000 0.0691000000
0.2482000000 0.1023000000 0.0880000000
0.2478000000 0.1079000000 0.0912000000
0.2461000000 3.3302000000 1.6673000000
0.2458000000 0.4014000000 0.3825000000
0.2435000000 0.5632000000 0.5025000000
0.0139000000 6.0432000000 0.0701000000
0.0122000000 5.9753000000 0.1094000000
0.0103000000 4.0754000000 1.0536000000
0.0099000000 2.4711000000 1.3070000000
0.0096000000 3.3194000000 1.4656000000
0.0088000000 2.7111000000 1.4227000000
0.0085000000 0.5082000000 0.2570000000
0.0085000000 1.0091000000 0.5270000000
0.0080000000 4.8441000000 0.6420000000
0.0079000000 6.0600000000 0.0578000000
0.0078000000 5.2782000000 0.4128000000
0.0077000000 1.1638000000 0.6030000000
0.0074000000 4.8103000000 0.6662000000
0.0069000000 1.8955000000 0.9970000000
0.0068000000 3.2119000000 1.5120000000
0.0067000000 0.5929000000 0.2969000000
0.0065000000 1.6081000000 0.8468000000
0.0063000000 6.0370000000 0.0606000000
0.0063000000 5.5075000000 0.2886000000
0.0062000000 2.7974000000 1.4771000000
0.0062000000 5.9003000000 0.0848000000
0.0061000000 5.8000000000 0.1354000000
0.0061000000 5.3534000000 0.3721000000
0.0057000000 2.3342000000 1.2315000000
0.0056000000 3.0700000000 1.5684000000
0.0055000000 5.8873000000 0.0873000000
0.0051000000 1.5351000000 0.8019000000
0.0050000000 1.6767000000 0.8729000000
0.0049000000 2.0186000000 1.0593000000
0.0049000000 1.9160000000 1.0066000000
0.0048000000 0.3074000000 0.1446000000
0.0048000000 2.5779000000 1.3568000000
0.0046000000 4.8072000000 0.6576000000
0.0046000000 5.6822000000 0.1904000000
0.0045000000 5.8836000000 0.0877000000
0.0045000000 2.2809000000 1.1963000000
0.0043000000 0.1416000000 0.0594000000
0.0042000000 4.2438000000 0.9603000000
0.0040000000 4.0359000000 1.0740000000
0.0039000000 4.3679000000 0.8916000000
0.0038000000 4.8551000000 0.6338000000
0.0036000000 1.3659000000 0.7105000000
0.0035000000 1.4529000000 0.7573000000
0.0034000000 4.4269000000 0.8597000000
0.0033000000 5.0244000000 0.5424000000
0.0030000000 2.3055000000 1.2113000000
0.0028000000 2.3463000000 1.2284000000
0.0026000000 2.0951000000 1.0922000000
0.0025000000 0.3462000000 0.1672000000
0.0025000000 3.9091000000 1.1401000000
0.0024000000 5.4499000000 0.3173000000
0.0022000000 2.2816000000 1.2017000000
0.0023000000 3.2618000000 1.4826000000
0.0021000000 1.9746000000 1.0292000000
0.0020000000 2.2800000000 1.1944000000
0.0020000000 0.5766000000 0.2862000000
0.0018000000 0.0773000000 0.0747000000
0.0017000000 3.6716000000 1.2582000000
0.0016000000 5.9581000000 0.1145000000
0.0012000000 0.6048000000 0.3071000000
0.0011000000 0.3132000000 0.1487000000
0.0010000000 4.0482000000 1.0678000000
0.0010000000 2.3672000000 1.2439000000
0.0008000000 5.7592000000 0.1472000000
0.0009000000 3.5883000000 1.3085000000
0.0005000000 2.5098000000 1.3108000000
0.0003000000 2.3360000000 1.2225000000
0.0002000000 2.9622000000 1.5568000000
0.0001000000 1.5506000000 0.8088000000
0.0000000000 3.5468000000 1.3253000000
0.0000000000 5.2483000000 0.4216000000
-0.0002000000 0.3164000000 0.1463000000
-0.0003000000 3.0026000000 1.5648000000
-0.0005000000 5.4333000000 0.3246000000
-0.0006000000 0.8316000000 0.4197000000
-0.0009000000 0.4850000000 0.2375000000
-0.0010000000 0.4071000000 0.1894000000
-0.0011000000 1.1818000000 0.6062000000
-0.0011000000 1.8943000000 0.9890000000
-0.0012000000 1.3003000000 0.6691000000
-0.0013000000 5.1769000000 0.4577000000
-0.0014000000 0.5264000000 0.2556000000
-0.0015000000 0.4700000000 0.2283000000
-0.0017000000 2.8422000000 1.4898000000
-0.0018000000 2.9128000000 1.5317000000
-0.0029000000 0.3341000000 0.1490000000
-0.0031000000 0.1830000000 0.0748000000
-0.0038000000 4.3736000000 0.8849000000
-0.0038000000 1.2959000000 0.6606000000
-0.0044000000 3.4677000000 1.3685000000
-0.0068000000 0.0511000000 0.0503000000
-0.2374000000 0.6938000000 0.1273000000
-0.2401000000 0.2607000000 0.0431000000
-0.2402000000 5.5401000000 0.1174000000
-0.2406000000 5.8712000000 0.0104000000
-0.2407000000 3.1580000000 1.3123000000
-0.2409000000 4.3242000000 0.6943000000
-0.2412000000 5.4498000000 0.0909000000
-0.2412000000 5.0258000000 0.3209000000
-0.2413000000 3.3964000000 1.1871000000
-0.2417000000 4.6596000000 0.5134000000
-0.2422000000 4.6247000000 0.5278000000
-0.2423000000 5.5865000000 0.0934000000
-0.2424000000 3.9577000000 0.8846000000
-0.2425000000 0.3521000000 0.0957000000
-0.2427000000 3.1721000000 1.3051000000
-0.2428000000 5.1709000000 0.2299000000
-0.2430000000 4.1875000000 0.7588000000
-0.2433000000 3.7665000000 0.9829000000
-0.2436000000 0.8313000000 0.1992000000
-0.2436000000 2.2063000000 0.9334000000
-0.2441000000 5.3674000000 0.1351000000
-0.2442000000 2.4895000000 1.0704000000
-0.2443000000 3.0617000000 1.3430000000
-0.2444000000 1.3035000000 0.4453000000
-0.2445000000 4.6897000000 0.4907000000
-0.2446000000 2.2434000000 0.9406000000
-0.2447000000 1.6715000000 0.6410000000
-0.2447000000 1.2336000000 0.4084000000
-0.2449000000 3.7375000000 1.0029000000
-0.2450000000 1.3331000000 0.4695000000
-0.2450000000 2.2655000000 0.9598000000
-0.2455000000 4.4534000000 0.6187000000
-0.2455000000 3.8275000000 0.9477000000
-0.2455000000 1.4475000000 0.5274000000
-0.2459000000 1.1897000000 0.3857000000
-0.2459000000 2.0156000000 0.8250000000
-0.2463000000 2.3534000000 1.0081000000
-0.2464000000 0.8667000000 0.2118000000
-0.2466000000 1.0555000000 0.3144000000
-0.2466000000 3.2024000000 1.2855000000
-0.2465000000 2.8784000000 1.2869000000
-0.2467000000 0.8712000000 0.2210000000
-0.2468000000 5.6621000000 0.0525000000
-0.2470000000 4.3895000000 0.6504000000
-0.2471000000 5.1812000000 0.2300000000
-0.2472000000 2.4180000000 1.0361000000
-0.2474000000 2.4894000000 1.0736000000
-0.2475000000 4.6729000000 0.5018000000
-0.2475000000 2.1770000000 0.9175000000
-0.2476000000 4.5397000000 0.5796000000
-0.2477000000 1.8404000000 0.7316000000
-0.2479000000 1.1430000000 0.3595000000
-0.2480000000 0.4245000000 0.0464000000
-0.2481000000 4.2992000000 0.6974000000
-0.2481000000 2.6520000000 1.1563000000
-0.2482000000 0.5722000000 0.0505000000
-0.2483000000 2.5526000000 1.1117000000
-0.2484000000 2.0466000000 0.8419000000
-0.2485000000 2.2344000000 0.9380000000
-0.2485000000 2.2473000000 0.9464000000
-0.2486000000 2.3604000000 1.0045000000
-0.2487000000 5.4263000000 0.1000000000
-0.2488000000 0.8646000000 0.2096000000
-0.2489000000 2.0040000000 0.8216000000
-0.2490000000 2.1078000000 0.8732000000
-0.2490000000 1.7656000000 0.6862000000
-0.2491000000 2.8407000000 1.2597000000
-0.2491000000 0.7799000000 0.1643000000
-0.2492000000 3.8879000000 0.9154000000
-0.2493000000 4.5269000000 0.5732000000
-0.2494000000 1.2647000000 0.4176000000
-0.2495000000 3.9577000000 0.8799000000
-0.2496000000 3.8546000000 0.9315000000
-0.2502000000 0.5747000000 0.0496000000
-0.2504000000 3.3770000000 1.1821000000
-0.2506000000 4.1406000000 0.7751000000
-0.2507000000 1.0934000000 0.3265000000
-0.2509000000 5.2572000000 0.1871000000
-0.2510000000 1.2993000000 0.4384000000
-0.2510000000 3.1756000000 1.2927000000
-0.2515000000 2.0023000000 0.8148000000
-0.2516000000 1.4407000000 0.5093000000
-0.2518000000 0.9315000000 0.2444000000
-0.2524000000 3.7112000000 1.0068000000
-0.2525000000 4.3373000000 0.6727000000
-0.2526000000 0.6084000000 0.0727000000
-0.2527000000 2.8070000000 1.2432000000
-0.2535000000 1.8524000000 0.7305000000
-0.4859000000 4.3139000000 0.4729000000
-0.4893000000 1.3262000000 0.2368000000
-0.4893000000 4.5503000000 0.3368000000
-0.4898000000 0.6248000000 0.0040000000
-0.4899000000 1.5073000000 0.3328000000
-0.4902000000 4.6010000000 0.3123000000
-0.4905000000 3.8341000000 0.7229000000
-0.4909000000 1.4513000000 0.2947000000
-0.4912000000 4.4020000000 0.4213000000
-0.4917000000 1.5954000000 0.3716000000
-0.4917000000 4.6975000000 0.2594000000
-0.4920000000 4.7060000000 0.2571000000
-0.4921000000 4.6189000000 0.2989000000
-0.4924000000 5.2040000000 0.0652000000
-0.4925000000 3.5074000000 0.8931000000
-0.4926000000 3.4333000000 0.9342000000
-0.4928000000 2.5041000000 0.8571000000
-0.4928000000 3.2880000000 1.0094000000
-0.4930000000 5.1448000000 0.0963000000
-0.4933000000 3.3739000000 0.9658000000
-0.4935000000 2.6366000000 0.9302000000
-0.4935000000 1.5465000000 0.3412000000
-0.4937000000 5.3207000000 0.0745000000
-0.4938000000 4.6308000000 0.3000000000
-0.4937000000 4.4454000000 0.3977000000
-0.4939000000 3.5501000000 0.8705000000
-0.4940000000 2.9734000000 1.1078000000
-0.4942000000 1.7508000000 0.4527000000
-0.4943000000 0.6942000000 0.0367000000
-0.4945000000 3.2097000000 1.0493000000
-0.4947000000 0.8156000000 0.0301000000
-0.4947000000 3.6609000000 0.8114000000
-0.4948000000 3.4076000000 0.9448000000
-0.4948000000 4.7355000000 0.2324000000
-0.4949000000 5.0253000000 0.0836000000
-0.4949000000 5.1895000000 0.0661000000
-0.4952000000 2.1316000000 0.6590000000
-0.4952000000 4.9828000000 0.1016000000
-0.4952000000 2.1820000000 0.6893000000
-0.4954000000 3.2358000000 1.0293000000
-0.4957000000 5.4223000000 0.0198000000
-0.4957000000 2.2210000000 0.7022000000
-0.4959000000 4.2672000000 0.4834000000
-0.4960000000 4.1742000000 0.5327000000
-0.4961000000 2.4787000000 0.8425000000
-0.4963000000 1.4024000000 0.2691000000
-0.4965000000 2.8958000000 1.0637000000
-0.4966000000 2.8660000000 1.0460000000
-0.4967000000 4.5414000000 0.3367000000
-0.4972000000 4.2081000000 0.5168000000
-0.4973000000 1.8794000000 0.5160000000
-0.4974000000 4.0687000000 0.5902000000
-0.4976000000 4.5209000000 0.3480000000
-0.4977000000 1.7979000000 0.4781000000
-0.4977000000 3.4614000000 0.9169000000
-0.4977000000 3.0582000000 1.1097000000
-0.4978000000 1.4664000000 0.2989000000
-0.4980000000 2.8796000000 1.0454000000
-0.4980000000 1.2783000000 0.1985000000
-0.4980000000 3.6707000000 0.8064000000
-0.4981000000 5.4233000000 0.0190000000
-0.4982000000 4.4682000000 0.3733000000
-0.4982000000 5.4127000000 0.0167000000
-0.4984000000 1.8760000000 0.5163000000
-0.4987000000 3.5419000000 0.8716000000
-0.4988000000 3.8386000000 0.7101000000
-0.4989000000 1.5024000000 0.3154000000
-0.4991000000 3.2321000000 1.0360000000
-0.4992000000 2.8484000000 1.0296000000
-0.4993000000 5.3469000000 0.0586000000
-0.4998000000 4.7850000000 0.2032000000
-0.5002000000 3.3641000000 0.9611000000
-0.5009000000 2.0504000000 0.6079000000
-0.5009000000 1.0049000000 0.0506000000
-0.5011000000 3.4689000000 0.9058000000
-0.5017000000 2.9431000000 1.0850000000
-0.5023000000 1.8104000000 0.4704000000
-0.5029000000 1.1888000000 0.1459000000
-0.5040000000 2.3448000000 0.7622000000
-0.7396000000 4.4994000000 0.1380000000
-0.7400000000 4.9235000000 0.0642000000
-0.7425000000 3.1350000000 0.8655000000
-0.7427000000 2.5152000000 0.6309000000
-0.7430000000 4.0816000000 0.3598000000
-0.7431000000 2.7003000000 0.7293000000
-0.7431000000 2.0495000000 0.3840000000
-0.7432000000 2.8449000000 0.8126000000
-0.7434000000 4.3719000000 0.2092000000
-0.7437000000 4.1948000000 0.2963000000
-0.7437000000 1.1449000000 0.0496000000
-0.7438000000 2.4565000000 0.6016000000
-0.7440000000 3.0429000000 0.8854000000
-0.7441000000 4.6162000000 0.0693000000
-0.7442000000 3.4472000000 0.6933000000
-0.7446000000 2.5146000000 0.6314000000
-0.7447000000 3.6997000000 0.5577000000
-0.7452000000 3.7124000000 0.5510000000
-0.7455000000 1.7780000000 0.2389000000
-0.7461000000 2.9996000000 0.8684000000
-0.7462000000 2.4488000000 0.5924000000
-0.7463000000 4.4722000000 0.1457000000
-0.7464000000 2.7804000000 0.7728000000
-0.7465000000 4.0215000000 0.3897000000
-0.7466000000 2.7198000000 0.7381000000
-0.7467000000 2.4593000000 0.6024000000
-0.7470000000 2.7449000000 0.7541000000
-0.7472000000 4.1707000000 0.3059000000
-0.7472000000 1.2762000000 0.0408000000
-0.7480000000 4.6560000000 0.0452000000
-0.7482000000 4.2993000000 0.2368000000
-0.7480000000 1.7003000000 0.1927000000
-0.7485000000 2.7573000000 0.7581000000
-0.7486000000 1.3961000000 0.1047000000
-0.7487000000 1.3464000000 0.0772000000
-0.7487000000 1.2488000000 0.0272000000
-0.7492000000 3.9585000000 0.4160000000
-0.7493000000 3.8540000000 0.4743000000
-0.7494000000 3.4471000000 0.6838000000
-0.7498000000 1.9631000000 0.3315000000
-0.7503000000 4.0469000000 0.3705000000
-0.7504000000 2.2211000000 0.4681000000
-0.7505000000 3.7416000000 0.5268000000
-0.7506000000 1.2971000000 0.0537000000
-0.7506000000 3.0635000000 0.8753000000
-0.7508000000 3.5166000000 0.6488000000
-0.7509000000 1.8145000000 0.2491000000
-0.7514000000 4.3205000000 0.2195000000
-0.7521000000 1.1830000000 0.0660000000
-0.7531000000 2.8100000000 0.7777000000
-0.9872000000 2.9783000000 0.6473000000
-0.9893000000 3.0267000000 0.6566000000
-0.9912000000 3.4807000000 0.4469000000
-0.9925000000 4.5223000000 0.0370000000
-0.9936000000 1.5497000000 0.0376000000
-0.9938000000 3.1064000000 0.6419000000
-0.9940000000 2.8532000000 0.5803000000
-0.9940000000 3.0709000000 0.6470000000
-0.9942000000 2.2838000000 0.2687000000
-0.9943000000 3.4394000000 0.4697000000
-0.9944000000 1.8133000000 0.0991000000
-0.9946000000 2.1008000000 0.1821000000
-0.9947000000 4.0230000000 0.1549000000
-0.9951000000 2.6727000000 0.4851000000
-0.9952000000 2.7912000000 0.5462000000
-0.9952000000 3.5172000000 0.4274000000
-0.9953000000 2.3147000000 0.2931000000
-0.9955000000 3.8902000000 0.2256000000
-0.9960000000 4.4086000000 0.0218000000
-0.9961000000 2.7964000000 0.5439000000
-0.9962000000 1.5447000000 0.0296000000
-0.9967000000 4.3854000000 0.0368000000
-0.9968000000 2.4664000000 0.3699000000
-0.9970000000 4.4298000000 0.0884000000
-0.9975000000 4.1345000000 0.0976000000
-0.9977000000 3.5450000000 0.4068000000
-0.9979000000 1.8667000000 0.0518000000
-0.9980000000 1.9022000000 0.0707000000
-0.9984000000 1.7897000000 0.0867000000
-0.9990000000 3.2694000000 0.5555000000
-0.9995000000 2.0139000000 0.1317000000
-1.0000000000 2.8657000000 0.5842000000
-1.0001000000 3.0845000000 0.6356000000
-1.0002000000 4.2998000000 0.0753000000
-1.0005000000 1.5969000000 0.0566000000
-1.0022000000 2.7219000000 0.5082000000
-1.0028000000 3.9989000000 0.1630000000
-1.0040000000 3.3680000000 0.4952000000
-1.0046000000 3.2629000000 0.5504000000
-1.2407000000 3.6171000000 0.1395000000
-1.2418000000 4.1267000000 0.0154000000
-1.2425000000 3.7006000000 0.0966000000
-1.2426000000 3.6403000000 0.1317000000
-1.2430000000 3.8193000000 0.1082000000
-1.2432000000 2.0944000000 0.0238000000
-1.2438000000 2.0149000000 0.0543000000
-1.2445000000 2.8532000000 0.3547000000
-1.2446000000 3.5865000000 0.1562000000
-1.2449000000 3.2472000000 0.3410000000
-1.2450000000 3.7000000000 0.0988000000
-1.2457000000 2.1361000000 0.0417000000
-1.2458000000 2.6647000000 0.2440000000
-1.2463000000 3.6928000000 0.1008000000
-1.2464000000 3.3740000000 0.2683000000
-1.2465000000 3.7563000000 0.0658000000
-1.2469000000 2.4037000000 0.1075000000
-1.2470000000 3.1516000000 0.3859000000
-1.2472000000 3.7126000000 0.0824000000
-1.2474000000 2.3752000000 0.0889000000
-1.2475000000 4.0020000000 0.0854000000
-1.2476000000 3.9428000000 0.0365000000
-1.2476000000 2.7874000000 0.3098000000
-1.2481000000 2.3592000000 0.0879000000
-1.2482000000 2.3476000000 0.0817000000
-1.2484000000 2.0572000000 0.0782000000
-1.2493000000 2.3889000000 0.0970000000
-1.2497000000 2.7103000000 0.2673000000
-1.2507000000 3.5830000000 0.1523000000
-1.2510000000 2.1586000000 0.0524000000
-1.2514000000 3.8246000000 0.1008000000
-1.2529000000 3.3599000000 0.2736000000
-1.2541000000 2.4465000000 0.1216000000
-1.2554000000 2.8667000000 0.3401000000
-1.4861000000 3.0030000000 0.1897000000
-1.4901000000 2.4272000000 0.0470000000
-1.4922000000 2.3447000000 0.0033000000
-1.4929000000 3.2803000000 0.0866000000
-1.4933000000 2.9762000000 0.1781000000
-1.4933000000 2.8169000000 0.0967000000
-1.4935000000 3.2814000000 0.0906000000
-1.4944000000 3.6326000000 0.0496000000
-1.4945000000 3.2358000000 0.1070000000
-1.4953000000 3.4178000000 0.0928000000
-1.4955000000 2.4621000000 0.0572000000
-1.4957000000 3.0794000000 0.1829000000
-1.4963000000 3.0786000000 0.1791000000
-1.4980000000 2.4657000000 0.0704000000
-1.4986000000 2.7991000000 0.0802000000
-1.4988000000 3.3700000000 0.1123000000
-1.4991000000 3.3156000000 0.0663000000
-1.4997000000 2.4893000000 0.0713000000
