4.4980000000 2.5358000000 0.1495000000
4.4969000000 2.8916000000 0.2639000000
4.2643000000 3.8897000000 0.0633000000
4.2610000000 3.0016000000 0.3976000000
4.2600000000 4.1537000000 0.0139000000
4.2586000000 2.9720000000 0.4186000000
4.2580000000 2.6336000000 0.3903000000
4.2578000000 2.4796000000 0.3164000000
4.2575000000 2.5500000000 0.3537000000
4.2573000000 4.0642000000 0.0524000000
4.2567000000 4.1310000000 0.0276000000
4.2564000000 2.6177000000 0.3814000000
4.2563000000 1.7119000000 0.0424000000
4.2562000000 3.5878000000 0.1322000000
4.2560000000 3.4331000000 0.2126000000
4.2557000000 2.8711000000 0.4521000000
4.2553000000 4.1654000000 0.0083000000
4.2550000000 2.2048000000 0.1963000000
4.2546000000 2.7084000000 0.4313000000
4.2542000000 4.1954000000 0.0040000000
4.2542000000 3.4981000000 0.1748000000
4.2540000000 4.1117000000 0.0435000000
4.2539000000 3.1948000000 0.3153000000
4.2538000000 2.7416000000 0.4472000000
4.2533000000 3.4243000000 0.2154000000
4.2532000000 3.4045000000 0.2218000000
4.2525000000 1.8275000000 0.0976000000
4.2524000000 2.8779000000 0.4488000000
4.2523000000 3.9433000000 0.0459000000
4.2511000000 3.4747000000 0.1867000000
4.2505000000 3.3933000000 0.2274000000
4.2498000000 3.3932000000 0.2267000000
4.2492000000 3.3173000000 0.2681000000
4.2488000000 2.5656000000 0.3710000000
4.2482000000 2.9107000000 0.4574000000
4.2478000000 4.1660000000 0.0182000000
4.2476000000 2.5499000000 0.3617000000
4.2456000000 2.3145000000 0.2550000000
4.0090000000 2.3155000000 0.4446000000
4.0089000000 2.6576000000 0.6072000000
4.0084000000 2.6287000000 0.5880000000
4.0079000000 4.5933000000 0.0152000000
4.0078000000 4.4459000000 0.0837000000
4.0079000000 3.6179000000 0.3165000000
4.0078000000 3.8338000000 0.2168000000
4.0077000000 1.2752000000 0.0369000000
4.0077000000 3.2811000000 0.4802000000
4.0076000000 3.0838000000 0.5668000000
4.0067000000 2.0996000000 0.3460000000
4.0066000000 4.3880000000 0.0317000000
4.0065000000 1.8226000000 0.2168000000
4.0065000000 2.0797000000 0.3366000000
4.0062000000 2.4377000000 0.5036000000
4.0061000000 2.2664000000 0.4247000000
4.0059000000 1.3296000000 0.0610000000
4.0058000000 1.1382000000 0.0469000000
4.0056000000 3.2801000000 0.4769000000
4.0051000000 4.2709000000 0.0897000000
4.0051000000 1.6511000000 0.1327000000
4.0048000000 2.5191000000 0.5416000000
4.0045000000 3.2740000000 0.4807000000
4.0045000000 1.1921000000 0.0774000000
4.0043000000 3.3864000000 0.4282000000
4.0041000000 1.1974000000 0.0844000000
4.0039000000 3.6551000000 0.3056000000
4.0036000000 4.2839000000 0.0903000000
4.0036000000 2.2348000000 0.4120000000
4.0035000000 4.0145000000 0.1442000000
4.0033000000 3.5358000000 0.3582000000
4.0033000000 4.0109000000 0.1392000000
4.0032000000 3.7877000000 0.2442000000
4.0031000000 4.1264000000 0.0804000000
4.0030000000 3.7409000000 0.2665000000
4.0026000000 1.6760000000 0.1487000000
4.0025000000 3.2773000000 0.4855000000
4.0023000000 4.2944000000 0.0857000000
4.0021000000 3.0019000000 0.6108000000
4.0020000000 2.9113000000 0.6496000000
4.0016000000 3.1447000000 0.5443000000
4.0014000000 1.7847000000 0.1994000000
4.0013000000 3.4274000000 0.4109000000
4.0011000000 1.4675000000 0.1320000000
4.0011000000 2.0926000000 0.3438000000
4.0010000000 1.7510000000 0.1858000000
4.0009000000 1.2045000000 0.0794000000
4.0006000000 3.1016000000 0.5649000000
4.0005000000 2.9014000000 0.6586000000
4.0004000000 2.6585000000 0.6131000000
4.0000000000 1.6767000000 0.1558000000
3.9999000000 1.3589000000 0.0825000000
3.9998000000 3.9279000000 0.1867000000
3.9994000000 4.0351000000 0.1340000000
3.9989000000 4.1730000000 0.1416000000
3.9988000000 2.5642000000 0.5661000000
3.9974000000 2.4826000000 0.5340000000
3.9959000000 1.9513000000 0.2797000000
3.7606000000 2.7546000000 0.8555000000
3.7595000000 4.6572000000 0.1070000000
3.7594000000 3.7106000000 0.4704000000
3.7593000000 3.7067000000 0.4756000000
3.7591000000 3.8277000000 0.4240000000
3.7591000000 2.6787000000 0.8152000000
3.7590000000 3.8861000000 0.3968000000
3.7588000000 3.1418000000 0.7412000000
3.7583000000 3.4636000000 0.5930000000
3.7577000000 3.7109000000 0.4822000000
3.7576000000 2.4132000000 0.6927000000
3.7573000000 2.9826000000 0.8196000000
3.7572000000 0.7686000000 0.0780000000
3.7570000000 1.9412000000 0.4796000000
3.7566000000 1.4065000000 0.2222000000
3.7565000000 1.8197000000 0.4139000000
3.7565000000 2.6575000000 0.8068000000
3.7564000000 3.5487000000 0.5554000000
3.7563000000 2.3437000000 0.6614000000
3.7562000000 2.8752000000 0.8480000000
3.7561000000 1.0707000000 0.1385000000
3.7558000000 0.7017000000 0.0465000000
3.7558000000 2.3410000000 0.6624000000
3.7555000000 1.7607000000 0.3983000000
3.7554000000 4.5182000000 0.1003000000
3.7552000000 3.7039000000 0.4836000000
3.7551000000 1.4145000000 0.2291000000
3.7549000000 1.7263000000 0.3801000000
3.7548000000 1.5081000000 0.2766000000
3.7548000000 3.7097000000 0.4829000000
3.7547000000 3.5208000000 0.5640000000
3.7547000000 3.3691000000 0.6301000000
3.7545000000 2.8699000000 0.8615000000
3.7544000000 4.7459000000 0.0745000000
3.7543000000 0.6795000000 0.0361000000
3.7542000000 3.9116000000 0.3882000000
3.7541000000 4.6763000000 0.1066000000
3.7540000000 1.0264000000 0.1257000000
3.7540000000 2.2321000000 0.6104000000
3.7536000000 1.4426000000 0.2415000000
3.7533000000 0.7569000000 0.0740000000
3.7531000000 0.6508000000 0.0237000000
3.7529000000 1.9275000000 0.4705000000
3.7529000000 4.6625000000 0.1126000000
3.7528000000 4.7093000000 0.0919000000
3.7526000000 0.6361000000 0.0208000000
3.7524000000 1.8304000000 0.4244000000
3.7523000000 2.6900000000 0.8285000000
3.7522000000 4.7073000000 0.0950000000
3.7519000000 3.6438000000 0.5167000000
3.7517000000 1.8576000000 0.4354000000
3.7517000000 3.8469000000 0.4219000000
3.7513000000 3.9493000000 0.3716000000
3.7511000000 4.6982000000 0.0996000000
3.7509000000 3.9009000000 0.3927000000
3.7509000000 2.3148000000 0.6540000000
3.7499000000 3.9367000000 0.3796000000
3.7495000000 1.4482000000 0.2457000000
3.7493000000 1.4749000000 0.2632000000
3.7483000000 0.7857000000 0.0139000000
3.7482000000 3.1502000000 0.7493000000
3.7474000000 0.6106000000 0.0128000000
3.7468000000 0.7289000000 0.0667000000
3.7456000000 1.4296000000 0.2428000000
3.5147000000 4.6097000000 0.2511000000
3.5136000000 5.1092000000 0.1000000000
3.5107000000 0.7164000000 0.1050000000
3.5091000000 5.1135000000 0.1045000000
3.5090000000 3.3614000000 0.8446000000
3.5088000000 5.4077000000 0.0356000000
3.5083000000 4.7214000000 0.2067000000
3.5082000000 5.2668000000 0.0307000000
3.5075000000 2.3901000000 0.8854000000
3.5074000000 3.8522000000 0.6132000000
3.5070000000 4.1711000000 0.4666000000
3.5066000000 4.5008000000 0.3133000000
3.5065000000 0.7976000000 0.1433000000
3.5063000000 3.7352000000 0.6713000000
3.5062000000 3.3727000000 0.8370000000
3.5061000000 3.5667000000 0.7513000000
3.5060000000 3.9514000000 0.5658000000
3.5060000000 3.4907000000 0.7858000000
3.5058000000 5.2184000000 0.0533000000
3.5058000000 1.5713000000 0.5057000000
3.5056000000 4.9994000000 0.0791000000
3.5053000000 5.1180000000 0.1048000000
3.5053000000 4.4983000000 0.3166000000
3.5051000000 2.0165000000 0.7138000000
3.5050000000 3.2724000000 0.8879000000
3.5049000000 0.7324000000 0.1184000000
3.5047000000 0.2382000000 0.0308000000
3.5045000000 4.6529000000 0.2483000000
3.5043000000 3.7964000000 0.6478000000
3.5042000000 2.4769000000 0.9223000000
3.5041000000 3.8700000000 0.6133000000
3.5040000000 0.6857000000 0.0916000000
3.5038000000 1.0456000000 0.2589000000
3.5034000000 1.1664000000 0.3122000000
3.5033000000 4.0211000000 0.5401000000
3.5032000000 3.8653000000 0.6171000000
3.5032000000 0.9145000000 0.1945000000
3.5031000000 3.8268000000 0.6294000000
3.5030000000 3.5572000000 0.7582000000
3.5030000000 3.7038000000 0.6814000000
3.5028000000 2.7771000000 1.0667000000
3.5026000000 3.0339000000 1.0029000000
3.5026000000 4.3352000000 0.3978000000
3.5025000000 3.5257000000 0.7726000000
3.5023000000 1.0806000000 0.2797000000
3.5023000000 4.4610000000 0.3351000000
3.5021000000 0.4701000000 0.0684000000
3.5021000000 3.8192000000 0.6360000000
3.5020000000 2.3955000000 0.8924000000
3.5020000000 3.9278000000 0.5830000000
3.5020000000 2.3041000000 0.8562000000
3.5018000000 3.3248000000 0.8654000000
3.5018000000 3.0805000000 0.9784000000
3.5014000000 1.5797000000 0.5082000000
3.5012000000 0.1726000000 0.0030000000
3.5010000000 4.9690000000 0.1017000000
3.5008000000 0.2668000000 0.0480000000
3.5007000000 1.4090000000 0.4296000000
3.5006000000 3.6022000000 0.7313000000
3.5005000000 2.9575000000 1.0347000000
3.5003000000 2.4173000000 0.8997000000
3.5002000000 0.3740000000 0.0228000000
3.4998000000 1.7241000000 0.5776000000
3.4995000000 4.0637000000 0.5206000000
3.4995000000 2.3404000000 0.8652000000
3.4994000000 0.9420000000 0.2155000000
3.4994000000 3.9240000000 0.5859000000
3.4990000000 2.9919000000 1.0251000000
3.4980000000 1.0271000000 0.2597000000
3.4977000000 0.5054000000 0.0863000000
3.4962000000 2.8835000000 1.0610000000
3.2627000000 4.9529000000 0.3015000000
3.2616000000 5.1808000000 0.1929000000
3.2613000000 3.1882000000 1.1222000000
3.2595000000 4.3526000000 0.5782000000
3.2596000000 2.2539000000 1.0175000000
3.2591000000 2.2667000000 1.0262000000
3.2590000000 0.7136000000 0.3063000000
3.2587000000 5.1982000000 0.1917000000
3.2582000000 5.1305000000 0.2213000000
3.2580000000 2.5694000000 1.1694000000
3.2580000000 5.2422000000 0.1704000000
3.2578000000 5.0176000000 0.2764000000
3.2578000000 1.4324000000 0.6459000000
3.2576000000 3.6259000000 0.9280000000
3.2574000000 1.3874000000 0.6161000000
3.2573000000 5.6373000000 0.0429000000
3.2573000000 0.1360000000 0.1048000000
3.2572000000 0.4538000000 0.1813000000
3.2570000000 1.2493000000 0.5467000000
3.2569000000 2.1524000000 0.9722000000
3.2566000000 3.5476000000 0.9585000000
3.2565000000 4.8038000000 0.3795000000
3.2564000000 3.2401000000 1.1053000000
3.2563000000 3.2124000000 1.1155000000
3.2561000000 2.0096000000 0.9092000000
3.2560000000 4.6022000000 0.4665000000
3.2558000000 2.4625000000 1.1232000000
3.2558000000 2.7423000000 1.2518000000
3.2553000000 5.6032000000 0.0661000000
3.2553000000 0.4563000000 0.1844000000
3.2552000000 3.5332000000 0.9662000000
3.2551000000 5.1017000000 0.2401000000
3.2548000000 2.7594000000 1.2611000000
3.2546000000 3.4061000000 1.0248000000
3.2545000000 5.1341000000 0.2185000000
3.2544000000 0.4253000000 0.1779000000
3.2544000000 3.3090000000 1.0685000000
3.2543000000 2.2117000000 1.0037000000
3.2542000000 2.5268000000 1.1483000000
3.2542000000 1.5815000000 0.7144000000
3.2540000000 2.9402000000 1.2454000000
3.2540000000 5.4887000000 0.1322000000
3.2539000000 3.9472000000 0.7738000000
3.2539000000 0.2078000000 0.0736000000
3.2536000000 3.6104000000 0.9295000000
3.2536000000 0.0433000000 0.0530000000
3.2535000000 2.8024000000 1.2664000000
3.2535000000 0.2215000000 0.0773000000
3.2533000000 1.2334000000 0.5472000000
3.2533000000 2.4852000000 1.1383000000
3.2530000000 5.4562000000 0.0689000000
3.2529000000 4.1501000000 0.6838000000
3.2528000000 4.1329000000 0.6836000000
3.2527000000 2.4638000000 1.1201000000
3.2527000000 4.2177000000 0.6516000000
3.2525000000 0.1686000000 0.1275000000
3.2525000000 5.4643000000 0.0747000000
3.2524000000 3.4659000000 0.9972000000
3.2523000000 1.4953000000 0.6799000000
3.2522000000 3.4158000000 1.0195000000
3.2520000000 3.1242000000 1.1620000000
3.2518000000 0.0941000000 0.0771000000
3.2515000000 0.9997000000 0.4418000000
3.2514000000 1.0144000000 0.4484000000
3.2513000000 0.6591000000 0.2830000000
3.2511000000 4.9278000000 0.3229000000
3.2509000000 3.8903000000 0.8024000000
3.2508000000 4.8981000000 0.3366000000
3.2507000000 5.2427000000 0.1750000000
3.2504000000 0.9402000000 0.4179000000
3.2498000000 5.0278000000 0.2762000000
3.2495000000 4.1950000000 0.6666000000
3.2494000000 3.0264000000 1.2051000000
3.2493000000 0.1856000000 0.0620000000
3.2492000000 2.7416000000 1.2593000000
3.2490000000 0.3493000000 0.1404000000
3.2490000000 2.8508000000 1.2821000000
3.2489000000 2.6417000000 1.2137000000
3.2483000000 0.3724000000 0.1553000000
3.2480000000 5.6828000000 0.0854000000
3.2479000000 4.8812000000 0.3483000000
3.2476000000 0.2601000000 0.1036000000
3.2472000000 2.0309000000 0.9277000000
3.2468000000 3.7879000000 0.8525000000
3.2468000000 4.9921000000 0.2990000000
3.2453000000 2.9898000000 1.2267000000
3.0133000000 3.9062000000 0.9871000000
3.0132000000 5.6529000000 0.0545000000
3.0113000000 0.4569000000 0.3762000000
3.0106000000 2.3583000000 1.2697000000
3.0105000000 4.2395000000 0.8367000000
3.0104000000 5.5075000000 0.1068000000
3.0101000000 4.7366000000 0.6052000000
3.0101000000 3.8898000000 0.9957000000
3.0095000000 3.6277000000 1.1253000000
3.0094000000 3.3035000000 1.2788000000
3.0088000000 3.7423000000 1.0696000000
3.0079000000 3.4770000000 1.1937000000
3.0078000000 2.2469000000 1.2200000000
3.0077000000 4.3552000000 0.7811000000
3.0074000000 2.4047000000 1.2964000000
3.0073000000 3.2080000000 1.3230000000
3.0071000000 3.9968000000 0.9446000000
3.0069000000 4.6451000000 0.6490000000
3.0069000000 2.2947000000 1.2522000000
3.0067000000 4.2586000000 0.8291000000
3.0067000000 0.6470000000 0.4766000000
3.0066000000 4.3999000000 0.7649000000
3.0064000000 1.8607000000 1.0451000000
3.0063000000 3.5919000000 1.1432000000
3.0063000000 0.9158000000 0.5968000000
3.0063000000 2.6019000000 1.3866000000
3.0061000000 1.0154000000 0.6476000000
3.0060000000 2.8177000000 1.4733000000
3.0059000000 4.5639000000 0.6832000000
3.0059000000 3.7188000000 1.0854000000
3.0060000000 0.1828000000 0.1329000000
3.0057000000 4.6505000000 0.6481000000
3.0055000000 3.5788000000 1.1482000000
3.0054000000 3.1847000000 1.3264000000
3.0053000000 2.6553000000 1.4093000000
3.0052000000 0.5912000000 0.4519000000
3.0051000000 1.0030000000 0.6457000000
3.0046000000 3.8910000000 1.0044000000
3.0045000000 0.2770000000 0.2181000000
3.0043000000 3.8081000000 1.0437000000
3.0042000000 0.2679000000 0.2156000000
3.0041000000 3.6889000000 1.0938000000
3.0040000000 5.4060000000 0.1997000000
3.0040000000 4.0010000000 0.9603000000
3.0038000000 3.9640000000 0.9705000000
3.0038000000 3.8512000000 1.0178000000
3.0038000000 1.4857000000 0.8666000000
3.0037000000 1.6582000000 0.9476000000
3.0036000000 5.0616000000 0.4588000000
3.0036000000 3.1399000000 1.3529000000
3.0035000000 3.9253000000 0.9841000000
3.0034000000 1.2360000000 0.7477000000
3.0033000000 1.2974000000 0.7848000000
3.0030000000 1.8761000000 1.0499000000
3.0030000000 3.0380000000 1.4026000000
3.0030000000 4.0069000000 0.9493000000
3.0029000000 2.7840000000 1.4610000000
3.0028000000 2.1887000000 1.1928000000
3.0024000000 0.8210000000 0.5588000000
3.0023000000 1.0990000000 0.6908000000
3.0021000000 0.3529000000 0.2889000000
3.0021000000 2.4099000000 1.3056000000
3.0019000000 0.4085000000 0.3312000000
3.0017000000 4.5739000000 0.6827000000
3.0014000000 4.0432000000 0.9325000000
3.0012000000 3.8826000000 1.0118000000
3.0008000000 3.7211000000 1.0790000000
3.0008000000 2.2022000000 1.2029000000
3.0006000000 4.7511000000 0.6082000000
3.0006000000 2.8669000000 1.4716000000
3.0005000000 5.4428000000 0.1655000000
2.9998000000 3.9153000000 0.9992000000
2.9996000000 4.4279000000 0.7596000000
2.9995000000 5.2765000000 0.3073000000
2.9991000000 2.5167000000 1.3529000000
2.9990000000 2.0446000000 1.1372000000
2.9991000000 5.4424000000 0.1734000000
2.9990000000 2.4333000000 1.3124000000
2.9989000000 2.8843000000 1.4692000000
2.9989000000 5.3238000000 0.2845000000
2.9985000000 0.0379000000 0.0729000000
2.9986000000 1.7765000000 1.0052000000
2.9985000000 2.2925000000 1.2467000000
2.9977000000 0.2956000000 0.2381000000
2.9975000000 4.4230000000 0.7623000000
2.9975000000 4.4283000000 0.7581000000
2.9970000000 4.4049000000 0.7653000000
2.9968000000 0.5010000000 0.3951000000
2.9963000000 1.2506000000 0.7689000000
2.7605000000 5.2670000000 0.3356000000
2.7604000000 4.6852000000 0.8177000000
2.7591000000 5.4323000000 0.1787000000
2.7590000000 4.0036000000 1.1485000000
2.7588000000 4.0188000000 1.1407000000
2.7586000000 0.7718000000 0.6691000000
2.7585000000 4.3591000000 0.9801000000
2.7582000000 3.9080000000 1.1945000000
2.7582000000 4.1074000000 1.0982000000
2.7581000000 1.7861000000 1.2067000000
2.7580000000 4.1814000000 1.0735000000
2.7580000000 3.0459000000 1.5965000000
2.7576000000 2.1420000000 1.3734000000
2.7573000000 2.8129000000 1.6695000000
2.7572000000 0.7177000000 0.6326000000
2.7570000000 1.5035000000 1.0756000000
2.7569000000 3.6909000000 1.2947000000
2.7564000000 1.0757000000 0.8840000000
2.7563000000 3.8755000000 1.2108000000
2.7563000000 5.0139000000 0.5681000000
2.7563000000 0.6247000000 0.5438000000
2.7562000000 2.0973000000 1.3470000000
2.7562000000 2.8584000000 1.6635000000
2.7558000000 5.4551000000 0.1671000000
2.7554000000 4.3159000000 1.0074000000
2.7555000000 3.2438000000 1.5061000000
2.7553000000 2.2338000000 1.4194000000
2.7553000000 4.9855000000 0.5969000000
2.7552000000 0.3947000000 0.3323000000
2.7549000000 3.3550000000 1.4507000000
2.7548000000 5.0086000000 0.5814000000
2.7546000000 4.3299000000 1.0021000000
2.7545000000 5.5118000000 0.1055000000
2.7543000000 5.5452000000 0.1543000000
2.7543000000 4.9924000000 0.5916000000
2.7542000000 2.2577000000 1.4254000000
2.7540000000 1.1237000000 0.9044000000
2.7540000000 1.1111000000 0.8947000000
2.7539000000 2.2573000000 1.4267000000
2.7538000000 1.2090000000 0.9421000000
2.7537000000 4.3212000000 1.0061000000
2.7535000000 0.4433000000 0.3801000000
2.7534000000 1.3215000000 0.9960000000
2.7531000000 4.8543000000 0.6995000000
2.7530000000 4.9707000000 0.6056000000
2.7530000000 1.7828000000 1.2100000000
2.7529000000 4.6213000000 0.8645000000
2.7527000000 1.6727000000 1.1598000000
2.7526000000 5.6073000000 0.0944000000
2.7522000000 1.0031000000 0.8444000000
2.7521000000 2.5990000000 1.5939000000
2.7516000000 5.1738000000 0.4204000000
2.7516000000 4.9835000000 0.5915000000
2.7515000000 2.6402000000 1.6087000000
2.7513000000 4.7430000000 0.7942000000
2.7511000000 1.0656000000 0.8753000000
2.7511000000 1.6746000000 1.1595000000
2.7510000000 0.7692000000 0.6828000000
2.7509000000 0.3687000000 0.3072000000
2.7505000000 0.9884000000 0.8233000000
2.7505000000 0.2353000000 0.1769000000
2.7504000000 0.6931000000 0.6102000000
2.7502000000 3.1320000000 1.5601000000
2.7501000000 1.0350000000 0.8634000000
2.7501000000 3.1978000000 1.5352000000
2.7499000000 2.3490000000 1.4789000000
2.7498000000 2.7381000000 1.6649000000
2.7498000000 3.8641000000 1.2206000000
2.7493000000 2.9682000000 1.6384000000
2.7489000000 0.3923000000 0.3244000000
2.7487000000 2.6097000000 1.5956000000
2.7487000000 1.2108000000 0.9454000000
2.7485000000 0.9856000000 0.8254000000
2.7471000000 4.6329000000 0.8648000000
2.7468000000 0.9886000000 0.8291000000
2.5150000000 2.7822000000 1.8543000000
2.5112000000 5.5796000000 0.1163000000
2.5100000000 5.5544000000 0.1361000000
2.5097000000 2.9127000000 1.8601000000
2.5096000000 5.5122000000 0.1038000000
2.5092000000 2.3718000000 1.6843000000
2.5090000000 0.5164000000 0.4443000000
2.5087000000 0.2833000000 0.2254000000
2.5085000000 2.1563000000 1.5806000000
2.5081000000 4.6033000000 0.9562000000
2.5080000000 2.4865000000 1.7401000000
2.5079000000 3.4211000000 1.6218000000
2.5077000000 5.1488000000 0.4409000000
2.5075000000 4.7205000000 0.8479000000
2.5070000000 4.2664000000 1.2190000000
2.5069000000 1.2167000000 1.0839000000
2.5068000000 4.0292000000 1.3414000000
2.5068000000 1.8228000000 1.4293000000
2.5066000000 2.3976000000 1.6933000000
2.5065000000 4.1158000000 1.2996000000
2.5065000000 3.5186000000 1.5753000000
2.5064000000 4.7719000000 0.7986000000
2.5063000000 3.7375000000 1.4815000000
2.5062000000 0.0817000000 0.1133000000
2.5059000000 4.3379000000 1.1857000000
2.5058000000 2.8494000000 1.8741000000
2.5055000000 3.6664000000 1.5076000000
2.5055000000 2.6712000000 1.8232000000
2.5055000000 1.9134000000 1.4788000000
2.5054000000 4.1157000000 1.3053000000
2.5053000000 0.7230000000 0.6363000000
2.5053000000 2.8338000000 1.8848000000
2.5052000000 5.5150000000 0.0980000000
2.5051000000 0.2508000000 0.1937000000
2.5050000000 4.7647000000 0.8012000000
2.5048000000 4.2006000000 1.2582000000
2.5048000000 2.3496000000 1.6733000000
2.5043000000 5.3640000000 0.2383000000
2.5041000000 4.4095000000 1.1211000000
2.5038000000 3.3680000000 1.6558000000
2.5036000000 4.1729000000 1.2764000000
2.5035000000 1.0958000000 0.9808000000
2.5034000000 2.6712000000 1.8221000000
2.5034000000 2.6938000000 1.8367000000
2.5032000000 4.5374000000 1.0156000000
2.5032000000 4.6780000000 0.8786000000
2.5029000000 3.1924000000 1.7375000000
2.5028000000 3.1523000000 1.7529000000
2.5028000000 5.0970000000 0.4896000000
2.5025000000 3.6848000000 1.5065000000
2.5025000000 0.3762000000 0.3138000000
2.5020000000 0.1629000000 0.1130000000
2.5020000000 0.8921000000 0.7890000000
2.5020000000 4.9915000000 0.5844000000
2.5019000000 4.7244000000 0.8422000000
2.5018000000 1.6351000000 1.3410000000
2.5017000000 3.5595000000 1.5643000000
2.5017000000 0.3226000000 0.2611000000
2.5016000000 3.7907000000 1.4636000000
2.5014000000 0.7407000000 0.6559000000
2.5013000000 4.0016000000 1.3604000000
2.5010000000 2.4725000000 1.7442000000
2.5009000000 0.4025000000 0.3370000000
2.5008000000 0.6161000000 0.5349000000
2.5008000000 1.9482000000 1.4935000000
2.5005000000 3.0263000000 1.8182000000
2.5004000000 4.8762000000 0.6971000000
2.5003000000 1.5528000000 1.3083000000
2.5001000000 1.0600000000 0.9495000000
2.4997000000 4.6387000000 0.9157000000
2.4997000000 1.4373000000 1.2500000000
2.4996000000 1.3070000000 1.1670000000
2.4995000000 3.5177000000 1.5876000000
2.4991000000 0.6439000000 0.5649000000
2.4986000000 3.4149000000 1.6328000000
2.4986000000 1.8134000000 1.4307000000
2.4983000000 2.6576000000 1.8223000000
2.4981000000 0.8133000000 0.7160000000
2.4978000000 1.8448000000 1.4477000000
2.4969000000 4.0591000000 1.3325000000
2.4964000000 0.3214000000 0.2620000000
2.4964000000 2.1879000000 1.6102000000
2.4958000000 0.7883000000 0.7005000000
2.4955000000 2.0551000000 1.5490000000
2.4948000000 0.1333000000 0.0867000000
2.2633000000 5.0314000000 0.5568000000
2.2612000000 5.4574000000 0.1524000000
2.2613000000 4.5690000000 0.9866000000
2.2609000000 4.8138000000 0.7574000000
2.2607000000 3.6097000000 1.7327000000
2.2597000000 3.8254000000 1.6208000000
2.2595000000 4.1153000000 1.4071000000
2.2590000000 1.5953000000 1.4531000000
2.2588000000 2.5695000000 1.9755000000
2.2587000000 5.6113000000 0.0909000000
2.2571000000 5.1001000000 0.4878000000
2.2570000000 1.2933000000 1.1682000000
2.2568000000 5.2244000000 0.3747000000
2.2563000000 3.1930000000 1.9298000000
2.2560000000 0.1554000000 0.1103000000
2.2558000000 2.1291000000 1.7717000000
2.2556000000 5.6271000000 0.0703000000
2.2555000000 4.8140000000 0.7504000000
2.2555000000 4.0170000000 1.4919000000
2.2554000000 3.0910000000 1.9800000000
2.2553000000 3.9174000000 1.5852000000
2.2552000000 5.1863000000 0.4090000000
2.2552000000 2.7960000000 2.0711000000
2.2548000000 0.5276000000 0.4529000000
2.2548000000 0.7684000000 0.6765000000
2.2549000000 1.0296000000 0.9224000000
2.2547000000 4.1363000000 1.3895000000
2.2545000000 4.3109000000 1.2280000000
2.2543000000 3.7348000000 1.6833000000
2.2543000000 5.5687000000 0.1286000000
2.2543000000 0.4685000000 0.3971000000
2.2540000000 1.0750000000 0.9681000000
2.2539000000 4.6048000000 0.9501000000
2.2538000000 0.1910000000 0.1392000000
2.2538000000 4.4277000000 1.1165000000
2.2538000000 2.3849000000 1.8983000000
2.2537000000 0.0788000000 0.1068000000
2.2536000000 3.6593000000 1.7120000000
2.2535000000 3.7383000000 1.6814000000
2.2534000000 1.4237000000 1.2876000000
2.2531000000 5.3707000000 0.2417000000
2.2530000000 2.1611000000 1.7881000000
2.2530000000 4.5480000000 1.0056000000
2.2528000000 3.3320000000 1.8715000000
2.2526000000 2.2306000000 1.8259000000
2.2523000000 1.6881000000 1.5226000000
2.2523000000 4.1683000000 1.3562000000
2.2521000000 2.4326000000 1.9169000000
2.2520000000 2.1639000000 1.7977000000
2.2518000000 0.9568000000 0.8523000000
2.2518000000 0.0636000000 0.0925000000
2.2517000000 2.6850000000 2.0396000000
2.2517000000 4.4289000000 1.1160000000
2.2516000000 0.0715000000 0.1051000000
2.2515000000 5.3237000000 0.2827000000
2.2514000000 0.7049000000 0.6169000000
2.2513000000 4.4505000000 1.0943000000
2.2512000000 0.1588000000 0.1110000000
2.2511000000 0.6965000000 0.6160000000
2.2509000000 2.1727000000 1.7999000000
2.2508000000 0.5030000000 0.4300000000
2.2508000000 4.6974000000 0.8687000000
2.2506000000 3.1773000000 1.9440000000
2.2504000000 2.5302000000 1.9658000000
2.2503000000 2.3944000000 1.8975000000
2.2500000000 3.6928000000 1.7049000000
2.2499000000 3.0009000000 2.0283000000
2.2496000000 2.9701000000 2.0431000000
2.2493000000 1.0491000000 0.9390000000
2.2480000000 3.7791000000 1.6653000000
2.2479000000 0.2628000000 0.2107000000
2.2472000000 0.8272000000 0.7319000000
2.2461000000 3.8244000000 1.6330000000
2.2455000000 0.9750000000 0.8748000000
2.2447000000 2.4974000000 1.9538000000
2.0143000000 3.7616000000 1.7375000000
2.0123000000 4.7425000000 0.8247000000
2.0120000000 1.7044000000 1.5504000000
2.0111000000 1.5297000000 1.3900000000
2.0110000000 2.8231000000 2.2824000000
2.0100000000 3.3230000000 2.0673000000
2.0098000000 3.8968000000 1.6127000000
2.0088000000 1.6817000000 1.5289000000
2.0088000000 4.6963000000 0.8692000000
2.0085000000 4.4761000000 1.0695000000
2.0084000000 3.7741000000 1.7241000000
2.0083000000 5.2707000000 0.3333000000
2.0083000000 2.8573000000 2.2756000000
2.0081000000 0.3435000000 0.2832000000
2.0080000000 3.9793000000 1.5310000000
2.0080000000 1.1630000000 1.0467000000
2.0079000000 1.7881000000 1.6286000000
2.0078000000 2.5598000000 2.1766000000
2.0076000000 5.3053000000 0.2986000000
2.0075000000 5.2053000000 0.3879000000
2.0070000000 3.7781000000 1.7208000000
2.0070000000 2.7712000000 2.2725000000
2.0068000000 2.3380000000 2.0730000000
2.0065000000 2.0793000000 1.8944000000
2.0064000000 2.8838000000 2.2706000000
2.0062000000 0.5933000000 0.5160000000
2.0061000000 3.2382000000 2.1100000000
2.0060000000 2.9288000000 2.2566000000
2.0056000000 4.0267000000 1.4945000000
2.0055000000 2.3401000000 2.0745000000
2.0052000000 4.6885000000 0.8715000000
2.0051000000 1.7945000000 1.6334000000
2.0051000000 2.2964000000 2.0473000000
2.0050000000 2.9204000000 2.2689000000
2.0048000000 5.2930000000 0.3082000000
2.0048000000 1.8656000000 1.6963000000
2.0046000000 3.7358000000 1.7588000000
2.0044000000 5.2407000000 0.3602000000
2.0044000000 3.9647000000 1.5413000000
2.0043000000 0.5811000000 0.5062000000
2.0039000000 0.2013000000 0.1458000000
2.0038000000 3.2387000000 2.1161000000
2.0037000000 3.8500000000 1.6584000000
2.0036000000 1.2484000000 1.1229000000
2.0035000000 0.9822000000 0.8791000000
2.0035000000 2.1872000000 1.9833000000
2.0033000000 0.4105000000 0.3437000000
2.0031000000 3.1843000000 2.1415000000
2.0030000000 1.0839000000 0.9717000000
2.0030000000 3.5113000000 1.9549000000
2.0027000000 0.0889000000 0.1213000000
2.0025000000 2.2602000000 2.0213000000
2.0024000000 5.6594000000 0.0393000000
2.0023000000 4.5729000000 0.9771000000
2.0021000000 4.5792000000 0.9729000000
2.0019000000 4.8714000000 0.7051000000
2.0018000000 4.7788000000 0.7863000000
2.0018000000 3.3036000000 2.0859000000
2.0017000000 1.8442000000 1.6792000000
2.0017000000 0.6852000000 0.5933000000
2.0016000000 1.2497000000 1.1279000000
2.0015000000 3.8270000000 1.6773000000
2.0010000000 2.1688000000 1.9653000000
2.0008000000 1.1203000000 1.0035000000
2.0007000000 3.8391000000 1.6650000000
2.0006000000 1.0207000000 0.9123000000
1.9996000000 0.5033000000 0.4286000000
1.9995000000 0.0374000000 0.0687000000
1.9992000000 3.4374000000 2.0100000000
1.9990000000 0.1906000000 0.1447000000
1.9989000000 3.5533000000 1.9237000000
1.9988000000 0.2151000000 0.1606000000
1.9986000000 0.4150000000 0.3486000000
1.9986000000 1.1245000000 1.0051000000
1.9981000000 1.9004000000 1.7310000000
1.9980000000 3.2583000000 2.1109000000
1.9972000000 1.0476000000 0.9427000000
1.9972000000 4.2190000000 1.3115000000
1.9970000000 1.3226000000 1.1963000000
1.9970000000 0.5876000000 0.5068000000
1.9963000000 1.7979000000 1.6419000000
1.9963000000 0.3395000000 0.2845000000
1.9957000000 0.6341000000 0.5547000000
1.9926000000 1.9763000000 1.8055000000
1.7629000000 4.9143000000 0.6611000000
1.7613000000 2.9306000000 2.4544000000
1.7605000000 4.2060000000 1.3191000000
1.7595000000 3.3418000000 2.1261000000
1.7596000000 2.9398000000 2.4431000000
1.7595000000 2.9160000000 2.4655000000
1.7593000000 5.2998000000 0.3039000000
1.7592000000 5.5524000000 0.1431000000
1.7588000000 5.5793000000 0.1183000000
1.7584000000 1.0854000000 0.9713000000
1.7581000000 3.6019000000 1.8948000000
1.7575000000 3.3695000000 2.1022000000
1.7574000000 5.4021000000 0.2079000000
1.7571000000 1.8670000000 1.7077000000
1.7569000000 4.3496000000 1.1859000000
1.7569000000 4.2395000000 1.2908000000
1.7567000000 1.1379000000 1.0290000000
1.7566000000 2.0139000000 1.8449000000
1.7565000000 2.5927000000 2.3605000000
1.7562000000 5.6208000000 0.0731000000
1.7562000000 4.4741000000 1.0692000000
1.7561000000 2.1764000000 2.0004000000
1.7560000000 3.5527000000 1.9309000000
1.7559000000 4.0877000000 1.4326000000
1.7558000000 4.1536000000 1.3735000000
1.7558000000 2.8915000000 2.4840000000
1.7556000000 2.5839000000 2.3550000000
1.7554000000 5.0231000000 0.5635000000
1.7552000000 2.2962000000 2.1003000000
1.7551000000 4.2914000000 1.2495000000
1.7550000000 1.8004000000 1.6429000000
1.7549000000 4.2265000000 1.3036000000
1.7548000000 0.2624000000 0.2071000000
1.7547000000 1.3579000000 1.2254000000
1.7546000000 0.9522000000 0.8513000000
1.7545000000 0.9279000000 0.8313000000
1.7545000000 1.0884000000 0.9737000000
1.7544000000 3.2591000000 2.2056000000
1.7543000000 2.7018000000 2.4297000000
1.7541000000 4.6127000000 0.9437000000
1.7540000000 2.0872000000 1.9033000000
1.7538000000 3.1328000000 2.3110000000
1.7537000000 3.5705000000 1.9150000000
1.7535000000 4.7627000000 0.7985000000
1.7535000000 4.6036000000 0.9488000000
1.7531000000 0.6926000000 0.6040000000
1.7530000000 3.3935000000 2.0763000000
1.7530000000 4.5813000000 0.9687000000
1.7529000000 1.7017000000 1.5443000000
1.7526000000 5.1636000000 0.4265000000
1.7525000000 0.4470000000 0.3736000000
1.7523000000 3.1500000000 2.3101000000
1.7521000000 4.6113000000 0.9498000000
1.7520000000 2.1973000000 2.0161000000
1.7518000000 2.4632000000 2.2568000000
1.7519000000 3.5749000000 1.9120000000
1.7516000000 3.3746000000 2.0976000000
1.7514000000 0.4912000000 0.4175000000
1.7513000000 3.5728000000 1.9142000000
1.7511000000 4.3109000000 1.2268000000
1.7511000000 1.0711000000 0.9608000000
1.7510000000 1.4042000000 1.2769000000
1.7510000000 5.0063000000 0.5768000000
1.7502000000 1.4478000000 1.3161000000
1.7499000000 1.9142000000 1.7467000000
1.7497000000 0.2654000000 0.2056000000
1.7493000000 3.2526000000 2.2119000000
1.7493000000 3.9842000000 1.5304000000
1.7490000000 4.0536000000 1.4629000000
1.7488000000 1.4671000000 1.3388000000
1.7485000000 2.9822000000 2.4306000000
1.7481000000 5.4068000000 0.2074000000
1.7478000000 3.2994000000 2.1692000000
1.7477000000 1.1889000000 1.0705000000
1.7464000000 0.9500000000 0.8483000000
1.7447000000 4.8619000000 0.7125000000
1.7447000000 1.6889000000 1.5365000000
1.7418000000 1.7732000000 1.6155000000
1.5113000000 3.5591000000 1.9241000000
1.5110000000 5.4800000000 0.1375000000
1.5104000000 1.7497000000 1.5937000000
1.5100000000 3.6597000000 1.8319000000
1.5096000000 3.4209000000 2.0576000000
1.5086000000 4.5826000000 0.9721000000
1.5081000000 5.2177000000 0.3825000000
1.5076000000 3.0035000000 2.4035000000
1.5074000000 1.2817000000 1.1578000000
1.5068000000 2.6265000000 2.3886000000
1.5067000000 5.5719000000 0.1249000000
1.5066000000 3.4609000000 2.0194000000
1.5066000000 4.6743000000 0.8819000000
1.5063000000 3.1611000000 2.2952000000
1.5062000000 2.1232000000 1.9381000000
1.5061000000 3.9747000000 1.5339000000
1.5060000000 3.2445000000 2.2185000000
1.5059000000 5.3579000000 0.2413000000
1.5059000000 2.5691000000 2.3408000000
1.5053000000 2.7759000000 2.4644000000
1.5052000000 3.6601000000 1.8349000000
1.5052000000 5.6376000000 0.0584000000
1.5051000000 0.4627000000 0.3968000000
1.5051000000 0.8823000000 0.7847000000
1.5050000000 1.6464000000 1.4972000000
1.5050000000 2.0164000000 1.8441000000
1.5048000000 3.5868000000 1.9009000000
1.5048000000 4.7522000000 0.8128000000
1.5047000000 2.7668000000 2.4673000000
1.5044000000 5.3255000000 0.2750000000
1.5043000000 0.2431000000 0.1885000000
1.5041000000 0.8643000000 0.7704000000
1.5040000000 0.0349000000 0.0710000000
1.5039000000 5.0063000000 0.5762000000
1.5038000000 3.4860000000 1.9974000000
1.5038000000 3.9782000000 1.5356000000
1.5037000000 5.0899000000 0.5005000000
1.5035000000 5.6571000000 0.0492000000
1.5032000000 3.9518000000 1.5583000000
1.5031000000 5.5897000000 0.1101000000
1.5030000000 4.9425000000 0.6343000000
1.5028000000 5.5727000000 0.1169000000
1.5028000000 4.3730000000 1.1706000000
1.5027000000 0.2434000000 0.1902000000
1.5025000000 2.5812000000 2.3567000000
1.5025000000 2.8921000000 2.4674000000
1.5024000000 4.0207000000 1.4996000000
1.5024000000 3.3418000000 2.1288000000
1.5023000000 2.4752000000 2.2684000000
1.5023000000 0.1584000000 0.1137000000
1.5022000000 3.1229000000 2.3195000000
1.5020000000 3.6715000000 1.8197000000
1.5018000000 3.9621000000 1.5479000000
1.5015000000 1.4248000000 1.2916000000
1.5015000000 3.9706000000 1.5422000000
1.5013000000 1.9924000000 1.8233000000
1.5010000000 2.9120000000 2.4558000000
1.5009000000 4.4622000000 1.0826000000
1.5008000000 0.8245000000 0.7340000000
1.5005000000 3.2717000000 2.1932000000
1.5001000000 4.9875000000 0.5979000000
1.5000000000 0.7403000000 0.6576000000
1.5000000000 1.4219000000 1.2852000000
1.4996000000 1.2913000000 1.1669000000
1.4993000000 4.9264000000 0.6491000000
1.4992000000 1.7902000000 1.6288000000
1.4991000000 1.1946000000 1.0714000000
1.4990000000 0.4197000000 0.3537000000
1.4987000000 0.9370000000 0.8392000000
1.4986000000 3.7746000000 1.7241000000
1.4985000000 0.0517000000 0.0785000000
1.4983000000 1.8898000000 1.7260000000
1.4982000000 2.3405000000 2.1441000000
1.4980000000 3.3782000000 2.0910000000
1.4976000000 2.0671000000 1.8853000000
1.4958000000 0.4054000000 0.3404000000
1.2631000000 5.3960000000 0.2127000000
1.2623000000 5.3008000000 0.2961000000
1.2608000000 5.3557000000 0.2517000000
1.2600000000 4.8997000000 0.6736000000
1.2598000000 4.3945000000 1.1448000000
1.2591000000 0.4943000000 0.4221000000
1.2587000000 4.3256000000 1.2124000000
1.2586000000 1.5231000000 1.3899000000
1.2585000000 1.5336000000 1.3925000000
1.2585000000 2.1171000000 1.9907000000
1.2580000000 5.3230000000 0.2779000000
1.2579000000 1.1423000000 1.0278000000
1.2578000000 4.4686000000 1.0742000000
1.2576000000 5.6620000000 0.0430000000
1.2575000000 5.1687000000 0.4219000000
1.2571000000 1.0240000000 0.9246000000
1.2569000000 4.4613000000 1.0879000000
1.2568000000 0.3366000000 0.2773000000
1.2566000000 5.0329000000 0.5504000000
1.2566000000 5.0076000000 0.5823000000
1.2565000000 1.8166000000 1.6591000000
1.2565000000 1.0548000000 0.9492000000
1.2564000000 3.7900000000 1.7095000000
1.2560000000 0.7869000000 0.6961000000
1.2560000000 3.8214000000 1.6830000000
1.2559000000 1.9917000000 1.8189000000
1.2559000000 4.3445000000 1.1853000000
1.2557000000 1.5654000000 1.4224000000
1.2556000000 1.8233000000 1.6691000000
1.2555000000 3.0187000000 2.2141000000
1.2555000000 4.6488000000 0.9146000000
1.2553000000 5.0276000000 0.5582000000
1.2553000000 4.5705000000 0.9808000000
1.2550000000 0.0738000000 0.1089000000
1.2549000000 2.8266000000 2.2766000000
1.2548000000 0.3168000000 0.2564000000
1.2547000000 2.4192000000 2.1012000000
1.2547000000 3.6423000000 1.8496000000
1.2546000000 1.6256000000 1.4765000000
1.2545000000 1.8007000000 1.6350000000
1.2545000000 3.0762000000 2.1871000000
1.2544000000 0.6750000000 0.5878000000
1.2543000000 1.0367000000 0.9248000000
1.2543000000 2.7941000000 2.2638000000
1.2542000000 2.7712000000 2.2689000000
1.2539000000 1.9378000000 1.7699000000
1.2538000000 1.9241000000 1.7585000000
1.2537000000 4.9023000000 0.6759000000
1.2537000000 1.2553000000 1.1369000000
1.2536000000 5.0436000000 0.5425000000
1.2535000000 5.3847000000 0.2294000000
1.2534000000 1.6300000000 1.4829000000
1.2533000000 0.9056000000 0.8089000000
1.2532000000 2.5722000000 2.1780000000
1.2531000000 4.0747000000 1.4467000000
1.2530000000 4.3371000000 1.2003000000
1.2528000000 3.7780000000 1.7241000000
1.2528000000 5.1147000000 0.4730000000
1.2525000000 0.2532000000 0.1982000000
1.2525000000 5.1381000000 0.4518000000
1.2524000000 2.3241000000 2.0613000000
1.2523000000 2.7664000000 2.2611000000
1.2520000000 3.2733000000 2.0945000000
1.2519000000 3.6518000000 1.8352000000
1.2520000000 0.3859000000 0.3233000000
1.2518000000 1.5634000000 1.4220000000
1.2518000000 0.6807000000 0.5995000000
1.2518000000 3.2255000000 2.1067000000
1.2515000000 4.1279000000 1.3963000000
1.2514000000 2.6681000000 2.2165000000
1.2512000000 2.8309000000 2.2753000000
1.2512000000 3.5172000000 1.9458000000
1.2511000000 5.2927000000 0.3036000000
1.2509000000 1.5359000000 1.3955000000
1.2504000000 0.9374000000 0.8330000000
1.2504000000 0.5739000000 0.4977000000
1.2503000000 1.3378000000 1.2086000000
1.2499000000 2.9508000000 2.2432000000
1.2499000000 1.7307000000 1.5769000000
1.2498000000 0.5563000000 0.4753000000
1.2493000000 5.4426000000 0.1667000000
1.2492000000 0.9718000000 0.8662000000
1.2490000000 1.4889000000 1.3507000000
1.2488000000 0.7762000000 0.6867000000
1.2481000000 1.1267000000 1.0134000000
1.2476000000 4.1920000000 1.3374000000
1.2475000000 2.4068000000 2.0983000000
1.2472000000 0.8986000000 0.8001000000
1.2466000000 0.6617000000 0.5834000000
1.2465000000 4.7053000000 0.8653000000
1.0132000000 3.7463000000 1.6735000000
1.0105000000 4.7900000000 0.7786000000
1.0097000000 4.6286000000 0.9240000000
1.0096000000 4.5622000000 0.9929000000
1.0096000000 4.6512000000 0.9109000000
1.0086000000 4.9232000000 0.6578000000
1.0083000000 2.7588000000 2.0608000000
1.0081000000 3.5746000000 1.7494000000
1.0078000000 2.4811000000 1.9361000000
1.0075000000 4.6621000000 0.8967000000
1.0073000000 0.8708000000 0.7721000000
1.0072000000 4.2754000000 1.2560000000
1.0069000000 1.4111000000 1.2757000000
1.0069000000 1.1754000000 1.0522000000
1.0067000000 2.4898000000 1.9361000000
1.0066000000 4.3439000000 1.1943000000
1.0059000000 2.0125000000 1.7172000000
1.0055000000 2.8420000000 2.0764000000
1.0052000000 2.3717000000 1.8800000000
1.0050000000 1.5878000000 1.4417000000
1.0048000000 2.1306000000 1.7694000000
1.0048000000 4.7565000000 0.8109000000
1.0046000000 2.1720000000 1.7830000000
1.0045000000 4.3713000000 1.1661000000
1.0044000000 3.4993000000 1.7839000000
1.0043000000 4.1637000000 1.3605000000
1.0041000000 1.6520000000 1.4868000000
1.0040000000 0.2721000000 0.2151000000
1.0039000000 3.4053000000 1.8270000000
1.0036000000 2.4927000000 1.9346000000
1.0036000000 0.9098000000 0.8126000000
1.0035000000 2.0678000000 1.7400000000
1.0035000000 4.4283000000 1.1187000000
1.0034000000 4.5503000000 1.0017000000
1.0032000000 5.3002000000 0.2993000000
1.0030000000 1.3248000000 1.1957000000
1.0028000000 2.9177000000 2.0554000000
1.0024000000 0.9162000000 0.8179000000
1.0024000000 2.5236000000 1.9443000000
1.0023000000 3.3651000000 1.8417000000
1.0020000000 3.7093000000 1.6858000000
1.0020000000 3.7610000000 1.6584000000
1.0017000000 2.5071000000 1.9379000000
1.0016000000 2.4746000000 1.9243000000
1.0016000000 3.3992000000 1.8278000000
1.0014000000 5.2005000000 0.3955000000
1.0014000000 0.5006000000 0.4259000000
1.0013000000 3.9292000000 1.5656000000
1.0013000000 0.5401000000 0.4679000000
1.0012000000 5.3404000000 0.2604000000
1.0010000000 3.5903000000 1.7359000000
1.0010000000 2.9387000000 2.0429000000
1.0009000000 5.2780000000 0.3167000000
1.0008000000 4.0720000000 1.4501000000
1.0007000000 0.8708000000 0.7722000000
1.0007000000 2.2009000000 1.8012000000
1.0006000000 0.4749000000 0.4042000000
1.0004000000 1.7562000000 1.5748000000
1.0003000000 3.9254000000 1.5618000000
1.0003000000 1.3118000000 1.1888000000
0.9997000000 5.6065000000 0.0853000000
0.9994000000 2.8979000000 2.0605000000
0.9992000000 4.8227000000 0.7504000000
0.9986000000 3.8781000000 1.5862000000
0.9978000000 1.4159000000 1.2824000000
0.9973000000 0.4364000000 0.3665000000
0.9970000000 3.6494000000 1.7055000000
0.9968000000 0.0108000000 0.0510000000
0.9959000000 2.2450000000 1.8172000000
0.9957000000 0.4453000000 0.3734000000
0.9951000000 1.0172000000 0.9092000000
0.9939000000 0.9460000000 0.8418000000
0.7627000000 3.3789000000 1.6427000000
0.7624000000 1.6941000000 1.3636000000
0.7612000000 1.5026000000 1.2801000000
0.7608000000 2.8055000000 1.8642000000
0.7609000000 4.4992000000 1.0529000000
0.7598000000 5.4660000000 0.1498000000
0.7596000000 1.2248000000 1.0878000000
0.7593000000 1.9631000000 1.4903000000
0.7593000000 0.3647000000 0.3001000000
0.7588000000 1.7889000000 1.4058000000
0.7585000000 3.7603000000 1.4660000000
0.7579000000 5.3099000000 0.2977000000
0.7578000000 0.8123000000 0.7186000000
0.7576000000 4.9415000000 0.6389000000
0.7575000000 3.9237000000 1.3890000000
0.7570000000 5.5664000000 0.1284000000
0.7569000000 3.5647000000 1.5540000000
0.7568000000 1.7546000000 1.3923000000
0.7568000000 1.6880000000 1.3568000000
0.7564000000 2.3008000000 1.6470000000
0.7562000000 5.6745000000 0.0277000000
0.7558000000 3.8939000000 1.4006000000
0.7556000000 4.3561000000 1.1652000000
0.7556000000 4.1330000000 1.2878000000
0.7553000000 3.1382000000 1.7454000000
0.7552000000 5.4003000000 0.2076000000
0.7551000000 0.0621000000 0.0948000000
0.7550000000 4.3212000000 1.1845000000
0.7546000000 3.3402000000 1.6557000000
0.7545000000 1.2847000000 1.1464000000
0.7544000000 0.2824000000 0.2227000000
0.7540000000 2.1123000000 1.5588000000
0.7540000000 2.3332000000 1.6558000000
0.7540000000 4.8724000000 0.7018000000
0.7539000000 2.0780000000 1.5390000000
0.7537000000 5.5395000000 0.0809000000
0.7537000000 2.4709000000 1.7210000000
0.7536000000 0.2355000000 0.1851000000
0.7535000000 3.0139000000 1.8030000000
0.7535000000 3.6394000000 1.5197000000
0.7534000000 3.7593000000 1.4534000000
0.7533000000 1.1104000000 0.9989000000
0.7533000000 2.6404000000 1.8043000000
0.7532000000 2.1211000000 1.5631000000
0.7531000000 2.9117000000 1.8579000000
0.7530000000 1.7041000000 1.3666000000
0.7528000000 3.0358000000 1.7968000000
0.7525000000 0.5905000000 0.5077000000
0.7525000000 2.1657000000 1.5847000000
0.7523000000 0.8195000000 0.7266000000
0.7521000000 4.7573000000 0.8108000000
0.7519000000 3.8743000000 1.4050000000
0.7513000000 2.7142000000 1.8346000000
0.7512000000 2.7823000000 1.8605000000
0.7507000000 1.9297000000 1.4675000000
0.7505000000 1.2868000000 1.1468000000
0.7505000000 4.5345000000 1.0172000000
0.7501000000 3.0149000000 1.8031000000
0.7494000000 5.5668000000 0.1257000000
0.7490000000 0.0779000000 0.1102000000
0.7489000000 4.5191000000 1.0311000000
0.7481000000 0.0936000000 0.1273000000
0.7477000000 2.9200000000 1.8418000000
0.7475000000 2.2754000000 1.6235000000
0.7470000000 4.0964000000 1.2929000000
0.7468000000 1.1284000000 1.0098000000
0.7468000000 1.1056000000 0.9954000000
0.7452000000 2.2891000000 1.6271000000
0.7440000000 0.0881000000 0.1208000000
0.7437000000 1.1804000000 1.0587000000
0.5138000000 4.9025000000 0.6756000000
0.5114000000 1.4094000000 1.0306000000
0.5094000000 1.4095000000 1.0295000000
0.5093000000 4.1557000000 1.0780000000
0.5087000000 4.8557000000 0.7030000000
0.5085000000 5.0277000000 0.5561000000
0.5084000000 5.6531000000 0.0458000000
0.5083000000 5.5010000000 0.1145000000
0.5080000000 4.4964000000 0.9187000000
0.5072000000 1.5593000000 1.1018000000
0.5071000000 0.8675000000 0.7590000000
0.5067000000 5.1510000000 0.4394000000
0.5066000000 5.5986000000 0.0998000000
0.5064000000 4.7052000000 0.8053000000
0.5063000000 1.1072000000 0.8939000000
0.5060000000 3.0009000000 1.6116000000
0.5060000000 2.4089000000 1.4919000000
0.5058000000 2.1891000000 1.3890000000
0.5058000000 3.5426000000 1.3628000000
0.5058000000 0.0040000000 0.0468000000
0.5056000000 3.9867000000 1.1520000000
0.5055000000 2.1158000000 1.3577000000
0.5054000000 1.3703000000 1.0132000000
0.5050000000 4.0351000000 1.1225000000
0.5049000000 2.5669000000 1.5691000000
0.5048000000 5.5850000000 0.1135000000
0.5046000000 2.3266000000 1.4575000000
0.5043000000 4.4092000000 0.9555000000
0.5041000000 1.6664000000 1.1418000000
0.5040000000 4.4922000000 0.9205000000
0.5039000000 0.9402000000 0.7917000000
0.5038000000 4.6206000000 0.8603000000
0.5037000000 1.5320000000 1.0854000000
0.5037000000 0.4647000000 0.3944000000
0.5036000000 4.5804000000 0.8718000000
0.5032000000 2.0829000000 1.3438000000
0.5030000000 5.1259000000 0.4635000000
0.5030000000 0.5917000000 0.5163000000
0.5028000000 1.3787000000 1.0148000000
0.5028000000 0.8076000000 0.7035000000
0.5026000000 3.0223000000 1.6014000000
0.5024000000 4.2149000000 1.0436000000
0.5023000000 0.6716000000 0.5936000000
0.5023000000 0.9899000000 0.8290000000
0.5021000000 3.9246000000 1.1745000000
0.5020000000 1.8148000000 1.2133000000
0.5018000000 3.5301000000 1.3644000000
0.5017000000 3.7898000000 1.2420000000
0.5017000000 1.5663000000 1.0959000000
0.5015000000 4.4231000000 0.9486000000
0.5014000000 1.1769000000 0.9139000000
0.5015000000 5.6537000000 0.0448000000
0.5012000000 5.2932000000 0.3090000000
0.5009000000 2.4229000000 1.4943000000
0.5008000000 3.0217000000 1.5956000000
0.5006000000 0.0942000000 0.1299000000
0.5007000000 1.4589000000 1.0532000000
0.5004000000 0.2416000000 0.1863000000
0.5004000000 2.6541000000 1.6043000000
0.4999000000 5.5288000000 0.0934000000
0.5000000000 1.1751000000 0.9138000000
0.4998000000 2.0990000000 1.3459000000
0.4994000000 3.3973000000 1.4237000000
0.4994000000 2.8796000000 1.6545000000
0.4992000000 3.4811000000 1.3829000000
0.4992000000 3.6974000000 1.2845000000
0.4990000000 2.3726000000 1.4723000000
0.4987000000 4.9174000000 0.6588000000
0.4982000000 5.3413000000 0.2676000000
0.4981000000 2.0470000000 1.3220000000
0.4971000000 1.2853000000 0.9596000000
0.4968000000 0.0139000000 0.0472000000
0.4965000000 2.3532000000 1.4612000000
0.4959000000 2.1069000000 1.3450000000
0.4952000000 0.6325000000 0.5547000000
0.4949000000 1.5714000000 1.1026000000
0.4940000000 1.0491000000 0.8569000000
0.2608000000 3.2267000000 1.3099000000
0.2607000000 5.1861000000 0.3829000000
0.2592000000 4.9984000000 0.4789000000
0.2587000000 1.7338000000 0.9818000000
0.2585000000 5.1228000000 0.4191000000
0.2584000000 0.4795000000 0.3778000000
0.2582000000 4.5703000000 0.6814000000
0.2580000000 1.6760000000 0.9546000000
0.2580000000 2.1801000000 1.1937000000
0.2579000000 3.9210000000 0.9791000000
0.2578000000 3.0701000000 1.3772000000
0.2577000000 3.8590000000 1.0117000000
0.2573000000 2.2366000000 1.2152000000
0.2573000000 5.1153000000 0.4192000000
0.2571000000 1.3285000000 0.7931000000
0.2570000000 4.8613000000 0.5384000000
0.2570000000 2.2897000000 1.2328000000
0.2569000000 3.6814000000 1.0972000000
0.2568000000 1.8153000000 1.0121000000
0.2565000000 2.4848000000 1.3263000000
0.2564000000 5.4581000000 0.1541000000
0.2563000000 4.5163000000 0.7033000000
0.2563000000 5.0259000000 0.4662000000
0.2560000000 4.9275000000 0.5131000000
0.2560000000 3.5555000000 1.1515000000
0.2559000000 5.2295000000 0.3571000000
0.2555000000 3.5307000000 1.1666000000
0.2555000000 2.0449000000 1.1230000000
0.2553000000 3.6465000000 1.1104000000
0.2553000000 2.8072000000 1.4651000000
0.2551000000 5.6673000000 0.0293000000
0.2551000000 5.2439000000 0.3423000000
0.2548000000 2.4915000000 1.3276000000
0.2547000000 3.8796000000 1.0009000000
0.2547000000 2.0262000000 1.1106000000
0.2545000000 2.8084000000 1.4624000000
0.2545000000 1.9341000000 1.0680000000
0.2544000000 1.0338000000 0.6500000000
0.2543000000 2.3527000000 1.2650000000
0.2543000000 2.4181000000 1.2995000000
0.2541000000 5.5319000000 0.0838000000
0.2540000000 5.0121000000 0.4667000000
