5.0157000000 4.0451000000 0.6286000000
5.0116000000 6.0783000000 0.0112000000
5.0080000000 5.4075000000 0.1683000000
5.0077000000 2.1113000000 0.2500000000
5.0072000000 2.5710000000 0.4102000000
5.0070000000 3.2772000000 0.6416000000
5.0067000000 1.1857000000 0.0104000000
5.0064000000 3.6803000000 0.7460000000
5.0062000000 5.8043000000 0.0380000000
5.0060000000 2.5401000000 0.4031000000
5.0060000000 4.3467000000 0.5248000000
5.0055000000 1.2528000000 0.0318000000
5.0053000000 1.1807000000 0.0094000000
5.0050000000 5.8802000000 0.0817000000
5.0045000000 1.6099000000 0.0840000000
5.0044000000 4.6619000000 0.4208000000
5.0043000000 1.6216000000 0.0867000000
5.0042000000 1.9299000000 0.1917000000
5.0041000000 4.6729000000 0.4218000000
5.0039000000 3.0866000000 0.5888000000
5.0038000000 4.8532000000 0.3649000000
5.0033000000 2.1800000000 0.2752000000
5.0031000000 2.7931000000 0.4869000000
5.0030000000 5.6497000000 0.0889000000
5.0026000000 1.6085000000 0.0782000000
5.0023000000 2.1486000000 0.2682000000
5.0016000000 2.5215000000 0.3924000000
5.0015000000 2.8066000000 0.4938000000
5.0013000000 3.3771000000 0.6870000000
5.0010000000 1.6520000000 0.0936000000
5.0005000000 2.5948000000 0.4207000000
5.0002000000 3.4293000000 0.7041000000
4.9988000000 4.0224000000 0.6454000000
4.9981000000 2.2506000000 0.3004000000
4.9970000000 1.2148000000 0.0238000000
4.7625000000 6.5139000000 0.0105000000
4.7619000000 3.8427000000 0.8482000000
4.7613000000 6.0301000000 0.1022000000
4.7603000000 5.3040000000 0.3441000000
4.7596000000 4.8634000000 0.5038000000
4.7590000000 2.6604000000 0.5883000000
4.7588000000 2.6267000000 0.5714000000
4.7582000000 0.8488000000 0.0380000000
4.7580000000 4.7061000000 0.5580000000
4.7578000000 6.2623000000 0.0247000000
4.7575000000 6.0159000000 0.1076000000
4.7573000000 3.3873000000 0.8333000000
4.7571000000 5.8644000000 0.1622000000
4.7569000000 4.2649000000 0.7066000000
4.7565000000 2.7515000000 0.6203000000
4.7562000000 0.7395000000 0.0032000000
4.7561000000 1.6032000000 0.2256000000
4.7558000000 2.1114000000 0.3999000000
4.7557000000 5.1376000000 0.4102000000
4.7557000000 5.5668000000 0.2643000000
4.7555000000 2.2357000000 0.4436000000
4.7550000000 1.3486000000 0.1388000000
4.7548000000 6.2472000000 0.0311000000
4.7547000000 3.4107000000 0.8455000000
4.7545000000 5.4544000000 0.3070000000
4.7544000000 4.1066000000 0.7626000000
4.7540000000 2.1983000000 0.4301000000
4.7540000000 5.6339000000 0.2346000000
4.7538000000 5.4831000000 0.2928000000
4.7537000000 1.3979000000 0.1549000000
4.7535000000 3.8662000000 0.8485000000
4.7533000000 2.3452000000 0.4817000000
4.7529000000 3.7873000000 0.8714000000
4.7528000000 1.6818000000 0.2550000000
4.7523000000 0.9164000000 0.0668000000
4.7519000000 3.1472000000 0.7544000000
4.7512000000 0.9419000000 0.0751000000
4.7508000000 3.2811000000 0.8020000000
4.7505000000 1.8640000000 0.3224000000
4.7503000000 3.4995000000 0.8759000000
4.7501000000 4.4992000000 0.6307000000
4.7497000000 1.9247000000 0.3417000000
4.7493000000 1.0991000000 0.0534000000
4.7486000000 2.4966000000 0.5376000000
4.7485000000 1.3275000000 0.1358000000
4.5135000000 6.2090000000 0.1845000000
4.5119000000 5.2838000000 0.5020000000
4.5116000000 4.7485000000 0.6918000000
4.5107000000 0.6753000000 0.0484000000
4.5101000000 2.6156000000 0.7144000000
4.5096000000 6.8782000000 0.0355000000
4.5090000000 5.7936000000 0.3351000000
4.5088000000 2.6380000000 0.7271000000
4.5087000000 2.7759000000 0.7719000000
4.5083000000 0.4293000000 0.0462000000
4.5079000000 6.1851000000 0.1975000000
4.5075000000 1.9474000000 0.4900000000
4.5073000000 3.7118000000 1.0462000000
4.5070000000 4.7839000000 0.6764000000
4.5065000000 4.8071000000 0.6711000000
4.5064000000 4.9101000000 0.6378000000
4.5063000000 1.5140000000 0.3450000000
4.5061000000 2.6839000000 0.7414000000
4.5058000000 6.2756000000 0.1701000000
4.5054000000 6.2387000000 0.1818000000
4.5053000000 5.6224000000 0.3968000000
4.5050000000 3.0336000000 0.8600000000
4.5048000000 6.5490000000 0.0755000000
4.5045000000 4.7052000000 0.7062000000
4.5044000000 1.0483000000 0.1862000000
4.5041000000 4.9297000000 0.6305000000
4.5040000000 5.2283000000 0.5256000000
4.5040000000 2.2554000000 0.6000000000
4.5037000000 1.7463000000 0.4257000000
4.5034000000 3.1562000000 0.9024000000
4.5031000000 3.6339000000 1.0614000000
4.5030000000 5.2060000000 0.5395000000
4.5029000000 3.5686000000 1.0496000000
4.5028000000 1.2602000000 0.2610000000
4.5026000000 4.0378000000 0.9340000000
4.5025000000 3.6196000000 1.0555000000
4.5024000000 3.4858000000 1.0209000000
4.5021000000 3.0190000000 0.8588000000
4.5018000000 2.4644000000 0.6725000000
4.5012000000 2.8207000000 0.7910000000
4.5010000000 3.3488000000 0.9749000000
4.5007000000 2.1754000000 0.5721000000
4.5002000000 6.6513000000 0.0442000000
4.5000000000 2.0389000000 0.5280000000
4.4999000000 0.7110000000 0.0760000000
4.4997000000 0.6249000000 0.0473000000
4.4992000000 0.3313000000 0.0236000000
4.4987000000 1.2830000000 0.2706000000
4.4980000000 5.6843000000 0.3784000000
4.4978000000 2.5233000000 0.6977000000
4.2649000000 6.0860000000 0.3762000000
4.2613000000 6.3822000000 0.2751000000
4.2608000000 3.6596000000 1.1957000000
4.2598000000 3.5411000000 1.1798000000
4.2590000000 2.1489000000 0.7072000000
4.2588000000 1.2042000000 0.3807000000
4.2587000000 2.5223000000 0.8341000000
4.2585000000 1.1335000000 0.3609000000
4.2581000000 3.8166000000 1.1547000000
4.2579000000 2.0249000000 0.6650000000
4.2577000000 5.9225000000 0.4371000000
4.2575000000 6.0450000000 0.3967000000
4.2573000000 6.4781000000 0.2460000000
4.2571000000 3.0700000000 1.0263000000
4.2570000000 4.7308000000 0.8398000000
4.2569000000 6.8439000000 0.1188000000
4.2567000000 0.0083000000 0.0501000000
4.2565000000 2.7489000000 0.9163000000
4.2563000000 0.8338000000 0.2573000000
4.2561000000 1.1728000000 0.3746000000
4.2561000000 6.1075000000 0.3754000000
4.2559000000 1.6821000000 0.5492000000
4.2558000000 3.7592000000 1.1744000000
4.2555000000 5.0935000000 0.7212000000
4.2554000000 4.1241000000 1.0546000000
4.2553000000 5.4259000000 0.6045000000
4.2552000000 7.1970000000 0.0789000000
4.2550000000 5.7312000000 0.5027000000
4.2546000000 3.6390000000 1.2085000000
4.2543000000 4.3526000000 0.9779000000
4.2543000000 5.0855000000 0.7264000000
4.2542000000 5.3779000000 0.6207000000
4.2541000000 4.7768000000 0.8279000000
4.2540000000 3.6308000000 1.2079000000
4.2539000000 6.4437000000 0.2595000000
4.2538000000 6.1679000000 0.3522000000
4.2536000000 0.2494000000 0.0609000000
4.2535000000 6.3723000000 0.2813000000
4.2535000000 2.9287000000 0.9811000000
4.2533000000 4.6736000000 0.8686000000
4.2532000000 5.3076000000 0.6457000000
4.2530000000 0.5370000000 0.1582000000
4.2530000000 2.8236000000 0.9407000000
4.2529000000 2.5187000000 0.8311000000
4.2527000000 0.7681000000 0.2391000000
4.2526000000 2.4391000000 0.8136000000
4.2521000000 0.5020000000 0.1483000000
4.2518000000 0.0684000000 0.0744000000
4.2512000000 5.2530000000 0.6743000000
4.2511000000 0.3026000000 0.0826000000
4.2508000000 1.6382000000 0.5389000000
4.2507000000 0.0115000000 0.0562000000
4.2505000000 0.1705000000 0.0366000000
4.2504000000 3.6047000000 1.2013000000
4.2501000000 4.0891000000 1.0654000000
4.2498000000 0.0595000000 0.0678000000
4.2485000000 1.1193000000 0.3641000000
4.2455000000 3.3598000000 1.1249000000
4.0118000000 6.7899000000 0.2818000000
4.0113000000 3.4586000000 1.3015000000
4.0104000000 5.7788000000 0.6293000000
4.0093000000 2.2464000000 0.8875000000
4.0091000000 4.3970000000 1.1060000000
4.0088000000 3.6171000000 1.3480000000
4.0083000000 6.5562000000 0.3649000000
4.0082000000 7.2776000000 0.0788000000
4.0080000000 3.9763000000 1.2455000000
4.0077000000 6.0808000000 0.5323000000
4.0071000000 3.1215000000 1.1865000000
4.0070000000 3.7826000000 1.3224000000
4.0068000000 5.8127000000 0.6228000000
4.0066000000 6.7892000000 0.2836000000
4.0065000000 4.4719000000 1.0794000000
4.0064000000 5.4250000000 0.7600000000
4.0063000000 6.8973000000 0.2453000000
4.0059000000 5.7437000000 0.6485000000
4.0059000000 5.6016000000 0.6968000000
4.0055000000 7.0656000000 0.1521000000
4.0052000000 1.9709000000 0.7918000000
4.0050000000 0.6233000000 0.3365000000
4.0048000000 0.8406000000 0.4115000000
4.0047000000 4.2394000000 1.1619000000
4.0046000000 3.7204000000 1.3367000000
4.0043000000 2.4004000000 0.9435000000
4.0041000000 6.6884000000 0.3243000000
4.0040000000 0.0151000000 0.0216000000
4.0039000000 3.7712000000 1.3200000000
4.0037000000 4.0874000000 1.2145000000
4.0032000000 1.7542000000 0.7273000000
4.0027000000 6.9162000000 0.2458000000
4.0026000000 0.9662000000 0.4521000000
4.0025000000 4.8621000000 0.9500000000
4.0024000000 5.7813000000 0.6346000000
4.0020000000 2.0586000000 0.8255000000
4.0016000000 4.5562000000 1.0545000000
4.0015000000 5.8741000000 0.6058000000
4.0013000000 1.5673000000 0.6636000000
4.0009000000 5.5291000000 0.7243000000
4.0007000000 0.0983000000 0.0753000000
4.0005000000 0.1340000000 0.0995000000
4.0002000000 4.7968000000 0.9707000000
3.9999000000 1.0994000000 0.4983000000
3.9992000000 1.2211000000 0.5442000000
3.9988000000 1.6801000000 0.7060000000
3.9985000000 2.9785000000 1.1447000000
3.9963000000 1.2949000000 0.5700000000
3.7628000000 6.6846000000 0.4140000000
3.7613000000 2.7544000000 1.2087000000
3.7612000000 3.1805000000 1.3516000000
3.7603000000 3.5526000000 1.4800000000
3.7598000000 6.7074000000 0.3971000000
3.7597000000 0.7341000000 0.5002000000
3.7591000000 4.1829000000 1.3252000000
3.7584000000 6.0721000000 0.6686000000
3.7583000000 4.9924000000 1.0458000000
3.7580000000 4.0815000000 1.3633000000
3.7579000000 2.2454000000 1.0364000000
3.7577000000 6.2979000000 0.6051000000
3.7575000000 1.6251000000 0.8265000000
3.7573000000 3.9568000000 1.4078000000
3.7572000000 4.9668000000 1.0618000000
3.7569000000 1.3818000000 0.7391000000
3.7567000000 7.0450000000 0.1647000000
3.7565000000 3.3302000000 1.4097000000
3.7564000000 6.5311000000 0.5039000000
3.7563000000 3.6049000000 1.4920000000
3.7560000000 5.8914000000 0.7387000000
3.7560000000 1.8212000000 0.8930000000
3.7556000000 2.0624000000 0.9785000000
3.7554000000 2.7570000000 1.2128000000
3.7551000000 7.0000000000 0.2043000000
3.7549000000 1.8299000000 0.9018000000
3.7548000000 0.2588000000 0.1779000000
3.7545000000 1.7114000000 0.8570000000
3.7544000000 2.2994000000 1.0610000000
3.7537000000 3.2989000000 1.4026000000
3.7535000000 5.8892000000 0.7501000000
3.7534000000 2.5267000000 1.1365000000
3.7533000000 0.3268000000 0.2344000000
3.7532000000 2.2169000000 1.0263000000
3.7530000000 2.2030000000 1.0269000000
3.7526000000 2.2232000000 1.0266000000
3.7524000000 5.1001000000 1.0115000000
3.7525000000 1.4691000000 0.7749000000
3.7520000000 6.2097000000 0.6355000000
3.7514000000 6.2099000000 0.6360000000
3.7511000000 4.4001000000 1.2558000000
3.7510000000 2.7728000000 1.2243000000
3.7508000000 1.6228000000 0.8270000000
3.7503000000 1.4700000000 0.7786000000
3.7502000000 5.4273000000 0.9083000000
3.7500000000 2.4719000000 1.1225000000
3.7496000000 5.4620000000 0.8927000000
3.7491000000 3.1221000000 1.3396000000
3.7485000000 5.2080000000 0.9831000000
3.7482000000 0.2479000000 0.1769000000
3.7480000000 0.5935000000 0.4121000000
3.7459000000 3.7117000000 1.4917000000
3.5117000000 6.2173000000 0.7312000000
3.5111000000 6.5549000000 0.5000000000
3.5108000000 7.2742000000 0.0077000000
3.5104000000 6.7494000000 0.3626000000
3.5098000000 6.8864000000 0.2650000000
3.5095000000 4.3444000000 1.4188000000
3.5091000000 3.5425000000 1.6299000000
3.5089000000 1.4741000000 0.9218000000
3.5087000000 4.4838000000 1.3754000000
3.5086000000 3.1853000000 1.5096000000
3.5085000000 0.8306000000 0.5774000000
3.5082000000 6.0914000000 0.8092000000
3.5080000000 2.4283000000 1.2520000000
3.5078000000 5.1976000000 1.1319000000
3.5072000000 6.3340000000 0.6526000000
3.5071000000 0.8606000000 0.5942000000
3.5069000000 2.4209000000 1.2448000000
3.5068000000 1.7711000000 1.0234000000
3.5065000000 6.6407000000 0.4422000000
3.5063000000 0.5417000000 0.3871000000
3.5061000000 7.2616000000 0.0195000000
3.5059000000 2.7189000000 1.3500000000
3.5056000000 1.9443000000 1.0851000000
3.5058000000 3.1488000000 1.4933000000
3.5055000000 0.2947000000 0.2062000000
3.5053000000 6.1342000000 0.7786000000
3.5050000000 6.7077000000 0.3972000000
3.5048000000 6.6213000000 0.4536000000
3.5047000000 5.3685000000 1.0710000000
3.5045000000 2.6101000000 1.3030000000
3.5043000000 2.5877000000 1.3056000000
3.5040000000 6.6150000000 0.4623000000
3.5038000000 7.0290000000 0.1753000000
3.5037000000 6.7459000000 0.3667000000
3.5036000000 0.9762000000 0.6771000000
3.5035000000 2.7944000000 1.3686000000
3.5033000000 4.1632000000 1.4844000000
3.5032000000 6.8189000000 0.3224000000
3.5031000000 1.3093000000 0.8601000000
3.5030000000 0.3381000000 0.2367000000
3.5029000000 6.0901000000 0.8096000000
3.5025000000 5.8056000000 0.9215000000
3.5021000000 4.1730000000 1.4784000000
3.5019000000 2.2584000000 1.1889000000
3.5016000000 0.6771000000 0.4656000000
3.5011000000 1.2109000000 0.8235000000
3.5008000000 5.6798000000 0.9620000000
3.5008000000 4.0942000000 1.5111000000
3.5001000000 2.1557000000 1.1618000000
3.5027000000 4.8468000000 1.2496000000
3.4997000000 0.4869000000 0.3408000000
3.4994000000 3.4070000000 1.5879000000
3.4992000000 3.7235000000 1.6333000000
3.4984000000 3.1164000000 1.4940000000
3.4980000000 6.6227000000 0.4563000000
3.4979000000 1.3240000000 0.8695000000
3.4977000000 1.8085000000 1.0484000000
3.4975000000 6.8290000000 0.3101000000
3.4972000000 0.5574000000 0.3901000000
3.4959000000 3.2354000000 1.5317000000
3.2643000000 6.4372000000 0.5820000000
3.2619000000 6.7792000000 0.3476000000
3.2613000000 3.3307000000 1.7027000000
3.2609000000 1.7140000000 1.1409000000
3.2604000000 3.9766000000 1.6887000000
3.2598000000 4.4562000000 1.5339000000
3.2593000000 7.1251000000 0.1126000000
3.2590000000 6.6644000000 0.4250000000
3.2586000000 1.1760000000 0.8124000000
3.2582000000 2.3714000000 1.3802000000
3.2581000000 6.6648000000 0.4282000000
3.2579000000 0.3387000000 0.2389000000
3.2575000000 5.4012000000 1.2044000000
3.2573000000 4.7792000000 1.4224000000
3.2572000000 0.8425000000 0.5851000000
3.2568000000 1.7440000000 1.1613000000
3.2565000000 5.8737000000 0.9672000000
3.2564000000 2.1417000000 1.2964000000
3.2562000000 2.3329000000 1.3642000000
3.2558000000 0.3511000000 0.2485000000
3.2556000000 4.1160000000 1.6487000000
3.2553000000 2.8925000000 1.5602000000
3.2550000000 4.5264000000 1.5045000000
3.2549000000 1.0499000000 0.7275000000
3.2548000000 7.0811000000 0.1423000000
3.2547000000 0.4347000000 0.3052000000
3.2544000000 6.7215000000 0.3768000000
3.2542000000 4.9331000000 1.3652000000
3.2540000000 2.7467000000 1.5101000000
3.2538000000 7.2973000000 0.0677000000
3.2537000000 4.8122000000 1.4094000000
3.2536000000 3.8324000000 1.7456000000
3.2533000000 6.5578000000 0.4956000000
3.2532000000 0.7626000000 0.5261000000
3.2530000000 5.8284000000 0.9992000000
3.2528000000 0.0539000000 0.0463000000
3.2526000000 3.2489000000 1.6811000000
3.2525000000 1.9042000000 1.2185000000
3.2521000000 6.0549000000 0.8452000000
3.2518000000 2.9437000000 1.5746000000
3.2516000000 1.3409000000 0.9223000000
3.2516000000 5.2777000000 1.2513000000
3.2515000000 6.2225000000 0.7286000000
3.2512000000 1.5847000000 1.0794000000
3.2510000000 0.7244000000 0.4992000000
3.2509000000 1.3293000000 0.9121000000
3.2508000000 2.9344000000 1.5687000000
3.2502000000 1.1325000000 0.7806000000
3.2499000000 2.7157000000 1.4994000000
3.2500000000 6.5422000000 0.5062000000
3.2494000000 0.6573000000 0.4555000000
3.2490000000 6.9406000000 0.2367000000
3.2488000000 4.0108000000 1.6844000000
3.2483000000 5.4152000000 1.2050000000
3.2480000000 0.1741000000 0.1242000000
3.2466000000 1.7407000000 1.1591000000
3.2456000000 0.2685000000 0.1908000000
3.2426000000 0.2858000000 0.2018000000
3.0118000000 0.1098000000 0.0776000000
3.0104000000 6.6850000000 0.4082000000
3.0097000000 6.7637000000 0.3604000000
3.0091000000 4.5321000000 1.6468000000
3.0084000000 4.2779000000 1.7308000000
3.0082000000 1.0194000000 0.7057000000
3.0078000000 2.3502000000 1.5150000000
3.0077000000 3.0958000000 1.7749000000
3.0073000000 4.0484000000 1.8108000000
3.0071000000 0.3414000000 0.2443000000
3.0070000000 2.5185000000 1.5704000000
3.0068000000 2.3193000000 1.5118000000
3.0065000000 1.8384000000 1.2641000000
3.0063000000 6.3811000000 0.6157000000
3.0061000000 5.9982000000 0.8840000000
3.0059000000 4.0163000000 1.8305000000
3.0056000000 6.0660000000 0.8322000000
3.0054000000 4.7488000000 1.5821000000
3.0051000000 3.0524000000 1.7596000000
3.0050000000 5.9884000000 0.8960000000
3.0050000000 5.6834000000 1.0979000000
3.0048000000 5.2008000000 1.4217000000
3.0046000000 4.2038000000 1.7670000000
3.0044000000 5.9964000000 0.8840000000
3.0043000000 3.6987000000 1.9347000000
3.0043000000 1.0629000000 0.7312000000
3.0041000000 7.1120000000 0.1226000000
3.0038000000 1.1016000000 0.7648000000
3.0037000000 4.3781000000 1.7063000000
3.0035000000 5.9061000000 0.9453000000
3.0034000000 6.7988000000 0.3287000000
3.0033000000 3.2340000000 1.8214000000
3.0032000000 5.6154000000 1.1449000000
3.0028000000 6.3966000000 0.6122000000
3.0027000000 6.2072000000 0.7379000000
3.0025000000 3.2361000000 1.8196000000
3.0024000000 1.8500000000 1.2783000000
3.0022000000 1.2770000000 0.8836000000
3.0019000000 4.2209000000 1.7665000000
3.0012000000 6.0359000000 0.8551000000
3.0008000000 2.8861000000 1.7038000000
3.0006000000 5.4261000000 1.2726000000
3.0002000000 5.1266000000 1.4451000000
3.0000000000 6.7985000000 0.3343000000
2.9995000000 1.5136000000 1.0412000000
2.9991000000 4.9451000000 1.5166000000
2.9984000000 2.4288000000 1.5518000000
2.9983000000 2.4392000000 1.5526000000
2.9968000000 1.9058000000 1.3065000000
2.9934000000 0.2890000000 0.2066000000
2.7607000000 6.9573000000 0.2305000000
2.7602000000 5.9347000000 0.9259000000
2.7591000000 6.1307000000 0.7897000000
2.7588000000 3.4136000000 2.0233000000
2.7581000000 7.1819000000 0.0697000000
2.7577000000 6.6250000000 0.4513000000
2.7575000000 0.8396000000 0.5796000000
2.7574000000 3.3815000000 2.0126000000
2.7571000000 2.0997000000 1.4460000000
2.7569000000 1.9956000000 1.3671000000
2.7567000000 0.3293000000 0.2355000000
2.7565000000 5.1512000000 1.4618000000
2.7563000000 5.8880000000 0.9580000000
2.7560000000 4.1458000000 1.9357000000
2.7558000000 2.0307000000 1.3904000000
2.7557000000 2.9613000000 1.8714000000
2.7553000000 2.3522000000 1.6168000000
2.7551000000 5.5062000000 1.2118000000
2.7549000000 3.3511000000 2.0070000000
2.7548000000 5.3726000000 1.3067000000
2.7547000000 0.1706000000 0.1231000000
2.7545000000 2.9464000000 1.8720000000
2.7543000000 5.5372000000 1.2006000000
2.7543000000 6.2291000000 0.7273000000
2.7542000000 5.0749000000 1.5119000000
2.7539000000 1.8395000000 1.2696000000
2.7537000000 3.8021000000 2.0499000000
2.7534000000 5.1043000000 1.4861000000
2.7533000000 3.6777000000 2.0787000000
2.7531000000 1.7406000000 1.1983000000
2.7529000000 0.7426000000 0.5113000000
2.7527000000 3.3651000000 2.0109000000
2.7524000000 1.7904000000 1.2341000000
2.7520000000 0.4428000000 0.3023000000
2.7519000000 6.2973000000 0.6787000000
2.7518000000 2.7920000000 1.8201000000
2.7517000000 0.5689000000 0.3917000000
2.7514000000 0.8512000000 0.5887000000
2.7513000000 1.6957000000 1.1687000000
2.7510000000 6.4651000000 0.5629000000
2.7508000000 2.9214000000 1.8658000000
2.7505000000 4.5232000000 1.8079000000
2.7503000000 3.5256000000 2.0703000000
2.7502000000 5.6821000000 1.1000000000
2.7500000000 2.9108000000 1.8635000000
2.7499000000 5.2231000000 1.4087000000
2.7497000000 1.9879000000 1.3714000000
2.7493000000 3.4300000000 2.0341000000
2.7491000000 1.5810000000 1.0892000000
2.7489000000 5.6774000000 1.1038000000
2.7489000000 5.8241000000 1.0001000000
2.7483000000 1.2437000000 0.8585000000
2.7481000000 5.5290000000 1.2056000000
2.7464000000 1.9899000000 1.3639000000
2.7430000000 0.1829000000 0.1346000000
2.5130000000 7.0262000000 0.1809000000
2.5120000000 7.2506000000 0.0260000000
2.5100000000 6.9490000000 0.2325000000
2.5091000000 5.6413000000 1.1254000000
2.5090000000 0.9905000000 0.6818000000
2.5085000000 3.9457000000 2.1502000000
2.5081000000 0.1583000000 0.1148000000
2.5078000000 1.1071000000 0.7649000000
2.5077000000 4.8594000000 1.6627000000
2.5076000000 2.9961000000 2.0217000000
2.5072000000 6.2340000000 0.7219000000
2.5071000000 2.9949000000 2.0226000000
2.5070000000 3.4560000000 2.1932000000
2.5067000000 2.2928000000 1.5737000000
2.5065000000 6.2127000000 0.7341000000
2.5064000000 4.7343000000 1.7513000000
2.5062000000 4.1183000000 2.0880000000
2.5060000000 5.5843000000 1.1611000000
2.5056000000 2.6384000000 1.8084000000
2.5054000000 1.6818000000 1.1587000000
2.5053000000 5.9970000000 0.8838000000
2.5051000000 4.8639000000 1.6551000000
2.5050000000 5.5484000000 1.1905000000
2.5048000000 4.5589000000 1.8644000000
2.5048000000 1.5749000000 1.0811000000
2.5045000000 4.5906000000 1.8502000000
2.5045000000 3.8960000000 2.1676000000
2.5042000000 4.0716000000 2.1079000000
2.5038000000 2.7061000000 1.8609000000
2.5037000000 2.4497000000 1.6840000000
2.5035000000 4.3212000000 2.0088000000
2.5033000000 3.7269000000 2.2244000000
2.5031000000 1.1916000000 0.8225000000
2.5030000000 4.2137000000 2.0550000000
2.5028000000 5.1764000000 1.4427000000
2.5027000000 2.1304000000 1.4650000000
2.5025000000 2.4634000000 1.6901000000
2.5023000000 5.1294000000 1.4761000000
2.5021000000 5.7511000000 1.0492000000
2.5020000000 1.5858000000 1.0898000000
2.5014000000 4.4981000000 1.9017000000
2.5012000000 0.3148000000 0.2232000000
2.5010000000 4.2105000000 2.0610000000
2.5006000000 3.0984000000 2.0741000000
2.5004000000 2.7641000000 1.8985000000
2.5001000000 1.4115000000 0.9721000000
2.4997000000 2.1352000000 1.4711000000
2.4992000000 0.5296000000 0.3674000000
2.4990000000 4.5245000000 1.8885000000
2.4986000000 0.4472000000 0.3127000000
2.4966000000 2.0215000000 1.3864000000
2.2630000000 1.6280000000 1.1229000000
2.2603000000 4.9583000000 1.5928000000
2.2600000000 0.6134000000 0.4231000000
2.2598000000 7.0204000000 0.1812000000
2.2596000000 5.7660000000 1.0371000000
2.2592000000 5.0637000000 1.5217000000
2.2589000000 6.5883000000 0.4835000000
2.2586000000 6.2467000000 0.7132000000
2.2583000000 6.6702000000 0.4247000000
2.2582000000 6.3406000000 0.6504000000
2.2580000000 5.1227000000 1.4794000000
2.2576000000 2.4442000000 1.6783000000
2.2573000000 0.7655000000 0.5285000000
2.2570000000 2.8904000000 1.9843000000
2.2566000000 2.4103000000 1.6594000000
2.2566000000 2.2440000000 1.5437000000
2.2563000000 5.3545000000 1.3217000000
2.2562000000 6.6226000000 0.4564000000
2.2560000000 2.9739000000 2.0427000000
2.2558000000 6.8641000000 0.2961000000
2.2555000000 5.5397000000 1.1905000000
2.2553000000 2.9309000000 2.0111000000
2.2548000000 5.7140000000 1.0792000000
2.2547000000 7.1795000000 0.0773000000
2.2546000000 5.2044000000 1.4258000000
2.2545000000 6.7361000000 0.3799000000
2.2543000000 6.0145000000 0.8655000000
2.2541000000 2.5970000000 1.7852000000
2.2540000000 6.1868000000 0.7515000000
2.2538000000 6.9580000000 0.2209000000
2.2536000000 5.1136000000 1.4949000000
2.2535000000 6.5220000000 0.5217000000
2.2534000000 4.7880000000 1.7042000000
2.2533000000 2.0176000000 1.3917000000
2.2531000000 1.4864000000 1.0269000000
2.2527000000 6.5370000000 0.5110000000
2.2526000000 2.9586000000 2.0285000000
2.2522000000 6.2465000000 0.7179000000
2.2520000000 5.9042000000 0.9458000000
2.2518000000 1.3781000000 0.9500000000
2.2517000000 4.6811000000 1.7859000000
2.2514000000 0.1678000000 0.1202000000
2.2513000000 1.2038000000 0.8306000000
2.2507000000 0.0939000000 0.0755000000
2.2506000000 1.8526000000 1.2737000000
2.2500000000 5.6184000000 1.1412000000
2.2498000000 5.4719000000 1.2426000000
2.2483000000 1.6348000000 1.1313000000
2.2480000000 1.4243000000 0.9867000000
2.2475000000 2.9660000000 2.0359000000
2.2475000000 3.2952000000 2.2501000000
2.2472000000 4.3119000000 2.0438000000
2.2464000000 0.5381000000 0.3783000000
2.0124000000 6.3879000000 0.6184000000
2.0101000000 7.1777000000 0.0783000000
2.0095000000 5.4963000000 1.2346000000
2.0088000000 6.8139000000 0.3251000000
2.0085000000 6.1640000000 0.7685000000
2.0083000000 6.9607000000 0.2172000000
2.0080000000 5.9378000000 0.9271000000
2.0078000000 1.3140000000 0.9104000000
2.0075000000 2.0149000000 1.3830000000
2.0075000000 6.2414000000 0.7185000000
2.0071000000 2.5053000000 1.7165000000
2.0070000000 3.5138000000 2.3824000000
2.0067000000 6.8619000000 0.2974000000
2.0065000000 3.6448000000 2.3922000000
2.0064000000 5.5566000000 1.1849000000
2.0063000000 4.6058000000 1.8334000000
2.0058000000 4.1435000000 2.1503000000
2.0055000000 3.3545000000 2.2995000000
2.0053000000 3.8387000000 2.3443000000
2.0050000000 0.7252000000 0.5019000000
2.0047000000 2.9836000000 2.0510000000
2.0046000000 7.2771000000 0.0848000000
2.0045000000 0.3628000000 0.2567000000
2.0044000000 0.1179000000 0.0894000000
2.0041000000 0.4724000000 0.3306000000
2.0039000000 7.1518000000 0.0972000000
2.0038000000 5.9519000000 0.9132000000
2.0035000000 5.8166000000 1.0082000000
2.0033000000 1.2679000000 0.8732000000
2.0029000000 3.9560000000 2.2779000000
2.0028000000 3.1121000000 2.1360000000
2.0025000000 5.3092000000 1.3500000000
2.0024000000 5.2270000000 1.4105000000
2.0020000000 1.5905000000 1.0954000000
2.0018000000 6.2023000000 0.7412000000
2.0017000000 2.1294000000 1.4631000000
2.0015000000 3.6558000000 2.3963000000
2.0013000000 4.2726000000 2.0584000000
2.0011000000 4.2782000000 2.0585000000
2.0010000000 0.3860000000 0.2643000000
2.0009000000 0.9545000000 0.6562000000
2.0008000000 2.1059000000 1.4455000000
2.0004000000 3.8771000000 2.3244000000
2.0002000000 1.3455000000 0.9342000000
2.0000000000 3.7368000000 2.3835000000
1.9997000000 0.0330000000 0.0257000000
1.9993000000 3.3387000000 2.2905000000
1.9988000000 4.8830000000 1.6460000000
1.9986000000 0.8791000000 0.6037000000
1.9982000000 4.7747000000 1.7207000000
1.9918000000 2.5953000000 1.7772000000
1.7613000000 4.8708000000 1.6559000000
1.7611000000 4.4354000000 1.9533000000
1.7607000000 1.0433000000 0.7233000000
1.7597000000 5.5526000000 1.1886000000
1.7594000000 3.7282000000 2.2617000000
1.7584000000 5.0342000000 1.5369000000
1.7577000000 7.2530000000 0.0213000000
1.7576000000 2.3998000000 1.6486000000
1.7574000000 5.3688000000 1.3129000000
1.7573000000 6.9776000000 0.2100000000
1.7566000000 5.2757000000 1.3792000000
1.7565000000 2.0530000000 1.4097000000
1.7561000000 0.5722000000 0.4019000000
1.7557000000 6.1084000000 0.8036000000
1.7554000000 5.6164000000 1.1429000000
1.7552000000 5.7885000000 1.0241000000
1.7549000000 1.8079000000 1.2401000000
1.7547000000 0.1474000000 0.1084000000
1.7546000000 3.2216000000 2.1481000000
1.7545000000 1.6878000000 1.1581000000
1.7543000000 1.8837000000 1.2952000000
1.7542000000 3.0238000000 2.0634000000
1.7540000000 1.5217000000 1.0470000000
1.7538000000 5.6666000000 1.1113000000
1.7537000000 3.9646000000 2.1756000000
1.7535000000 4.1530000000 2.1042000000
1.7534000000 4.2677000000 2.0565000000
1.7533000000 5.1413000000 1.4683000000
1.7532000000 4.3389000000 2.0101000000
1.7530000000 5.4040000000 1.2896000000
1.7528000000 0.8716000000 0.6083000000
1.7526000000 6.0571000000 0.8431000000
1.7525000000 6.1818000000 0.7560000000
1.7524000000 1.9482000000 1.3392000000
1.7521000000 4.7831000000 1.7140000000
1.7520000000 7.0795000000 0.1412000000
1.7520000000 5.2410000000 1.3967000000
1.7518000000 5.7928000000 1.0264000000
1.7516000000 4.3595000000 1.9965000000
1.7513000000 3.3481000000 2.1919000000
1.7512000000 4.1539000000 2.1097000000
1.7508000000 3.5874000000 2.2654000000
1.7507000000 1.7222000000 1.1886000000
1.7505000000 4.2470000000 2.0684000000
1.7504000000 3.0419000000 2.0728000000
1.7503000000 2.2549000000 1.5451000000
1.7498000000 5.4823000000 1.2324000000
1.7495000000 5.4947000000 1.2226000000
1.7487000000 2.1248000000 1.4595000000
1.7484000000 2.6321000000 1.8039000000
1.7480000000 0.0312000000 0.0266000000
1.7475000000 3.6751000000 2.2624000000
1.7459000000 1.7339000000 1.1954000000
1.5123000000 6.9529000000 0.2312000000
1.5119000000 6.0450000000 0.8508000000
1.5107000000 5.1441000000 1.4632000000
1.5093000000 2.3777000000 1.6355000000
1.5086000000 4.8250000000 1.6798000000
1.5084000000 4.9695000000 1.5866000000
1.5083000000 5.8217000000 0.9995000000
1.5078000000 4.9850000000 1.5732000000
1.5078000000 5.9413000000 0.9222000000
1.5073000000 4.5466000000 1.8349000000
1.5072000000 1.2165000000 0.8413000000
1.5068000000 5.2278000000 1.4074000000
1.5064000000 2.0950000000 1.4384000000
1.5063000000 6.8490000000 0.3039000000
1.5062000000 4.2581000000 1.9291000000
1.5058000000 4.7065000000 1.7567000000
1.5056000000 6.3605000000 0.6411000000
1.5055000000 3.1467000000 1.9788000000
1.5052000000 5.3369000000 1.3324000000
1.5050000000 3.4936000000 2.0909000000
1.5050000000 0.5464000000 0.3811000000
1.5048000000 4.2792000000 1.9221000000
1.5045000000 6.8930000000 0.2668000000
1.5043000000 2.0719000000 1.4227000000
1.5041000000 2.6150000000 1.7837000000
1.5040000000 3.0198000000 1.9289000000
1.5039000000 4.5640000000 1.8225000000
1.5037000000 2.0263000000 1.3924000000
1.5037000000 1.2442000000 0.8615000000
1.5035000000 3.6621000000 2.1258000000
1.5033000000 0.9360000000 0.6415000000
1.5031000000 0.8982000000 0.6172000000
1.5028000000 5.6399000000 1.1230000000
1.5025000000 5.6399000000 1.1291000000
1.5022000000 2.3400000000 1.6085000000
1.5019000000 5.3299000000 1.3389000000
1.5016000000 7.0089000000 0.1908000000
1.5015000000 2.9160000000 1.8941000000
1.5013000000 2.9285000000 1.8961000000
1.5010000000 1.3705000000 0.9449000000
1.5008000000 5.3624000000 1.3162000000
1.5006000000 3.7558000000 2.0997000000
1.5003000000 1.2217000000 0.8432000000
1.5003000000 1.4451000000 0.9940000000
1.5001000000 1.7993000000 1.2359000000
1.5000000000 5.2676000000 1.3854000000
1.4997000000 0.8244000000 0.5645000000
1.4997000000 2.8110000000 1.8546000000
1.4995000000 1.5220000000 1.0478000000
1.4993000000 0.2759000000 0.1951000000
1.4990000000 5.0584000000 1.5222000000
1.4983000000 0.5795000000 0.4038000000
1.4978000000 3.0377000000 1.9380000000
1.2648000000 4.0126000000 1.8688000000
1.2618000000 7.0830000000 0.1370000000
1.2609000000 5.6716000000 1.1038000000
1.2604000000 6.9038000000 0.2644000000
1.2594000000 0.8976000000 0.6181000000
1.2588000000 5.6707000000 1.1027000000
1.2586000000 2.3186000000 1.5472000000
1.2584000000 4.6269000000 1.6569000000
1.2580000000 1.6258000000 1.1205000000
1.2576000000 5.8206000000 0.9966000000
1.2575000000 5.9714000000 0.9027000000
1.2570000000 1.8354000000 1.2558000000
1.2565000000 5.9798000000 0.8941000000
1.2562000000 4.8100000000 1.5943000000
1.2561000000 0.3750000000 0.2640000000
1.2560000000 7.0465000000 0.1655000000
1.2559000000 0.6145000000 0.4250000000
1.2556000000 2.9283000000 1.7498000000
1.2555000000 6.9611000000 0.2223000000
1.2554000000 6.1989000000 0.7385000000
1.2552000000 4.2436000000 1.7860000000
1.2550000000 4.6143000000 1.6653000000
1.2548000000 2.5686000000 1.6276000000
1.2545000000 5.8574000000 0.9798000000
1.2544000000 0.4951000000 0.3495000000
1.2538000000 2.9934000000 1.7723000000
1.2536000000 2.1943000000 1.4912000000
1.2534000000 1.1288000000 0.7752000000
1.2531000000 3.1621000000 1.8314000000
1.2529000000 1.0014000000 0.6867000000
1.2527000000 3.5335000000 1.9554000000
1.2526000000 2.3224000000 1.5444000000
1.2523000000 3.9314000000 1.8896000000
1.2521000000 1.0416000000 0.7186000000
1.2517000000 0.8205000000 0.5734000000
1.2515000000 1.7947000000 1.2339000000
1.2512000000 2.6078000000 1.6399000000
1.2509000000 0.6613000000 0.4588000000
1.2505000000 1.2165000000 0.8462000000
1.2503000000 5.5826000000 1.1688000000
1.2502000000 4.8369000000 1.5817000000
1.2500000000 3.8568000000 1.9174000000
1.2499000000 6.9647000000 0.2197000000
1.2498000000 1.5566000000 1.0746000000
1.2493000000 2.8469000000 1.7212000000
1.2490000000 3.6708000000 1.9710000000
1.2483000000 0.9229000000 0.6439000000
1.2478000000 1.0224000000 0.7113000000
1.2468000000 0.8488000000 0.5832000000
1.2445000000 1.1816000000 0.8164000000
1.0115000000 7.2982000000 0.0615000000
1.0107000000 6.0530000000 0.8482000000
1.0097000000 4.1566000000 1.6765000000
1.0089000000 5.7034000000 1.0827000000
1.0084000000 4.9070000000 1.4155000000
1.0078000000 5.7586000000 1.0462000000
1.0076000000 3.9904000000 1.7280000000
1.0072000000 3.1721000000 1.6916000000
1.0069000000 6.7371000000 0.3766000000
1.0067000000 6.3054000000 0.6732000000
1.0063000000 5.0897000000 1.3514000000
1.0061000000 6.8419000000 0.3029000000
1.0058000000 6.4678000000 0.5604000000
1.0055000000 5.8761000000 0.9681000000
1.0052000000 4.0459000000 1.7116000000
1.0050000000 7.2691000000 0.0131000000
1.0049000000 2.8792000000 1.5889000000
1.0048000000 7.0818000000 0.1431000000
1.0042000000 0.2275000000 0.1604000000
1.0041000000 4.4767000000 1.5577000000
1.0039000000 7.0111000000 0.1904000000
1.0038000000 1.2097000000 0.8354000000
1.0037000000 7.0372000000 0.1699000000
1.0035000000 0.6014000000 0.4155000000
1.0033000000 2.5403000000 1.4672000000
1.0030000000 6.6610000000 0.4334000000
1.0028000000 4.1013000000 1.6881000000
1.0028000000 6.9807000000 0.2095000000
1.0026000000 6.5724000000 0.4870000000
1.0025000000 6.0108000000 0.8761000000
1.0023000000 5.0200000000 1.3677000000
1.0020000000 0.6214000000 0.4324000000
1.0018000000 7.2747000000 0.0786000000
1.0017000000 0.6615000000 0.4519000000
1.0013000000 7.1186000000 0.1180000000
1.0010000000 2.9701000000 1.6114000000
1.0005000000 5.3843000000 1.2439000000
1.0004000000 0.9918000000 0.6840000000
0.9997000000 1.4104000000 0.9690000000
0.9992000000 4.1934000000 1.6533000000
0.9989000000 1.3520000000 0.9303000000
0.9984000000 4.4821000000 1.5509000000
0.9935000000 3.0931000000 1.6522000000
0.7621000000 0.3907000000 0.2748000000
0.7610000000 4.7107000000 1.3370000000
0.7596000000 6.1229000000 0.7907000000
0.7589000000 2.3247000000 1.2481000000
0.7580000000 6.4128000000 0.5965000000
0.7578000000 4.5423000000 1.3851000000
0.7577000000 5.5296000000 1.0537000000
0.7572000000 7.1711000000 0.0769000000
0.7571000000 5.2787000000 1.1359000000
0.7565000000 7.0862000000 0.1432000000
0.7563000000 5.3043000000 1.1336000000
0.7560000000 5.3997000000 1.0992000000
0.7557000000 0.3455000000 0.2473000000
0.7555000000 5.6120000000 1.0266000000
0.7554000000 5.7395000000 0.9822000000
0.7551000000 3.4365000000 1.6302000000
0.7546000000 6.0644000000 0.8235000000
0.7545000000 5.5880000000 1.0317000000
0.7544000000 4.5154000000 1.3979000000
0.7543000000 6.5814000000 0.4876000000
0.7540000000 4.1930000000 1.5098000000
0.7537000000 5.5420000000 1.0465000000
0.7535000000 5.7169000000 0.9913000000
0.7534000000 3.1328000000 1.5249000000
0.7532000000 4.9996000000 1.2330000000
0.7530000000 6.0213000000 0.8534000000
0.7530000000 5.6367000000 1.0096000000
0.7528000000 0.0723000000 0.0576000000
0.7525000000 1.8475000000 1.0848000000
0.7524000000 4.1428000000 1.5251000000
0.7519000000 5.8557000000 0.9351000000
0.7518000000 1.0077000000 0.6965000000
0.7515000000 3.0391000000 1.4918000000
0.7513000000 3.9322000000 1.5915000000
0.7510000000 0.3546000000 0.2573000000
0.7507000000 2.9215000000 1.4490000000
0.7504000000 5.4061000000 1.0911000000
0.7500000000 3.0138000000 1.4856000000
0.7498000000 1.3123000000 0.8911000000
0.7497000000 3.0652000000 1.5041000000
0.7491000000 0.8820000000 0.6113000000
0.7480000000 4.2653000000 1.4791000000
0.7478000000 0.5857000000 0.4107000000
0.7473000000 1.4055000000 0.9276000000
0.7469000000 2.6978000000 1.3721000000
0.7468000000 4.0880000000 1.5414000000
0.7460000000 2.4585000000 1.2901000000
0.5141000000 6.2845000000 0.6469000000
0.5127000000 6.7930000000 0.3402000000
0.5116000000 6.8941000000 0.2703000000
0.5109000000 7.1302000000 0.1109000000
0.5103000000 5.0209000000 1.0778000000
0.5097000000 6.7887000000 0.3453000000
0.5094000000 6.9828000000 0.2132000000
0.5092000000 6.8112000000 0.3221000000
0.5090000000 5.8746000000 0.7851000000
0.5086000000 6.3728000000 0.6036000000
0.5082000000 6.5066000000 0.5370000000
0.5079000000 3.6550000000 1.5376000000
0.5076000000 2.7412000000 1.2428000000
0.5070000000 4.1483000000 1.3711000000
0.5068000000 6.8126000000 0.3291000000
0.5066000000 2.3309000000 1.1026000000
0.5065000000 5.2127000000 1.0076000000
0.5062000000 5.9698000000 0.7540000000
0.5060000000 3.1821000000 1.3964000000
0.5059000000 6.7439000000 0.3705000000
0.5057000000 2.3973000000 1.1272000000
0.5056000000 4.3720000000 1.3005000000
0.5055000000 4.9524000000 1.1029000000
0.5054000000 4.8307000000 1.1402000000
0.5052000000 6.0601000000 0.7236000000
0.5051000000 5.9859000000 0.7467000000
0.5050000000 6.0760000000 0.7164000000
0.5049000000 3.7762000000 1.5115000000
0.5047000000 1.7521000000 0.9102000000
0.5045000000 5.7867000000 0.8173000000
0.5043000000 6.0589000000 0.7217000000
0.5042000000 2.7260000000 1.2348000000
0.5039000000 5.2957000000 0.9804000000
0.5038000000 0.0367000000 0.0319000000
0.5037000000 0.8466000000 0.5776000000
0.5034000000 5.2800000000 0.9847000000
0.5032000000 6.8497000000 0.2991000000
0.5030000000 0.5181000000 0.3626000000
0.5028000000 2.8198000000 1.2679000000
0.5027000000 6.7892000000 0.3419000000
0.5023000000 4.4143000000 1.2919000000
0.5022000000 1.0136000000 0.6475000000
0.5020000000 0.0135000000 0.0181000000
0.5016000000 0.0595000000 0.0457000000
0.5014000000 1.5362000000 0.8280000000
0.5013000000 4.4353000000 1.2800000000
0.5010000000 5.4581000000 0.9271000000
0.5008000000 1.1853000000 0.7099000000
0.5003000000 0.0500000000 0.0403000000
0.5004000000 2.1499000000 1.0389000000
0.5003000000 4.0546000000 1.4016000000
0.5002000000 3.1120000000 1.3692000000
0.5000000000 3.2838000000 1.4220000000
0.4993000000 1.7625000000 0.9045000000
0.4990000000 1.2047000000 0.7116000000
0.4986000000 0.3585000000 0.2534000000
0.4975000000 0.7800000000 0.5306000000
0.4946000000 4.2527000000 1.3361000000
0.2615000000 6.2824000000 0.5041000000
0.2600000000 3.3910000000 1.3203000000
0.2597000000 6.2183000000 0.5255000000
0.2589000000 5.7956000000 0.6682000000
0.2585000000 4.7297000000 1.0327000000
0.2581000000 5.4530000000 0.7819000000
0.2576000000 5.9649000000 0.6131000000
0.2571000000 4.9923000000 0.9486000000
0.2570000000 4.4275000000 1.1314000000
0.2565000000 5.2087000000 0.8615000000
0.2563000000 3.5895000000 1.3802000000
0.2561000000 6.0027000000 0.5896000000
0.2558000000 4.9833000000 0.9418000000
0.2556000000 6.2606000000 0.5014000000
0.2550000000 5.5612000000 0.7472000000
0.2550000000 2.6265000000 1.0596000000
0.2547000000 0.0979000000 0.0741000000
0.2545000000 3.2533000000 1.2755000000
0.2543000000 2.8389000000 1.1311000000
0.2541000000 3.6833000000 1.3761000000
0.2538000000 0.8487000000 0.4499000000
0.2535000000 3.6242000000 1.3860000000
0.2533000000 5.7272000000 0.6930000000
0.2530000000 4.2392000000 1.1948000000
0.2528000000 2.6241000000 1.0553000000
0.2527000000 5.7082000000 0.6929000000
0.2526000000 4.9960000000 0.9393000000
0.2524000000 0.6225000000 0.3682000000
0.2522000000 5.1645000000 0.8871000000
0.2519000000 3.3282000000 1.2949000000
0.2518000000 6.5943000000 0.3976000000
0.2515000000 6.8975000000 0.2511000000
0.2511000000 2.5525000000 1.0251000000
0.2510000000 3.3170000000 1.2899000000
0.2509000000 0.3342000000 0.2307000000
0.2505000000 2.0492000000 0.8572000000
0.2503000000 2.2910000000 0.9371000000
0.2497000000 0.2787000000 0.1959000000
0.2495000000 2.0180000000 0.8453000000
0.2493000000 5.3071000000 0.8294000000
0.2492000000 4.1127000000 1.2368000000
0.2488000000 3.9763000000 1.2778000000
0.2483000000 0.8162000000 0.4329000000
0.2482000000 3.1816000000 1.2437000000
0.2480000000 2.0858000000 0.8689000000
0.0148000000 5.5611000000 0.6063000000
0.0115000000 6.6206000000 0.2445000000
0.0105000000 5.5814000000 0.5951000000
0.0102000000 6.8692000000 0.1491000000
0.0098000000 5.8373000000 0.5056000000
0.0091000000 4.4652000000 0.9714000000
0.0080000000 3.8286000000 1.1937000000
0.0079000000 5.1475000000 0.7420000000
0.0077000000 1.1117000000 0.3886000000
0.0075000000 4.0041000000 1.1290000000
0.0073000000 0.8005000000 0.2865000000
0.0071000000 4.8618000000 0.8397000000
0.0076000000 5.7807000000 0.5258000000
0.0068000000 0.7603000000 0.2707000000
0.0064000000 5.0487000000 0.7708000000
0.0061000000 5.7100000000 0.5427000000
0.0060000000 6.7364000000 0.1987000000
0.0059000000 1.6296000000 0.5662000000
0.0056000000 7.1742000000 0.0356000000
0.0055000000 4.2690000000 1.0441000000
0.0053000000 4.1075000000 1.0939000000
0.0053000000 0.2525000000 0.0933000000
0.0051000000 3.5996000000 1.2300000000
0.0049000000 2.7230000000 0.9407000000
0.0047000000 0.0138000000 0.0826000000
0.0046000000 6.8479000000 0.1578000000
0.0045000000 3.4674000000 1.1955000000
0.0043000000 4.9193000000 0.8178000000
0.0042000000 4.7981000000 0.8562000000
0.0039000000 5.3681000000 0.6624000000
0.0037000000 1.7620000000 0.6097000000
0.0036000000 2.6646000000 0.9261000000
0.0035000000 6.3486000000 0.3248000000
0.0033000000 7.2636000000 0.0742000000
0.0032000000 1.5149000000 0.5252000000
0.0030000000 6.7343000000 0.1919000000
0.0027000000 0.5000000000 0.1744000000
0.0026000000 0.1792000000 0.0707000000
0.0024000000 2.3067000000 0.7956000000
0.0022000000 1.8548000000 0.6386000000
0.0019000000 3.6477000000 1.2309000000
0.0018000000 5.1486000000 0.7389000000
0.0015000000 5.0028000000 0.7865000000
0.0010000000 0.9164000000 0.3229000000
0.0008000000 0.7052000000 0.2491000000
0.0005000000 2.8531000000 0.9817000000
-0.0000000000 7.1860000000 0.0267000000
-0.0008000000 4.5070000000 0.9564000000
-0.0013000000 7.0514000000 0.0833000000
-0.0018000000 2.9395000000 1.0169000000
-0.0020000000 0.4202000000 0.1502000000
-0.0035000000 1.8174000000 0.6287000000
-0.0039000000 1.6780000000 0.5739000000
-0.2370000000 4.7839000000 0.7232000000
-0.2385000000 3.8726000000 1.0271000000
-0.2403000000 5.6733000000 0.4179000000
-0.2407000000 6.3190000000 0.1958000000
-0.2411000000 6.0684000000 0.2773000000
-0.2416000000 5.8261000000 0.3658000000
-0.2421000000 4.1805000000 0.9219000000
-0.2425000000 1.2263000000 0.2862000000
-0.2429000000 1.5232000000 0.3773000000
-0.2430000000 2.6360000000 0.7718000000
-0.2431000000 2.6047000000 0.7522000000
-0.2433000000 3.7595000000 1.0622000000
-0.2435000000 3.4486000000 1.0413000000
-0.2439000000 2.1615000000 0.6018000000
-0.2440000000 4.4946000000 0.8102000000
-0.2442000000 4.5488000000 0.7891000000
-0.2444000000 3.5809000000 1.0840000000
-0.2444000000 5.4341000000 0.4907000000
-0.2445000000 1.7057000000 0.4440000000
-0.2448000000 4.7673000000 0.7254000000
-0.2451000000 3.2039000000 0.9637000000
-0.2452000000 2.5278000000 0.7293000000
-0.2453000000 2.7732000000 0.8067000000
-0.2454000000 3.3560000000 1.0056000000
-0.2455000000 6.3393000000 0.1800000000
-0.2456000000 4.0297000000 0.9718000000
-0.2458000000 4.8952000000 0.6792000000
-0.2462000000 6.6271000000 0.0789000000
-0.2463000000 6.8381000000 0.0156000000
-0.2466000000 2.6487000000 0.7685000000
-0.2467000000 6.5199000000 0.1203000000
-0.2468000000 1.8481000000 0.4922000000
-0.2470000000 2.0369000000 0.5592000000
-0.2471000000 0.6707000000 0.0907000000
-0.2472000000 1.0599000000 0.2233000000
-0.2474000000 6.8859000000 0.0673000000
-0.2475000000 1.6007000000 0.4067000000
-0.2477000000 6.8562000000 0.0727000000
-0.2479000000 1.1482000000 0.2561000000
-0.2483000000 4.8884000000 0.6743000000
-0.2484000000 4.7526000000 0.7233000000
-0.2486000000 4.2094000000 0.9123000000
-0.2489000000 1.2421000000 0.2771000000
-0.2489000000 0.5503000000 0.0472000000
-0.2491000000 4.0942000000 0.9468000000
-0.2493000000 0.9377000000 0.1761000000
-0.2496000000 4.3454000000 0.8661000000
-0.2497000000 4.1555000000 0.9247000000
-0.2499000000 2.5718000000 0.7401000000
-0.2506000000 2.4154000000 0.6847000000
-0.2509000000 3.2816000000 0.9798000000
-0.2511000000 4.8121000000 0.6973000000
-0.2515000000 0.3114000000 0.0453000000
-0.2517000000 1.8854000000 0.5034000000
-0.2532000000 2.4744000000 0.7016000000
-0.2541000000 0.2364000000 0.0130000000
-0.4864000000 4.6492000000 0.6255000000
-0.4902000000 4.3773000000 0.7058000000
-0.4913000000 6.3166000000 0.0421000000
-0.4918000000 4.4608000000 0.6777000000
-0.4921000000 3.2489000000 0.8290000000
-0.4925000000 5.3338000000 0.3811000000
-0.4934000000 5.1948000000 0.4286000000
-0.4935000000 2.8370000000 0.6812000000
-0.4936000000 5.7715000000 0.2306000000
-0.4938000000 1.8380000000 0.3454000000
-0.4941000000 0.6681000000 0.0161000000
-0.4942000000 2.0632000000 0.4177000000
-0.4944000000 0.7296000000 0.0338000000
-0.4946000000 5.0873000000 0.4701000000
-0.4951000000 3.6103000000 0.9343000000
-0.4955000000 2.6452000000 0.6173000000
-0.4956000000 2.1905000000 0.4620000000
-0.4957000000 5.2227000000 0.4160000000
-0.4960000000 1.7026000000 0.3008000000
-0.4961000000 5.9141000000 0.1760000000
-0.4962000000 4.5857000000 0.6338000000
-0.4965000000 4.2356000000 0.7559000000
-0.4968000000 2.4459000000 0.5475000000
-0.4971000000 6.2117000000 0.0751000000
-0.4973000000 3.8650000000 0.8906000000
-0.4975000000 1.6549000000 0.2810000000
-0.4977000000 5.6788000000 0.2585000000
-0.4980000000 4.2165000000 0.7567000000
-0.4981000000 3.5682000000 0.9362000000
-0.4985000000 6.6200000000 0.0130000000
-0.4986000000 2.1383000000 0.4440000000
-0.4988000000 5.7847000000 0.2242000000
-0.4990000000 3.4446000000 0.8878000000
-0.4996000000 3.7344000000 0.9266000000
-0.5004000000 2.4892000000 0.5608000000
-0.5007000000 4.6457000000 0.6119000000
-0.5013000000 1.2624000000 0.1381000000
-0.5016000000 4.8172000000 0.5510000000
-0.5018000000 1.3666000000 0.1747000000
-0.5028000000 5.5205000000 0.3115000000
-0.5030000000 4.6697000000 0.5971000000
-0.5043000000 3.0269000000 0.7419000000
-0.5080000000 0.8469000000 0.0684000000
-0.7387000000 5.6603000000 0.1242000000
-0.7395000000 3.1868000000 0.6591000000
-0.7400000000 1.8871000000 0.2087000000
-0.7404000000 5.8065000000 0.0734000000
-0.7411000000 4.4855000000 0.5228000000
-0.7413000000 5.7485000000 0.0914000000
-0.7419000000 5.4643000000 0.1897000000
-0.7421000000 3.9314000000 0.7105000000
-0.7425000000 3.5372000000 0.7753000000
-0.7430000000 2.3161000000 0.3609000000
-0.7434000000 4.0069000000 0.6903000000
-0.7435000000 4.0943000000 0.6499000000
-0.7439000000 5.2707000000 0.2527000000
-0.7441000000 4.2710000000 0.5930000000
-0.7445000000 3.4489000000 0.7469000000
-0.7447000000 2.7743000000 0.5171000000
-0.7449000000 4.1470000000 0.6369000000
-0.7452000000 2.5674000000 0.4417000000
-0.7452000000 1.9426000000 0.2300000000
-0.7454000000 1.9130000000 0.2174000000
-0.7459000000 6.2042000000 0.0069000000
-0.7460000000 3.6610000000 0.7898000000
-0.7463000000 4.3087000000 0.5801000000
-0.7467000000 4.6516000000 0.4646000000
-0.7470000000 1.4856000000 0.0727000000
-0.7472000000 6.0626000000 0.0601000000
-0.7475000000 1.4952000000 0.0773000000
-0.7476000000 3.2038000000 0.6636000000
-0.7480000000 3.8686000000 0.7295000000
-0.7481000000 4.4445000000 0.5334000000
-0.7492000000 4.2114000000 0.6115000000
-0.7494000000 4.0809000000 0.6603000000
-0.7495000000 2.4461000000 0.3989000000
-0.7500000000 1.1686000000 0.0350000000
-0.7521000000 1.8613000000 0.1979000000
-0.7533000000 1.2865000000 0.0797000000
-0.9865000000 2.9436000000 0.4297000000
-0.9891000000 3.7556000000 0.6243000000
-0.9903000000 5.1999000000 0.1299000000
-0.9912000000 3.7137000000 0.6372000000
-0.9916000000 2.3997000000 0.2385000000
-0.9922000000 2.0073000000 0.1080000000
-0.9924000000 5.6234000000 0.0599000000
-0.9927000000 1.9659000000 0.0932000000
-0.9928000000 5.7552000000 0.0118000000
-0.9935000000 1.9925000000 0.1007000000
-0.9938000000 1.6018000000 0.0399000000
-0.9940000000 5.3837000000 0.0609000000
-0.9945000000 2.0977000000 0.1356000000
-0.9948000000 2.1808000000 0.1630000000
-0.9950000000 4.1389000000 0.4899000000
-0.9954000000 4.4031000000 0.4013000000
-0.9956000000 3.0571000000 0.4602000000
-0.9963000000 2.1889000000 0.1637000000
-0.9966000000 3.9577000000 0.5530000000
-0.9967000000 2.0422000000 0.1162000000
-0.9970000000 2.4754000000 0.2665000000
-0.9975000000 3.5741000000 0.6335000000
-0.9977000000 4.5380000000 0.3572000000
