5.5092000000 3.3396000000 0.0597000000
5.5074000000 3.1228000000 0.0354000000
5.5063000000 3.4052000000 0.0179000000
5.5058000000 3.0231000000 0.0524000000
5.5053000000 3.3957000000 0.0324000000
5.5036000000 3.1238000000 0.0445000000
5.2602000000 3.3555000000 0.1600000000
5.2586000000 3.1231000000 0.2286000000
5.2576000000 3.3519000000 0.1682000000
5.2563000000 3.1818000000 0.2466000000
5.2558000000 3.8077000000 0.0363000000
5.2557000000 3.6018000000 0.0945000000
5.2549000000 2.8458000000 0.1365000000
5.2544000000 3.7069000000 0.0321000000
5.2539000000 2.8380000000 0.1356000000
5.2534000000 2.6414000000 0.0875000000
5.2533000000 3.2820000000 0.2077000000
5.2523000000 2.6407000000 0.0863000000
5.2513000000 3.0107000000 0.1698000000
5.2507000000 3.4113000000 0.1321000000
5.2476000000 3.4984000000 0.0813000000
5.0128000000 2.5085000000 0.1113000000
5.0111000000 3.2693000000 0.4698000000
5.0090000000 4.1295000000 0.1088000000
5.0082000000 3.4777000000 0.3476000000
5.0074000000 3.8467000000 0.1274000000
5.0068000000 2.7751000000 0.2753000000
5.0066000000 2.7899000000 0.2865000000
5.0054000000 2.8653000000 0.3398000000
5.0050000000 2.9994000000 0.4186000000
5.0046000000 3.2074000000 0.4983000000
5.0044000000 2.7537000000 0.2645000000
5.0037000000 2.9386000000 0.3794000000
5.0018000000 3.1829000000 0.5084000000
5.0009000000 2.6449000000 0.2069000000
5.0002000000 2.3780000000 0.1217000000
4.7642000000 3.6447000000 0.5028000000
4.7621000000 3.1168000000 0.7423000000
4.7610000000 2.5284000000 0.3834000000
4.7595000000 2.9050000000 0.6137000000
4.7583000000 3.2105000000 0.7490000000
4.7579000000 2.2886000000 0.2451000000
4.7574000000 4.1322000000 0.2132000000
4.7571000000 3.9870000000 0.3047000000
4.7568000000 4.4887000000 0.0755000000
4.7567000000 2.6480000000 0.4598000000
4.7558000000 1.6637000000 0.0218000000
4.7555000000 3.3843000000 0.6710000000
4.7554000000 2.8182000000 0.5694000000
4.7553000000 2.6709000000 0.4805000000
4.7550000000 3.3550000000 0.6823000000
4.7548000000 3.9149000000 0.3459000000
4.7546000000 2.7950000000 0.5534000000
4.7545000000 3.8139000000 0.4079000000
4.7541000000 2.2729000000 0.2399000000
4.7538000000 3.4024000000 0.6549000000
4.7537000000 3.3942000000 0.6598000000
4.7532000000 3.2754000000 0.7387000000
4.7530000000 4.5990000000 0.0826000000
4.7529000000 2.2531000000 0.2265000000
4.7528000000 2.1562000000 0.1713000000
4.7522000000 1.9115000000 0.0956000000
4.7519000000 2.0490000000 0.1111000000
4.7512000000 2.0201000000 0.0860000000
4.7510000000 1.8580000000 0.0647000000
4.7496000000 1.9272000000 0.1089000000
4.7488000000 4.0148000000 0.2932000000
4.7470000000 2.1755000000 0.1937000000
4.5131000000 1.6897000000 0.1397000000
4.5102000000 1.6761000000 0.1304000000
4.5088000000 3.5485000000 0.8219000000
4.5079000000 1.3032000000 0.0613000000
4.5077000000 3.6678000000 0.7548000000
4.5069000000 2.6276000000 0.7098000000
4.5066000000 1.2234000000 0.0104000000
4.5061000000 3.6660000000 0.7574000000
4.5055000000 3.4494000000 0.8891000000
4.5052000000 3.3372000000 0.9512000000
4.5049000000 5.1173000000 0.0392000000
4.5045000000 1.3676000000 0.1050000000
4.5043000000 3.7461000000 0.7084000000
4.5036000000 3.6615000000 0.7612000000
4.5034000000 1.7786000000 0.2052000000
4.5033000000 1.8304000000 0.2352000000
4.5029000000 3.8323000000 0.6573000000
4.5024000000 3.6281000000 0.7831000000
4.5023000000 4.9228000000 0.0799000000
4.5022000000 4.0663000000 0.5168000000
4.5020000000 2.8794000000 0.8656000000
4.5017000000 1.9805000000 0.3291000000
4.5013000000 2.0324000000 0.3561000000
4.5010000000 3.4814000000 0.8779000000
4.5005000000 2.8355000000 0.8466000000
4.4994000000 3.0267000000 0.9636000000
4.4984000000 3.5677000000 0.8271000000
4.4970000000 1.6693000000 0.1420000000
4.4943000000 3.1387000000 1.0122000000
4.2653000000 4.4064000000 0.5570000000
4.2617000000 4.8181000000 0.3195000000
4.2599000000 2.5149000000 0.8965000000
4.2594000000 5.1673000000 0.1127000000
4.2589000000 3.9706000000 0.8324000000
4.2582000000 3.6608000000 1.0192000000
4.2575000000 2.5496000000 0.9266000000
4.2570000000 0.8558000000 0.0549000000
4.2566000000 5.3159000000 0.1016000000
4.2565000000 3.3649000000 1.1971000000
4.2563000000 4.1575000000 0.7228000000
4.2560000000 3.2056000000 1.2761000000
4.2558000000 4.0734000000 0.7754000000
4.2555000000 1.1353000000 0.0771000000
4.2552000000 3.7908000000 0.9453000000
4.2550000000 0.9145000000 0.0928000000
4.2548000000 5.1567000000 0.1232000000
4.2544000000 3.4960000000 1.1219000000
4.2543000000 5.4242000000 0.0432000000
4.2540000000 4.8034000000 0.3320000000
4.2536000000 5.4403000000 0.1120000000
4.2534000000 1.3986000000 0.2380000000
4.2532000000 3.3270000000 1.2238000000
4.2530000000 1.7487000000 0.4452000000
4.2529000000 4.2953000000 0.6382000000
4.2524000000 2.2740000000 0.7624000000
4.2521000000 2.3548000000 0.8050000000
4.2520000000 4.0615000000 0.7840000000
4.2518000000 2.8862000000 1.1312000000
4.2511000000 3.7338000000 0.9836000000
4.2508000000 3.6436000000 1.0389000000
4.2501000000 5.5854000000 0.0212000000
4.2494000000 2.8118000000 1.0915000000
4.2480000000 1.1280000000 0.0775000000
4.2476000000 2.5901000000 0.9555000000
4.2458000000 2.7866000000 1.0779000000
4.0127000000 5.4071000000 0.2235000000
4.0105000000 3.5394000000 1.3543000000
4.0099000000 3.5545000000 1.3429000000
4.0091000000 4.9796000000 0.4841000000
4.0088000000 4.8700000000 0.5524000000
4.0084000000 5.2949000000 0.2979000000
4.0081000000 3.2871000000 1.5112000000
4.0078000000 2.9477000000 1.4194000000
4.0075000000 4.1559000000 0.9844000000
4.0069000000 4.0986000000 1.0178000000
4.0065000000 4.8253000000 0.5809000000
4.0063000000 4.6207000000 0.7074000000
4.0060000000 2.5881000000 1.2045000000
4.0059000000 2.0289000000 0.8716000000
4.0057000000 2.7718000000 1.3178000000
4.0055000000 1.9420000000 0.8217000000
4.0053000000 1.0637000000 0.2943000000
4.0050000000 0.5027000000 0.1033000000
4.0049000000 5.7245000000 0.1198000000
4.0048000000 2.4027000000 1.0967000000
4.0045000000 2.9094000000 1.4031000000
4.0044000000 2.4390000000 1.1214000000
4.0043000000 4.3470000000 0.8697000000
4.0042000000 0.7159000000 0.0858000000
4.0040000000 2.2319000000 0.9951000000
4.0038000000 2.5174000000 1.1632000000
4.0035000000 5.2166000000 0.3499000000
4.0035000000 4.3239000000 0.8776000000
4.0033000000 1.9953000000 0.8521000000
4.0029000000 3.3837000000 1.4487000000
4.0028000000 5.4476000000 0.2107000000
4.0028000000 0.8687000000 0.1827000000
4.0026000000 2.0733000000 0.9040000000
4.0021000000 1.8576000000 0.7717000000
4.0018000000 1.9738000000 0.8474000000
4.0017000000 1.4686000000 0.5381000000
4.0016000000 1.9867000000 0.8510000000
4.0012000000 0.9396000000 0.2177000000
4.0010000000 4.7749000000 0.6150000000
3.9993000000 0.4500000000 0.0786000000
3.9985000000 4.4208000000 0.8281000000
3.9983000000 3.4244000000 1.4307000000
3.9969000000 1.0941000000 0.3221000000
3.9962000000 2.1932000000 0.9807000000
3.7619000000 5.0681000000 0.6880000000
3.7616000000 2.8012000000 1.5908000000
3.7606000000 3.8397000000 1.4281000000
3.7602000000 2.5988000000 1.4736000000
3.7595000000 5.2169000000 0.6033000000
3.7591000000 6.3789000000 0.0583000000
3.7587000000 3.3943000000 1.6966000000
3.7583000000 3.8988000000 1.3973000000
3.7578000000 4.3559000000 1.1250000000
3.7576000000 0.8125000000 0.3995000000
3.7572000000 4.3913000000 1.1024000000
3.7569000000 3.2842000000 1.7647000000
3.7568000000 3.8856000000 1.4112000000
3.7566000000 3.9207000000 1.3866000000
3.7565000000 4.3669000000 1.1183000000
3.7561000000 0.2317000000 0.1227000000
3.7558000000 5.5322000000 0.4198000000
3.7555000000 5.6065000000 0.3718000000
3.7551000000 5.0384000000 0.7181000000
3.7549000000 4.1459000000 1.2489000000
3.7548000000 3.5528000000 1.6055000000
3.7546000000 1.3381000000 0.7209000000
3.7541000000 5.9504000000 0.1696000000
3.7540000000 4.7666000000 0.8777000000
3.7535000000 4.4263000000 1.0818000000
3.7530000000 5.5964000000 0.3797000000
3.7528000000 4.3499000000 1.1287000000
3.7526000000 0.4857000000 0.2019000000
3.7524000000 1.4980000000 0.8160000000
3.7523000000 0.9140000000 0.4607000000
3.7520000000 1.4848000000 0.8114000000
3.7518000000 2.4521000000 1.3902000000
3.7516000000 3.2692000000 1.7805000000
3.7514000000 1.0185000000 0.5257000000
3.7513000000 0.4100000000 0.1646000000
3.7511000000 3.1597000000 1.7954000000
3.7504000000 2.8945000000 1.6583000000
3.7500000000 0.3242000000 0.1172000000
3.7499000000 0.2624000000 0.0758000000
3.7498000000 4.5474000000 1.0203000000
3.7496000000 5.8015000000 0.2633000000
3.7483000000 2.7119000000 1.5498000000
3.7468000000 3.8358000000 1.4458000000
3.7452000000 2.5082000000 1.4339000000
3.5166000000 6.2671000000 0.1239000000
3.5113000000 5.4848000000 0.7043000000
3.5100000000 1.6696000000 1.1806000000
3.5098000000 2.0116000000 1.3748000000
3.5097000000 2.0616000000 1.4033000000
3.5094000000 6.2956000000 0.0887000000
3.5091000000 6.2163000000 0.1838000000
3.5085000000 0.6312000000 0.5523000000
3.5083000000 5.2140000000 0.8707000000
3.5081000000 6.3349000000 0.1182000000
3.5079000000 2.4544000000 1.6474000000
3.5076000000 4.8232000000 1.1018000000
3.5073000000 4.3895000000 1.3610000000
3.5072000000 0.6504000000 0.5617000000
3.5068000000 5.8725000000 0.4804000000
3.5067000000 5.8055000000 0.5139000000
3.5064000000 0.7483000000 0.6260000000
3.5063000000 2.3017000000 1.5539000000
3.5059000000 4.6587000000 1.2052000000
3.5058000000 3.5672000000 1.8570000000
3.5055000000 4.2032000000 1.4829000000
3.5054000000 1.0064000000 0.7785000000
3.5053000000 5.8010000000 0.5181000000
3.5050000000 3.9564000000 1.6286000000
3.5048000000 4.2496000000 1.4493000000
3.5046000000 1.1568000000 0.8708000000
3.5043000000 6.3219000000 0.1282000000
3.5042000000 6.3062000000 0.0738000000
3.5039000000 3.8891000000 1.6675000000
3.5037000000 6.2347000000 0.1634000000
3.5036000000 1.6299000000 1.1558000000
3.5034000000 0.4321000000 0.4355000000
3.5032000000 1.3001000000 0.9514000000
3.5030000000 0.2497000000 0.2766000000
3.5028000000 4.5868000000 1.2491000000
3.5026000000 1.6454000000 1.1649000000
3.5024000000 1.8332000000 1.2784000000
3.5022000000 5.6443000000 0.6120000000
3.5021000000 0.1967000000 0.2211000000
3.5018000000 4.4243000000 1.3475000000
3.5017000000 5.0837000000 0.9519000000
3.5016000000 1.9008000000 1.3173000000
3.5015000000 0.9284000000 0.7355000000
3.5013000000 6.2443000000 0.1441000000
3.5010000000 3.4450000000 1.9427000000
3.5005000000 0.5021000000 0.4799000000
3.5003000000 3.7733000000 1.7418000000
3.4999000000 2.2987000000 1.5618000000
3.4995000000 0.7205000000 0.6121000000
3.4992000000 0.0435000000 0.1242000000
3.4990000000 5.5469000000 0.6718000000
3.4985000000 2.8121000000 1.8693000000
3.4979000000 0.7530000000 0.6362000000
3.4974000000 4.7842000000 1.1294000000
3.4967000000 3.7841000000 1.7406000000
3.4950000000 2.4647000000 1.6688000000
3.2625000000 6.0449000000 0.3865000000
3.2608000000 6.1419000000 0.2751000000
3.2597000000 0.9311000000 0.9909000000
3.2593000000 4.4497000000 1.5839000000
3.2590000000 3.8404000000 1.9536000000
3.2580000000 5.0743000000 1.2130000000
3.2574000000 6.1327000000 0.2820000000
3.2570000000 2.6872000000 2.0473000000
3.2567000000 3.1548000000 2.3127000000
3.2563000000 6.2343000000 0.1617000000
3.2560000000 0.5855000000 0.7026000000
3.2560000000 5.0628000000 1.2249000000
3.2556000000 3.6708000000 2.0604000000
3.2553000000 4.2178000000 1.7233000000
3.2550000000 1.4980000000 1.3358000000
3.2548000000 5.9980000000 0.4497000000
3.2545000000 3.1525000000 2.3112000000
3.2544000000 3.1596000000 2.3096000000
3.2543000000 2.8768000000 2.1595000000
3.2541000000 1.2603000000 1.1911000000
3.2541000000 5.2357000000 1.1147000000
3.2539000000 2.5881000000 1.9904000000
3.2538000000 4.6568000000 1.4664000000
3.2537000000 1.8139000000 1.5232000000
3.2534000000 0.0312000000 0.1072000000
3.2533000000 4.3590000000 1.6487000000
3.2531000000 1.3501000000 1.2497000000
3.2530000000 5.9525000000 0.4986000000
3.2527000000 2.6500000000 2.0306000000
3.2525000000 3.4903000000 2.1688000000
3.2524000000 1.5442000000 1.3644000000
3.2523000000 4.8338000000 1.3630000000
3.2521000000 0.2208000000 0.2577000000
3.2520000000 5.0353000000 1.2380000000
3.2513000000 0.3073000000 0.3614000000
3.2510000000 3.4248000000 2.2092000000
3.2509000000 5.2348000000 1.1197000000
3.2507000000 1.4537000000 1.3097000000
3.2505000000 1.8867000000 1.5760000000
3.2501000000 4.1439000000 1.7822000000
3.2495000000 1.3149000000 1.2289000000
3.2485000000 3.4839000000 2.1775000000
3.2474000000 0.4186000000 0.4986000000
3.2473000000 0.7585000000 0.8831000000
3.2465000000 0.7742000000 0.8916000000
3.0140000000 5.1811000000 1.3837000000
3.0115000000 4.0793000000 2.0651000000
3.0105000000 3.3186000000 2.5266000000
3.0095000000 2.2327000000 2.0291000000
3.0093000000 4.1981000000 1.9996000000
3.0080000000 5.6383000000 0.8761000000
3.0079000000 6.3397000000 0.1110000000
3.0074000000 1.9401000000 1.8626000000
3.0072000000 2.4355000000 2.1561000000
3.0069000000 6.1352000000 0.2768000000
3.0068000000 4.8489000000 1.6093000000
3.0066000000 2.8735000000 2.4237000000
3.0065000000 3.9828000000 2.1335000000
3.0061000000 0.5092000000 0.6063000000
3.0058000000 2.3783000000 2.1236000000
3.0057000000 0.4116000000 0.4838000000
3.0055000000 5.1817000000 1.3898000000
3.0054000000 5.0304000000 1.4981000000
3.0052000000 2.3903000000 2.1256000000
3.0051000000 3.3787000000 2.4977000000
3.0049000000 5.1294000000 1.4207000000
3.0048000000 5.9058000000 0.5588000000
3.0047000000 2.4589000000 2.1752000000
3.0045000000 4.2351000000 1.9788000000
3.0044000000 1.0320000000 1.2369000000
3.0043000000 2.0020000000 1.9015000000
3.0040000000 2.9420000000 2.4621000000
3.0038000000 6.2779000000 0.1061000000
3.0034000000 4.8527000000 1.6055000000
3.0032000000 1.6900000000 1.7115000000
3.0030000000 0.0357000000 0.1159000000
3.0028000000 5.6253000000 0.8898000000
3.0027000000 0.4836000000 0.5734000000
3.0024000000 6.1780000000 0.2282000000
3.0020000000 4.7679000000 1.6607000000
3.0020000000 4.2258000000 1.9860000000
3.0017000000 4.4892000000 1.8292000000
3.0016000000 4.4452000000 1.8643000000
3.0013000000 2.0333000000 1.9197000000
3.0013000000 0.7932000000 0.9497000000
3.0011000000 0.1966000000 0.2242000000
3.0010000000 2.7182000000 2.3313000000
3.0008000000 2.1222000000 1.9729000000
3.0005000000 1.0652000000 1.2686000000
3.0000000000 0.4801000000 0.5732000000
2.9989000000 0.1229000000 0.1434000000
2.9988000000 5.4690000000 1.0786000000
2.9983000000 4.9412000000 1.5607000000
2.9973000000 1.2836000000 1.4691000000
2.9965000000 0.9724000000 1.1677000000
2.9958000000 1.0227000000 1.2251000000
2.9945000000 0.0719000000 0.0852000000
2.7613000000 0.1007000000 0.1150000000
2.7609000000 5.2005000000 1.4012000000
2.7598000000 1.9113000000 2.0996000000
2.7593000000 2.4111000000 2.3968000000
2.7588000000 2.1337000000 2.2258000000
2.7586000000 2.6951000000 2.5737000000
2.7583000000 3.7405000000 2.5342000000
2.7579000000 5.0118000000 1.6318000000
2.7573000000 1.3955000000 1.6649000000
2.7571000000 0.5261000000 0.6225000000
2.7568000000 3.1564000000 2.8312000000
2.7566000000 3.0067000000 2.7585000000
2.7564000000 4.7077000000 1.9315000000
2.7561000000 3.6096000000 2.6164000000
2.7558000000 4.5564000000 2.0438000000
2.7556000000 0.4632000000 0.5508000000
2.7550000000 2.7114000000 2.5832000000
2.7547000000 2.4794000000 2.4468000000
2.7544000000 2.3741000000 2.3817000000
2.7543000000 0.9642000000 1.1563000000
2.7543000000 1.6929000000 1.9611000000
2.7539000000 2.7995000000 2.6394000000
2.7538000000 0.1873000000 0.2158000000
2.7535000000 1.6950000000 1.9644000000
2.7533000000 3.4545000000 2.7089000000
2.7530000000 1.3510000000 1.6261000000
2.7528000000 4.1960000000 2.2586000000
2.7523000000 3.5838000000 2.6333000000
2.7520000000 0.9705000000 1.1624000000
2.7519000000 0.6025000000 0.7197000000
2.7518000000 3.2845000000 2.8116000000
2.7514000000 3.7332000000 2.5437000000
2.7511000000 0.0011000000 0.0692000000
2.7508000000 4.9514000000 1.6997000000
2.7507000000 0.2284000000 0.2679000000
2.7504000000 3.8262000000 2.4905000000
2.7502000000 3.0284000000 2.7805000000
2.7500000000 1.3749000000 1.6521000000
2.7498000000 5.0773000000 1.5524000000
2.7492000000 2.1655000000 2.2657000000
2.7485000000 1.6714000000 1.9480000000
2.7479000000 5.5829000000 0.9456000000
2.7475000000 0.4865000000 0.5788000000
2.7465000000 0.1874000000 0.2183000000
2.5096000000 3.2710000000 3.0726000000
2.5092000000 6.0435000000 0.3856000000
2.5085000000 4.0107000000 2.6295000000
2.5083000000 2.3889000000 2.6494000000
2.5078000000 2.3785000000 2.6413000000
2.5075000000 4.7745000000 1.9141000000
2.5073000000 5.6356000000 0.8878000000
2.5072000000 2.0221000000 2.4085000000
2.5069000000 0.2683000000 0.3164000000
2.5068000000 3.4935000000 2.9423000000
2.5064000000 5.9961000000 0.4457000000
2.5058000000 0.3179000000 0.3798000000
2.5056000000 0.7625000000 0.9123000000
2.5054000000 1.7207000000 2.0627000000
2.5052000000 1.7171000000 2.0592000000
2.5051000000 3.5188000000 2.9282000000
2.5048000000 0.2218000000 0.2613000000
2.5048000000 1.2154000000 1.4537000000
2.5046000000 3.0918000000 3.0823000000
2.5045000000 5.5106000000 1.0255000000
2.5040000000 5.4476000000 1.1062000000
2.5038000000 1.4854000000 1.7772000000
2.5036000000 4.4197000000 2.3231000000
2.5033000000 1.6877000000 2.0198000000
2.5031000000 5.3343000000 1.2414000000
2.5030000000 3.5979000000 2.8823000000
2.5023000000 3.8378000000 2.7418000000
2.5022000000 1.8497000000 2.2186000000
2.5019000000 1.1521000000 1.3788000000
2.5017000000 3.8278000000 2.7481000000
2.5014000000 3.1680000000 3.1064000000
2.5013000000 0.2572000000 0.3037000000
2.5004000000 3.0142000000 3.0295000000
2.5002000000 4.6154000000 2.1106000000
2.5000000000 4.7926000000 1.8927000000
2.4999000000 2.1411000000 2.4988000000
2.4997000000 5.6122000000 0.9049000000
2.4992000000 5.8561000000 0.6166000000
2.4987000000 0.7306000000 0.8740000000
2.4983000000 3.9630000000 2.6647000000
2.4982000000 3.0638000000 3.0687000000
2.4968000000 0.4011000000 0.4772000000
2.2617000000 6.3936000000 0.0458000000
2.2608000000 5.1084000000 1.5129000000
2.2600000000 5.2134000000 1.3819000000
2.2591000000 1.4648000000 1.7546000000
2.2588000000 5.4634000000 1.0831000000
2.2582000000 3.5538000000 3.1646000000
2.2580000000 4.7015000000 2.0008000000
2.2576000000 3.5712000000 3.1567000000
2.2570000000 3.1813000000 3.3661000000
2.2567000000 5.1406000000 1.4707000000
2.2563000000 4.0780000000 2.7523000000
2.2557000000 0.5768000000 0.6884000000
2.2555000000 5.1498000000 1.4650000000
2.2553000000 4.5968000000 2.1282000000
2.2549000000 1.3459000000 1.6079000000
2.2548000000 5.1003000000 1.5227000000
2.2546000000 1.7832000000 2.1399000000
2.2545000000 3.2937000000 3.3215000000
2.2543000000 3.2276000000 3.3467000000
2.2541000000 5.1568000000 1.4541000000
2.2540000000 1.4505000000 1.7391000000
2.2540000000 0.7133000000 0.8524000000
2.2538000000 3.1159000000 3.3471000000
2.2535000000 3.1068000000 3.3427000000
2.2534000000 3.0777000000 3.3330000000
2.2533000000 0.7362000000 0.8802000000
2.2531000000 3.9876000000 2.8472000000
2.2529000000 2.8819000000 3.2128000000
2.2528000000 4.8300000000 1.8424000000
2.2523000000 3.2374000000 3.3512000000
2.2522000000 6.2715000000 0.1187000000
2.2521000000 2.8393000000 3.1860000000
2.2519000000 4.5742000000 2.1532000000
2.2518000000 1.6791000000 2.0178000000
2.2517000000 4.6294000000 2.0846000000
2.2515000000 1.3465000000 1.6101000000
2.2511000000 1.6364000000 1.9631000000
2.2510000000 1.6928000000 2.0268000000
2.2506000000 4.4856000000 2.2604000000
2.2504000000 2.4719000000 2.9461000000
2.2502000000 0.2023000000 0.2343000000
2.2500000000 0.6017000000 0.7184000000
2.2497000000 1.3127000000 1.5749000000
2.2493000000 1.2053000000 1.4446000000
2.2490000000 2.0344000000 2.4395000000
2.2481000000 1.7559000000 2.1066000000
2.2478000000 1.3215000000 1.5844000000
2.2460000000 2.8306000000 3.1868000000
2.2445000000 1.2075000000 1.4471000000
2.0106000000 6.2467000000 0.1431000000
2.0098000000 0.0389000000 0.1131000000
2.0094000000 2.8869000000 3.4443000000
2.0087000000 2.3362000000 2.7968000000
2.0083000000 6.1133000000 0.3013000000
2.0080000000 6.2306000000 0.1620000000
2.0070000000 2.6360000000 3.1621000000
2.0066000000 0.4183000000 0.4969000000
2.0065000000 5.3351000000 1.2450000000
2.0065000000 6.2467000000 0.1452000000
2.0063000000 0.6809000000 0.8185000000
2.0061000000 5.8518000000 0.6241000000
2.0058000000 4.3472000000 2.4292000000
2.0050000000 3.8299000000 3.0529000000
2.0048000000 4.7768000000 1.9053000000
2.0047000000 4.0509000000 2.7790000000
2.0046000000 2.2140000000 2.6600000000
2.0040000000 5.1130000000 1.5091000000
2.0040000000 0.9775000000 1.1705000000
2.0039000000 0.6677000000 0.7954000000
2.0036000000 4.1068000000 2.7176000000
2.0033000000 0.0020000000 0.0735000000
2.0032000000 3.7223000000 3.1784000000
2.0031000000 6.2579000000 0.1336000000
2.0030000000 2.1675000000 2.5990000000
2.0029000000 0.9207000000 1.1015000000
2.0027000000 2.3849000000 2.8624000000
2.0025000000 4.7836000000 1.9013000000
2.0023000000 4.6143000000 2.1073000000
2.0020000000 1.3847000000 1.6642000000
2.0018000000 5.4582000000 1.0944000000
2.0015000000 2.7125000000 3.2530000000
2.0014000000 0.7157000000 0.8568000000
2.0013000000 2.0634000000 2.4796000000
2.0010000000 5.8496000000 0.6272000000
2.0007000000 2.0573000000 2.4664000000
2.0004000000 4.3783000000 2.3887000000
2.0003000000 2.5544000000 3.0626000000
1.9999000000 4.7068000000 2.0001000000
1.9998000000 3.9217000000 2.9409000000
1.9993000000 2.1981000000 2.6368000000
1.9988000000 3.6480000000 3.2660000000
1.9982000000 1.0227000000 1.2224000000
1.9975000000 0.1217000000 0.1397000000
1.9968000000 2.6513000000 3.1820000000
1.9935000000 0.1628000000 0.1954000000
1.7623000000 5.0975000000 1.5246000000
1.7611000000 4.1839000000 2.6210000000
1.7607000000 5.7298000000 0.7660000000
1.7600000000 2.5515000000 3.0652000000
1.7586000000 1.7578000000 2.1102000000
1.7580000000 4.9463000000 1.7057000000
1.7576000000 3.3320000000 3.6292000000
1.7575000000 5.9074000000 0.5549000000
1.7572000000 3.7518000000 3.1340000000
1.7568000000 3.0026000000 3.5826000000
1.7564000000 5.6925000000 0.8094000000
1.7561000000 1.4625000000 1.7564000000
1.7560000000 1.9596000000 2.3472000000
1.7558000000 4.1588000000 2.6549000000
1.7556000000 4.4735000000 2.2799000000
1.7555000000 0.8817000000 1.0540000000
1.7551000000 2.6152000000 3.1381000000
1.7548000000 4.3857000000 2.3825000000
1.7546000000 0.3011000000 0.3605000000
1.7543000000 5.1150000000 1.5021000000
1.7542000000 3.9224000000 2.9389000000
1.7541000000 6.0000000000 0.4488000000
1.7539000000 3.0392000000 3.6245000000
1.7538000000 4.2451000000 2.5530000000
1.7534000000 1.3297000000 1.5864000000
1.7533000000 4.4757000000 2.2695000000
1.7532000000 0.2021000000 0.2344000000
1.7531000000 6.1550000000 0.2563000000
1.7530000000 0.7220000000 0.8606000000
1.7529000000 3.5346000000 3.4056000000
1.7525000000 1.8812000000 2.2552000000
1.7523000000 1.1450000000 1.3727000000
1.7519000000 4.2369000000 2.5650000000
1.7512000000 2.3425000000 2.8076000000
1.7509000000 2.4848000000 2.9822000000
1.7506000000 1.6296000000 1.9585000000
1.7505000000 0.7289000000 0.8686000000
1.7501000000 0.1406000000 0.1622000000
1.7497000000 3.6184000000 3.3056000000
1.7490000000 0.4328000000 0.5155000000
1.7482000000 1.9825000000 2.3794000000
1.7476000000 0.5525000000 0.6529000000
1.7468000000 4.6797000000 2.0292000000
1.7457000000 1.1632000000 1.3986000000
1.5125000000 4.8866000000 1.7768000000
1.5110000000 5.4920000000 1.0509000000
1.5095000000 5.0646000000 1.5588000000
1.5093000000 5.3466000000 1.2328000000
1.5090000000 4.2133000000 2.5868000000
1.5087000000 2.0411000000 2.4429000000
1.5085000000 4.3869000000 2.3759000000
1.5083000000 6.1588000000 0.2515000000
1.5078000000 2.4459000000 2.9359000000
1.5075000000 4.2194000000 2.5882000000
1.5073000000 1.6488000000 1.9769000000
1.5070000000 5.5892000000 0.9330000000
1.5066000000 6.1104000000 0.3075000000
1.5064000000 0.9330000000 1.1211000000
1.5061000000 1.4357000000 1.7260000000
1.5058000000 4.3128000000 2.4709000000
1.5056000000 2.4740000000 2.9745000000
1.5053000000 1.7047000000 2.0502000000
1.5052000000 3.3903000000 3.3503000000
1.5049000000 5.7644000000 0.7221000000
1.5044000000 2.0330000000 2.4328000000
1.5043000000 0.7793000000 0.9336000000
1.5038000000 2.5807000000 3.0797000000
1.5035000000 1.7564000000 2.1080000000
1.5033000000 6.0444000000 0.3868000000
1.5032000000 4.1109000000 2.7075000000
1.5030000000 1.0052000000 1.2042000000
1.5028000000 1.7327000000 2.0779000000
1.5026000000 5.9151000000 0.5472000000
1.5025000000 2.4773000000 2.9699000000
1.5023000000 4.8361000000 1.8359000000
1.5021000000 1.1200000000 1.3376000000
1.5020000000 3.3739000000 3.3600000000
1.5018000000 1.2624000000 1.5150000000
1.5013000000 5.8535000000 0.6145000000
1.5011000000 0.0227000000 0.0926000000
1.5009000000 0.3293000000 0.3944000000
1.5003000000 1.0268000000 1.2312000000
1.5000000000 1.7543000000 2.1066000000
1.4997000000 0.2281000000 0.2699000000
1.4995000000 0.5954000000 0.7122000000
1.4990000000 2.1648000000 2.5953000000
1.4986000000 0.4570000000 0.5422000000
1.4985000000 1.8876000000 2.2619000000
1.4980000000 4.3055000000 2.4761000000
1.4963000000 2.4669000000 2.9615000000
1.4948000000 1.4692000000 1.7638000000
1.4927000000 1.9466000000 2.3374000000
1.2620000000 5.8922000000 0.5755000000
1.2602000000 6.1428000000 0.2645000000
1.2596000000 5.4975000000 1.0479000000
1.2591000000 5.8605000000 0.6094000000
1.2587000000 2.8840000000 3.0390000000
1.2585000000 4.5441000000 2.1951000000
1.2580000000 6.3407000000 0.1065000000
1.2575000000 4.0910000000 2.6714000000
1.2570000000 2.2062000000 2.6082000000
1.2566000000 0.2005000000 0.2387000000
1.2564000000 6.1947000000 0.2073000000
1.2561000000 3.7061000000 2.9081000000
1.2555000000 6.3263000000 0.1205000000
1.2556000000 5.1538000000 1.4524000000
1.2554000000 4.0469000000 2.7027000000
1.2552000000 1.7682000000 2.1203000000
1.2549000000 2.7947000000 2.9765000000
1.2547000000 4.7566000000 1.9348000000
1.2545000000 6.0264000000 0.4088000000
1.2544000000 1.0317000000 1.2377000000
1.2541000000 1.1218000000 1.3411000000
1.2539000000 4.2844000000 2.4845000000
1.2538000000 2.2203000000 2.6191000000
1.2537000000 5.1598000000 1.4609000000
1.2533000000 3.0403000000 3.1242000000
1.2531000000 2.3578000000 2.7154000000
1.2529000000 3.0643000000 3.1390000000
1.2529000000 3.9004000000 2.7822000000
1.2527000000 0.2014000000 0.2361000000
1.2524000000 6.3516000000 0.0949000000
1.2523000000 4.1336000000 2.6263000000
1.2521000000 0.9397000000 1.1212000000
1.2519000000 2.1189000000 2.5188000000
1.2517000000 3.6476000000 2.9377000000
1.2516000000 1.3377000000 1.6006000000
1.2514000000 0.7510000000 0.8965000000
1.2513000000 3.7541000000 2.8726000000
1.2510000000 4.3233000000 2.4535000000
1.2510000000 2.1487000000 2.5529000000
1.2506000000 5.5352000000 1.0002000000
1.2502000000 2.2896000000 2.6738000000
1.2501000000 0.0848000000 0.0942000000
1.2495000000 3.6550000000 2.9269000000
1.2490000000 1.6490000000 1.9763000000
1.2488000000 3.4488000000 3.0540000000
1.2483000000 0.1831000000 0.2193000000
1.2472000000 4.5418000000 2.1911000000
1.2468000000 4.5618000000 2.1735000000
1.2450000000 0.1657000000 0.1930000000
1.0124000000 3.7558000000 2.6219000000
1.0097000000 4.8995000000 1.7636000000
1.0087000000 6.2431000000 0.1557000000
1.0085000000 4.2388000000 2.3215000000
1.0083000000 2.2657000000 2.4104000000
1.0082000000 6.1705000000 0.2354000000
1.0075000000 5.0253000000 1.6104000000
1.0072000000 0.6823000000 0.8158000000
1.0068000000 0.7338000000 0.8752000000
1.0066000000 0.2897000000 0.3403000000
1.0063000000 3.9355000000 2.5067000000
1.0063000000 1.2671000000 1.5131000000
1.0060000000 4.0122000000 2.4606000000
1.0058000000 3.4705000000 2.7856000000
1.0057000000 2.6316000000 2.6208000000
1.0056000000 1.6300000000 1.9493000000
1.0053000000 1.9295000000 2.2042000000
1.0051000000 1.8417000000 2.1306000000
1.0049000000 2.3982000000 2.4835000000
1.0047000000 4.8720000000 1.8003000000
1.0045000000 2.8823000000 2.7737000000
1.0041000000 5.2421000000 1.3499000000
1.0039000000 5.8752000000 0.5890000000
1.0038000000 1.4578000000 1.7477000000
1.0034000000 1.6422000000 1.9585000000
1.0033000000 4.0302000000 2.4457000000
1.0032000000 4.4754000000 2.1802000000
1.0028000000 2.6952000000 2.6604000000
1.0026000000 4.8628000000 1.8110000000
1.0025000000 1.2562000000 1.5064000000
1.0021000000 6.3492000000 0.0922000000
1.0020000000 2.6279000000 2.6147000000
1.0019000000 2.0384000000 2.2648000000
1.0017000000 1.4581000000 1.7493000000
1.0014000000 1.1186000000 1.3451000000
1.0012000000 1.6005000000 1.9204000000
1.0009000000 3.5120000000 2.7493000000
1.0006000000 5.3003000000 1.2887000000
1.0005000000 1.5089000000 1.8085000000
1.0004000000 4.3811000000 2.2381000000
0.9997000000 5.8341000000 0.6433000000
0.9995000000 6.2275000000 0.1664000000
0.9991000000 3.2070000000 2.9191000000
0.9986000000 2.9586000000 2.8102000000
0.9980000000 0.2052000000 0.2351000000
0.9976000000 2.4735000000 2.5178000000
0.9967000000 3.5596000000 2.7240000000
0.9951000000 5.2353000000 1.3636000000
0.7610000000 3.6781000000 2.4077000000
0.7598000000 5.4000000000 1.1597000000
0.7593000000 1.9591000000 1.9622000000
0.7589000000 2.6824000000 2.3954000000
0.7585000000 4.3779000000 1.9831000000
0.7580000000 5.2352000000 1.3624000000
0.7571000000 3.9476000000 2.2391000000
0.7570000000 4.1436000000 2.1199000000
0.7567000000 3.6626000000 2.4073000000
0.7566000000 4.7264000000 1.7724000000
0.7563000000 2.9284000000 2.5412000000
0.7559000000 5.7013000000 0.7995000000
0.7554000000 2.7461000000 2.4335000000
0.7553000000 4.1879000000 2.0930000000
0.7551000000 1.5699000000 1.7249000000
0.7549000000 1.6773000000 1.7861000000
0.7546000000 0.4222000000 0.5022000000
0.7543000000 5.5139000000 1.0284000000
0.7542000000 2.0425000000 2.0097000000
0.7539000000 0.4923000000 0.5855000000
0.7537000000 0.6390000000 0.7650000000
0.7535000000 4.7233000000 1.7707000000
0.7533000000 2.6752000000 2.3872000000
0.7531000000 2.6320000000 2.3638000000
0.7529000000 5.9383000000 0.5153000000
0.7527000000 3.9440000000 2.2362000000
0.7524000000 4.1903000000 2.0889000000
0.7523000000 2.0029000000 1.9834000000
0.7520000000 3.2674000000 2.6432000000
0.7515000000 4.0887000000 2.1452000000
0.7514000000 3.3590000000 2.5858000000
0.7511000000 2.5279000000 2.2969000000
0.7508000000 3.0160000000 2.5890000000
0.7507000000 4.8983000000 1.6570000000
0.7502000000 2.5235000000 2.2888000000
0.7500000000 2.0753000000 2.0219000000
0.7495000000 4.9858000000 1.5935000000
0.7488000000 5.8452000000 0.6244000000
0.7479000000 3.9881000000 2.2056000000
0.7468000000 2.1325000000 2.0575000000
0.7461000000 2.5696000000 2.3172000000
0.5135000000 5.5892000000 0.9259000000
0.5098000000 0.5595000000 0.6720000000
0.5089000000 2.6032000000 2.0890000000
0.5088000000 3.0424000000 2.3510000000
0.5083000000 5.7537000000 0.7370000000
0.5079000000 6.2086000000 0.1907000000
0.5075000000 4.3359000000 1.7472000000
0.5070000000 1.2614000000 1.2806000000
0.5070000000 5.2757000000 1.1802000000
0.5066000000 3.0443000000 2.3549000000
0.5065000000 2.9370000000 2.2861000000
0.5063000000 4.8014000000 1.4617000000
0.5060000000 5.5349000000 0.9858000000
0.5058000000 1.3072000000 1.3063000000
0.5053000000 4.0577000000 1.9133000000
0.5051000000 2.8296000000 2.2237000000
0.5050000000 3.1043000000 2.3837000000
0.5050000000 4.6858000000 1.5339000000
0.5048000000 5.9310000000 0.5225000000
0.5045000000 3.4555000000 2.2772000000
0.5044000000 2.5425000000 2.0510000000
0.5043000000 5.9483000000 0.4995000000
0.5040000000 5.1407000000 1.2621000000
0.5038000000 1.1850000000 1.2312000000
0.5034000000 1.3434000000 1.3253000000
0.5031000000 4.4892000000 1.6480000000
0.5029000000 4.0440000000 1.9169000000
0.5023000000 1.0792000000 1.1712000000
0.5021000000 4.0461000000 1.9151000000
0.5019000000 6.3841000000 0.0523000000
0.5016000000 3.1621000000 2.3966000000
0.5015000000 2.2904000000 1.8929000000
0.5013000000 2.0861000000 1.7706000000
0.5009000000 1.7789000000 1.5783000000
0.5006000000 3.6669000000 2.1400000000
0.5004000000 6.1634000000 0.2462000000
0.4995000000 0.6566000000 0.7771000000
0.4991000000 3.8201000000 2.0495000000
0.4988000000 4.9877000000 1.3497000000
0.4985000000 0.4558000000 0.5415000000
0.4980000000 1.3195000000 1.3112000000
0.4978000000 0.3648000000 0.4340000000
0.4975000000 0.8021000000 0.9370000000
0.4971000000 2.5344000000 2.0359000000
0.2599000000 3.6973000000 1.8759000000
0.2595000000 5.3937000000 0.8502000000
0.2593000000 4.8369000000 1.1859000000
0.2584000000 3.3852000000 2.0593000000
0.2581000000 3.2180000000 2.1438000000
0.2576000000 6.1479000000 0.2553000000
0.2570000000 1.6319000000 1.2439000000
0.2569000000 4.2675000000 1.5231000000
0.2564000000 6.4011000000 0.0370000000
0.2562000000 3.9194000000 1.7308000000
0.2558000000 3.5934000000 1.9320000000
0.2556000000 4.1662000000 1.5861000000
0.2553000000 5.6764000000 0.6784000000
0.2552000000 3.4632000000 2.0084000000
0.2550000000 4.0388000000 1.6647000000
0.2549000000 3.5234000000 1.9687000000
0.2546000000 3.0455000000 2.0855000000
0.2542000000 0.9416000000 0.8226000000
0.2540000000 3.0075000000 2.0689000000
0.2538000000 2.1855000000 1.5686000000
0.2536000000 4.1927000000 1.5715000000
0.2535000000 0.1620000000 0.1912000000
0.2534000000 5.0206000000 1.0694000000
0.2532000000 5.2741000000 0.9139000000
0.2532000000 2.7043000000 1.8877000000
0.2528000000 6.1736000000 0.2360000000
0.2527000000 3.0593000000 2.0959000000
0.2525000000 4.6539000000 1.2859000000
0.2523000000 5.1985000000 0.9651000000
0.2522000000 5.8778000000 0.5349000000
0.2520000000 5.5356000000 0.7609000000
0.2515000000 0.5364000000 0.5726000000
0.2513000000 3.4711000000 2.0019000000
0.2510000000 0.5057000000 0.5415000000
0.2507000000 0.3372000000 0.3813000000
0.2506000000 2.0125000000 1.4695000000
0.2505000000 5.8639000000 0.5441000000
0.2502000000 1.4727000000 1.1390000000
0.2499000000 0.9374000000 0.8123000000
0.2491000000 5.1995000000 0.9601000000
0.2490000000 2.6410000000 1.8480000000
0.2490000000 2.7563000000 1.9059000000
0.2487000000 3.8234000000 1.7835000000
0.2481000000 4.4011000000 1.4354000000
0.2465000000 0.5881000000 0.6020000000
0.0123000000 6.1940000000 0.1155000000
0.0099000000 3.8507000000 1.5213000000
0.0098000000 3.6703000000 1.6303000000
0.0094000000 1.2216000000 0.7359000000
0.0090000000 3.8765000000 1.5032000000
0.0088000000 3.4267000000 1.7755000000
0.0080000000 0.2206000000 0.1329000000
0.0077000000 4.2367000000 1.2889000000
0.0076000000 4.8961000000 0.8895000000
0.0075000000 3.7876000000 1.5515000000
0.0072000000 4.5521000000 1.0951000000
0.0070000000 3.5356000000 1.7049000000
0.0069000000 2.5487000000 1.5341000000
0.0063000000 4.3545000000 1.2118000000
0.0061000000 0.1666000000 0.0976000000
0.0057000000 4.4680000000 1.1396000000
0.0053000000 1.5639000000 0.9437000000
0.0049000000 2.7772000000 1.6714000000
0.0048000000 1.3875000000 0.8337000000
0.0046000000 3.4043000000 1.7841000000
0.0044000000 0.5471000000 0.3300000000
0.0043000000 3.0986000000 1.8635000000
0.0040000000 2.9230000000 1.7545000000
0.0040000000 5.4671000000 0.5399000000
0.0038000000 3.7233000000 1.5920000000
0.0035000000 3.8784000000 1.4923000000
0.0033000000 3.6396000000 1.6311000000
0.0032000000 5.3689000000 0.6007000000
0.0031000000 2.9031000000 1.7461000000
0.0030000000 1.0620000000 0.6365000000
0.0026000000 4.2326000000 1.2850000000
0.0025000000 0.8963000000 0.5353000000
0.0023000000 2.2180000000 1.3250000000
0.0022000000 0.9310000000 0.5596000000
0.0020000000 6.1220000000 0.1433000000
0.0016000000 0.9335000000 0.5594000000
0.0013000000 5.2408000000 0.6737000000
0.0011000000 1.9974000000 1.1985000000
0.0010000000 0.5867000000 0.3505000000
0.0008000000 2.3857000000 1.4336000000
0.0008000000 4.5807000000 1.0645000000
0.0006000000 6.0606000000 0.1831000000
0.0005000000 6.3683000000 0.0546000000
0.0003000000 3.7289000000 1.5826000000
0.0000000000 4.6947000000 1.0058000000
-0.0002000000 3.3370000000 1.8206000000
-0.0009000000 0.8956000000 0.5345000000
-0.0011000000 1.1081000000 0.6620000000
-0.0012000000 0.2743000000 0.1593000000
-0.0016000000 6.3514000000 0.0578000000
-0.0022000000 2.5866000000 1.5417000000
-0.0038000000 3.8366000000 1.5156000000
-0.2380000000 5.3250000000 0.3754000000
-0.2389000000 6.0043000000 0.0472000000
-0.2406000000 5.7253000000 0.1313000000
-0.2416000000 4.4221000000 0.9094000000
-0.2424000000 4.1879000000 1.0523000000
-0.2427000000 5.2255000000 0.4299000000
-0.2432000000 2.9389000000 1.5084000000
-0.2434000000 5.0297000000 0.5510000000
-0.2435000000 3.3067000000 1.5878000000
-0.2437000000 2.4972000000 1.2403000000
-0.2440000000 3.2333000000 1.6163000000
-0.2441000000 5.9229000000 0.0820000000
-0.2442000000 5.7155000000 0.1292000000
-0.2446000000 0.2297000000 0.0270000000
-0.2448000000 4.5641000000 0.8303000000
-0.2455000000 4.7759000000 0.6989000000
-0.2458000000 3.3546000000 1.5510000000
-0.2461000000 5.0788000000 0.5188000000
-0.2465000000 4.0429000000 1.1376000000
-0.2466000000 4.3352000000 0.9643000000
-0.2467000000 5.4897000000 0.2659000000
-0.2469000000 1.0232000000 0.3553000000
-0.2471000000 0.9754000000 0.3278000000
-0.2473000000 2.7697000000 1.4019000000
-0.2476000000 3.9789000000 1.1789000000
-0.2477000000 3.9004000000 1.2205000000
-0.2478000000 5.0554000000 0.5257000000
-0.2480000000 0.5143000000 0.1196000000
-0.2481000000 4.9978000000 0.5628000000
-0.2486000000 3.2600000000 1.6055000000
-0.2487000000 3.2394000000 1.6146000000
-0.2491000000 3.1204000000 1.6095000000
-0.2494000000 3.0117000000 1.5454000000
-0.2496000000 1.7025000000 0.7589000000
-0.2507000000 1.7213000000 0.7726000000
-0.2511000000 3.5111000000 1.4477000000
-0.2514000000 5.4627000000 0.2795000000
-0.2516000000 3.4848000000 1.4683000000
-0.2522000000 0.8126000000 0.2219000000
-0.2533000000 5.9462000000 0.0616000000
-0.4867000000 4.3497000000 0.7022000000
-0.4896000000 4.2543000000 0.7580000000
-0.4904000000 2.3073000000 0.8686000000
-0.4908000000 1.8391000000 0.5849000000
-0.4911000000 5.7428000000 0.0114000000
-0.4915000000 4.5128000000 0.6030000000
-0.4921000000 1.7062000000 0.5053000000
-0.4927000000 2.9689000000 1.2655000000
-0.4927000000 4.9914000000 0.3061000000
-0.4931000000 3.7475000000 1.0561000000
-0.4937000000 3.9526000000 0.9398000000
-0.4942000000 3.4560000000 1.2338000000
-0.4949000000 5.2388000000 0.1572000000
-0.4952000000 3.3361000000 1.3050000000
-0.4956000000 4.9417000000 0.3385000000
-0.4959000000 0.7954000000 0.1017000000
-0.4964000000 0.9339000000 0.1132000000
-0.4970000000 1.3431000000 0.2846000000
-0.4972000000 4.1102000000 0.8411000000
-0.4973000000 2.4453000000 0.9434000000
-0.4975000000 1.5927000000 0.4325000000
-0.4976000000 4.9530000000 0.3282000000
-0.4977000000 3.5086000000 1.1943000000
-0.4980000000 4.1416000000 0.8166000000
-0.4984000000 5.5090000000 0.0709000000
-0.4985000000 0.7338000000 0.0657000000
-0.4993000000 2.2838000000 0.8474000000
-0.4997000000 2.3034000000 0.8606000000
-0.4999000000 1.0264000000 0.0900000000
-0.5001000000 3.6573000000 1.1012000000
-0.5005000000 4.9157000000 0.3427000000
-0.5012000000 1.5273000000 0.3924000000
-0.5025000000 1.2866000000 0.2474000000
-0.5033000000 5.6617000000 0.0455000000
-0.5038000000 4.8384000000 0.3882000000
-0.7393000000 3.5299000000 0.9342000000
-0.7402000000 5.0693000000 0.0798000000
-0.7414000000 2.7621000000 0.8802000000
-0.7416000000 3.3420000000 1.0453000000
-0.7423000000 3.4370000000 0.9809000000
-0.7434000000 4.0173000000 0.6368000000
-0.7436000000 4.8731000000 0.1223000000
-0.7437000000 3.5000000000 0.9465000000
-0.7438000000 4.2609000000 0.4895000000
-0.7443000000 1.8974000000 0.3605000000
-0.7443000000 2.9725000000 1.0014000000
-0.7446000000 3.5020000000 0.9467000000
-0.7452000000 3.4633000000 0.9680000000
-0.7457000000 3.0328000000 1.0402000000
-0.7462000000 5.1051000000 0.0504000000
-0.7465000000 1.9709000000 0.4012000000
-0.7467000000 4.3504000000 0.4308000000
-0.7470000000 4.8069000000 0.1527000000
-0.7475000000 2.3734000000 0.6383000000
-0.7480000000 2.5120000000 0.7261000000
-0.7485000000 2.5502000000 0.7480000000
-0.7487000000 1.9025000000 0.3612000000
-0.7492000000 2.4853000000 0.7033000000
-0.7496000000 4.0440000000 0.6117000000
-0.7500000000 1.2332000000 0.1109000000
-0.7509000000 4.3732000000 0.4132000000
-0.7514000000 2.9164000000 0.9628000000
-0.7517000000 2.7441000000 0.8619000000
-0.7535000000 3.4439000000 0.9683000000
-0.7537000000 3.8234000000 0.7388000000
-0.7545000000 2.6060000000 0.7770000000
-0.9925000000 3.4463000000 0.7127000000
-0.9926000000 4.5174000000 0.0767000000
-0.9928000000 2.2407000000 0.3076000000
-0.9945000000 4.1734000000 0.2853000000
-0.9950000000 4.4318000000 0.1227000000
-0.9952000000 3.2136000000 0.8397000000
-0.9956000000 3.8077000000 0.4980000000
-0.9959000000 1.8466000000 0.0690000000
-0.9962000000 3.6364000000 0.6022000000
-0.9968000000 1.5399000000 0.0359000000
-0.9970000000 2.7471000000 0.6056000000
-0.9981000000 2.5948000000 0.5102000000
-0.9985000000 2.9817000000 0.7476000000
-0.9986000000 2.3365000000 0.3613000000
-0.9991000000 3.8496000000 0.4662000000
-1.0008000000 3.3999000000 0.7367000000
-1.0013000000 2.4609000000 0.4278000000
-1.0040000000 2.7978000000 0.6290000000
-1.2407000000 2.1548000000 0.0723000000
-1.2426000000 3.9213000000 0.1731000000
-1.2432000000 2.3273000000 0.1025000000
-1.2437000000 3.0209000000 0.5137000000
-1.2446000000 3.6382000000 0.3422000000
-1.2454000000 3.3510000000 0.5106000000
-1.2460000000 3.6110000000 0.3579000000
-1.2464000000 4.2609000000 0.0382000000
-1.2474000000 2.6061000000 0.2634000000
-1.2479000000 3.6683000000 0.3198000000
-1.2483000000 4.2602000000 0.0430000000
-1.2485000000 3.1522000000 0.5659000000
-1.2489000000 4.0431000000 0.0932000000
-1.2494000000 3.8445000000 0.2102000000
-1.2496000000 3.7938000000 0.2418000000
-1.2498000000 2.7088000000 0.3202000000
-1.2503000000 2.5205000000 0.2047000000
-1.2516000000 3.7541000000 0.2604000000
-1.2554000000 2.7124000000 0.3180000000
-1.4921000000 3.0805000000 0.2947000000
-1.4930000000 3.4557000000 0.1885000000
-1.4938000000 3.9586000000 0.0398000000
-1.4955000000 3.1907000000 0.3274000000
-1.4962000000 3.8961000000 0.0732000000
-1.4968000000 3.0508000000 0.2728000000
-1.4974000000 2.5818000000 0.0515000000
-1.4980000000 2.8090000000 0.1260000000
-1.4989000000 2.7631000000 0.0956000000
-1.5007000000 3.2359000000 0.3002000000
-1.5015000000 2.9405000000 0.1998000000
-1.5021000000 3.0705000000 0.2811000000
-1.7450000000 3.1052000000 0.1184000000
-1.7461000000 3.2895000000 0.1007000000
-1.7483000000 3.5720000000 0.0027000000
-1.7501000000 2.9908000000 0.0461000000
