3.5005000000 4.3156000000 0.5595000000
3.5002000000 1.5805000000 0.5827000000
3.4998000000 1.0013000000 0.3378000000
3.4996000000 1.8148000000 0.6774000000
3.4993000000 1.8477000000 0.6883000000
3.4987000000 2.2011000000 0.8339000000
3.4985000000 3.5338000000 0.8798000000
3.4983000000 1.7810000000 0.6665000000
3.4982000000 1.2825000000 0.4553000000
3.4974000000 2.7858000000 1.0770000000
3.4952000000 1.1879000000 0.4206000000
3.2670000000 4.5560000000 0.6308000000
3.2610000000 4.5705000000 0.6217000000
3.2606000000 4.4920000000 0.6601000000
3.2606000000 5.6416000000 0.1673000000
3.2605000000 4.0699000000 0.8249000000
3.2602000000 4.0017000000 0.8526000000
3.2595000000 4.6980000000 0.5708000000
3.2593000000 3.6216000000 1.0183000000
3.2592000000 2.5427000000 1.1425000000
3.2590000000 2.1115000000 0.9690000000
3.2590000000 4.5501000000 0.6305000000
3.2587000000 1.6354000000 0.7754000000
3.2584000000 3.9920000000 0.8618000000
3.2582000000 3.8399000000 0.9236000000
3.2580000000 2.3954000000 1.0834000000
3.2577000000 4.1340000000 0.8038000000
3.2575000000 3.0102000000 1.2662000000
3.2575000000 4.4226000000 0.6877000000
3.2572000000 4.4058000000 0.6964000000
3.2568000000 5.6815000000 0.1384000000
3.2565000000 4.1506000000 0.8024000000
3.2563000000 5.7967000000 0.0618000000
3.2562000000 2.5868000000 1.1602000000
3.2561000000 1.9667000000 0.9116000000
3.2560000000 3.1837000000 1.1987000000
3.2560000000 3.4511000000 1.0823000000
3.2559000000 4.0330000000 0.8500000000
3.2558000000 4.9298000000 0.4806000000
3.2556000000 0.0785000000 0.0913000000
3.2555000000 0.4820000000 0.3028000000
3.2550000000 2.0818000000 0.9600000000
3.2548000000 1.1698000000 0.5873000000
3.2547000000 5.5875000000 0.1977000000
3.2546000000 1.8621000000 0.8669000000
3.2546000000 5.7673000000 0.0887000000
3.2545000000 4.8007000000 0.5303000000
3.2545000000 4.3446000000 0.7195000000
3.2544000000 0.0712000000 0.0816000000
3.2543000000 1.3775000000 0.6641000000
3.2543000000 4.6412000000 0.5988000000
3.2541000000 5.2144000000 0.3625000000
3.2540000000 3.4368000000 1.0869000000
3.2540000000 3.3230000000 1.1404000000
3.2540000000 0.6853000000 0.3853000000
3.2537000000 0.8290000000 0.4484000000
3.2536000000 0.4011000000 0.2749000000
3.2537000000 4.0947000000 0.8273000000
3.2535000000 2.1646000000 0.9949000000
3.2534000000 4.0999000000 0.8204000000
3.2532000000 4.6655000000 0.5930000000
3.2530000000 1.9690000000 0.9154000000
3.2529000000 0.8801000000 0.4667000000
3.2530000000 5.2936000000 0.3361000000
3.2528000000 3.3386000000 1.1383000000
3.2527000000 2.2785000000 1.0395000000
3.2526000000 0.5003000000 0.3145000000
3.2524000000 5.8536000000 0.0144000000
3.2522000000 0.1145000000 0.1056000000
3.2520000000 1.9213000000 0.8937000000
3.2517000000 3.1891000000 1.1967000000
3.2516000000 3.4777000000 1.0753000000
3.2515000000 4.9652000000 0.4662000000
3.2514000000 0.5992000000 0.3502000000
3.2513000000 2.5728000000 1.1607000000
3.2512000000 0.5832000000 0.3486000000
3.2512000000 3.6136000000 1.0228000000
3.2509000000 0.2683000000 0.2086000000
3.2509000000 0.1183000000 0.1086000000
3.2507000000 5.0309000000 0.4408000000
3.2505000000 3.8674000000 0.9149000000
3.2505000000 1.1593000000 0.5840000000
3.2505000000 2.7125000000 1.2226000000
3.2501000000 1.4413000000 0.6991000000
3.2498000000 2.7383000000 1.2323000000
3.2496000000 3.8898000000 0.9131000000
3.2495000000 2.6861000000 1.2083000000
3.2493000000 2.9629000000 1.2730000000
3.2491000000 1.4253000000 0.6966000000
3.2487000000 5.0273000000 0.4431000000
3.2485000000 0.1816000000 0.1596000000
3.2483000000 0.8031000000 0.4455000000
3.2474000000 4.0170000000 0.8596000000
3.2460000000 0.2332000000 0.1951000000
3.2459000000 1.4111000000 0.6841000000
3.0113000000 3.1809000000 1.3648000000
3.0113000000 3.8474000000 1.0932000000
3.0109000000 5.3133000000 0.4471000000
3.0102000000 5.5637000000 0.1792000000
3.0100000000 3.3363000000 1.3033000000
3.0099000000 5.4169000000 0.3700000000
3.0095000000 1.3415000000 0.8319000000
3.0094000000 5.0136000000 0.6183000000
3.0092000000 4.7303000000 0.7314000000
3.0080000000 4.0229000000 1.0290000000
3.0080000000 0.9040000000 0.6533000000
3.0075000000 2.5567000000 1.3324000000
3.0074000000 1.0158000000 0.6979000000
3.0073000000 4.3439000000 0.9002000000
3.0070000000 4.8016000000 0.7054000000
3.0067000000 4.5017000000 0.8339000000
3.0067000000 4.0676000000 1.0097000000
3.0065000000 3.1296000000 1.3988000000
3.0063000000 4.9595000000 0.6461000000
3.0061000000 5.2891000000 0.4655000000
3.0058000000 2.1415000000 1.1580000000
3.0056000000 3.5624000000 1.2197000000
3.0055000000 0.7553000000 0.5946000000
3.0055000000 3.2034000000 1.3657000000
3.0053000000 4.1145000000 0.9939000000
3.0051000000 5.2879000000 0.4699000000
3.0051000000 4.5510000000 0.8132000000
3.0050000000 2.3291000000 1.2405000000
3.0050000000 5.1664000000 0.5541000000
3.0050000000 2.7733000000 1.4206000000
3.0049000000 1.9691000000 1.0939000000
3.0048000000 3.2219000000 1.3635000000
3.0047000000 1.6605000000 0.9678000000
3.0046000000 5.6436000000 0.1911000000
3.0045000000 3.7979000000 1.1198000000
3.0044000000 1.7762000000 1.0135000000
3.0040000000 5.0880000000 0.5916000000
3.0038000000 2.5186000000 1.3125000000
3.0038000000 5.7354000000 0.1107000000
3.0036000000 3.0581000000 1.4319000000
3.0035000000 4.7453000000 0.7340000000
3.0033000000 3.3192000000 1.3208000000
3.0032000000 1.6423000000 0.9507000000
3.0030000000 3.3468000000 1.3061000000
3.0029000000 0.5505000000 0.4635000000
3.0030000000 4.6125000000 0.7913000000
3.0028000000 3.7255000000 1.1565000000
3.0027000000 0.1200000000 0.1273000000
3.0025000000 0.2799000000 0.2544000000
3.0023000000 2.1743000000 1.1783000000
3.0023000000 0.9860000000 0.6837000000
3.0021000000 2.7338000000 1.4088000000
3.0018000000 3.1300000000 1.3942000000
3.0018000000 5.4958000000 0.3120000000
3.0018000000 2.6878000000 1.3910000000
3.0016000000 4.4616000000 0.8491000000
3.0014000000 4.0192000000 1.0288000000
3.0013000000 3.8680000000 1.0917000000
3.0011000000 3.6024000000 1.2139000000
3.0010000000 2.2320000000 1.2019000000
3.0008000000 1.8354000000 1.0347000000
3.0008000000 2.6219000000 1.3693000000
3.0006000000 3.4241000000 1.2817000000
3.0005000000 2.2791000000 1.2228000000
3.0000000000 0.5218000000 0.4556000000
3.0000000000 1.1957000000 0.7784000000
2.9994000000 4.8996000000 0.6760000000
2.9993000000 1.1101000000 0.7436000000
2.9993000000 3.5359000000 1.2357000000
2.9991000000 0.8628000000 0.6357000000
2.9984000000 2.4189000000 1.2819000000
2.9978000000 4.0703000000 1.0157000000
2.9970000000 0.6645000000 0.5501000000
2.9958000000 2.7225000000 1.4081000000
2.9911000000 2.3526000000 1.2551000000
2.7608000000 5.7233000000 0.1240000000
2.7605000000 2.0000000000 1.2792000000
2.7597000000 5.4061000000 0.3765000000
2.7595000000 4.0052000000 1.2110000000
2.7593000000 5.4485000000 0.3421000000
2.7590000000 5.2221000000 0.5313000000
2.7586000000 3.9846000000 1.2168000000
2.7585000000 2.6796000000 1.5558000000
2.7584000000 0.3405000000 0.3027000000
2.7579000000 2.1023000000 1.3222000000
2.7576000000 0.2073000000 0.1911000000
2.7571000000 5.7657000000 0.0858000000
2.7570000000 2.5292000000 1.5005000000
2.7568000000 3.6521000000 1.3572000000
2.7565000000 1.2892000000 0.9854000000
2.7564000000 2.1929000000 1.3632000000
2.7563000000 2.3682000000 1.4292000000
2.7562000000 4.3804000000 1.0593000000
2.7562000000 3.0114000000 1.6196000000
2.7558000000 0.9115000000 0.7657000000
2.7558000000 4.7178000000 0.9120000000
2.7556000000 4.4249000000 1.0435000000
2.7555000000 2.4727000000 1.4708000000
2.7554000000 0.0442000000 0.0634000000
2.7554000000 4.3337000000 1.0783000000
2.7551000000 4.9226000000 0.7752000000
2.7551000000 0.9398000000 0.7911000000
2.7550000000 5.0209000000 0.6230000000
2.7548000000 3.3241000000 1.4915000000
2.7545000000 3.4249000000 1.4521000000
2.7544000000 2.4750000000 1.4789000000
2.7543000000 3.1456000000 1.5683000000
2.7542000000 5.0742000000 0.6513000000
2.7542000000 3.0156000000 1.6213000000
2.7541000000 0.5265000000 0.4558000000
2.7538000000 0.3515000000 0.3154000000
2.7536000000 2.4064000000 1.4430000000
2.7535000000 0.9498000000 0.8037000000
2.7535000000 5.7440000000 0.1045000000
2.7533000000 0.4568000000 0.3952000000
2.7533000000 0.7651000000 0.6470000000
2.7530000000 4.5363000000 0.9957000000
2.7530000000 0.3068000000 0.2728000000
2.7529000000 4.5163000000 1.0088000000
2.7528000000 2.2514000000 1.3904000000
2.7526000000 4.1258000000 1.1682000000
2.7525000000 0.0975000000 0.1056000000
2.7523000000 3.7633000000 1.3149000000
2.7522000000 1.2029000000 0.9529000000
2.7520000000 0.3302000000 0.2917000000
2.7519000000 2.8656000000 1.6279000000
2.7518000000 0.5790000000 0.5038000000
2.7517000000 0.3484000000 0.3103000000
2.7515000000 1.6768000000 1.1488000000
2.7513000000 2.3170000000 1.4156000000
2.7509000000 4.3825000000 1.0634000000
2.7508000000 5.7989000000 0.0609000000
2.7507000000 3.4869000000 1.4328000000
2.7507000000 4.6065000000 0.9654000000
2.7506000000 3.2883000000 1.5105000000
2.7503000000 4.8878000000 0.8054000000
2.7503000000 0.8960000000 0.7620000000
2.7500000000 4.3578000000 1.0777000000
2.7500000000 5.3221000000 0.4502000000
2.7499000000 0.5723000000 0.4925000000
2.7495000000 1.1335000000 0.9107000000
2.7484000000 1.2394000000 0.9749000000
2.7475000000 0.8771000000 0.7380000000
2.7465000000 3.0405000000 1.6179000000
2.7464000000 0.6913000000 0.5859000000
2.7454000000 0.0679000000 0.0836000000
2.7450000000 0.3450000000 0.3051000000
2.7445000000 1.5198000000 1.0923000000
2.5128000000 5.2589000000 0.5042000000
2.5125000000 4.0488000000 1.3729000000
2.5117000000 5.2041000000 0.5500000000
2.5114000000 5.6671000000 0.1670000000
2.5100000000 3.5893000000 1.5530000000
2.5099000000 5.4297000000 0.2914000000
2.5097000000 2.6731000000 1.7336000000
2.5094000000 5.4586000000 0.2631000000
2.5089000000 0.5379000000 0.4679000000
2.5086000000 1.8432000000 1.3890000000
2.5085000000 3.3794000000 1.6439000000
2.5078000000 4.3606000000 1.2225000000
2.5070000000 2.2366000000 1.5537000000
2.5068000000 2.9735000000 1.8095000000
2.5068000000 3.3298000000 1.6700000000
2.5065000000 4.1156000000 1.3543000000
2.5061000000 5.7606000000 0.0895000000
2.5061000000 1.0288000000 0.8648000000
2.5059000000 0.9340000000 0.7873000000
2.5058000000 2.1862000000 1.5319000000
2.5055000000 4.0182000000 1.3852000000
2.5055000000 4.8849000000 0.7302000000
2.5054000000 1.4107000000 1.1679000000
2.5050000000 5.3248000000 0.4430000000
2.5050000000 0.9085000000 0.7640000000
2.5050000000 1.1185000000 0.9408000000
2.5049000000 5.7758000000 0.0783000000
2.5048000000 4.6193000000 1.0308000000
2.5046000000 5.0066000000 0.7061000000
2.5046000000 3.4236000000 1.6305000000
2.5042000000 1.0802000000 0.9126000000
2.5040000000 3.2036000000 1.7201000000
2.5039000000 2.4039000000 1.6267000000
2.5038000000 2.0615000000 1.4876000000
2.5037000000 0.7025000000 0.5941000000
2.5036000000 2.4325000000 1.6386000000
2.5035000000 0.3769000000 0.3372000000
2.5035000000 3.6485000000 1.5342000000
2.5034000000 2.1221000000 1.5120000000
2.5033000000 0.3412000000 0.3030000000
2.5031000000 5.7581000000 0.0966000000
2.5030000000 4.2466000000 1.2854000000
2.5030000000 0.9156000000 0.7768000000
2.5028000000 2.0314000000 1.4740000000
2.5027000000 1.6170000000 1.3041000000
2.5026000000 5.0768000000 0.6499000000
2.5025000000 4.8493000000 0.8381000000
2.5025000000 3.7001000000 1.5208000000
2.5023000000 2.2442000000 1.5597000000
2.5023000000 3.6587000000 1.5441000000
2.5022000000 1.7508000000 1.3533000000
2.5020000000 2.0640000000 1.4831000000
2.5019000000 3.9537000000 1.4198000000
2.5018000000 0.9947000000 0.8346000000
2.5015000000 1.0836000000 0.9080000000
2.5015000000 3.9805000000 1.4076000000
2.5013000000 2.9314000000 1.8175000000
2.5012000000 5.1786000000 0.4944000000
2.5012000000 4.0252000000 1.3881000000
2.5011000000 2.2653000000 1.5748000000
2.5007000000 1.6429000000 1.3156000000
2.5005000000 0.7563000000 0.6409000000
2.5003000000 0.7200000000 0.6105000000
2.5003000000 4.4235000000 1.1749000000
2.5001000000 2.6935000000 1.7463000000
2.4998000000 3.9075000000 1.4345000000
2.4997000000 2.9611000000 1.8133000000
2.4997000000 4.9877000000 0.7212000000
2.4996000000 2.8015000000 1.7920000000
2.4993000000 3.0975000000 1.7669000000
2.4992000000 2.2471000000 1.5637000000
2.4990000000 0.9482000000 0.8038000000
2.4989000000 2.0723000000 1.4949000000
2.4988000000 0.6907000000 0.5901000000
2.4987000000 5.3312000000 0.4413000000
2.4983000000 0.3152000000 0.2806000000
2.4983000000 1.3432000000 1.1237000000
2.4975000000 0.0253000000 0.0472000000
2.4968000000 4.5539000000 1.0744000000
2.4965000000 3.7564000000 1.4950000000
2.2632000000 5.3437000000 0.4367000000
2.2616000000 5.8124000000 0.0545000000
2.2615000000 4.9114000000 0.7849000000
2.2613000000 3.2305000000 1.8811000000
2.2612000000 3.9152000000 1.5892000000
2.2603000000 4.1679000000 1.3977000000
2.2597000000 0.3385000000 0.3058000000
2.2595000000 3.3999000000 1.8111000000
2.2591000000 0.6797000000 0.5819000000
2.2591000000 2.4971000000 1.8330000000
2.2590000000 0.4430000000 0.3853000000
2.2589000000 5.6792000000 0.1579000000
2.2588000000 4.3961000000 1.2057000000
2.2587000000 3.5898000000 1.7383000000
2.2585000000 5.3864000000 0.3972000000
2.2580000000 5.7914000000 0.0676000000
2.2577000000 2.2117000000 1.7210000000
2.2577000000 5.1609000000 0.5814000000
2.2571000000 3.3109000000 1.8493000000
2.2571000000 3.2419000000 1.8850000000
2.2570000000 3.0866000000 1.9445000000
2.2569000000 1.9476000000 1.5962000000
2.2569000000 3.7008000000 1.6916000000
2.2567000000 3.1052000000 1.9424000000
2.2565000000 4.8121000000 0.8679000000
2.2565000000 5.3244000000 0.4469000000
2.2563000000 3.9085000000 1.5870000000
2.2563000000 3.3121000000 1.8522000000
2.2559000000 0.1718000000 0.1674000000
2.2558000000 2.9447000000 1.9863000000
2.2557000000 4.7063000000 0.9555000000
2.2557000000 4.3639000000 1.2354000000
2.2556000000 3.5878000000 1.7382000000
2.2555000000 4.4510000000 1.1613000000
2.2550000000 0.4330000000 0.3773000000
2.2550000000 4.6960000000 0.9660000000
2.2548000000 4.4455000000 1.1671000000
2.2548000000 4.7266000000 0.9350000000
2.2545000000 2.6198000000 1.8897000000
2.2545000000 4.7307000000 0.9359000000
2.2544000000 1.0804000000 0.9050000000
2.2543000000 4.1649000000 1.3921000000
2.2542000000 5.2844000000 0.4788000000
2.2541000000 1.0157000000 0.8562000000
2.2540000000 2.1135000000 1.6768000000
2.2540000000 5.2974000000 0.4711000000
2.2539000000 0.8898000000 0.7468000000
2.2538000000 2.3358000000 1.7682000000
2.2538000000 3.7898000000 1.6481000000
2.2536000000 4.3038000000 1.2866000000
2.2535000000 4.8301000000 0.8534000000
2.2535000000 1.5268000000 1.2741000000
2.2531000000 5.4893000000 0.3106000000
2.2530000000 3.1709000000 1.9161000000
2.2529000000 0.0398000000 0.0570000000
2.2528000000 5.0065000000 0.7115000000
2.2527000000 2.4439000000 1.8205000000
2.2527000000 2.0334000000 1.6338000000
2.2526000000 1.9309000000 1.5943000000
2.2525000000 2.8974000000 1.9936000000
2.2523000000 1.9213000000 1.5863000000
2.2522000000 1.7281000000 1.4388000000
2.2522000000 5.8378000000 0.0258000000
2.2520000000 1.9920000000 1.6231000000
2.2518000000 0.3344000000 0.2931000000
2.2518000000 4.8820000000 0.8075000000
2.2516000000 5.8370000000 0.0299000000
2.2516000000 4.8799000000 0.8080000000
2.2514000000 2.5090000000 1.8491000000
2.2513000000 1.3678000000 1.1466000000
2.2513000000 0.5907000000 0.5034000000
2.2512000000 2.2000000000 1.7250000000
2.2510000000 1.6888000000 1.4081000000
2.2509000000 0.0002000000 0.0263000000
2.2510000000 4.1630000000 1.3978000000
2.2509000000 2.9742000000 1.9896000000
2.2508000000 0.4184000000 0.3667000000
2.2508000000 4.6806000000 0.9745000000
2.2507000000 4.9308000000 0.7730000000
2.2502000000 5.4471000000 0.2739000000
2.2500000000 0.1703000000 0.1628000000
2.2499000000 5.6356000000 0.1223000000
2.2498000000 5.2384000000 0.4423000000
2.2498000000 5.1201000000 0.6173000000
2.2497000000 1.3900000000 1.1627000000
2.2495000000 2.1208000000 1.6924000000
2.2494000000 2.6133000000 1.8883000000
2.2494000000 0.9071000000 0.7626000000
2.2493000000 0.7836000000 0.6732000000
2.2493000000 4.4529000000 1.1651000000
2.2492000000 3.9908000000 1.5328000000
2.2491000000 1.5716000000 1.3082000000
2.2490000000 1.6517000000 1.3716000000
2.2486000000 0.5325000000 0.4637000000
2.2481000000 3.2415000000 1.8863000000
2.2480000000 0.2673000000 0.2373000000
2.2478000000 5.3867000000 0.4014000000
2.2474000000 5.1122000000 0.6204000000
2.2472000000 1.7569000000 1.4625000000
2.2468000000 0.4832000000 0.4175000000
2.2460000000 4.7895000000 0.8857000000
2.2456000000 0.0881000000 0.0916000000
2.0136000000 5.0183000000 0.6989000000
2.0130000000 3.6089000000 1.8541000000
2.0098000000 4.5978000000 1.0438000000
2.0097000000 4.3277000000 1.2644000000
2.0083000000 5.8381000000 0.0276000000
2.0078000000 0.8006000000 0.6753000000
2.0076000000 5.4535000000 0.3430000000
2.0073000000 3.6908000000 1.7804000000
2.0070000000 3.3237000000 2.0167000000
2.0069000000 0.8410000000 0.7095000000
2.0068000000 0.8703000000 0.7346000000
2.0066000000 3.9072000000 1.6119000000
2.0063000000 2.9474000000 2.1654000000
2.0063000000 2.3069000000 1.9046000000
2.0062000000 1.2544000000 1.0482000000
2.0060000000 3.7754000000 1.7206000000
2.0059000000 4.4506000000 1.1693000000
2.0059000000 3.8318000000 1.6720000000
2.0055000000 2.2044000000 1.8256000000
2.0053000000 1.4328000000 1.1945000000
2.0052000000 2.4108000000 1.9678000000
2.0051000000 2.9136000000 2.1764000000
2.0050000000 2.5169000000 2.0301000000
2.0050000000 3.5415000000 1.8979000000
2.0040000000 2.0293000000 1.6871000000
2.0039000000 4.9848000000 0.7324000000
2.0039000000 1.6543000000 1.3763000000
2.0036000000 1.3025000000 1.0894000000
2.0035000000 4.2785000000 1.3097000000
2.0035000000 4.9334000000 0.7728000000
2.0034000000 0.0631000000 0.0741000000
2.0034000000 4.5848000000 1.0503000000
2.0030000000 4.3597000000 1.2386000000
2.0030000000 5.3835000000 0.4014000000
2.0030000000 5.0970000000 0.6319000000
2.0028000000 2.2048000000 1.8313000000
2.0027000000 4.2662000000 1.3110000000
2.0026000000 0.0723000000 0.0817000000
2.0024000000 4.3751000000 1.2300000000
2.0023000000 0.3632000000 0.3240000000
2.0022000000 4.3704000000 1.2392000000
2.0020000000 3.3951000000 1.9879000000
2.0019000000 5.7631000000 0.0902000000
2.0018000000 2.3546000000 1.9399000000
2.0015000000 3.1136000000 2.1124000000
2.0013000000 4.6637000000 0.9919000000
2.0012000000 3.7937000000 1.7037000000
2.0011000000 0.3671000000 0.3215000000
2.0010000000 4.1857000000 1.3777000000
2.0010000000 5.6730000000 0.1591000000
2.0005000000 3.6404000000 1.8306000000
2.0005000000 3.4961000000 1.9298000000
2.0004000000 4.0989000000 1.4490000000
2.0002000000 1.8419000000 1.5288000000
2.0000000000 2.3861000000 1.9595000000
1.9998000000 4.5185000000 1.1090000000
1.9997000000 2.5776000000 2.0556000000
1.9998000000 3.8444000000 1.6617000000
1.9994000000 2.3368000000 1.9280000000
1.9994000000 2.3593000000 1.9418000000
1.9992000000 0.2041000000 0.1908000000
1.9991000000 2.7688000000 2.1287000000
1.9990000000 0.1694000000 0.1674000000
1.9988000000 1.2979000000 1.0868000000
1.9988000000 2.6696000000 2.0940000000
1.9981000000 3.0666000000 2.1373000000
1.9975000000 2.2812000000 1.8817000000
1.9962000000 0.0711000000 0.0798000000
1.9959000000 0.0698000000 0.0838000000
1.9953000000 2.8736000000 2.1670000000
1.9950000000 1.6470000000 1.3687000000
1.9947000000 3.7688000000 1.7208000000
1.7614000000 5.5085000000 0.3032000000
1.7611000000 0.4415000000 0.3804000000
1.7606000000 2.4574000000 2.0407000000
1.7604000000 5.3026000000 0.4633000000
1.7595000000 1.6261000000 1.3515000000
1.7594000000 0.9862000000 0.8348000000
1.7593000000 3.9192000000 1.5996000000
1.7593000000 1.0623000000 0.8962000000
1.7590000000 0.2729000000 0.2445000000
1.7589000000 0.9875000000 0.8295000000
1.7588000000 1.4914000000 1.2438000000
1.7585000000 2.9428000000 2.3060000000
1.7583000000 4.8167000000 0.8608000000
1.7580000000 5.4906000000 0.3152000000
1.7579000000 4.9700000000 0.7421000000
1.7574000000 5.8350000000 0.0274000000
1.7572000000 4.3865000000 1.2151000000
1.7571000000 2.3425000000 1.9473000000
1.7571000000 1.6042000000 1.3376000000
1.7570000000 3.7916000000 1.7025000000
1.7569000000 5.0528000000 0.6752000000
1.7567000000 4.7230000000 0.9359000000
1.7566000000 3.3218000000 2.0915000000
1.7565000000 5.0390000000 0.6736000000
1.7563000000 5.2814000000 0.4833000000
1.7562000000 3.7090000000 1.7723000000
1.7561000000 2.5855000000 2.1435000000
1.7560000000 0.7480000000 0.6398000000
1.7559000000 4.7292000000 0.9384000000
1.7551000000 4.7559000000 0.9119000000
1.7550000000 4.9893000000 0.7211000000
1.7549000000 1.8280000000 1.5179000000
1.7549000000 1.0525000000 0.8913000000
1.7548000000 3.7797000000 1.7147000000
1.7548000000 2.2199000000 1.8415000000
1.7547000000 2.6306000000 2.1780000000
1.7546000000 0.6533000000 0.5652000000
1.7544000000 4.4911000000 1.1335000000
1.7543000000 3.8902000000 1.6188000000
1.7543000000 3.6040000000 1.8605000000
1.7542000000 3.3900000000 2.0390000000
1.7541000000 3.9065000000 1.6123000000
1.7541000000 4.7942000000 0.8860000000
1.7539000000 2.1204000000 1.7612000000
1.7539000000 4.4146000000 1.1948000000
1.7538000000 1.2254000000 1.0250000000
1.7536000000 0.0358000000 0.0522000000
1.7536000000 2.1691000000 1.8013000000
1.7534000000 5.5256000000 0.2848000000
1.7533000000 3.9371000000 1.5848000000
1.7533000000 5.3197000000 0.4501000000
1.7531000000 4.3093000000 1.2774000000
1.7530000000 3.2683000000 2.1332000000
1.7530000000 1.9202000000 1.5966000000
1.7529000000 2.3435000000 1.9424000000
1.7527000000 0.1905000000 0.1811000000
1.7526000000 4.2172000000 1.3585000000
1.7524000000 5.7223000000 0.1238000000
1.7522000000 2.6545000000 2.1984000000
1.7522000000 0.2472000000 0.2218000000
1.7518000000 4.3809000000 1.2225000000
1.7516000000 0.1949000000 0.1821000000
1.7515000000 0.8944000000 0.7559000000
1.7512000000 1.2146000000 1.0200000000
1.7510000000 4.4170000000 1.1948000000
1.7510000000 5.4530000000 0.3446000000
1.7508000000 1.7220000000 1.4377000000
1.7507000000 5.5891000000 0.2338000000
1.7506000000 2.8218000000 2.3132000000
1.7506000000 5.0245000000 0.6912000000
1.7505000000 4.4174000000 1.1949000000
1.7505000000 2.5716000000 2.1300000000
1.7501000000 2.1172000000 1.7611000000
1.7501000000 4.1101000000 1.4426000000
1.7500000000 0.7358000000 0.6185000000
1.7496000000 2.5399000000 2.1029000000
1.7495000000 4.9214000000 0.7789000000
1.7495000000 0.3191000000 0.2843000000
1.7494000000 0.2706000000 0.2446000000
1.7492000000 3.2765000000 2.1241000000
1.7490000000 0.8769000000 0.7378000000
1.7489000000 1.7511000000 1.4549000000
1.7483000000 0.3067000000 0.2719000000
1.7479000000 0.3969000000 0.3529000000
1.7475000000 4.4464000000 1.1685000000
1.7475000000 1.3054000000 1.0952000000
1.7435000000 2.9621000000 2.3147000000
1.7394000000 4.9694000000 0.7389000000
1.5125000000 3.9963000000 1.5377000000
1.5110000000 5.2714000000 0.4865000000
1.5103000000 4.4155000000 1.1917000000
1.5096000000 2.1564000000 1.7930000000
1.5091000000 0.2330000000 0.2116000000
1.5090000000 3.1268000000 2.2014000000
1.5088000000 1.4799000000 1.2362000000
1.5087000000 5.8311000000 0.0319000000
1.5085000000 4.4146000000 1.1961000000
1.5079000000 3.1865000000 2.1735000000
1.5078000000 5.2733000000 0.4859000000
1.5077000000 3.7675000000 1.7281000000
1.5074000000 2.5258000000 2.0809000000
1.5073000000 0.6416000000 0.5514000000
1.5073000000 3.5976000000 1.8638000000
1.5072000000 2.4724000000 2.0544000000
1.5073000000 4.6805000000 0.9742000000
1.5072000000 2.6260000000 2.1593000000
1.5070000000 5.1012000000 0.6391000000
1.5070000000 4.3504000000 1.2455000000
1.5068000000 1.6244000000 1.3516000000
1.5063000000 5.2259000000 0.5266000000
1.5063000000 4.9405000000 0.7667000000
1.5062000000 0.3310000000 0.2877000000
1.5061000000 3.4950000000 1.9489000000
1.5060000000 4.3137000000 1.2767000000
1.5060000000 3.3529000000 2.0664000000
1.5058000000 5.8047000000 0.0554000000
1.5057000000 4.9966000000 0.7165000000
1.5055000000 2.5808000000 2.1225000000
1.5053000000 0.4124000000 0.3619000000
1.5052000000 3.2559000000 2.1313000000
1.5051000000 2.3963000000 1.9893000000
1.5050000000 2.4404000000 2.0241000000
1.5050000000 3.1091000000 2.2171000000
1.5049000000 2.0923000000 1.7357000000
1.5046000000 1.5144000000 1.2657000000
1.5045000000 5.8028000000 0.0575000000
1.5044000000 4.8418000000 0.8490000000
1.5043000000 0.9080000000 0.7650000000
1.5043000000 2.5707000000 2.1163000000
1.5042000000 5.0022000000 0.7141000000
1.5041000000 3.2880000000 2.1068000000
1.5041000000 5.3338000000 0.4352000000
1.5040000000 4.4767000000 1.1436000000
1.5038000000 3.8649000000 1.6437000000
1.5036000000 5.4468000000 0.3486000000
1.5034000000 0.6326000000 0.5394000000
1.5033000000 0.2692000000 0.2455000000
1.5033000000 4.1431000000 1.4135000000
1.5032000000 0.4121000000 0.3640000000
1.5032000000 3.8113000000 1.6869000000
1.5031000000 3.0491000000 2.2336000000
1.5029000000 1.9184000000 1.5935000000
1.5027000000 0.3781000000 0.3275000000
1.5022000000 2.6186000000 2.1462000000
1.5021000000 1.6675000000 1.3912000000
1.5018000000 3.9533000000 1.5727000000
1.5017000000 2.2108000000 1.8333000000
1.5017000000 3.8266000000 1.6762000000
1.5014000000 4.3278000000 1.2633000000
1.5013000000 1.8925000000 1.5731000000
1.5013000000 2.1454000000 1.7810000000
1.5013000000 4.5471000000 1.0820000000
1.5010000000 3.0997000000 2.2102000000
1.5009000000 0.2989000000 0.2636000000
1.5008000000 0.5398000000 0.4657000000
1.5007000000 1.5011000000 1.2490000000
1.5007000000 1.0803000000 0.9048000000
1.5008000000 5.1483000000 0.5203000000
1.5006000000 0.8109000000 0.6879000000
1.5003000000 2.4168000000 2.0016000000
1.5002000000 0.0978000000 0.1022000000
1.5000000000 4.2658000000 1.3158000000
1.4998000000 5.1684000000 0.5803000000
1.4996000000 0.0587000000 0.0706000000
1.4993000000 3.5836000000 1.8761000000
1.4989000000 0.6241000000 0.5320000000
1.4989000000 0.2771000000 0.2485000000
1.4987000000 5.2292000000 0.4505000000
1.4985000000 2.4704000000 2.0493000000
1.4982000000 0.2186000000 0.2079000000
1.4970000000 1.1205000000 0.9458000000
1.4955000000 4.2381000000 1.3434000000
1.2627000000 3.5895000000 1.8303000000
1.2615000000 4.0262000000 1.5080000000
1.2608000000 5.2399000000 0.4454000000
1.2601000000 0.9715000000 0.8191000000
1.2595000000 5.3016000000 0.4675000000
1.2594000000 1.5944000000 1.3318000000
1.2589000000 5.7460000000 0.1045000000
1.2587000000 3.8875000000 1.6296000000
1.2586000000 1.7156000000 1.4324000000
1.2582000000 0.1885000000 0.1750000000
1.2579000000 5.1519000000 0.5883000000
1.2577000000 5.3197000000 0.4474000000
1.2574000000 5.8534000000 0.0161000000
1.2573000000 4.1531000000 1.4088000000
1.2573000000 3.5875000000 1.8282000000
1.2571000000 5.1330000000 0.6044000000
1.2570000000 0.8004000000 0.6813000000
1.2570000000 5.6306000000 0.1267000000
1.2569000000 4.1664000000 1.3996000000
1.2567000000 1.4447000000 1.2074000000
1.2565000000 3.2959000000 1.9618000000
1.2563000000 5.2119000000 0.5365000000
1.2561000000 3.1092000000 2.0337000000
1.2558000000 5.3931000000 0.3903000000
1.2558000000 1.4246000000 1.1879000000
1.2556000000 3.6933000000 1.7730000000
1.2556000000 4.8837000000 0.8071000000
1.2555000000 4.7839000000 0.8911000000
1.2553000000 1.8898000000 1.5754000000
1.2551000000 2.6358000000 1.9964000000
1.2548000000 4.7210000000 0.9450000000
1.2546000000 3.4214000000 1.9123000000
1.2545000000 1.0186000000 0.8513000000
1.2545000000 2.7044000000 2.0143000000
1.2543000000 4.6761000000 0.9791000000
1.2544000000 1.8077000000 1.4987000000
1.2543000000 4.4347000000 1.1753000000
1.2541000000 3.5591000000 1.8467000000
1.2540000000 2.7316000000 2.0349000000
1.2540000000 0.6651000000 0.5631000000
1.2538000000 5.2580000000 0.4971000000
1.2537000000 1.9270000000 1.6007000000
1.2536000000 4.5110000000 1.1085000000
1.2535000000 0.5228000000 0.4535000000
1.2535000000 0.5971000000 0.5090000000
1.2534000000 3.3933000000 1.9159000000
1.2531000000 4.0284000000 1.5092000000
1.2533000000 1.7373000000 1.4463000000
1.2530000000 3.7360000000 1.7369000000
1.2530000000 4.8710000000 0.8206000000
1.2528000000 1.3901000000 1.1602000000
1.2527000000 5.3722000000 0.4126000000
1.2525000000 0.5713000000 0.4929000000
1.2525000000 4.7016000000 0.9553000000
1.2524000000 4.4646000000 1.1519000000
1.2523000000 5.5606000000 0.2565000000
1.2522000000 1.3478000000 1.1266000000
1.2520000000 3.5460000000 1.8534000000
1.2518000000 5.7910000000 0.0696000000
1.2517000000 1.7230000000 1.4327000000
1.2516000000 3.7534000000 1.7202000000
1.2516000000 3.5128000000 1.8682000000
1.2514000000 0.0846000000 0.0922000000
1.2513000000 0.8254000000 0.6982000000
1.2511000000 0.4554000000 0.3946000000
1.2510000000 2.5378000000 1.9543000000
1.2508000000 1.2247000000 1.0259000000
1.2507000000 1.7404000000 1.4500000000
1.2505000000 4.7215000000 0.9401000000
1.2504000000 3.2853000000 1.9580000000
1.2501000000 0.5769000000 0.5007000000
1.2500000000 2.0171000000 1.6713000000
1.2499000000 2.7128000000 2.0210000000
1.2497000000 4.9984000000 0.7114000000
1.2496000000 3.1629000000 2.0035000000
1.2495000000 1.5208000000 1.2703000000
1.2495000000 0.7183000000 0.6094000000
1.2495000000 5.1275000000 0.6072000000
1.2493000000 0.4038000000 0.3550000000
1.2492000000 2.1333000000 1.7608000000
1.2491000000 0.5128000000 0.4368000000
1.2487000000 0.7213000000 0.6111000000
1.2484000000 0.3937000000 0.3469000000
1.2484000000 4.8699000000 0.8201000000
1.2483000000 0.4088000000 0.3626000000
1.2480000000 2.3441000000 1.8738000000
1.2479000000 3.5733000000 1.8353000000
1.2477000000 1.5329000000 1.2803000000
1.2477000000 2.5224000000 1.9422000000
1.2475000000 2.7378000000 2.0284000000
1.2469000000 0.2589000000 0.2372000000
1.2468000000 1.0011000000 0.8451000000
1.2464000000 1.0622000000 0.8993000000
1.0117000000 1.7245000000 1.4215000000
1.0092000000 0.0085000000 0.0291000000
1.0088000000 2.5698000000 1.7943000000
1.0088000000 1.8756000000 1.5045000000
1.0086000000 2.5457000000 1.7865000000
1.0083000000 4.4423000000 1.1750000000
1.0083000000 5.1232000000 0.6103000000
1.0080000000 1.9573000000 1.5362000000
1.0076000000 5.4034000000 0.3826000000
1.0075000000 0.6606000000 0.5685000000
1.0074000000 4.6692000000 0.9809000000
1.0072000000 3.8646000000 1.5505000000
1.0070000000 4.5123000000 1.1128000000
1.0069000000 3.0485000000 1.8860000000
1.0067000000 2.9951000000 1.9072000000
1.0065000000 2.7182000000 1.8543000000
1.0065000000 2.6479000000 1.8269000000
1.0065000000 4.0999000000 1.4413000000
1.0064000000 0.5311000000 0.4575000000
1.0064000000 4.6613000000 0.9917000000
1.0060000000 5.5021000000 0.2984000000
1.0059000000 0.4203000000 0.3705000000
1.0055000000 0.4956000000 0.4282000000
1.0055000000 2.7327000000 1.8569000000
1.0052000000 3.2949000000 1.7788000000
1.0052000000 4.4720000000 1.1511000000
1.0051000000 4.9929000000 0.7191000000
1.0050000000 5.4876000000 0.3150000000
1.0050000000 4.0662000000 1.4474000000
1.0049000000 1.1861000000 0.9945000000
1.0048000000 4.5506000000 1.0852000000
1.0047000000 2.9725000000 1.9086000000
1.0046000000 1.9504000000 1.5392000000
1.0045000000 3.6013000000 1.6540000000
1.0045000000 2.9753000000 1.9089000000
1.0044000000 3.5071000000 1.6948000000
1.0040000000 5.1411000000 0.6001000000
1.0040000000 0.3730000000 0.3295000000
1.0039000000 5.1537000000 0.5835000000
1.0039000000 5.0680000000 0.6632000000
1.0038000000 5.5107000000 0.3006000000
1.0036000000 3.0561000000 1.8796000000
1.0034000000 3.3341000000 1.7644000000
1.0034000000 0.6291000000 0.5334000000
1.0033000000 5.4877000000 0.2421000000
1.0032000000 5.0986000000 0.6329000000
1.0031000000 2.3462000000 1.6968000000
1.0029000000 4.4456000000 1.1691000000
1.0029000000 1.7486000000 1.4369000000
1.0028000000 2.8208000000 1.8880000000
1.0025000000 4.6767000000 0.9848000000
1.0025000000 4.4726000000 1.1446000000
1.0024000000 4.5310000000 1.0982000000
1.0024000000 3.2598000000 1.7961000000
1.0023000000 2.9896000000 1.9011000000
1.0022000000 4.1859000000 1.3678000000
1.0021000000 5.5988000000 0.1454000000
1.0015000000 4.2984000000 1.2873000000
1.0015000000 2.6798000000 1.8324000000
1.0013000000 2.2254000000 1.6442000000
1.0012000000 4.4478000000 1.1718000000
1.0009000000 1.8654000000 1.5009000000
1.0008000000 2.0233000000 1.5621000000
1.0006000000 4.6932000000 0.9665000000
1.0005000000 3.8126000000 1.5629000000
1.0004000000 0.5316000000 0.4520000000
1.0003000000 3.1816000000 1.8270000000
1.0001000000 0.2742000000 0.2425000000
1.0001000000 3.9198000000 1.5200000000
0.9999000000 2.5135000000 1.7579000000
0.9998000000 4.0018000000 1.4850000000
0.9995000000 2.6348000000 1.8161000000
0.9994000000 3.2143000000 1.8117000000
0.9985000000 4.3528000000 1.2414000000
0.9981000000 3.9581000000 1.5040000000
0.9981000000 3.6614000000 1.6269000000
0.9980000000 2.2068000000 1.6363000000
0.9976000000 0.3687000000 0.3274000000
0.9976000000 2.2720000000 1.6645000000
0.9967000000 0.4906000000 0.4288000000
0.9965000000 5.2347000000 0.5271000000
0.9965000000 1.4673000000 1.2289000000
0.9962000000 2.8864000000 1.8954000000
0.9961000000 2.3215000000 1.6816000000
0.9960000000 2.4355000000 1.7243000000
0.7612000000 5.0173000000 0.6959000000
0.7608000000 4.6762000000 0.9811000000
0.7600000000 2.4359000000 1.5604000000
0.7597000000 5.7021000000 0.0620000000
0.7589000000 1.4859000000 1.1729000000
0.7587000000 0.5301000000 0.4620000000
0.7587000000 2.5222000000 1.5937000000
0.7586000000 4.6597000000 0.9938000000
0.7585000000 2.1844000000 1.4565000000
0.7583000000 5.3300000000 0.3702000000
0.7580000000 5.4617000000 0.3386000000
0.7579000000 2.4725000000 1.5693000000
0.7573000000 5.4838000000 0.3137000000
0.7573000000 3.4502000000 1.5432000000
0.7572000000 1.4574000000 1.1630000000
0.7568000000 5.6540000000 0.1012000000
0.7568000000 1.4714000000 1.1707000000
0.7566000000 4.2032000000 1.2302000000
0.7567000000 0.0253000000 0.0418000000
0.7564000000 4.6130000000 1.0154000000
0.7562000000 3.9954000000 1.3100000000
0.7559000000 4.0130000000 1.3090000000
0.7557000000 3.6289000000 1.4677000000
0.7556000000 3.9962000000 1.3113000000
0.7555000000 3.8393000000 1.3785000000
0.7554000000 2.4238000000 1.5538000000
0.7554000000 0.6405000000 0.5484000000
0.7553000000 5.0274000000 0.6922000000
0.7552000000 3.1400000000 1.6656000000
0.7551000000 5.2484000000 0.5122000000
0.7551000000 4.3859000000 1.1504000000
0.7550000000 1.1055000000 0.9260000000
0.7549000000 3.8745000000 1.3628000000
0.7546000000 5.6791000000 0.0858000000
0.7545000000 4.8253000000 0.8582000000
0.7542000000 3.2543000000 1.6135000000
0.7541000000 0.7116000000 0.6036000000
0.7539000000 3.7945000000 1.4026000000
0.7538000000 0.4960000000 0.4269000000
0.7534000000 1.6576000000 1.2414000000
0.7533000000 1.3581000000 1.0976000000
0.7533000000 1.1085000000 0.9282000000
0.7532000000 1.1200000000 0.9435000000
0.7530000000 5.2504000000 0.5074000000
0.7531000000 3.3275000000 1.5870000000
0.7530000000 0.8167000000 0.6899000000
0.7528000000 0.5796000000 0.4960000000
0.7526000000 2.2574000000 1.4824000000
0.7525000000 4.6644000000 0.9885000000
0.7525000000 5.1191000000 0.6155000000
0.7524000000 2.6150000000 1.6239000000
0.7522000000 1.9484000000 1.3487000000
0.7521000000 4.5959000000 1.0367000000
0.7519000000 4.4659000000 1.1129000000
0.7518000000 2.7694000000 1.6960000000
0.7516000000 2.0719000000 1.4062000000
0.7515000000 1.5553000000 1.1942000000
0.7511000000 2.3469000000 1.5179000000
0.7510000000 3.5706000000 1.4886000000
0.7509000000 1.6612000000 1.2375000000
0.7508000000 4.7823000000 0.8901000000
0.7505000000 3.4685000000 1.5233000000
0.7504000000 1.6974000000 1.2493000000
0.7503000000 1.9476000000 1.3560000000
0.7501000000 3.4903000000 1.5138000000
0.7500000000 5.8220000000 0.0393000000
0.7499000000 0.3435000000 0.3036000000
0.7498000000 1.2897000000 1.0691000000
0.7497000000 2.9828000000 1.7280000000
0.7496000000 1.7745000000 1.2822000000
0.7495000000 1.2611000000 1.0505000000
0.7494000000 3.9093000000 1.3486000000
0.7492000000 1.3612000000 1.1025000000
0.7489000000 1.8780000000 1.3254000000
0.7488000000 2.3500000000 1.5216000000
0.7486000000 1.3419000000 1.0942000000
0.7483000000 0.9935000000 0.8390000000
0.7482000000 5.5404000000 0.1942000000
0.7480000000 2.1108000000 1.4175000000
0.7478000000 2.9455000000 1.7262000000
0.7476000000 3.7636000000 1.4020000000
0.7461000000 1.1191000000 0.9441000000
0.7453000000 2.0464000000 1.3838000000
0.5130000000 0.2622000000 0.2391000000
0.5126000000 4.2531000000 1.0368000000
0.5115000000 5.6955000000 0.1469000000
0.5112000000 5.7697000000 0.0849000000
0.5110000000 2.8348000000 1.5466000000
0.5108000000 2.5863000000 1.4484000000
0.5102000000 2.9977000000 1.5502000000
0.5099000000 4.4557000000 0.9515000000
0.5096000000 0.7422000000 0.6347000000
0.5095000000 0.4316000000 0.3742000000
0.5093000000 5.2011000000 0.5513000000
0.5089000000 3.7392000000 1.2382000000
0.5084000000 1.5251000000 1.0064000000
0.5081000000 0.8729000000 0.7304000000
0.5079000000 4.3380000000 1.0012000000
0.5078000000 3.3256000000 1.4173000000
0.5077000000 2.3370000000 1.3376000000
0.5070000000 5.3741000000 0.4086000000
0.5068000000 4.8790000000 0.7657000000
0.5064000000 1.3984000000 0.9557000000
0.5063000000 4.3296000000 1.0001000000
0.5063000000 0.1342000000 0.1392000000
0.5062000000 2.1218000000 1.2476000000
0.5061000000 3.7458000000 1.2396000000
0.5060000000 0.2000000000 0.1924000000
0.5060000000 0.9311000000 0.7556000000
0.5059000000 1.5854000000 1.0294000000
0.5058000000 5.3867000000 0.3938000000
0.5056000000 3.1290000000 1.4921000000
0.5055000000 3.4310000000 1.3718000000
0.5054000000 5.7464000000 0.1024000000
0.5052000000 0.8226000000 0.6866000000
0.5051000000 5.6238000000 0.2007000000
0.5050000000 2.9431000000 1.5560000000
0.5050000000 3.1698000000 1.4706000000
0.5048000000 5.2794000000 0.4844000000
0.5047000000 4.3127000000 1.0073000000
0.5045000000 1.4479000000 0.9700000000
0.5045000000 5.1877000000 0.5661000000
0.5044000000 2.5684000000 1.4346000000
0.5042000000 0.1647000000 0.1645000000
0.5040000000 3.6814000000 1.2674000000
0.5038000000 0.0015000000 0.0190000000
0.5038000000 2.9686000000 1.5449000000
0.5038000000 2.9896000000 1.5506000000
0.5036000000 1.1080000000 0.8365000000
0.5035000000 2.9384000000 1.5555000000
0.5035000000 2.2883000000 1.3122000000
0.5034000000 1.2806000000 0.9074000000
0.5033000000 4.6331000000 0.8749000000
0.5033000000 3.0672000000 1.5140000000
0.5032000000 0.4733000000 0.4121000000
0.5029000000 2.5240000000 1.4169000000
0.5028000000 1.1687000000 0.8579000000
0.5028000000 3.2250000000 1.4534000000
0.5027000000 3.0375000000 1.5303000000
0.5026000000 5.6533000000 0.1781000000
0.5025000000 3.2918000000 1.4244000000
0.5023000000 3.8550000000 1.1929000000
0.5022000000 0.5565000000 0.4765000000
0.5020000000 1.3403000000 0.9296000000
0.5018000000 2.8289000000 1.5413000000
0.5017000000 0.1190000000 0.1231000000
0.5015000000 1.8860000000 1.1562000000
0.5015000000 0.8626000000 0.7162000000
0.5014000000 2.7935000000 1.5222000000
0.5012000000 4.3527000000 0.9897000000
0.5010000000 1.9377000000 1.1684000000
0.5008000000 2.4184000000 1.3704000000
0.5006000000 3.3137000000 1.4106000000
0.5005000000 1.4813000000 0.9836000000
0.5003000000 2.6720000000 1.4706000000
0.5002000000 2.1952000000 1.2758000000
0.5000000000 0.8879000000 0.7270000000
0.4998000000 1.4687000000 0.9815000000
0.4997000000 4.0983000000 1.0884000000
0.4995000000 4.7489000000 0.8215000000
0.4995000000 2.7886000000 1.5208000000
0.4990000000 4.7499000000 0.8239000000
0.4990000000 3.5035000000 1.3368000000
0.4978000000 4.3486000000 0.9883000000
0.4973000000 3.8081000000 1.2077000000
0.4965000000 3.8207000000 1.2072000000
0.4965000000 1.3075000000 0.9139000000
0.4964000000 0.0642000000 0.0778000000
0.4955000000 1.9648000000 1.1801000000
0.4923000000 0.2016000000 0.1851000000
0.2594000000 2.6353000000 1.2933000000
0.2590000000 5.6558000000 0.1756000000
0.2584000000 5.5008000000 0.2989000000
0.2580000000 3.3633000000 1.2208000000
0.2576000000 1.6712000000 0.8937000000
0.2576000000 5.8500000000 0.0188000000
0.2574000000 3.5199000000 1.1532000000
0.2573000000 5.1199000000 0.5056000000
0.2572000000 0.3800000000 0.3212000000
0.2571000000 5.0224000000 0.5355000000
0.2571000000 4.8697000000 0.6079000000
0.2569000000 4.6164000000 0.7044000000
0.2568000000 3.3665000000 1.2180000000
0.2567000000 3.4513000000 1.1846000000
0.2566000000 3.7908000000 1.0413000000
0.2565000000 0.6675000000 0.4766000000
0.2564000000 1.2163000000 0.7107000000
0.2563000000 2.3371000000 1.1637000000
0.2562000000 2.5068000000 1.2319000000
0.2560000000 5.5421000000 0.2740000000
0.2560000000 5.7441000000 0.1049000000
0.2557000000 4.2497000000 0.8557000000
0.2555000000 4.8008000000 0.6296000000
0.2555000000 1.3875000000 0.7760000000
0.2554000000 4.6192000000 0.7037000000
0.2553000000 3.6122000000 1.1179000000
0.2551000000 5.6859000000 0.0813000000
0.2550000000 4.3417000000 0.8231000000
0.2546000000 0.3573000000 0.3004000000
0.2546000000 4.2494000000 0.8551000000
0.2545000000 0.6032000000 0.4482000000
0.2545000000 5.3573000000 0.3905000000
0.2543000000 4.3649000000 0.8089000000
0.2542000000 2.5198000000 1.2376000000
0.2541000000 2.3398000000 1.1610000000
0.2541000000 2.8888000000 1.3807000000
0.2539000000 5.0519000000 0.5287000000
0.2538000000 0.6309000000 0.4614000000
0.2537000000 1.6672000000 0.8819000000
0.2537000000 1.4240000000 0.7862000000
0.2536000000 5.5038000000 0.2981000000
0.2534000000 2.2590000000 1.1276000000
0.2533000000 4.9443000000 0.5673000000
0.2533000000 0.8262000000 0.5419000000
0.2532000000 2.5730000000 1.2597000000
0.2530000000 3.9833000000 0.9614000000
0.2526000000 5.8177000000 0.0460000000
0.2525000000 4.6547000000 0.6940000000
0.2524000000 4.5736000000 0.7202000000
0.2522000000 5.4997000000 0.2930000000
0.2522000000 4.5863000000 0.7149000000
0.2521000000 4.5017000000 0.7538000000
0.2519000000 3.9309000000 0.9838000000
0.2518000000 2.4517000000 1.2054000000
0.2517000000 1.7013000000 0.9012000000
0.2516000000 1.9404000000 0.9998000000
0.2514000000 4.9581000000 0.5599000000
0.2513000000 1.5798000000 0.8514000000
0.2512000000 4.9568000000 0.5617000000
0.2511000000 2.3533000000 1.1676000000
0.2510000000 0.8021000000 0.5299000000
0.2510000000 1.7062000000 0.8985000000
0.2509000000 4.1089000000 0.9125000000
0.2508000000 5.4251000000 0.3549000000
0.2508000000 0.1749000000 0.1633000000
0.2506000000 1.6265000000 0.8690000000
0.2505000000 0.8409000000 0.5467000000
0.2504000000 1.5849000000 0.8532000000
0.2502000000 2.6732000000 1.2958000000
0.2501000000 2.2857000000 1.1429000000
0.2500000000 4.0276000000 0.9495000000
0.2500000000 4.5176000000 0.7479000000
0.2499000000 0.4269000000 0.3553000000
0.2498000000 4.2388000000 0.8559000000
0.2496000000 5.3107000000 0.4103000000
0.2493000000 0.0760000000 0.0864000000
0.2492000000 1.6187000000 0.8690000000
0.2489000000 1.7492000000 0.9186000000
0.2488000000 1.2799000000 0.7255000000
0.2487000000 0.0823000000 0.0924000000
0.2485000000 4.0716000000 0.9258000000
0.2484000000 2.4883000000 1.2251000000
0.2483000000 0.2164000000 0.2027000000
0.2482000000 4.9790000000 0.5517000000
0.2478000000 0.5573000000 0.4237000000
0.2478000000 0.3140000000 0.2750000000
0.2473000000 1.1542000000 0.6699000000
0.2468000000 4.0564000000 0.9342000000
0.2445000000 0.4863000000 0.3826000000
0.2440000000 1.3242000000 0.7382000000
0.2436000000 1.0857000000 0.6453000000
0.0154000000 5.3678000000 0.2317000000
0.0112000000 0.2021000000 0.1152000000
0.0099000000 1.8931000000 0.8076000000
0.0097000000 4.4191000000 0.6104000000
0.0096000000 0.0686000000 0.0441000000
0.0091000000 3.2139000000 1.1098000000
0.0085000000 2.4092000000 1.0126000000
0.0084000000 4.6121000000 0.5315000000
0.0084000000 5.8527000000 0.0758000000
0.0080000000 3.4498000000 1.0105000000
0.0078000000 3.0456000000 1.1789000000
0.0075000000 2.3758000000 1.0048000000
0.0074000000 2.4415000000 1.0312000000
0.0070000000 1.5501000000 0.6656000000
0.0071000000 5.1423000000 0.3181000000
0.0068000000 2.9263000000 1.2090000000
0.0067000000 5.4208000000 0.2075000000
0.0065000000 5.8409000000 0.0119000000
0.0064000000 5.7131000000 0.0832000000
0.0063000000 0.5210000000 0.2382000000
0.0062000000 3.9392000000 0.8116000000
0.0061000000 3.7776000000 0.8743000000
0.0061000000 4.0929000000 0.7428000000
0.0060000000 5.4954000000 0.1737000000
0.0059000000 5.1876000000 0.3032000000
0.0058000000 4.2703000000 0.6679000000
0.0057000000 4.4208000000 0.6051000000
0.0057000000 0.9411000000 0.4140000000
0.0056000000 0.6038000000 0.2733000000
0.0054000000 2.9770000000 1.2003000000
0.0052000000 4.3072000000 0.6576000000
0.0051000000 4.9271000000 0.4049000000
0.0050000000 2.8276000000 1.1907000000
0.0048000000 1.1716000000 0.5053000000
0.0049000000 3.1888000000 1.1134000000
0.0048000000 5.6788000000 0.0957000000
0.0047000000 4.2145000000 0.6904000000
0.0046000000 2.8395000000 1.1891000000
0.0042000000 4.4096000000 0.6116000000
0.0042000000 1.8864000000 0.8030000000
0.0041000000 3.6279000000 0.9329000000
0.0040000000 5.6566000000 0.1048000000
0.0039000000 5.1172000000 0.3260000000
0.0036000000 0.8359000000 0.3692000000
0.0033000000 2.3101000000 0.9744000000
0.0033000000 1.7792000000 0.7551000000
0.0029000000 0.4402000000 0.2046000000
0.0028000000 1.3885000000 0.5922000000
0.0026000000 1.5875000000 0.6727000000
0.0025000000 0.8240000000 0.3664000000
0.0023000000 1.1890000000 0.5173000000
0.0023000000 5.7684000000 0.0412000000
0.0020000000 1.1258000000 0.4866000000
0.0019000000 3.5840000000 0.9495000000
0.0018000000 1.3611000000 0.5842000000
0.0018000000 2.2303000000 0.9434000000
0.0016000000 0.9398000000 0.4120000000
0.0014000000 1.2624000000 0.5456000000
0.0013000000 3.6586000000 0.9231000000
0.0012000000 0.2007000000 0.1097000000
0.0012000000 3.4397000000 1.0068000000
0.0007000000 5.8389000000 0.0073000000
0.0007000000 5.0583000000 0.3485000000
0.0006000000 1.4125000000 0.6039000000
0.0005000000 1.1186000000 0.4869000000
-0.0001000000 4.9363000000 0.3925000000
-0.0003000000 2.0610000000 0.8633000000
-0.0004000000 2.2865000000 0.9564000000
-0.0009000000 0.8371000000 0.3712000000
-0.0015000000 0.4302000000 0.1996000000
-0.0025000000 0.9706000000 0.4214000000
-0.0026000000 1.8171000000 0.7645000000
-0.0027000000 3.4257000000 1.0132000000
-0.0028000000 0.4944000000 0.2243000000
-0.0030000000 3.0294000000 1.1741000000
-0.0042000000 2.2335000000 0.9395000000
-0.2386000000 4.6738000000 0.3336000000
-0.2390000000 5.2975000000 0.0755000000
-0.2392000000 2.9834000000 1.0218000000
-0.2403000000 4.1506000000 0.5449000000
-0.2406000000 4.4765000000 0.4087000000
-0.2412000000 3.8820000000 0.6560000000
-0.2419000000 4.8275000000 0.2649000000
-0.2420000000 2.5345000000 0.8932000000
-0.2420000000 5.4744000000 0.0781000000
-0.2420000000 4.7329000000 0.3086000000
-0.2421000000 2.2366000000 0.7705000000
-0.2423000000 0.2979000000 0.0465000000
-0.2427000000 2.0915000000 0.7062000000
-0.2432000000 5.1263000000 0.1462000000
-0.2433000000 1.9535000000 0.6546000000
-0.2435000000 4.1451000000 0.5498000000
-0.2435000000 0.8832000000 0.2124000000
-0.2436000000 0.9389000000 0.2394000000
-0.2436000000 2.3329000000 0.8024000000
-0.2439000000 3.1239000000 0.9621000000
-0.2441000000 4.5658000000 0.3764000000
-0.2442000000 5.4202000000 0.0222000000
-0.2441000000 2.0049000000 0.6659000000
-0.2444000000 0.3953000000 0.0909000000
-0.2450000000 1.3444000000 0.3998000000
-0.2450000000 1.0524000000 0.2817000000
-0.2452000000 2.6287000000 0.9200000000
-0.2452000000 5.3881000000 0.0364000000
-0.2452000000 1.3270000000 0.3967000000
-0.2453000000 2.2342000000 0.7642000000
-0.2454000000 2.3211000000 0.8044000000
-0.2454000000 3.8214000000 0.6749000000
-0.2455000000 1.8979000000 0.6254000000
-0.2457000000 4.3851000000 0.4449000000
-0.2457000000 5.1185000000 0.1462000000
-0.2458000000 2.2640000000 0.7789000000
-0.2458000000 0.5867000000 0.0914000000
-0.2459000000 2.4010000000 0.8320000000
-0.2460000000 3.7127000000 0.7208000000
-0.2460000000 1.1837000000 0.3319000000
-0.2462000000 2.1912000000 0.7439000000
-0.2462000000 1.1304000000 0.3094000000
-0.2466000000 4.2755000000 0.4895000000
-0.2467000000 0.6912000000 0.1290000000
-0.2467000000 3.2056000000 0.9277000000
