5.2550000000 4.9341000000 0.1423000000
5.2549000000 5.2916000000 0.0786000000
5.2546000000 5.2403000000 0.0241000000
5.2544000000 4.2102000000 0.4216000000
5.2538000000 3.5565000000 0.6360000000
5.2535000000 4.2758000000 0.3986000000
5.2534000000 4.7503000000 0.2103000000
5.2525000000 3.4392000000 0.6009000000
5.2524000000 3.9190000000 0.5343000000
5.2520000000 1.7268000000 0.0194000000
5.2519000000 4.9528000000 0.1377000000
5.2518000000 2.0173000000 0.0526000000
5.2510000000 5.2670000000 0.0923000000
5.2508000000 1.9787000000 0.0358000000
5.2503000000 4.3147000000 0.3802000000
5.2499000000 2.7737000000 0.3491000000
5.2495000000 3.9006000000 0.5419000000
5.2473000000 4.1511000000 0.4505000000
5.2460000000 2.7734000000 0.3475000000
5.0144000000 5.0338000000 0.2666000000
5.0117000000 4.6551000000 0.4199000000
5.0116000000 4.0066000000 0.6595000000
5.0107000000 3.5219000000 0.7974000000
5.0103000000 4.3199000000 0.5434000000
5.0096000000 4.9417000000 0.3036000000
5.0083000000 3.8018000000 0.7419000000
5.0080000000 3.8840000000 0.7091000000
5.0073000000 4.8414000000 0.3438000000
5.0070000000 5.6973000000 0.0851000000
5.0069000000 5.6736000000 0.0256000000
5.0060000000 4.8952000000 0.3267000000
5.0055000000 4.5155000000 0.4666000000
5.0051000000 3.3711000000 0.7380000000
5.0050000000 4.8068000000 0.3599000000
5.0045000000 1.7340000000 0.1132000000
5.0043000000 4.0528000000 0.6457000000
5.0041000000 4.4057000000 0.5122000000
5.0038000000 5.7476000000 0.0721000000
5.0031000000 5.4854000000 0.0978000000
5.0025000000 1.4392000000 0.0679000000
5.0016000000 1.4406000000 0.0755000000
5.0014000000 3.3704000000 0.7448000000
5.0010000000 1.5398000000 0.0422000000
5.0009000000 5.0085000000 0.2850000000
5.0004000000 5.4951000000 0.0992000000
4.9999000000 3.6519000000 0.8075000000
4.9990000000 4.1618000000 0.6100000000
4.9982000000 2.2388000000 0.3104000000
4.9975000000 3.5451000000 0.8033000000
4.9969000000 4.7308000000 0.3934000000
4.7636000000 6.1480000000 0.0782000000
4.7617000000 4.1889000000 0.7631000000
4.7614000000 5.3591000000 0.3066000000
4.7607000000 5.8542000000 0.1200000000
4.7606000000 4.1863000000 0.7638000000
4.7597000000 6.2148000000 0.0506000000
4.7593000000 6.1536000000 0.0805000000
4.7590000000 2.3240000000 0.5019000000
4.7588000000 5.8067000000 0.1406000000
4.7587000000 4.9547000000 0.4677000000
4.7584000000 2.6261000000 0.6176000000
4.7583000000 3.7031000000 0.9402000000
4.7579000000 5.6413000000 0.2059000000
4.7578000000 1.5504000000 0.2034000000
4.7576000000 3.8499000000 0.8912000000
4.7572000000 5.7855000000 0.1462000000
4.7571000000 2.6640000000 0.6294000000
4.7568000000 4.9087000000 0.4809000000
4.7567000000 5.4258000000 0.2853000000
4.7563000000 5.2648000000 0.3467000000
4.7563000000 4.3044000000 0.7137000000
4.7560000000 3.5343000000 0.9674000000
4.7559000000 3.4543000000 0.9387000000
4.7558000000 1.3684000000 0.1387000000
4.7555000000 5.6183000000 0.2125000000
4.7554000000 1.3865000000 0.1439000000
4.7553000000 6.3112000000 0.0214000000
4.7548000000 5.5634000000 0.2326000000
4.7547000000 2.6605000000 0.6387000000
4.7544000000 1.5758000000 0.2199000000
4.7539000000 1.9539000000 0.3623000000
4.7538000000 5.8620000000 0.1217000000
4.7530000000 2.0058000000 0.3817000000
4.7529000000 6.2704000000 0.0349000000
4.7528000000 3.2139000000 0.8469000000
4.7525000000 1.9781000000 0.3668000000
4.7520000000 1.5960000000 0.2283000000
4.7520000000 2.6441000000 0.6309000000
4.7518000000 5.8694000000 0.1171000000
4.7515000000 1.1928000000 0.0690000000
4.7513000000 0.8310000000 0.0092000000
4.7511000000 4.1115000000 0.7919000000
4.7505000000 5.7967000000 0.1477000000
4.7504000000 5.7156000000 0.1854000000
4.7490000000 1.8068000000 0.3096000000
4.7484000000 2.5212000000 0.5817000000
4.7477000000 1.9483000000 0.3679000000
4.7460000000 3.1568000000 0.8291000000
4.5208000000 5.5482000000 0.3948000000
4.5126000000 4.5922000000 0.7629000000
4.5121000000 6.5065000000 0.0351000000
4.5108000000 5.8230000000 0.2984000000
4.5099000000 3.5640000000 1.1297000000
4.5090000000 4.3171000000 0.8760000000
4.5086000000 2.6103000000 0.7787000000
4.5083000000 4.1368000000 0.9405000000
4.5081000000 2.3936000000 0.6984000000
4.5074000000 5.9650000000 0.2471000000
4.5071000000 5.3002000000 0.4988000000
4.5065000000 4.1886000000 0.9275000000
4.5064000000 4.3970000000 0.8438000000
4.5063000000 1.1686000000 0.2252000000
4.5059000000 5.0620000000 0.5905000000
4.5056000000 5.5872000000 0.3934000000
4.5055000000 4.3109000000 0.8791000000
4.5053000000 1.8699000000 0.4990000000
4.5051000000 5.1395000000 0.5616000000
4.5050000000 4.0066000000 0.9992000000
4.5047000000 4.4662000000 0.8213000000
4.5046000000 3.8365000000 1.0652000000
4.5044000000 3.4018000000 1.0826000000
4.5040000000 3.7119000000 1.1123000000
4.5040000000 0.6307000000 0.0228000000
4.5039000000 4.5005000000 0.8119000000
4.5037000000 2.0902000000 0.5789000000
4.5035000000 2.5837000000 0.7743000000
4.5034000000 4.7880000000 0.6953000000
4.5031000000 6.5480000000 0.0185000000
4.5028000000 0.8794000000 0.1135000000
4.5023000000 1.1929000000 0.2407000000
4.5022000000 3.7916000000 1.0821000000
4.5021000000 0.6084000000 0.0925000000
4.5016000000 0.7760000000 0.0821000000
4.5013000000 1.2106000000 0.2435000000
4.5005000000 2.4505000000 0.7233000000
4.5003000000 1.9596000000 0.5346000000
4.5001000000 2.1436000000 0.6054000000
4.4999000000 5.9717000000 0.2453000000
4.4991000000 0.6882000000 0.0432000000
4.4982000000 0.5609000000 0.0719000000
4.4973000000 2.0839000000 0.5834000000
4.2626000000 6.9566000000 0.0262000000
4.2613000000 5.4558000000 0.5982000000
4.2610000000 6.0240000000 0.3895000000
4.2605000000 1.7872000000 0.6224000000
4.2600000000 2.7451000000 0.9981000000
4.2599000000 5.4354000000 0.6097000000
4.2593000000 2.0031000000 0.7147000000
4.2590000000 5.3394000000 0.6496000000
4.2585000000 4.0397000000 1.1531000000
4.2584000000 2.6117000000 0.9491000000
4.2580000000 6.4763000000 0.2181000000
4.2578000000 4.6239000000 0.9269000000
4.2574000000 6.7192000000 0.1237000000
4.2573000000 5.5490000000 0.5678000000
4.2572000000 0.9563000000 0.3153000000
4.2568000000 6.0973000000 0.3593000000
4.2568000000 0.4549000000 0.1193000000
4.2565000000 1.7368000000 0.6147000000
4.2563000000 5.0925000000 0.7434000000
4.2561000000 1.6091000000 0.5671000000
4.2559000000 5.4338000000 0.6147000000
4.2558000000 2.4312000000 0.8778000000
4.2556000000 0.9564000000 0.3048000000
4.2555000000 0.0532000000 0.0386000000
4.2554000000 5.4490000000 0.6107000000
4.2552000000 0.7435000000 0.2313000000
4.2550000000 1.1618000000 0.3972000000
4.2549000000 7.1437000000 0.0273000000
4.2546000000 4.7309000000 0.8891000000
4.2545000000 1.2060000000 0.4120000000
4.2543000000 1.7094000000 0.6020000000
4.2542000000 3.2806000000 1.2015000000
4.2539000000 5.7351000000 0.5025000000
4.2537000000 2.0240000000 0.7258000000
4.2536000000 4.4765000000 0.9859000000
4.2534000000 3.6911000000 1.2853000000
4.2532000000 3.2974000000 1.2129000000
4.2532000000 2.8183000000 1.0338000000
4.2530000000 6.9669000000 0.0244000000
4.2528000000 1.1253000000 0.3757000000
4.2527000000 2.0431000000 0.7326000000
4.2525000000 0.3063000000 0.0608000000
4.2523000000 1.6345000000 0.5732000000
4.2520000000 1.5726000000 0.5485000000
4.2518000000 5.0181000000 0.7762000000
4.2516000000 5.9226000000 0.4303000000
4.2515000000 5.2936000000 0.6698000000
4.2513000000 0.8741000000 0.2843000000
4.2512000000 0.5046000000 0.1385000000
4.2507000000 1.0300000000 0.3437000000
4.2506000000 3.6956000000 1.2876000000
4.2500000000 2.2599000000 0.8145000000
4.2495000000 1.2560000000 0.4326000000
4.2488000000 1.3461000000 0.4591000000
4.2487000000 0.2803000000 0.0581000000
4.2480000000 1.8401000000 0.6527000000
4.2465000000 2.2509000000 0.8147000000
4.2458000000 2.9537000000 1.0864000000
4.0109000000 6.4135000000 0.4055000000
4.0106000000 5.5072000000 0.7499000000
4.0096000000 5.4806000000 0.7572000000
4.0095000000 1.0165000000 0.5000000000
4.0090000000 7.1151000000 0.0712000000
4.0088000000 5.5166000000 0.7482000000
4.0086000000 6.2244000000 0.4769000000
4.0085000000 0.7275000000 0.3932000000
4.0082000000 0.4680000000 0.2929000000
4.0078000000 6.1258000000 0.5143000000
4.0073000000 4.8563000000 1.0068000000
4.0072000000 5.2691000000 0.8423000000
4.0070000000 5.1660000000 0.8819000000
4.0066000000 4.0275000000 1.3253000000
4.0061000000 2.8113000000 1.1931000000
4.0060000000 0.8197000000 0.4226000000
4.0058000000 6.2974000000 0.4521000000
4.0054000000 6.5350000000 0.3588000000
4.0050000000 2.4440000000 1.0454000000
4.0050000000 0.8552000000 0.4389000000
4.0045000000 3.3064000000 1.3863000000
4.0043000000 6.7590000000 0.2782000000
4.0041000000 4.7743000000 1.0376000000
4.0040000000 5.8780000000 0.6142000000
4.0038000000 5.0356000000 0.9387000000
4.0037000000 3.0722000000 1.2905000000
4.0035000000 7.1875000000 0.0884000000
4.0034000000 5.0398000000 0.9358000000
4.0033000000 1.9342000000 0.8589000000
4.0032000000 0.4118000000 0.2699000000
4.0030000000 2.4029000000 1.0393000000
4.0027000000 3.1906000000 1.3347000000
4.0025000000 1.7997000000 0.8054000000
4.0023000000 5.8153000000 0.6420000000
4.0021000000 4.2617000000 1.2379000000
4.0019000000 2.6772000000 1.1395000000
4.0018000000 1.8553000000 0.8235000000
4.0016000000 3.1211000000 1.3183000000
4.0012000000 4.7827000000 1.0332000000
4.0007000000 1.5429000000 0.7101000000
4.0003000000 1.6618000000 0.7465000000
3.9998000000 5.2740000000 0.8459000000
3.9994000000 6.3713000000 0.4211000000
3.9987000000 3.3635000000 1.4086000000
3.9985000000 5.7674000000 0.6531000000
3.9979000000 4.8793000000 0.9985000000
3.9975000000 6.1353000000 0.5163000000
3.9935000000 0.6265000000 0.3673000000
3.7634000000 5.7579000000 0.8223000000
3.7618000000 5.8349000000 0.7894000000
3.7610000000 2.7570000000 1.3342000000
3.7595000000 5.8199000000 0.7996000000
3.7588000000 2.0902000000 1.0798000000
3.7583000000 4.1232000000 1.4511000000
3.7578000000 3.7585000000 1.5942000000
3.7577000000 0.0764000000 0.0768000000
3.7573000000 3.2266000000 1.5150000000
3.7572000000 3.9395000000 1.5283000000
3.7570000000 2.8919000000 1.3871000000
3.7569000000 6.4056000000 0.5648000000
3.7565000000 1.1309000000 0.7086000000
3.7563000000 2.1003000000 1.0855000000
3.7562000000 4.3264000000 1.3821000000
3.7560000000 1.3924000000 0.8176000000
3.7558000000 4.4907000000 1.3080000000
3.7556000000 2.6986000000 1.3138000000
3.7555000000 5.5378000000 0.9074000000
3.7552000000 3.3177000000 1.5589000000
3.7548000000 4.9807000000 1.1267000000
3.7547000000 5.7166000000 0.8380000000
3.7546000000 3.5744000000 1.6440000000
3.7545000000 5.0392000000 1.1058000000
3.7542000000 7.0377000000 0.1269000000
3.7537000000 5.5172000000 0.9180000000
3.7535000000 2.0617000000 1.0720000000
3.7533000000 0.7037000000 0.5340000000
3.7532000000 1.4105000000 0.8258000000
3.7530000000 5.2593000000 1.0181000000
3.7529000000 2.0662000000 1.0766000000
3.7528000000 6.3670000000 0.5919000000
3.7525000000 1.8202000000 0.9789000000
3.7523000000 2.6155000000 1.2887000000
3.7523000000 1.6978000000 0.9347000000
3.7522000000 5.0946000000 1.0861000000
3.7520000000 0.3034000000 0.2536000000
3.7519000000 2.5366000000 1.2552000000
3.7517000000 5.1110000000 1.0796000000
3.7515000000 1.9395000000 1.0181000000
3.7514000000 1.7680000000 0.9513000000
3.7510000000 7.1400000000 0.0510000000
3.7505000000 6.7724000000 0.3310000000
3.7505000000 1.5499000000 0.8791000000
3.7501000000 6.2860000000 0.6225000000
3.7500000000 0.3921000000 0.3222000000
3.7483000000 2.9618000000 1.4223000000
3.7463000000 5.7634000000 0.8292000000
3.5146000000 6.3923000000 0.6192000000
3.5122000000 1.5779000000 1.0404000000
3.5113000000 2.4327000000 1.3768000000
3.5104000000 6.2334000000 0.7460000000
3.5103000000 2.9617000000 1.5798000000
3.5094000000 4.5821000000 1.4395000000
3.5090000000 5.3913000000 1.1242000000
3.5088000000 4.7276000000 1.3782000000
3.5087000000 4.8101000000 1.3571000000
3.5083000000 1.2383000000 0.9197000000
3.5081000000 2.7734000000 1.5102000000
3.5078000000 0.9302000000 0.7355000000
3.5075000000 1.5013000000 1.0164000000
3.5073000000 0.3649000000 0.2953000000
3.5069000000 6.5947000000 0.4709000000
3.5067000000 3.1682000000 1.6646000000
3.5065000000 3.2361000000 1.6911000000
3.5064000000 3.2364000000 1.6824000000
3.5062000000 6.8159000000 0.3024000000
3.5061000000 6.4940000000 0.5507000000
3.5059000000 5.1945000000 1.2024000000
3.5058000000 5.8802000000 0.9454000000
3.5056000000 4.7473000000 1.3792000000
3.5055000000 6.9875000000 0.1666000000
3.5054000000 6.4440000000 0.5845000000
3.5051000000 5.4655000000 1.1019000000
3.5049000000 0.9110000000 0.7205000000
3.5048000000 2.1391000000 1.2704000000
3.5046000000 4.5708000000 1.4525000000
3.5044000000 7.1877000000 0.0918000000
3.5042000000 5.7344000000 0.9961000000
3.5040000000 0.7976000000 0.6337000000
3.5038000000 3.3243000000 1.7225000000
3.5038000000 4.2826000000 1.5592000000
3.5037000000 2.3517000000 1.3457000000
3.5035000000 6.5414000000 0.5121000000
3.5035000000 1.4704000000 1.0048000000
3.5032000000 4.1767000000 1.6013000000
3.5032000000 5.3339000000 1.1575000000
3.5030000000 1.2514000000 0.9260000000
3.5029000000 7.1511000000 0.0380000000
3.5028000000 1.6223000000 1.0707000000
3.5026000000 0.3975000000 0.3231000000
3.5025000000 3.1148000000 1.6466000000
3.5021000000 4.1226000000 1.6230000000
3.5019000000 4.1828000000 1.5938000000
3.5018000000 3.1726000000 1.6640000000
3.5016000000 3.4622000000 1.7804000000
3.5013000000 0.1454000000 0.1264000000
3.5013000000 5.8357000000 0.9607000000
3.5008000000 2.0562000000 1.2386000000
3.5007000000 0.3610000000 0.2964000000
3.5002000000 3.2417000000 1.6932000000
3.4997000000 1.7747000000 1.1271000000
3.4994000000 2.2116000000 1.2961000000
3.4990000000 0.1448000000 0.1338000000
3.4977000000 6.8247000000 0.2944000000
3.4973000000 1.8172000000 1.1543000000
3.4963000000 0.1943000000 0.1724000000
3.4960000000 0.5126000000 0.4146000000
3.2636000000 6.4449000000 0.5855000000
3.2609000000 6.2651000000 0.7240000000
3.2602000000 4.5099000000 1.6311000000
3.2601000000 4.9370000000 1.4722000000
3.2596000000 5.0321000000 1.4352000000
3.2595000000 7.0101000000 0.1485000000
3.2589000000 5.3733000000 1.2982000000
3.2585000000 3.1767000000 1.8294000000
3.2582000000 2.0643000000 1.4071000000
3.2580000000 3.9744000000 1.8404000000
3.2573000000 2.3839000000 1.5295000000
3.2570000000 6.0016000000 0.9230000000
3.2567000000 6.7005000000 0.3861000000
3.2564000000 7.2078000000 0.0663000000
3.2563000000 1.9897000000 1.3761000000
3.2561000000 4.9782000000 1.4586000000
3.2560000000 4.9772000000 1.4620000000
3.2554000000 4.1196000000 1.7859000000
3.2552000000 2.3731000000 1.5187000000
3.2551000000 2.8991000000 1.7242000000
3.2549000000 3.3212000000 1.8858000000
3.2547000000 6.4638000000 0.5747000000
3.2543000000 6.1874000000 0.7814000000
3.2540000000 7.1637000000 0.0278000000
3.2538000000 0.7938000000 0.6262000000
3.2536000000 1.8335000000 1.3114000000
3.2535000000 5.6438000000 1.1903000000
3.2534000000 4.7540000000 1.5449000000
3.2533000000 0.4021000000 0.3218000000
3.2530000000 2.7247000000 1.6637000000
3.2528000000 7.0238000000 0.1401000000
3.2524000000 0.3541000000 0.2867000000
3.2523000000 2.9002000000 1.7302000000
3.2520000000 3.9438000000 1.8592000000
3.2519000000 1.4851000000 1.1448000000
3.2518000000 0.4544000000 0.3654000000
3.2514000000 1.6754000000 1.2526000000
3.2511000000 1.4373000000 1.1150000000
3.2510000000 0.2827000000 0.2328000000
3.2508000000 0.4425000000 0.3563000000
3.2505000000 5.4970000000 1.2600000000
3.2491000000 0.6708000000 0.5395000000
3.2487000000 4.5360000000 1.6346000000
3.2484000000 0.2156000000 0.1817000000
3.2475000000 1.5618000000 1.1955000000
3.2468000000 4.6166000000 1.6014000000
3.2460000000 0.6318000000 0.5075000000
3.2438000000 0.1595000000 0.1376000000
3.0142000000 4.7327000000 1.7138000000
3.0133000000 6.1827000000 0.7839000000
3.0119000000 5.8702000000 1.0192000000
3.0115000000 6.5967000000 0.4720000000
3.0105000000 7.0440000000 0.1194000000
3.0102000000 5.8623000000 1.0318000000
3.0098000000 6.8015000000 0.3098000000
3.0089000000 3.0149000000 1.9351000000
3.0086000000 4.7909000000 1.6918000000
3.0083000000 7.1118000000 0.0707000000
3.0080000000 5.5186000000 1.2984000000
3.0078000000 6.1190000000 0.8361000000
3.0074000000 4.0582000000 1.9794000000
3.0072000000 4.0708000000 1.9693000000
3.0070000000 5.2257000000 1.5049000000
3.0068000000 6.9477000000 0.1940000000
3.0064000000 3.2115000000 2.0138000000
3.0063000000 4.9125000000 1.6491000000
3.0058000000 2.6898000000 1.8149000000
3.0056000000 6.1602000000 0.7982000000
3.0055000000 3.7462000000 2.0975000000
3.0053000000 5.3587000000 1.4152000000
3.0051000000 1.1436000000 0.8986000000
3.0048000000 2.6972000000 1.8209000000
3.0045000000 1.6627000000 1.2963000000
3.0042000000 3.2455000000 2.0264000000
3.0040000000 6.0872000000 0.8627000000
3.0040000000 5.7467000000 1.1178000000
3.0039000000 5.0096000000 1.6123000000
3.0038000000 6.1369000000 0.8229000000
3.0036000000 0.2792000000 0.2302000000
3.0035000000 2.9583000000 1.9217000000
3.0032000000 0.3790000000 0.3047000000
3.0030000000 2.5483000000 1.7614000000
3.0028000000 3.2081000000 2.0151000000
3.0025000000 0.4223000000 0.3458000000
3.0023000000 0.9308000000 0.7335000000
3.0023000000 2.5512000000 1.7645000000
3.0022000000 4.5921000000 1.7786000000
3.0021000000 4.8989000000 1.6583000000
3.0020000000 4.9256000000 1.6511000000
3.0015000000 5.7446000000 1.1239000000
3.0013000000 3.1945000000 2.0011000000
3.0012000000 3.5281000000 2.1316000000
3.0009000000 0.2019000000 0.1731000000
3.0008000000 1.5033000000 1.1707000000
3.0005000000 0.1109000000 0.0978000000
3.0000000000 0.6707000000 0.5316000000
2.9997000000 1.6240000000 1.2657000000
2.9995000000 5.0478000000 1.5986000000
2.9990000000 5.9106000000 0.9980000000
2.9949000000 1.5268000000 1.1960000000
2.7628000000 5.7315000000 1.1384000000
2.7620000000 6.1757000000 0.7944000000
2.7605000000 7.1437000000 0.0441000000
2.7599000000 5.9257000000 0.9818000000
2.7598000000 0.4083000000 0.3288000000
2.7594000000 4.2017000000 2.0920000000
2.7593000000 6.0263000000 0.9115000000
2.7587000000 1.0074000000 0.7926000000
2.7585000000 0.8372000000 0.6626000000
2.7583000000 4.2690000000 2.0605000000
2.7581000000 2.2844000000 1.7733000000
2.7577000000 4.6118000000 1.9352000000
2.7573000000 6.5768000000 0.4784000000
2.7570000000 3.7784000000 2.2526000000
2.7568000000 4.3854000000 2.0230000000
2.7566000000 4.2434000000 2.0689000000
2.7564000000 2.7945000000 2.0170000000
2.7563000000 6.7361000000 0.3600000000
2.7560000000 1.4244000000 1.1111000000
2.7559000000 6.3048000000 0.6923000000
2.7558000000 0.0030000000 0.0212000000
2.7553000000 2.4595000000 1.8751000000
2.7553000000 4.6103000000 1.9300000000
2.7548000000 6.1279000000 0.8287000000
2.7547000000 6.4287000000 0.6002000000
2.7546000000 0.3742000000 0.3092000000
2.7545000000 2.8338000000 2.0368000000
2.7544000000 3.1805000000 2.1678000000
2.7543000000 1.9933000000 1.5517000000
2.7541000000 5.5856000000 1.2517000000
2.7539000000 5.3544000000 1.4225000000
2.7537000000 4.9596000000 1.7209000000
2.7536000000 3.8383000000 2.2314000000
2.7535000000 2.6576000000 1.9643000000
2.7534000000 0.2948000000 0.2534000000
2.7533000000 2.4383000000 1.8726000000
2.7530000000 1.3558000000 1.0633000000
2.7528000000 3.6293000000 2.3009000000
2.7526000000 0.0416000000 0.0506000000
2.7524000000 6.5790000000 0.4747000000
2.7523000000 3.8587000000 2.2217000000
2.7520000000 0.2796000000 0.2352000000
2.7520000000 3.2938000000 2.2173000000
2.7517000000 2.4952000000 1.9011000000
2.7515000000 2.4927000000 1.8938000000
2.7513000000 7.0646000000 0.1084000000
2.7510000000 7.1188000000 0.0670000000
2.7507000000 3.3988000000 2.2602000000
2.7504000000 4.0157000000 2.1624000000
2.7501000000 0.4063000000 0.3283000000
2.7499000000 1.6078000000 1.2544000000
2.7485000000 5.0148000000 1.6791000000
2.7480000000 4.6063000000 1.9361000000
2.7469000000 0.7311000000 0.5788000000
2.7463000000 0.7835000000 0.6193000000
2.5158000000 4.0513000000 2.3054000000
2.5125000000 3.1503000000 2.3193000000
2.5110000000 4.0268000000 2.3204000000
2.5106000000 6.3236000000 0.6738000000
2.5095000000 3.4028000000 2.4162000000
2.5088000000 5.4515000000 1.3469000000
2.5085000000 7.0043000000 0.1489000000
2.5084000000 2.8021000000 2.1646000000
2.5083000000 5.3657000000 1.4114000000
2.5081000000 7.0003000000 0.1542000000
2.5075000000 4.9099000000 1.7693000000
2.5072000000 3.2995000000 2.3748000000
2.5070000000 2.4864000000 1.9248000000
2.5067000000 6.4155000000 0.6088000000
2.5065000000 5.8599000000 1.0306000000
2.5063000000 5.1207000000 1.6016000000
2.5061000000 5.3508000000 1.4268000000
2.5060000000 5.1544000000 1.5722000000
2.5059000000 2.2195000000 1.7276000000
2.5058000000 4.3079000000 2.2006000000
2.5056000000 6.9525000000 0.1911000000
2.5055000000 3.2674000000 2.3619000000
2.5054000000 0.3686000000 0.2981000000
2.5052000000 0.5298000000 0.4293000000
2.5051000000 5.7157000000 1.1517000000
2.5050000000 3.5982000000 2.4754000000
2.5049000000 3.8199000000 2.4034000000
2.5045000000 3.0716000000 2.2918000000
2.5043000000 2.8757000000 2.2063000000
2.5040000000 2.5960000000 2.0095000000
2.5037000000 5.2586000000 1.4937000000
2.5036000000 2.5638000000 1.9968000000
2.5035000000 4.3005000000 2.2118000000
2.5034000000 4.7931000000 1.8528000000
2.5033000000 3.1617000000 2.3283000000
2.5031000000 3.2396000000 2.3570000000
2.5030000000 0.2187000000 0.1857000000
2.5028000000 2.3157000000 1.8001000000
2.5025000000 5.2356000000 1.5137000000
2.5023000000 5.6625000000 1.1887000000
2.5022000000 5.7963000000 1.0816000000
2.5020000000 4.0116000000 2.3320000000
2.5020000000 3.3550000000 2.4004000000
2.5017000000 2.9245000000 2.2273000000
2.5016000000 6.1058000000 0.8428000000
2.5015000000 2.7795000000 2.1469000000
2.5012000000 2.8258000000 2.1822000000
2.5009000000 0.5295000000 0.4280000000
2.5008000000 5.7890000000 1.0886000000
2.5001000000 0.7854000000 0.6191000000
2.4998000000 1.2071000000 0.9430000000
2.4995000000 4.7800000000 1.8659000000
2.4993000000 6.1892000000 0.7826000000
2.4989000000 2.3832000000 1.8497000000
2.4984000000 0.5210000000 0.4204000000
2.4964000000 4.4937000000 2.0850000000
2.4944000000 0.6192000000 0.4970000000
2.2617000000 6.4400000000 0.5966000000
2.2602000000 3.4700000000 2.6130000000
2.2600000000 3.7898000000 2.5792000000
2.2598000000 2.2605000000 1.7545000000
2.2595000000 4.2972000000 2.2350000000
2.2593000000 5.4429000000 1.3553000000
2.2591000000 5.3346000000 1.4380000000
2.2579000000 1.0241000000 0.8070000000
2.2576000000 5.2161000000 1.5342000000
2.2572000000 6.9794000000 0.1782000000
2.2567000000 5.3651000000 1.4108000000
2.2566000000 4.9915000000 1.7004000000
2.2562000000 2.4722000000 1.9234000000
2.2560000000 6.9452000000 0.1971000000
2.2557000000 1.9279000000 1.5002000000
2.2555000000 6.5226000000 0.5241000000
2.2553000000 5.1286000000 1.5971000000
2.2551000000 3.7938000000 2.5773000000
2.2550000000 0.5852000000 0.4705000000
2.2549000000 4.1785000000 2.3294000000
2.2546000000 3.1031000000 2.4013000000
2.2545000000 5.8594000000 1.0387000000
2.2544000000 2.6939000000 2.0930000000
2.2543000000 4.1036000000 2.3823000000
2.2541000000 5.5721000000 1.2534000000
2.2539000000 2.2174000000 1.7220000000
2.2538000000 1.5082000000 1.1825000000
2.2534000000 0.3145000000 0.2608000000
2.2533000000 5.1849000000 1.5469000000
2.2531000000 4.6913000000 1.9342000000
2.2530000000 0.1091000000 0.1023000000
2.2528000000 0.5856000000 0.4698000000
2.2527000000 4.5238000000 2.0586000000
2.2524000000 4.8702000000 1.7932000000
2.2523000000 1.4253000000 1.1138000000
2.2520000000 3.3821000000 2.5759000000
2.2518000000 2.2333000000 1.7362000000
2.2517000000 7.1995000000 0.0771000000
2.2514000000 1.5707000000 1.2245000000
2.2513000000 1.5347000000 1.1984000000
2.2512000000 1.1504000000 0.8990000000
2.2510000000 1.7521000000 1.3669000000
2.2508000000 1.6889000000 1.3156000000
2.2505000000 0.5280000000 0.4269000000
2.2504000000 0.9577000000 0.7574000000
2.2499000000 0.7418000000 0.5884000000
2.2496000000 0.2861000000 0.2367000000
2.2491000000 5.3785000000 1.3980000000
2.2490000000 4.8160000000 1.8410000000
2.2481000000 1.2322000000 0.9623000000
2.2479000000 4.5202000000 2.0663000000
2.2473000000 0.6411000000 0.5069000000
2.0120000000 2.2055000000 1.7122000000
2.0095000000 5.3353000000 1.4391000000
2.0091000000 4.0388000000 2.4348000000
2.0089000000 5.1769000000 1.5593000000
2.0087000000 3.6726000000 2.6715000000
2.0080000000 3.2291000000 2.5060000000
2.0078000000 0.7115000000 0.5638000000
2.0075000000 1.7033000000 1.3307000000
2.0072000000 6.9352000000 0.2019000000
2.0069000000 7.0116000000 0.1409000000
2.0067000000 5.7246000000 1.1352000000
2.0066000000 4.6510000000 1.9639000000
2.0065000000 5.6436000000 1.1992000000
2.0063000000 4.1845000000 2.3260000000
2.0058000000 3.2936000000 2.5515000000
2.0058000000 3.0665000000 2.3762000000
2.0056000000 1.0280000000 0.8102000000
2.0054000000 3.6196000000 2.6818000000
2.0053000000 0.7378000000 0.5872000000
2.0052000000 2.1032000000 1.6353000000
2.0050000000 2.5210000000 1.9573000000
2.0048000000 0.1668000000 0.1483000000
2.0044000000 1.1373000000 0.8882000000
2.0041000000 1.7289000000 1.3486000000
2.0041000000 5.1208000000 1.6064000000
2.0040000000 2.0028000000 1.5596000000
2.0038000000 4.3295000000 2.2122000000
2.0035000000 4.3025000000 2.2311000000
2.0034000000 5.3669000000 1.4111000000
2.0030000000 1.2794000000 1.0008000000
2.0028000000 7.0517000000 0.1203000000
2.0027000000 1.8029000000 1.4052000000
2.0025000000 0.3260000000 0.2683000000
2.0023000000 1.3896000000 1.0845000000
2.0022000000 0.9981000000 0.7878000000
2.0020000000 0.9127000000 0.7169000000
2.0017000000 1.8433000000 1.4325000000
2.0016000000 3.4430000000 2.6554000000
2.0014000000 4.6389000000 1.9728000000
2.0008000000 3.5782000000 2.6709000000
2.0008000000 4.6028000000 2.0055000000
2.0007000000 7.0021000000 0.1570000000
2.0004000000 4.6085000000 1.9990000000
2.0001000000 3.3141000000 2.5721000000
1.9998000000 0.8362000000 0.6653000000
1.9994000000 6.1307000000 0.8257000000
1.9990000000 1.0918000000 0.8566000000
1.9981000000 2.1150000000 1.6441000000
1.9972000000 3.4026000000 2.6247000000
1.9965000000 0.8890000000 0.6996000000
1.7632000000 4.2536000000 2.2668000000
1.7619000000 6.7902000000 0.3174000000
1.7608000000 5.1380000000 1.5932000000
1.7602000000 5.9162000000 0.9875000000
1.7595000000 2.1034000000 1.6310000000
1.7594000000 4.0058000000 2.4095000000
1.7590000000 4.5917000000 2.0070000000
1.7584000000 6.3519000000 0.6548000000
1.7581000000 7.0005000000 0.1576000000
1.7578000000 6.6004000000 0.4658000000
1.7572000000 6.2933000000 0.6982000000
1.7569000000 6.5277000000 0.5185000000
1.7568000000 0.7845000000 0.6226000000
1.7565000000 2.1418000000 1.6685000000
1.7564000000 0.9327000000 0.7383000000
1.7562000000 3.5977000000 2.5550000000
1.7561000000 5.6684000000 1.1810000000
1.7560000000 5.7221000000 1.1362000000
1.7559000000 5.4562000000 1.3422000000
1.7558000000 4.0467000000 2.3833000000
1.7554000000 0.8109000000 0.6410000000
1.7553000000 4.4900000000 2.0865000000
1.7552000000 1.1624000000 0.9124000000
1.7551000000 6.0544000000 0.8805000000
1.7550000000 3.0396000000 2.3446000000
1.7548000000 5.8466000000 1.0463000000
1.7544000000 2.5633000000 1.9910000000
1.7543000000 5.0032000000 1.6944000000
1.7542000000 1.1688000000 0.9180000000
1.7541000000 1.7363000000 1.3527000000
1.7540000000 6.5749000000 0.4883000000
1.7539000000 4.2700000000 2.2519000000
1.7537000000 4.8842000000 1.7829000000
1.7534000000 1.0853000000 0.8542000000
1.7533000000 5.8132000000 1.0693000000
1.7532000000 2.6614000000 2.0615000000
1.7529000000 7.0039000000 0.1508000000
1.7528000000 5.5294000000 1.2888000000
1.7526000000 2.7087000000 2.1043000000
1.7525000000 3.2717000000 2.4383000000
1.7523000000 3.4657000000 2.5171000000
1.7519000000 2.2283000000 1.7294000000
1.7518000000 0.2584000000 0.2189000000
1.7510000000 1.6292000000 1.2670000000
1.7505000000 3.0693000000 2.3547000000
1.7502000000 0.9333000000 0.7404000000
1.7500000000 5.9366000000 0.9755000000
1.7499000000 3.0919000000 2.3614000000
1.7498000000 4.8102000000 1.8404000000
1.7496000000 0.8080000000 0.6375000000
1.7493000000 4.5301000000 2.0548000000
1.7490000000 1.4120000000 1.1040000000
1.7486000000 2.1067000000 1.6424000000
1.7478000000 1.1958000000 0.9378000000
1.7445000000 1.0670000000 0.8352000000
1.5123000000 5.6817000000 1.1696000000
1.5115000000 6.3420000000 0.6620000000
1.5111000000 6.9591000000 0.1893000000
1.5108000000 3.3702000000 2.3214000000
1.5089000000 6.8936000000 0.2385000000
1.5088000000 6.6035000000 0.4610000000
1.5081000000 6.7815000000 0.3251000000
1.5077000000 0.7025000000 0.5540000000
1.5069000000 5.5458000000 1.2802000000
1.5067000000 4.5831000000 2.0063000000
1.5063000000 3.4559000000 2.3476000000
1.5061000000 0.9758000000 0.7712000000
1.5059000000 5.2301000000 1.5204000000
1.5058000000 1.6168000000 1.2642000000
1.5054000000 0.4652000000 0.3755000000
1.5053000000 5.5214000000 1.2951000000
1.5052000000 3.4394000000 2.3411000000
1.5050000000 3.9334000000 2.2698000000
1.5047000000 4.6953000000 1.9300000000
1.5048000000 4.6731000000 1.9385000000
1.5046000000 0.5993000000 0.4777000000
1.5043000000 0.0830000000 0.0824000000
1.5041000000 0.0074000000 0.0212000000
1.5040000000 6.4059000000 0.6202000000
1.5038000000 1.2638000000 0.9907000000
1.5038000000 1.4889000000 1.1602000000
1.5036000000 0.2623000000 0.2175000000
1.5035000000 4.9348000000 1.7488000000
1.5031000000 0.0603000000 0.0649000000
1.5030000000 1.4486000000 1.1309000000
1.5029000000 6.9812000000 0.1695000000
1.5027000000 3.1743000000 2.2394000000
1.5026000000 4.1146000000 2.1974000000
1.5024000000 5.5035000000 1.3082000000
1.5023000000 0.4862000000 0.3852000000
1.5021000000 1.6805000000 1.3129000000
1.5018000000 0.1794000000 0.1619000000
1.5017000000 1.0709000000 0.8445000000
1.5015000000 1.1072000000 0.8629000000
1.5012000000 3.1759000000 2.2368000000
1.5010000000 1.3469000000 1.0554000000
1.5003000000 2.6938000000 2.0431000000
1.5001000000 7.0364000000 0.1334000000
1.4996000000 2.2908000000 1.7793000000
1.4994000000 2.8421000000 2.1067000000
1.4984000000 2.1072000000 1.6392000000
1.4983000000 3.9172000000 2.2763000000
1.4980000000 0.9187000000 0.7263000000
1.4968000000 1.1626000000 0.9101000000
1.4954000000 0.7469000000 0.5942000000
1.4946000000 4.4009000000 2.0870000000
1.2615000000 0.6843000000 0.5506000000
1.2609000000 4.1444000000 2.0251000000
1.2606000000 5.3880000000 1.3938000000
1.2590000000 5.1142000000 1.6066000000
1.2587000000 2.9080000000 1.9699000000
1.2585000000 2.2241000000 1.6988000000
1.2582000000 4.6604000000 1.8257000000
1.2580000000 3.2593000000 2.1097000000
1.2578000000 6.4481000000 0.5824000000
1.2575000000 6.2201000000 0.7557000000
1.2574000000 4.2277000000 1.9843000000
1.2573000000 5.3129000000 1.4571000000
1.2564000000 4.1516000000 2.0237000000
1.2563000000 1.7238000000 1.3461000000
1.2560000000 2.0597000000 1.6007000000
1.2557000000 5.1704000000 1.5677000000
1.2555000000 1.1877000000 0.9323000000
1.2554000000 0.8568000000 0.6725000000
1.2553000000 3.1026000000 2.0485000000
1.2551000000 6.9827000000 0.1716000000
1.2548000000 6.5446000000 0.5058000000
1.2547000000 0.3823000000 0.3085000000
1.2545000000 7.1819000000 0.0928000000
1.2545000000 6.0785000000 0.8661000000
1.2543000000 5.1400000000 1.5933000000
1.2542000000 2.2872000000 1.7336000000
1.2539000000 5.8473000000 1.0365000000
1.2538000000 4.5143000000 1.8821000000
1.2538000000 3.2608000000 2.1095000000
1.2535000000 4.1410000000 2.0198000000
1.2534000000 3.8950000000 2.1137000000
1.2532000000 4.0933000000 2.0403000000
1.2527000000 3.8018000000 2.1546000000
1.2526000000 4.9969000000 1.6821000000
1.2524000000 0.1129000000 0.1051000000
1.2522000000 0.8974000000 0.7105000000
1.2520000000 3.0979000000 2.0432000000
1.2519000000 0.5041000000 0.4060000000
1.2518000000 3.5001000000 2.1934000000
1.2515000000 0.0300000000 0.0358000000
1.2515000000 2.5945000000 1.8472000000
1.2512000000 1.7179000000 1.3398000000
1.2509000000 6.8524000000 0.2689000000
1.2506000000 0.1226000000 0.1109000000
1.2504000000 5.2804000000 1.4798000000
1.2503000000 1.0576000000 0.8273000000
1.2500000000 1.8358000000 1.4274000000
1.2495000000 0.6696000000 0.5376000000
1.2493000000 0.9143000000 0.7206000000
1.2491000000 3.7373000000 2.1735000000
1.2493000000 0.8895000000 0.6987000000
1.2485000000 1.6059000000 1.2522000000
1.2472000000 3.3788000000 2.1492000000
1.2469000000 3.9748000000 2.0838000000
1.2463000000 3.6502000000 2.2086000000
1.0129000000 6.3212000000 0.6785000000
1.0105000000 3.8822000000 1.9653000000
1.0099000000 6.9878000000 0.1680000000
1.0089000000 4.7174000000 1.6376000000
1.0081000000 5.2824000000 1.4207000000
1.0077000000 6.2470000000 0.7402000000
1.0074000000 6.9917000000 0.1597000000
1.0070000000 6.5938000000 0.4702000000
1.0067000000 5.9543000000 0.9660000000
1.0063000000 5.3965000000 1.3557000000
1.0061000000 6.1982000000 0.7761000000
1.0059000000 5.2585000000 1.4279000000
1.0056000000 2.6275000000 1.6954000000
1.0053000000 0.2968000000 0.2513000000
1.0052000000 0.3491000000 0.2808000000
1.0048000000 6.1013000000 0.8492000000
1.0046000000 4.1201000000 1.8646000000
1.0045000000 4.4655000000 1.7331000000
1.0043000000 3.8273000000 1.9762000000
1.0040000000 1.7138000000 1.3282000000
1.0038000000 3.5060000000 2.0398000000
1.0037000000 4.5826000000 1.6850000000
1.0036000000 5.4796000000 1.3170000000
1.0033000000 1.3781000000 1.0803000000
1.0033000000 4.0357000000 1.8945000000
1.0028000000 5.2808000000 1.4170000000
1.0025000000 1.5004000000 1.1696000000
1.0024000000 5.8366000000 1.0569000000
1.0023000000 2.4092000000 1.6141000000
1.0019000000 6.1996000000 0.7734000000
1.0017000000 6.0276000000 0.8991000000
1.0016000000 3.5949000000 2.0549000000
1.0015000000 3.4350000000 2.0058000000
1.0014000000 4.2138000000 1.8188000000
1.0012000000 1.7141000000 1.3251000000
1.0010000000 1.7461000000 1.3450000000
1.0008000000 4.7111000000 1.6346000000
1.0008000000 5.2019000000 1.4465000000
1.0006000000 6.2491000000 0.7335000000
1.0005000000 2.6996000000 1.7187000000
1.0003000000 2.2364000000 1.5444000000
1.0001000000 6.5287000000 0.5194000000
0.9997000000 1.8896000000 1.4076000000
0.9995000000 2.6839000000 1.7234000000
0.9994000000 2.3160000000 1.5747000000
0.9987000000 0.3075000000 0.2492000000
0.9983000000 5.1028000000 1.4849000000
0.9978000000 2.8330000000 1.7718000000
0.9975000000 0.7119000000 0.5682000000
0.9967000000 5.0772000000 1.4943000000
0.7619000000 6.5913000000 0.4749000000
0.7611000000 2.4964000000 1.4870000000
0.7603000000 5.8311000000 1.0337000000
0.7597000000 7.0064000000 0.1545000000
0.7590000000 5.8038000000 1.0420000000
0.7584000000 5.0615000000 1.3395000000
0.7582000000 2.0135000000 1.2940000000
0.7580000000 3.8792000000 1.7966000000
0.7575000000 2.4874000000 1.4793000000
0.7574000000 6.6078000000 0.4622000000
0.7572000000 6.1402000000 0.8209000000
0.7568000000 2.7072000000 1.5609000000
0.7567000000 6.4691000000 0.5671000000
0.7566000000 0.1045000000 0.0995000000
0.7564000000 6.6138000000 0.4540000000
0.7561000000 6.9347000000 0.2092000000
0.7559000000 2.6229000000 1.5349000000
0.7558000000 4.3050000000 1.6271000000
0.7556000000 5.2537000000 1.2649000000
0.7554000000 3.4013000000 1.8364000000
0.7553000000 4.9047000000 1.4021000000
0.7552000000 5.8128000000 1.0424000000
0.7549000000 1.0682000000 0.8406000000
0.7546000000 0.9828000000 0.7703000000
0.7544000000 0.1119000000 0.1086000000
0.7540000000 3.5705000000 1.8796000000
0.7538000000 0.9471000000 0.7523000000
0.7534000000 6.7610000000 0.3407000000
0.7533000000 5.0044000000 1.3546000000
0.7532000000 0.6741000000 0.5402000000
0.7528000000 2.6343000000 1.5316000000
0.7526000000 2.2211000000 1.3692000000
0.7524000000 0.5466000000 0.4355000000
0.7522000000 0.8225000000 0.6527000000
0.7519000000 2.5090000000 1.4846000000
0.7518000000 5.4560000000 1.1825000000
0.7516000000 0.1040000000 0.0976000000
0.7513000000 3.5761000000 1.8831000000
0.7512000000 2.2993000000 1.4038000000
0.7506000000 2.1908000000 1.3544000000
0.7505000000 3.7415000000 1.8413000000
0.7502000000 1.2289000000 0.9513000000
0.7500000000 4.8002000000 1.4325000000
0.7496000000 0.6068000000 0.4869000000
0.7495000000 3.2759000000 1.7725000000
0.7493000000 6.3310000000 0.6695000000
0.7488000000 1.1705000000 0.9208000000
0.7485000000 2.7241000000 1.5679000000
0.7475000000 0.1051000000 0.0952000000
0.7473000000 1.3426000000 1.0177000000
0.7470000000 0.2530000000 0.2130000000
0.7466000000 0.3213000000 0.2671000000
0.7463000000 1.3885000000 1.0427000000
0.7455000000 1.0113000000 0.8002000000
0.5131000000 4.7962000000 1.2761000000
0.5113000000 0.1981000000 0.1743000000
0.5109000000 6.6272000000 0.4410000000
0.5106000000 3.9196000000 1.6118000000
0.5102000000 3.2417000000 1.6036000000
0.5096000000 2.7355000000 1.4119000000
0.5095000000 6.6870000000 0.3917000000
0.5091000000 6.5251000000 0.5243000000
0.5086000000 0.9649000000 0.7136000000
0.5085000000 5.6872000000 0.9311000000
0.5081000000 3.6179000000 1.7102000000
0.5079000000 5.8421000000 0.8666000000
0.5072000000 7.0455000000 0.1223000000
0.5070000000 2.8094000000 1.4361000000
0.5065000000 4.7517000000 1.2900000000
0.5063000000 7.0769000000 0.1007000000
0.5062000000 0.8520000000 0.6649000000
0.5060000000 1.4712000000 0.9200000000
0.5056000000 2.2382000000 1.2133000000
0.5055000000 0.8847000000 0.6783000000
0.5052000000 0.2164000000 0.1825000000
0.5049000000 0.1403000000 0.1263000000
0.5048000000 6.9095000000 0.2325000000
0.5047000000 0.4199000000 0.3456000000
0.5045000000 6.1874000000 0.7365000000
0.5044000000 3.0115000000 1.5075000000
0.5043000000 1.6799000000 1.0001000000
0.5041000000 6.8910000000 0.2458000000
0.5039000000 3.4378000000 1.6814000000
0.5038000000 2.9474000000 1.4930000000
0.5035000000 6.8120000000 0.2981000000
0.5034000000 6.8468000000 0.2732000000
0.5029000000 5.6307000000 0.9442000000
0.5025000000 5.8984000000 0.8453000000
0.5023000000 0.6086000000 0.4874000000
0.5022000000 0.0558000000 0.0572000000
0.5021000000 1.6046000000 0.9684000000
0.5020000000 5.6704000000 0.9327000000
0.5018000000 0.6601000000 0.5304000000
0.5013000000 0.2066000000 0.1759000000
0.5012000000 4.7667000000 1.2826000000
0.5011000000 3.1128000000 1.5480000000
0.5009000000 4.8782000000 1.2320000000
0.5005000000 1.5324000000 0.9398000000
0.5001000000 4.4261000000 1.4138000000
0.4998000000 2.4321000000 1.2879000000
0.4994000000 3.9789000000 1.5838000000
0.4992000000 4.0992000000 1.5345000000
0.4991000000 0.8936000000 0.6805000000
0.4983000000 0.4551000000 0.3658000000
0.4979000000 1.9099000000 1.0831000000
0.4971000000 2.8405000000 1.4415000000
0.4970000000 0.3073000000 0.2558000000
0.4958000000 3.3578000000 1.6415000000
0.4943000000 2.9828000000 1.4935000000
0.4930000000 1.0598000000 0.7486000000
0.2609000000 5.0511000000 1.0160000000
0.2601000000 3.1571000000 1.4031000000
0.2598000000 4.8553000000 1.0868000000
0.2591000000 0.0806000000 0.0761000000
0.2588000000 6.6038000000 0.4164000000
0.2583000000 6.9409000000 0.2052000000
0.2580000000 6.8095000000 0.2908000000
0.2576000000 6.1960000000 0.5668000000
0.2574000000 1.5277000000 0.7798000000
0.2570000000 1.9453000000 0.9353000000
0.2570000000 2.7467000000 1.2483000000
0.2568000000 2.5548000000 1.1727000000
0.2563000000 6.8146000000 0.2843000000
0.2561000000 6.2618000000 0.5405000000
0.2558000000 1.1738000000 0.6360000000
0.2555000000 0.4066000000 0.3178000000
0.2553000000 0.0667000000 0.0708000000
0.2552000000 3.7730000000 1.4965000000
0.2550000000 4.1298000000 1.3623000000
0.2549000000 6.6520000000 0.3789000000
0.2545000000 0.8403000000 0.5126000000
0.2545000000 3.4682000000 1.5233000000
0.2543000000 1.8534000000 0.8972000000
0.2539000000 0.1041000000 0.1020000000
0.2538000000 1.4593000000 0.7479000000
0.2537000000 6.5889000000 0.4094000000
0.2533000000 0.7768000000 0.4870000000
0.2533000000 3.9976000000 1.4112000000
0.2532000000 5.1060000000 0.9804000000
0.2531000000 6.0196000000 0.6336000000
0.2530000000 0.7315000000 0.4657000000
0.2529000000 0.9034000000 0.5361000000
0.2527000000 4.4907000000 1.2223000000
0.2526000000 0.9517000000 0.5482000000
0.2522000000 2.1369000000 1.0045000000
0.2520000000 1.3531000000 0.7096000000
0.2519000000 2.4422000000 1.1197000000
0.2516000000 0.6670000000 0.4455000000
0.2515000000 1.3132000000 0.6883000000
0.2510000000 5.6404000000 0.7769000000
0.2508000000 4.5488000000 1.1983000000
0.2507000000 1.3233000000 0.6916000000
0.2503000000 6.2029000000 0.5592000000
0.2501000000 2.3823000000 1.0981000000
0.2497000000 2.1468000000 1.0065000000
0.2492000000 4.4989000000 1.2158000000
0.2488000000 0.2451000000 0.2105000000
0.2479000000 6.2594000000 0.5429000000
0.2475000000 2.3105000000 1.0668000000
0.2468000000 0.5034000000 0.3684000000
0.2451000000 0.2130000000 0.1820000000
0.0120000000 6.6674000000 0.2198000000
0.0103000000 6.5690000000 0.2555000000
0.0080000000 4.6370000000 0.9956000000
0.0076000000 4.6271000000 1.0027000000
0.0075000000 4.2520000000 1.1504000000
0.0070000000 0.0716000000 0.0378000000
0.0068000000 5.3535000000 0.7248000000
0.0065000000 2.7768000000 1.0924000000
0.0060000000 4.3085000000 1.1201000000
0.0059000000 3.9396000000 1.2702000000
0.0057000000 1.5646000000 0.6217000000
0.0056000000 2.1618000000 0.8506000000
0.0053000000 5.0680000000 0.8396000000
0.0053000000 3.4307000000 1.3442000000
0.0050000000 5.2993000000 0.7468000000
0.0049000000 1.6243000000 0.6440000000
0.0048000000 6.6543000000 0.2220000000
0.0047000000 3.6696000000 1.3727000000
0.0046000000 6.7694000000 0.1762000000
0.0045000000 0.7646000000 0.3146000000
0.0043000000 7.1537000000 0.0161000000
0.0042000000 4.2723000000 1.1399000000
0.0040000000 5.8188000000 0.5460000000
0.0038000000 7.0700000000 0.0584000000
0.0038000000 2.7260000000 1.0679000000
0.0036000000 2.5681000000 1.0123000000
0.0035000000 4.5020000000 1.0501000000
0.0033000000 5.0630000000 0.8351000000
0.0031000000 0.9418000000 0.3832000000
0.0030000000 4.0115000000 1.2387000000
0.0029000000 0.0175000000 0.0159000000
0.0027000000 0.6653000000 0.2734000000
0.0023000000 0.7718000000 0.3146000000
0.0022000000 5.9791000000 0.4780000000
0.0018000000 6.9835000000 0.0953000000
0.0017000000 0.6531000000 0.2666000000
0.0015000000 0.7338000000 0.3050000000
0.0013000000 0.5202000000 0.2148000000
0.0009000000 0.5417000000 0.2282000000
0.0007000000 5.7156000000 0.5870000000
-0.0000000000 3.3612000000 1.3104000000
-0.0005000000 0.7210000000 0.2905000000
-0.0008000000 3.4997000000 1.3619000000
-0.0011000000 3.4431000000 1.3388000000
-0.0013000000 2.5338000000 0.9936000000
-0.0017000000 0.2032000000 0.0933000000
-0.0025000000 0.7659000000 0.3117000000
-0.0027000000 2.8869000000 1.1228000000
-0.0032000000 5.2710000000 0.7516000000
-0.0053000000 0.8340000000 0.3325000000
-0.2376000000 6.4028000000 0.1554000000
-0.2390000000 6.2058000000 0.2323000000
-0.2402000000 2.2256000000 0.7146000000
-0.2413000000 1.6611000000 0.4944000000
-0.2415000000 1.1934000000 0.3081000000
-0.2424000000 6.5846000000 0.0829000000
-0.2426000000 4.7925000000 0.7753000000
-0.2427000000 3.3815000000 1.1523000000
-0.2430000000 3.0241000000 1.0197000000
-0.2431000000 2.3576000000 0.7599000000
-0.2435000000 5.5156000000 0.4948000000
-0.2437000000 5.9908000000 0.3127000000
-0.2438000000 3.6877000000 1.1939000000
-0.2441000000 5.9154000000 0.3466000000
-0.2446000000 3.6752000000 1.2001000000
-0.2450000000 6.9697000000 0.0096000000
-0.2451000000 6.3963000000 0.1564000000
-0.2452000000 2.2144000000 0.7087000000
-0.2453000000 3.8058000000 1.1571000000
-0.2455000000 3.8373000000 1.1427000000
-0.2457000000 0.9456000000 0.2199000000
-0.2460000000 6.6105000000 0.0706000000
-0.2462000000 3.2715000000 1.1112000000
-0.2462000000 5.2493000000 0.5987000000
-0.2465000000 4.3091000000 0.9607000000
-0.2467000000 1.2061000000 0.3210000000
-0.2468000000 2.2326000000 0.7124000000
-0.2471000000 5.8480000000 0.3655000000
-0.2473000000 3.4559000000 1.1793000000
-0.2475000000 4.2823000000 0.9658000000
-0.2480000000 3.2290000000 1.0941000000
-0.2484000000 1.0076000000 0.2388000000
-0.2485000000 0.2377000000 0.0260000000
-0.2490000000 6.9360000000 0.0206000000
-0.2492000000 2.0093000000 0.6199000000
-0.2497000000 1.7931000000 0.5423000000
-0.2505000000 1.4477000000 0.4111000000
-0.2510000000 4.3553000000 0.9455000000
-0.2513000000 1.0695000000 0.2563000000
-0.2524000000 0.3514000000 0.0595000000
-0.2540000000 5.3261000000 0.5582000000
-0.4918000000 4.8646000000 0.5752000000
-0.4924000000 0.8750000000 0.0323000000
-0.4928000000 2.2424000000 0.5542000000
-0.4932000000 4.7490000000 0.6236000000
-0.4936000000 2.9873000000 0.8396000000
-0.4937000000 6.3567000000 0.0776000000
-0.4942000000 5.8782000000 0.1885000000
-0.4946000000 3.7237000000 1.0224000000
-0.4950000000 3.1378000000 0.8941000000
-0.4951000000 2.8276000000 0.7729000000
-0.4953000000 4.9259000000 0.5557000000
-0.4955000000 3.7031000000 1.0246000000
-0.4956000000 1.7698000000 0.3683000000
-0.4957000000 4.8443000000 0.5879000000
-0.4961000000 1.3470000000 0.2062000000
-0.4962000000 4.7200000000 0.6316000000
-0.4963000000 3.2423000000 0.9330000000
-0.4966000000 4.5536000000 0.6979000000
-0.4966000000 5.8590000000 0.1926000000
-0.4968000000 3.6641000000 1.0397000000
-0.4970000000 1.4043000000 0.2249000000
-0.4971000000 1.4853000000 0.2604000000
-0.4973000000 6.4283000000 0.0560000000
-0.4975000000 1.1886000000 0.1449000000
-0.4976000000 4.3842000000 0.7653000000
-0.4978000000 2.3946000000 0.6087000000
-0.4980000000 3.7201000000 1.0209000000
-0.4981000000 4.9941000000 0.5225000000
-0.4983000000 1.4763000000 0.2582000000
-0.4985000000 5.3463000000 0.3923000000
-0.4991000000 3.7695000000 0.9948000000
-0.4995000000 5.2622000000 0.4172000000
-0.4996000000 1.3154000000 0.1866000000
-0.5000000000 0.6785000000 0.0198000000
-0.5001000000 3.6473000000 1.0440000000
-0.5002000000 2.0508000000 0.4689000000
-0.5003000000 4.4517000000 0.7303000000
-0.5005000000 0.6893000000 0.0193000000
-0.5008000000 1.9045000000 0.4189000000
-0.5019000000 2.8344000000 0.7710000000
-0.5022000000 1.9645000000 0.4418000000
-0.5059000000 2.9175000000 0.7969000000
-0.7398000000 3.9907000000 0.7502000000
-0.7399000000 5.0049000000 0.3623000000
-0.7407000000 6.0788000000 0.0208000000
-0.7424000000 5.4519000000 0.1876000000
-0.7427000000 5.9643000000 0.0622000000
-0.7429000000 5.6214000000 0.1246000000
-0.7441000000 4.3284000000 0.6178000000
-0.7443000000 5.3898000000 0.2094000000
-0.7445000000 3.9358000000 0.7729000000
-0.7446000000 1.1769000000 0.0472000000
-0.7451000000 2.2923000000 0.3989000000
-0.7453000000 3.7731000000 0.8315000000
-0.7456000000 5.5386000000 0.1476000000
-0.7460000000 2.6430000000 0.5403000000
-0.7461000000 1.1220000000 0.0296000000
-0.7464000000 4.5609000000 0.5283000000
-0.7465000000 4.9552000000 0.3785000000
-0.7467000000 2.3954000000 0.4437000000
-0.7468000000 4.4992000000 0.5453000000
-0.7470000000 5.8000000000 0.0544000000
-0.7475000000 3.8465000000 0.8011000000
-0.7478000000 6.0183000000 0.0430000000
-0.7479000000 1.4574000000 0.0831000000
-0.7480000000 4.4669000000 0.5616000000
-0.7481000000 3.7260000000 0.8471000000
-0.7482000000 6.0717000000 0.0202000000
-0.7485000000 5.1928000000 0.2819000000
-0.7489000000 2.8974000000 0.6339000000
-0.7492000000 3.4902000000 0.8624000000
-0.7493000000 1.6646000000 0.1566000000
-0.7500000000 1.1838000000 0.0496000000
-0.7505000000 4.6318000000 0.5008000000
-0.7506000000 4.2904000000 0.6267000000
-0.7511000000 2.8622000000 0.6168000000
-0.7515000000 4.2510000000 0.6432000000
-0.7520000000 1.3813000000 0.0445000000
-0.7528000000 1.5688000000 0.1192000000
-0.7539000000 5.9517000000 0.0647000000
-0.9917000000 3.7739000000 0.6704000000
-0.9928000000 4.0112000000 0.5733000000
-0.9929000000 1.7180000000 0.0911000000
-0.9932000000 5.6687000000 0.0105000000
-0.9938000000 4.2096000000 0.4959000000
-0.9942000000 2.6193000000 0.3619000000
-0.9945000000 3.7282000000 0.6813000000
-0.9947000000 3.6732000000 0.7017000000
-0.9952000000 1.6662000000 0.0673000000
-0.9952000000 2.0017000000 0.1215000000
-0.9956000000 4.0128000000 0.5677000000
-0.9962000000 2.6985000000 0.3908000000
-0.9965000000 2.0042000000 0.1261000000
-0.9971000000 4.8975000000 0.2321000000
-0.9972000000 4.3583000000 0.4419000000
