5.7507000000 3.9693000000 0.0702000000
5.7502000000 3.6622000000 0.1094000000
5.5083000000 3.3126000000 0.2935000000
5.5080000000 3.2791000000 0.2760000000
5.5074000000 4.1943000000 0.0689000000
5.5067000000 2.9931000000 0.1659000000
5.5064000000 3.0234000000 0.1843000000
5.5050000000 2.4969000000 0.0464000000
5.5049000000 2.6573000000 0.0355000000
5.5046000000 2.8408000000 0.1147000000
5.5038000000 4.0762000000 0.1141000000
5.5032000000 2.6967000000 0.0580000000
5.5029000000 2.4694000000 0.0392000000
5.5026000000 3.4489000000 0.3363000000
5.5024000000 4.5224000000 0.0199000000
5.5022000000 3.4464000000 0.3403000000
5.5021000000 3.3372000000 0.3054000000
5.5014000000 3.2456000000 0.2688000000
5.5010000000 2.7240000000 0.0693000000
5.5005000000 2.3656000000 0.0072000000
5.4999000000 4.0844000000 0.1118000000
5.4987000000 2.5516000000 0.0783000000
5.2616000000 3.4623000000 0.5125000000
5.2601000000 4.4327000000 0.1426000000
5.2594000000 4.2725000000 0.2075000000
5.2589000000 2.4417000000 0.1197000000
5.2585000000 3.4936000000 0.4943000000
5.2575000000 2.9956000000 0.3386000000
5.2565000000 2.5596000000 0.1687000000
5.2562000000 4.0290000000 0.3048000000
5.2557000000 3.6135000000 0.4663000000
5.2555000000 4.4735000000 0.1288000000
5.2552000000 3.8796000000 0.3629000000
5.2548000000 4.8510000000 0.0562000000
5.2546000000 4.0212000000 0.3087000000
5.2544000000 3.9696000000 0.3315000000
5.2537000000 4.1037000000 0.2736000000
5.2535000000 4.4276000000 0.1524000000
5.2528000000 2.0972000000 0.0615000000
5.2522000000 2.0001000000 0.0279000000
5.2520000000 3.5198000000 0.5047000000
5.2508000000 2.7630000000 0.2499000000
5.2499000000 3.0210000000 0.3583000000
5.2491000000 2.4725000000 0.1420000000
5.2486000000 2.6521000000 0.2119000000
5.2431000000 2.2241000000 0.0451000000
5.0137000000 4.0581000000 0.4516000000
5.0108000000 5.1864000000 0.0913000000
5.0090000000 5.0745000000 0.0606000000
5.0083000000 2.5597000000 0.3394000000
5.0076000000 4.6344000000 0.2334000000
5.0074000000 5.1515000000 0.0340000000
5.0073000000 5.1375000000 0.0356000000
5.0067000000 2.1978000000 0.1923000000
5.0066000000 5.1727000000 0.0232000000
5.0061000000 3.0418000000 0.5283000000
5.0060000000 2.3028000000 0.2372000000
5.0057000000 3.6421000000 0.6252000000
5.0055000000 4.1631000000 0.4191000000
5.0054000000 4.9222000000 0.1252000000
5.0052000000 4.0569000000 0.4607000000
5.0046000000 2.4586000000 0.3002000000
5.0044000000 3.6415000000 0.6305000000
5.0038000000 2.6680000000 0.3817000000
5.0037000000 2.0320000000 0.1342000000
5.0036000000 4.9040000000 0.1279000000
5.0032000000 2.0644000000 0.1414000000
5.0027000000 2.8747000000 0.4587000000
5.0025000000 4.9502000000 0.1167000000
5.0023000000 4.9975000000 0.0936000000
5.0017000000 4.6247000000 0.2449000000
5.0015000000 1.9244000000 0.0928000000
4.9997000000 4.8778000000 0.1424000000
4.9988000000 3.9350000000 0.5135000000
4.9983000000 2.0156000000 0.1311000000
4.9975000000 3.6420000000 0.6275000000
4.9954000000 4.3434000000 0.3558000000
4.7648000000 4.4758000000 0.4621000000
4.7607000000 3.2936000000 0.7911000000
4.7602000000 3.9561000000 0.6677000000
4.7597000000 5.8434000000 0.0062000000
4.7592000000 5.8195000000 0.0123000000
4.7587000000 1.6194000000 0.1410000000
4.7584000000 3.2222000000 0.7676000000
4.7579000000 4.2301000000 0.5623000000
4.7575000000 2.6456000000 0.5420000000
4.7570000000 2.6710000000 0.5482000000
4.7569000000 5.3596000000 0.1169000000
4.7566000000 1.8526000000 0.2302000000
4.7564000000 4.8505000000 0.3174000000
4.7562000000 3.3485000000 0.8158000000
4.7558000000 5.8471000000 0.0117000000
4.7557000000 5.0252000000 0.2568000000
4.7555000000 5.4949000000 0.0656000000
4.7552000000 4.9603000000 0.2795000000
4.7549000000 1.8806000000 0.2402000000
4.7548000000 5.1205000000 0.2215000000
4.7544000000 3.5486000000 0.8331000000
4.7543000000 1.4837000000 0.0860000000
4.7542000000 4.3162000000 0.5307000000
4.7540000000 2.0717000000 0.3157000000
4.7539000000 4.0809000000 0.6219000000
4.7532000000 2.5492000000 0.5058000000
4.7527000000 4.8518000000 0.3197000000
4.7525000000 2.5897000000 0.5212000000
4.7523000000 2.7050000000 0.5691000000
4.7515000000 1.7476000000 0.1962000000
4.7516000000 4.6724000000 0.3958000000
4.7508000000 2.6574000000 0.5538000000
4.7505000000 3.4620000000 0.8549000000
4.7498000000 4.3671000000 0.5131000000
4.7493000000 1.8279000000 0.2297000000
4.7491000000 1.6574000000 0.1613000000
4.7472000000 4.2318000000 0.5661000000
4.7464000000 3.0236000000 0.7007000000
4.7431000000 1.3962000000 0.0649000000
4.5112000000 5.6043000000 0.1853000000
4.5105000000 1.2344000000 0.1550000000
4.5102000000 6.0650000000 0.0901000000
4.5100000000 4.7710000000 0.5205000000
4.5096000000 5.6957000000 0.1563000000
4.5090000000 3.0118000000 0.8526000000
4.5089000000 4.8155000000 0.4995000000
4.5084000000 3.7414000000 0.9220000000
4.5081000000 5.0526000000 0.4144000000
4.5078000000 2.7222000000 0.7385000000
4.5072000000 4.2337000000 0.7257000000
4.5068000000 2.4707000000 0.6396000000
4.5065000000 5.9514000000 0.0598000000
4.5064000000 1.3999000000 0.2252000000
4.5061000000 3.6609000000 0.9552000000
4.5059000000 6.0875000000 0.0783000000
4.5058000000 2.3112000000 0.5837000000
4.5051000000 4.1460000000 0.7635000000
4.5048000000 3.7084000000 0.9380000000
4.5046000000 0.6771000000 0.0131000000
4.5045000000 5.8712000000 0.0921000000
4.5043000000 1.2636000000 0.1719000000
4.5041000000 2.4890000000 0.6499000000
4.5039000000 3.9949000000 0.8299000000
4.5038000000 2.3812000000 0.6151000000
4.5036000000 4.9423000000 0.4492000000
4.5032000000 1.7781000000 0.3737000000
4.5030000000 3.6018000000 0.9847000000
4.5029000000 6.2229000000 0.0325000000
4.5027000000 4.8081000000 0.5081000000
4.5026000000 0.7263000000 0.0354000000
4.5023000000 5.2490000000 0.3347000000
4.5021000000 1.6048000000 0.3061000000
4.5018000000 3.3460000000 0.9860000000
4.5017000000 3.0973000000 0.8847000000
4.5014000000 4.3647000000 0.6878000000
4.5010000000 1.6268000000 0.3127000000
4.5008000000 0.6636000000 0.0154000000
4.5001000000 4.2001000000 0.7480000000
4.4988000000 1.8856000000 0.4198000000
4.4984000000 1.5847000000 0.3005000000
4.4980000000 1.3121000000 0.1926000000
4.4970000000 1.2044000000 0.1547000000
4.2628000000 3.3505000000 1.1503000000
4.2612000000 3.9157000000 1.0195000000
4.2607000000 1.8438000000 0.5622000000
4.2595000000 3.8802000000 1.0461000000
4.2591000000 4.0179000000 0.9834000000
4.2588000000 4.3039000000 0.8709000000
4.2578000000 5.8236000000 0.2758000000
4.2573000000 5.6408000000 0.3437000000
4.2570000000 2.5190000000 0.8311000000
4.2568000000 3.7939000000 1.0716000000
4.2567000000 5.2440000000 0.5058000000
4.2565000000 2.2870000000 0.7344000000
4.2561000000 6.2555000000 0.1122000000
4.2558000000 0.9340000000 0.2129000000
4.2555000000 0.7449000000 0.1360000000
4.2553000000 4.4861000000 0.8044000000
4.2550000000 6.0150000000 0.2064000000
4.2548000000 4.7301000000 0.7080000000
4.2547000000 3.9456000000 1.0169000000
4.2544000000 3.3720000000 1.1702000000
4.2542000000 4.7447000000 0.7052000000
4.2540000000 1.2279000000 0.3276000000
4.2539000000 3.2258000000 1.1071000000
4.2538000000 5.2925000000 0.4894000000
4.2536000000 5.5983000000 0.3673000000
4.2533000000 2.7297000000 0.9186000000
4.2532000000 0.8510000000 0.1821000000
4.2530000000 0.2144000000 0.0067000000
4.2529000000 2.8464000000 0.9638000000
4.2525000000 3.6261000000 1.1364000000
4.2523000000 3.6486000000 1.1396000000
4.2519000000 3.7291000000 1.1002000000
4.2515000000 2.2131000000 0.7150000000
4.2514000000 2.3167000000 0.7574000000
4.2512000000 5.4034000000 0.4481000000
4.2508000000 5.8607000000 0.2640000000
4.2506000000 4.2711000000 0.8939000000
4.2503000000 0.2228000000 0.0103000000
4.2500000000 5.8005000000 0.2939000000
4.2498000000 1.7476000000 0.5362000000
4.2495000000 2.6478000000 0.8875000000
4.2480000000 2.7811000000 0.9418000000
4.2460000000 3.4630000000 1.1969000000
4.0133000000 6.1152000000 0.3270000000
4.0101000000 5.6918000000 0.5027000000
4.0096000000 5.1467000000 0.7154000000
4.0095000000 6.6374000000 0.1284000000
4.0085000000 2.1750000000 0.8639000000
4.0081000000 2.8077000000 1.1172000000
4.0080000000 1.3182000000 0.5342000000
4.0076000000 5.2674000000 0.6655000000
4.0071000000 1.9787000000 0.7875000000
4.0070000000 2.7362000000 1.0831000000
4.0066000000 4.0161000000 1.1573000000
4.0065000000 6.7997000000 0.0692000000
4.0063000000 2.6522000000 1.0535000000
4.0062000000 3.0851000000 1.2227000000
4.0059000000 0.9777000000 0.3978000000
4.0057000000 2.4108000000 0.9575000000
4.0055000000 2.3442000000 0.9303000000
4.0054000000 1.3361000000 0.5395000000
4.0052000000 2.2763000000 0.9034000000
4.0051000000 6.7114000000 0.1026000000
4.0050000000 6.7744000000 0.0745000000
4.0048000000 0.1637000000 0.0773000000
4.0047000000 0.5572000000 0.2340000000
4.0046000000 2.0920000000 0.8348000000
4.0044000000 1.0462000000 0.4274000000
4.0043000000 3.4629000000 1.3638000000
4.0043000000 1.6455000000 0.6673000000
4.0040000000 2.6132000000 1.0421000000
4.0038000000 3.9866000000 1.1725000000
4.0037000000 1.4498000000 0.5879000000
4.0035000000 3.1553000000 1.2551000000
4.0033000000 1.7630000000 0.7071000000
4.0030000000 4.1546000000 1.1069000000
4.0026000000 2.2818000000 0.9079000000
4.0025000000 0.8499000000 0.3516000000
4.0023000000 4.0642000000 1.1446000000
4.0022000000 0.8939000000 0.3683000000
4.0018000000 1.6459000000 0.6624000000
4.0011000000 0.2784000000 0.1253000000
4.0008000000 2.0311000000 0.8138000000
4.0000000000 2.1627000000 0.8720000000
3.9997000000 0.8179000000 0.3385000000
3.9995000000 0.6469000000 0.2747000000
3.9989000000 5.1771000000 0.7011000000
3.9986000000 0.2943000000 0.1327000000
3.9986000000 3.5758000000 1.3314000000
3.9978000000 3.4624000000 1.3600000000
3.9976000000 3.3369000000 1.3282000000
3.9970000000 0.3449000000 0.1576000000
3.7622000000 4.4369000000 1.1568000000
3.7606000000 6.5038000000 0.3431000000
3.7598000000 4.9837000000 0.9387000000
3.7594000000 5.7716000000 0.6356000000
3.7589000000 4.3554000000 1.1892000000
3.7586000000 6.6420000000 0.2465000000
3.7583000000 5.0114000000 0.9362000000
3.7580000000 1.2645000000 0.6764000000
3.7578000000 6.5170000000 0.3336000000
3.7574000000 6.1569000000 0.4902000000
3.7571000000 4.3616000000 1.1898000000
3.7569000000 2.8003000000 1.2761000000
3.7563000000 3.1705000000 1.4257000000
3.7561000000 6.8942000000 0.0466000000
3.7559000000 4.3656000000 1.1915000000
3.7557000000 6.8518000000 0.0824000000
3.7555000000 6.6770000000 0.2155000000
3.7552000000 5.2234000000 0.8548000000
3.7551000000 2.5922000000 1.1966000000
3.7550000000 2.5989000000 1.2023000000
3.7548000000 3.9200000000 1.3613000000
3.7546000000 5.6181000000 0.6978000000
3.7545000000 6.9293000000 0.0954000000
3.7542000000 0.7829000000 0.4957000000
3.7537000000 0.0455000000 0.0515000000
3.7535000000 2.6127000000 1.2042000000
3.7531000000 2.5118000000 1.1742000000
3.7530000000 3.4765000000 1.5217000000
3.7529000000 4.4444000000 1.1599000000
3.7526000000 3.7999000000 1.4152000000
3.7525000000 2.2782000000 1.0820000000
3.7523000000 1.8345000000 0.9040000000
3.7521000000 3.0585000000 1.3865000000
3.7519000000 2.6988000000 1.2408000000
3.7519000000 5.1075000000 0.9048000000
3.7515000000 1.3449000000 0.7151000000
3.7514000000 4.0611000000 1.3072000000
3.7513000000 2.8261000000 1.2974000000
3.7512000000 2.8556000000 1.3081000000
3.7508000000 0.7483000000 0.4827000000
3.7502000000 0.8206000000 0.5120000000
3.7500000000 1.0115000000 0.5869000000
3.7498000000 2.1243000000 1.0195000000
3.7495000000 3.7183000000 1.4478000000
3.7494000000 3.1965000000 1.4454000000
3.7490000000 3.0122000000 1.3724000000
3.7486000000 2.1080000000 1.0177000000
3.7480000000 1.2551000000 0.6786000000
3.7478000000 0.6744000000 0.4553000000
3.7468000000 0.8152000000 0.5111000000
3.7465000000 4.9221000000 0.9788000000
3.5153000000 5.8892000000 0.7546000000
3.5120000000 0.4448000000 0.3685000000
3.5110000000 5.5050000000 0.9091000000
3.5105000000 5.0584000000 1.0775000000
3.5102000000 5.6052000000 0.8689000000
3.5099000000 6.3412000000 0.4836000000
3.5089000000 6.6450000000 0.2392000000
3.5084000000 6.6983000000 0.2016000000
3.5082000000 2.3160000000 1.2582000000
3.5080000000 3.9787000000 1.5134000000
3.5078000000 1.2182000000 0.8285000000
3.5078000000 5.1870000000 1.0358000000
3.5076000000 3.9557000000 1.5183000000
3.5074000000 1.7829000000 1.0493000000
3.5072000000 4.9121000000 1.1414000000
3.5070000000 6.1801000000 0.6082000000
3.5068000000 3.2590000000 1.6289000000
3.5066000000 2.4686000000 1.3179000000
3.5063000000 5.8611000000 0.7683000000
3.5061000000 1.3617000000 0.8868000000
3.5060000000 1.9419000000 1.1172000000
3.5055000000 4.6909000000 1.2341000000
3.5054000000 4.5999000000 1.2678000000
3.5052000000 3.5880000000 1.6660000000
3.5049000000 1.5065000000 0.9487000000
3.5049000000 5.1586000000 1.0502000000
3.5047000000 6.6029000000 0.2797000000
3.5044000000 0.9561000000 0.7238000000
3.5042000000 2.2521000000 1.2435000000
3.5039000000 3.3068000000 1.6580000000
3.5035000000 2.6328000000 1.3899000000
3.5033000000 3.3950000000 1.6923000000
3.5031000000 2.0257000000 1.1494000000
3.5028000000 0.7920000000 0.6251000000
3.5027000000 3.9526000000 1.5248000000
3.5025000000 4.1983000000 1.4250000000
3.5025000000 5.1946000000 1.0339000000
3.5023000000 1.2152000000 0.8319000000
3.5023000000 2.1609000000 1.2005000000
3.5017000000 2.2928000000 1.2519000000
3.5014000000 3.1102000000 1.5806000000
3.5012000000 5.6382000000 0.8641000000
3.5007000000 0.4455000000 0.3728000000
3.5002000000 6.2125000000 0.5752000000
3.4992000000 2.9562000000 1.5135000000
3.4984000000 1.0861000000 0.7856000000
3.4977000000 3.3882000000 1.6859000000
3.2657000000 6.8776000000 0.0603000000
3.2643000000 6.1263000000 0.6456000000
3.2611000000 4.3906000000 1.5144000000
3.2610000000 5.9041000000 0.8270000000
3.2594000000 3.8609000000 1.7231000000
3.2590000000 0.0035000000 0.0223000000
3.2588000000 1.0025000000 0.8054000000
3.2587000000 5.9477000000 0.7945000000
3.2585000000 5.8232000000 0.8864000000
3.2580000000 2.5805000000 1.5293000000
3.2579000000 1.9268000000 1.2803000000
3.2577000000 5.2714000000 1.1721000000
3.2575000000 6.4005000000 0.4316000000
3.2572000000 2.3203000000 1.4340000000
3.2570000000 1.6380000000 1.1689000000
3.2566000000 2.9963000000 1.6963000000
3.2564000000 3.8842000000 1.7147000000
3.2563000000 1.7395000000 1.2069000000
3.2562000000 0.7223000000 0.5829000000
3.2561000000 0.6067000000 0.4989000000
3.2558000000 0.6579000000 0.5335000000
3.2556000000 4.2625000000 1.5653000000
3.2555000000 0.1086000000 0.1064000000
3.2552000000 0.5501000000 0.4512000000
3.2549000000 6.1048000000 0.6665000000
3.2550000000 0.1472000000 0.1362000000
3.2548000000 2.8380000000 1.6394000000
3.2547000000 4.4969000000 1.4772000000
3.2545000000 1.4237000000 1.0780000000
3.2544000000 4.9334000000 1.3045000000
3.2542000000 0.9798000000 0.7893000000
3.2540000000 1.3933000000 1.0666000000
3.2538000000 3.6403000000 1.8144000000
3.2535000000 5.2634000000 1.1805000000
3.2535000000 1.0701000000 0.8609000000
3.2533000000 4.4067000000 1.5190000000
3.2531000000 4.5481000000 1.4570000000
3.2528000000 1.9916000000 1.3077000000
3.2527000000 0.0147000000 0.0364000000
3.2526000000 4.7091000000 1.3989000000
3.2525000000 0.3306000000 0.2810000000
3.2523000000 5.3856000000 1.1334000000
3.2521000000 2.8401000000 1.6420000000
3.2519000000 2.2910000000 1.4233000000
3.2517000000 2.0468000000 1.3301000000
3.2514000000 2.7137000000 1.5895000000
3.2512000000 3.0451000000 1.7158000000
3.2506000000 5.5793000000 1.0469000000
3.2502000000 4.4865000000 1.4846000000
3.2495000000 3.9023000000 1.7135000000
3.2493000000 2.7892000000 1.6166000000
3.2488000000 3.9882000000 1.6795000000
3.2487000000 3.8677000000 1.7260000000
3.2483000000 3.8882000000 1.7207000000
3.2474000000 4.4311000000 1.5053000000
3.2455000000 5.8884000000 0.8365000000
3.0135000000 4.3981000000 1.6831000000
3.0125000000 5.2608000000 1.3168000000
3.0117000000 6.4199000000 0.4170000000
3.0106000000 5.0159000000 1.4414000000
3.0100000000 5.6654000000 1.0128000000
3.0093000000 1.3847000000 1.0972000000
3.0091000000 4.1042000000 1.8003000000
3.0086000000 2.4592000000 1.6522000000
3.0083000000 5.2299000000 1.3406000000
3.0078000000 2.0518000000 1.4944000000
3.0074000000 2.0800000000 1.5037000000
3.0071000000 0.8453000000 0.6815000000
3.0064000000 3.1769000000 1.9362000000
3.0059000000 6.5274000000 0.3384000000
3.0056000000 0.0093000000 0.0311000000
3.0053000000 2.7158000000 1.7569000000
3.0053000000 3.7696000000 1.9265000000
3.0052000000 2.1041000000 1.5201000000
3.0051000000 5.1794000000 1.3680000000
3.0049000000 6.8378000000 0.0918000000
3.0048000000 3.7848000000 1.9239000000
3.0047000000 1.3759000000 1.0944000000
3.0045000000 4.4392000000 1.6716000000
3.0043000000 2.6482000000 1.7310000000
3.0042000000 0.9659000000 0.7713000000
3.0038000000 3.7632000000 1.9367000000
3.0037000000 2.1001000000 1.5216000000
3.0035000000 5.2477000000 1.3259000000
3.0034000000 6.3348000000 0.4864000000
3.0033000000 3.3143000000 1.9969000000
3.0030000000 0.7499000000 0.6063000000
3.0028000000 6.0753000000 0.6899000000
3.0028000000 4.1108000000 1.7989000000
3.0025000000 3.0860000000 1.9047000000
3.0024000000 5.1754000000 1.3682000000
3.0022000000 5.8830000000 0.8402000000
3.0019000000 2.0878000000 1.5122000000
3.0018000000 2.2042000000 1.5633000000
3.0017000000 2.7840000000 1.7863000000
3.0011000000 0.8638000000 0.6997000000
3.0008000000 4.7860000000 1.5349000000
3.0006000000 3.2756000000 1.9796000000
3.0002000000 4.7927000000 1.5386000000
3.0001000000 5.4053000000 1.2136000000
2.9997000000 1.0146000000 0.8111000000
2.9993000000 0.0306000000 0.0430000000
2.9990000000 2.9212000000 1.8464000000
2.9986000000 1.5474000000 1.2273000000
2.9976000000 1.9383000000 1.4552000000
2.9968000000 1.6396000000 1.3024000000
2.9938000000 2.2805000000 1.5963000000
2.7618000000 4.9661000000 1.5566000000
2.7607000000 4.0387000000 1.9922000000
2.7601000000 6.7702000000 0.1457000000
2.7596000000 6.0225000000 0.7276000000
2.7594000000 2.1455000000 1.6891000000
2.7592000000 4.7948000000 1.6757000000
2.7588000000 2.5608000000 1.8672000000
2.7586000000 5.2393000000 1.3399000000
2.7580000000 5.4530000000 1.1803000000
2.7577000000 5.9023000000 0.8265000000
2.7575000000 4.0041000000 2.0130000000
2.7573000000 3.4554000000 2.2011000000
2.7572000000 6.1679000000 0.6211000000
2.7568000000 3.7984000000 2.0879000000
2.7566000000 6.6012000000 0.2798000000
2.7564000000 0.6027000000 0.4939000000
2.7561000000 1.5316000000 1.2156000000
2.7560000000 6.7776000000 0.1365000000
2.7558000000 2.7272000000 1.9279000000
2.7558000000 3.5500000000 2.1868000000
2.7554000000 2.5190000000 1.8510000000
2.7552000000 4.9582000000 1.5680000000
2.7550000000 5.0002000000 1.5328000000
2.7548000000 5.5209000000 1.1275000000
2.7545000000 0.2287000000 0.2005000000
2.7543000000 5.8412000000 0.8684000000
2.7542000000 4.3212000000 1.8885000000
2.7540000000 4.9543000000 1.5638000000
2.7540000000 3.9343000000 2.0345000000
2.7537000000 1.6547000000 1.3125000000
2.7536000000 6.0483000000 0.7113000000
2.7535000000 4.3828000000 1.8660000000
2.7532000000 2.4182000000 1.8091000000
2.7531000000 3.7732000000 2.1045000000
2.7529000000 0.6366000000 0.5119000000
2.7528000000 0.1271000000 0.1192000000
2.7527000000 2.4732000000 1.8355000000
2.7526000000 4.2664000000 1.9105000000
2.7525000000 3.3627000000 2.1844000000
2.7524000000 2.3530000000 1.7876000000
2.7523000000 1.5925000000 1.2704000000
2.7518000000 0.5013000000 0.4131000000
2.7515000000 1.8900000000 1.4998000000
2.7513000000 2.8613000000 1.9830000000
2.7504000000 5.2556000000 1.3365000000
2.7499000000 3.8926000000 2.0540000000
2.7496000000 5.2343000000 1.3478000000
2.7493000000 2.6816000000 1.9230000000
2.7481000000 4.2795000000 1.9080000000
2.7471000000 1.7207000000 1.3682000000
2.7460000000 1.6439000000 1.3067000000
2.7434000000 6.1535000000 0.6246000000
2.5128000000 5.0293000000 1.5082000000
2.5107000000 1.9060000000 1.5165000000
2.5099000000 5.0303000000 1.5068000000
2.5093000000 5.9324000000 0.8031000000
2.5085000000 6.2646000000 0.5422000000
2.5084000000 6.6751000000 0.2168000000
2.5078000000 4.8646000000 1.6384000000
2.5076000000 6.6853000000 0.2033000000
2.5073000000 2.5490000000 2.0053000000
2.5068000000 5.4097000000 1.2040000000
2.5067000000 0.5685000000 0.4649000000
2.5065000000 3.1753000000 2.2731000000
2.5064000000 4.8658000000 1.6344000000
2.5062000000 4.2567000000 2.0682000000
2.5061000000 3.1420000000 2.2622000000
2.5058000000 1.4719000000 1.1692000000
2.5056000000 3.5994000000 2.3377000000
2.5055000000 1.2441000000 0.9948000000
2.5053000000 5.4577000000 1.1733000000
2.5050000000 5.0611000000 1.4857000000
2.5049000000 2.2998000000 1.8165000000
2.5048000000 5.8775000000 0.8462000000
2.5045000000 4.2504000000 2.0688000000
2.5042000000 1.9487000000 1.5435000000
2.5040000000 6.3158000000 0.5017000000
2.5039000000 2.0685000000 1.6436000000
2.5037000000 6.7229000000 0.1837000000
2.5035000000 4.2769000000 2.0629000000
2.5033000000 0.1065000000 0.1059000000
2.5033000000 5.1249000000 1.4348000000
2.5030000000 3.6871000000 2.3076000000
2.5028000000 5.3422000000 1.2671000000
2.5025000000 6.2881000000 0.5243000000
2.5024000000 3.1616000000 2.2693000000
2.5020000000 3.9820000000 2.1936000000
2.5018000000 2.2405000000 1.7775000000
2.5016000000 6.3355000000 0.4890000000
2.5011000000 3.8911000000 2.2323000000
2.5008000000 1.3406000000 1.0729000000
2.5005000000 1.4642000000 1.1653000000
2.5003000000 6.7277000000 0.1768000000
2.5001000000 4.6994000000 1.7717000000
2.4999000000 1.0540000000 0.8404000000
2.4998000000 2.2666000000 1.7956000000
2.4988000000 3.4122000000 2.3730000000
2.4983000000 4.2432000000 2.0791000000
2.2667000000 6.0171000000 0.7338000000
2.2618000000 4.1782000000 2.1816000000
2.2610000000 5.7915000000 0.9144000000
2.2603000000 2.7621000000 2.1889000000
2.2595000000 5.6236000000 1.0348000000
2.2590000000 6.0898000000 0.6779000000
2.2585000000 2.8609000000 2.2616000000
2.2581000000 0.2223000000 0.1949000000
2.2573000000 2.1768000000 1.7256000000
2.2572000000 4.5435000000 1.8864000000
2.2570000000 4.6312000000 1.8176000000
2.2568000000 2.4245000000 1.9242000000
2.2566000000 1.7718000000 1.4049000000
2.2565000000 2.1572000000 1.7121000000
2.2563000000 0.7943000000 0.6425000000
2.2563000000 0.5264000000 0.4356000000
2.2561000000 5.7340000000 0.9583000000
2.2560000000 5.5298000000 1.1149000000
2.2558000000 3.4385000000 2.5402000000
2.2556000000 3.8607000000 2.3975000000
2.2555000000 6.4229000000 0.4187000000
2.2553000000 5.0103000000 1.5200000000
2.2550000000 5.6609000000 1.0108000000
2.2546000000 6.7411000000 0.1632000000
2.2545000000 2.1958000000 1.7369000000
2.2540000000 5.6606000000 1.0134000000
2.2539000000 4.8332000000 1.6646000000
2.2537000000 1.1190000000 0.8956000000
2.2535000000 3.5528000000 2.5259000000
2.2533000000 6.0331000000 0.7202000000
2.2533000000 3.8610000000 2.3959000000
2.2530000000 1.9566000000 1.5513000000
2.2529000000 3.2711000000 2.4932000000
2.2528000000 4.9507000000 1.5713000000
2.2527000000 5.7777000000 0.9154000000
2.2526000000 2.9013000000 2.3001000000
2.2525000000 6.8396000000 0.0845000000
2.2525000000 5.0043000000 1.5321000000
2.2523000000 4.0452000000 2.2836000000
2.2523000000 5.1570000000 1.4072000000
2.2520000000 3.0685000000 2.3940000000
2.2517000000 0.5552000000 0.4594000000
2.2515000000 3.5178000000 2.5392000000
2.2515000000 4.4347000000 1.9761000000
2.2511000000 5.9266000000 0.8056000000
2.2506000000 2.5563000000 2.0248000000
2.2502000000 4.2359000000 2.1265000000
2.2499000000 1.7424000000 1.3831000000
2.2494000000 2.8716000000 2.2749000000
2.2489000000 5.2087000000 1.3666000000
2.2485000000 0.3912000000 0.3255000000
2.2482000000 0.0864000000 0.0821000000
2.2476000000 0.8565000000 0.6894000000
2.2450000000 0.5520000000 0.4488000000
2.0130000000 5.9184000000 0.8143000000
2.0108000000 0.6327000000 0.5147000000
2.0099000000 6.0551000000 0.7051000000
2.0097000000 4.4668000000 1.9519000000
2.0092000000 5.3028000000 1.2943000000
2.0089000000 3.8256000000 2.4538000000
2.0085000000 4.0530000000 2.2705000000
2.0083000000 0.9380000000 0.7558000000
2.0080000000 3.9756000000 2.3344000000
2.0077000000 6.2863000000 0.5277000000
2.0073000000 6.3931000000 0.4440000000
2.0069000000 6.8273000000 0.0997000000
2.0067000000 4.3387000000 2.0504000000
2.0066000000 0.4500000000 0.3686000000
2.0065000000 4.6976000000 1.7647000000
2.0063000000 2.8573000000 2.2548000000
2.0060000000 6.5684000000 0.3031000000
2.0059000000 6.4844000000 0.3725000000
2.0057000000 5.4404000000 1.1894000000
2.0055000000 1.4066000000 1.1230000000
2.0053000000 2.9806000000 2.3522000000
2.0051000000 2.8782000000 2.2782000000
2.0049000000 2.0145000000 1.5982000000
2.0047000000 6.1016000000 0.6677000000
2.0045000000 0.2042000000 0.1759000000
2.0044000000 3.8043000000 2.4706000000
2.0039000000 1.2916000000 1.0315000000
2.0036000000 2.4267000000 1.9217000000
2.0035000000 6.7140000000 0.1928000000
2.0033000000 1.7394000000 1.3843000000
2.0033000000 5.8202000000 0.8915000000
2.0031000000 5.8972000000 0.8298000000
2.0029000000 2.0133000000 1.5946000000
2.0028000000 0.1562000000 0.1367000000
2.0023000000 1.0362000000 0.8261000000
2.0021000000 5.4019000000 1.2156000000
2.0017000000 2.1608000000 1.7178000000
2.0018000000 3.4267000000 2.6267000000
2.0013000000 4.9502000000 1.5693000000
2.0011000000 0.4150000000 0.3484000000
2.0009000000 2.7938000000 2.2071000000
2.0008000000 4.1599000000 2.1870000000
2.0003000000 1.2748000000 1.0155000000
2.0000000000 0.3245000000 0.2739000000
1.9996000000 2.0865000000 1.6556000000
1.9995000000 5.8151000000 0.8870000000
1.9990000000 0.7443000000 0.6006000000
1.9987000000 2.9173000000 2.3005000000
1.9985000000 3.1145000000 2.4567000000
1.9976000000 5.6504000000 1.0256000000
1.9967000000 1.4399000000 1.1472000000
1.9958000000 0.9652000000 0.7727000000
1.9950000000 5.3838000000 1.2291000000
1.7611000000 2.6862000000 2.1266000000
1.7607000000 3.3906000000 2.5431000000
1.7587000000 4.8678000000 1.6294000000
1.7582000000 5.0736000000 1.4749000000
1.7578000000 4.4988000000 1.9271000000
1.7576000000 6.8019000000 0.1135000000
1.7570000000 1.6128000000 1.2891000000
1.7568000000 3.6120000000 2.5055000000
1.7567000000 2.5874000000 2.0442000000
1.7562000000 5.2183000000 1.3582000000
1.7560000000 4.6037000000 1.8435000000
1.7558000000 3.4052000000 2.5405000000
1.7558000000 0.0362000000 0.0517000000
1.7557000000 3.7113000000 2.4756000000
1.7555000000 6.4919000000 0.3631000000
1.7554000000 6.8775000000 0.0547000000
1.7553000000 1.1779000000 0.9392000000
1.7551000000 5.5283000000 1.1199000000
1.7548000000 1.7375000000 1.3794000000
1.7544000000 2.3106000000 1.8236000000
1.7543000000 2.7174000000 2.1440000000
1.7540000000 0.7631000000 0.6119000000
1.7539000000 5.9235000000 0.8073000000
1.7538000000 3.2827000000 2.4934000000
1.7536000000 1.2392000000 0.9882000000
1.7534000000 3.9738000000 2.3241000000
1.7533000000 4.3689000000 2.0233000000
1.7531000000 4.0498000000 2.2828000000
1.7530000000 1.3713000000 1.0919000000
1.7526000000 3.3838000000 2.5333000000
1.7525000000 0.8142000000 0.6579000000
1.7521000000 0.7582000000 0.6125000000
1.7519000000 5.0115000000 1.5220000000
1.7517000000 5.6465000000 1.0250000000
1.7515000000 0.2609000000 0.2230000000
1.7513000000 4.2215000000 2.1438000000
1.7510000000 0.0640000000 0.0684000000
1.7508000000 1.1130000000 0.8940000000
1.7505000000 5.7237000000 0.9609000000
1.7501000000 0.7486000000 0.6133000000
1.7500000000 3.3601000000 2.5211000000
1.7498000000 3.3824000000 2.5312000000
1.7491000000 1.6399000000 1.2987000000
1.7490000000 2.9190000000 2.3022000000
1.7488000000 0.5603000000 0.4574000000
1.7464000000 1.5569000000 1.2404000000
1.7453000000 0.5766000000 0.4735000000
1.5120000000 6.3941000000 0.4341000000
1.5115000000 2.5451000000 2.0000000000
1.5098000000 2.6778000000 2.0896000000
1.5094000000 5.9638000000 0.7741000000
1.5092000000 5.7987000000 0.9084000000
1.5086000000 5.0024000000 1.5279000000
1.5079000000 2.7263000000 2.1039000000
1.5075000000 2.9169000000 2.1831000000
1.5067000000 0.0191000000 0.0374000000
1.5065000000 1.0144000000 0.8136000000
1.5063000000 3.9352000000 2.2124000000
1.5059000000 1.6040000000 1.2768000000
1.5058000000 4.1559000000 2.1276000000
1.5057000000 2.0674000000 1.6417000000
1.5052000000 4.8452000000 1.6522000000
1.5050000000 3.0907000000 2.2510000000
1.5048000000 6.4792000000 0.3777000000
1.5044000000 0.6995000000 0.5725000000
1.5042000000 0.9872000000 0.7945000000
1.5040000000 0.0546000000 0.0590000000
1.5040000000 6.3688000000 0.4591000000
1.5039000000 0.0588000000 0.0640000000
1.5035000000 6.1037000000 0.6630000000
1.5033000000 3.0759000000 2.2392000000
1.5032000000 4.3130000000 2.0533000000
1.5030000000 2.5584000000 2.0028000000
1.5029000000 5.0775000000 1.4730000000
1.5025000000 3.0709000000 2.2404000000
1.5025000000 1.5050000000 1.1963000000
1.5023000000 4.6049000000 1.8440000000
1.5023000000 2.4910000000 1.9631000000
1.5019000000 3.2174000000 2.3040000000
1.5018000000 5.7907000000 0.9122000000
1.5016000000 2.0420000000 1.6192000000
1.5011000000 0.8842000000 0.7100000000
1.5008000000 4.7203000000 1.7495000000
1.5004000000 0.3185000000 0.2691000000
1.5002000000 4.5291000000 1.9062000000
1.4998000000 2.3712000000 1.8788000000
1.4987000000 0.1905000000 0.1668000000
1.4982000000 0.4835000000 0.3939000000
1.4979000000 3.1829000000 2.2823000000
1.4972000000 4.1786000000 2.1095000000
1.2632000000 5.2830000000 1.3021000000
1.2610000000 6.6181000000 0.2692000000
1.2604000000 1.7635000000 1.3985000000
1.2600000000 6.1832000000 0.6008000000
1.2595000000 6.0155000000 0.7352000000
1.2592000000 4.9485000000 1.5732000000
1.2589000000 6.1770000000 0.6092000000
1.2582000000 6.3540000000 0.4680000000
1.2577000000 5.7489000000 0.9454000000
1.2576000000 6.0972000000 0.6715000000
1.2574000000 3.5248000000 2.2112000000
1.2569000000 6.4484000000 0.3940000000
1.2568000000 3.0953000000 2.0859000000
1.2566000000 6.6143000000 0.2693000000
1.2565000000 4.8825000000 1.6233000000
1.2563000000 3.0105000000 2.0541000000
1.2560000000 5.0648000000 1.4791000000
1.2560000000 0.2362000000 0.2022000000
1.2559000000 1.5617000000 1.2476000000
1.2556000000 5.0377000000 1.5028000000
1.2553000000 6.0585000000 0.7066000000
1.2551000000 0.4126000000 0.3488000000
1.2550000000 1.8171000000 1.4440000000
1.2548000000 6.4226000000 0.4197000000
1.2544000000 2.0026000000 1.5894000000
1.2541000000 0.0213000000 0.0394000000
1.2538000000 2.2116000000 1.7219000000
1.2537000000 1.5020000000 1.1986000000
1.2535000000 0.7164000000 0.5822000000
1.2532000000 5.5072000000 1.1360000000
1.2531000000 1.0845000000 0.8708000000
1.2529000000 2.3376000000 1.7879000000
1.2524000000 3.9252000000 2.0442000000
1.2523000000 6.7157000000 0.1903000000
1.2522000000 2.3815000000 1.7996000000
1.2521000000 6.5250000000 0.3373000000
1.2520000000 4.3375000000 1.8793000000
1.2519000000 6.8706000000 0.0636000000
1.2517000000 6.6987000000 0.2008000000
1.2513000000 2.1979000000 1.7146000000
1.2509000000 5.1823000000 1.3926000000
1.2508000000 5.8935000000 0.8379000000
1.2506000000 2.1535000000 1.6893000000
1.2502000000 4.6652000000 1.7473000000
1.2505000000 2.1069000000 1.6546000000
1.2499000000 1.3091000000 1.0433000000
1.2492000000 0.1601000000 0.1493000000
1.2490000000 0.2735000000 0.2278000000
1.2488000000 4.6313000000 1.7659000000
1.2481000000 6.4116000000 0.4251000000
1.2479000000 4.4180000000 1.8545000000
1.2468000000 1.0774000000 0.8635000000
1.2455000000 0.5313000000 0.4364000000
1.2438000000 5.9065000000 0.8225000000
1.0132000000 2.0635000000 1.5159000000
1.0120000000 6.1569000000 0.6264000000
1.0109000000 5.4939000000 1.1448000000
1.0102000000 6.7850000000 0.1345000000
1.0084000000 6.8479000000 0.0881000000
1.0083000000 6.2845000000 0.5241000000
1.0078000000 5.1215000000 1.4007000000
1.0075000000 4.9822000000 1.4688000000
1.0072000000 1.1743000000 0.9393000000
1.0068000000 3.2096000000 1.9585000000
1.0066000000 5.8673000000 0.8521000000
1.0064000000 5.2811000000 1.2961000000
1.0063000000 6.9153000000 0.0334000000
1.0062000000 5.2336000000 1.3397000000
1.0059000000 4.0627000000 1.8205000000
1.0057000000 4.9408000000 1.4816000000
1.0055000000 4.1862000000 1.7748000000
1.0053000000 3.5971000000 2.0078000000
1.0050000000 4.7549000000 1.5526000000
1.0047000000 6.9064000000 0.0353000000
1.0045000000 1.9507000000 1.4701000000
1.0043000000 2.1071000000 1.5290000000
1.0043000000 3.7753000000 1.9330000000
1.0040000000 1.5179000000 1.2124000000
1.0039000000 2.6351000000 1.7301000000
1.0038000000 1.2614000000 1.0026000000
1.0034000000 3.8353000000 1.9110000000
1.0032000000 5.0469000000 1.4383000000
1.0031000000 1.5019000000 1.1954000000
1.0028000000 1.9222000000 1.4540000000
1.0026000000 0.0869000000 0.0931000000
1.0025000000 0.7549000000 0.6073000000
1.0023000000 4.5185000000 1.6469000000
1.0022000000 0.9630000000 0.7740000000
1.0018000000 2.7262000000 1.7644000000
1.0014000000 3.6836000000 1.9730000000
1.0012000000 4.9440000000 1.4735000000
1.0010000000 4.3172000000 1.7247000000
1.0004000000 4.0836000000 1.8170000000
1.0001000000 4.1248000000 1.7990000000
0.9996000000 1.1772000000 0.9451000000
0.9995000000 6.3751000000 0.4481000000
0.9993000000 1.2360000000 0.9847000000
0.9991000000 1.1962000000 0.9562000000
0.9987000000 5.1571000000 1.3858000000
0.9982000000 0.8028000000 0.6452000000
0.9974000000 1.5123000000 1.2057000000
0.9968000000 0.2914000000 0.2464000000
0.9953000000 1.8746000000 1.4251000000
0.7635000000 3.9353000000 1.7091000000
0.7629000000 5.4782000000 1.1077000000
0.7607000000 5.2055000000 1.2091000000
0.7602000000 3.4931000000 1.8701000000
0.7594000000 6.9503000000 0.0749000000
0.7592000000 2.9328000000 1.6922000000
0.7585000000 3.0299000000 1.7229000000
0.7584000000 5.0499000000 1.2686000000
0.7574000000 4.1569000000 1.6215000000
0.7570000000 5.4656000000 1.1090000000
0.7568000000 5.1534000000 1.2305000000
0.7565000000 4.4291000000 1.5140000000
0.7563000000 4.3624000000 1.5332000000
0.7560000000 5.1843000000 1.2175000000
0.7559000000 2.3059000000 1.4380000000
0.7557000000 6.6244000000 0.2546000000
0.7556000000 1.3369000000 1.0427000000
0.7555000000 0.8288000000 0.6731000000
0.7554000000 5.2319000000 1.1928000000
0.7552000000 6.3343000000 0.4878000000
0.7550000000 2.2376000000 1.4033000000
0.7550000000 6.0214000000 0.7357000000
0.7549000000 6.6328000000 0.2491000000
0.7547000000 6.1505000000 0.6276000000
0.7545000000 3.9083000000 1.7133000000
0.7544000000 0.2578000000 0.2240000000
0.7540000000 0.4098000000 0.3358000000
0.7540000000 2.5981000000 1.5449000000
0.7536000000 5.6976000000 0.9694000000
0.7533000000 1.4474000000 1.0981000000
0.7532000000 5.8200000000 0.8942000000
0.7528000000 0.8323000000 0.6725000000
0.7527000000 3.7394000000 1.7803000000
0.7525000000 6.2998000000 0.5156000000
0.7524000000 5.8721000000 0.8533000000
0.7523000000 0.4208000000 0.3490000000
0.7522000000 5.8450000000 0.8690000000
0.7520000000 1.4272000000 1.0862000000
0.7518000000 4.8377000000 1.3494000000
0.7517000000 0.5494000000 0.4474000000
0.7514000000 6.8420000000 0.0863000000
0.7510000000 1.8319000000 1.2514000000
0.7507000000 2.7318000000 1.6013000000
0.7505000000 2.4766000000 1.4990000000
0.7502000000 0.8967000000 0.7152000000
0.7497000000 0.5857000000 0.4815000000
0.7494000000 3.9562000000 1.6922000000
0.7489000000 1.8209000000 1.2466000000
0.7483000000 0.6401000000 0.5223000000
0.7472000000 2.3007000000 1.4266000000
0.7465000000 0.0254000000 0.0400000000
0.7448000000 2.0176000000 1.3151000000
0.5135000000 5.0410000000 1.1089000000
0.5108000000 5.1988000000 1.0398000000
0.5107000000 6.1423000000 0.6259000000
0.5098000000 6.7982000000 0.1244000000
0.5094000000 5.6175000000 0.8768000000
0.5092000000 5.7667000000 0.8143000000
0.5083000000 6.2266000000 0.5698000000
0.5080000000 3.6772000000 1.6425000000
0.5079000000 0.3013000000 0.2533000000
0.5073000000 3.7244000000 1.6191000000
0.5072000000 4.4783000000 1.3231000000
0.5071000000 5.8960000000 0.7744000000
0.5068000000 3.8458000000 1.5718000000
0.5065000000 2.3702000000 1.2976000000
0.5063000000 4.8161000000 1.1963000000
0.5060000000 2.3074000000 1.2680000000
0.5058000000 0.3851000000 0.3256000000
0.5057000000 0.3533000000 0.3010000000
0.5053000000 2.8023000000 1.4590000000
0.5051000000 5.9762000000 0.7234000000
0.5050000000 6.4033000000 0.4292000000
0.5049000000 0.4492000000 0.3627000000
0.5045000000 2.5103000000 1.3453000000
0.5043000000 3.2170000000 1.6221000000
0.5041000000 5.9029000000 0.7638000000
0.5039000000 6.5941000000 0.2839000000
0.5038000000 4.9857000000 1.1248000000
0.5037000000 3.0358000000 1.5514000000
0.5035000000 1.4773000000 0.9440000000
0.5032000000 2.9312000000 1.5064000000
0.5030000000 2.1201000000 1.1915000000
0.5029000000 2.6106000000 1.3811000000
0.5028000000 2.3328000000 1.2753000000
0.5026000000 3.2812000000 1.6423000000
0.5023000000 4.5675000000 1.2895000000
0.5022000000 4.8605000000 1.1679000000
0.5021000000 4.1413000000 1.4544000000
0.5020000000 0.7925000000 0.6295000000
0.5017000000 0.0057000000 0.0254000000
0.5015000000 2.2708000000 1.2521000000
0.5015000000 0.1894000000 0.1669000000
0.5014000000 3.7284000000 1.6174000000
0.5010000000 3.1870000000 1.6077000000
0.5009000000 3.2553000000 1.6364000000
0.5006000000 3.8329000000 1.5713000000
0.5005000000 5.1928000000 1.0396000000
0.5003000000 1.9352000000 1.1128000000
0.5000000000 1.2000000000 0.8325000000
0.4996000000 5.6679000000 0.8589000000
0.4994000000 2.0940000000 1.1831000000
0.4989000000 0.5576000000 0.4567000000
0.4986000000 3.0254000000 1.5445000000
0.4984000000 0.4858000000 0.4003000000
0.4983000000 0.0367000000 0.0507000000
0.4979000000 0.1114000000 0.1059000000
0.4968000000 2.4112000000 1.3032000000
0.4965000000 1.8781000000 1.0924000000
0.2623000000 4.1926000000 1.2686000000
0.2616000000 1.9254000000 0.9495000000
0.2610000000 5.9063000000 0.5989000000
0.2606000000 4.5430000000 1.1354000000
0.2600000000 0.9054000000 0.5523000000
0.2583000000 5.7298000000 0.6616000000
0.2579000000 5.5596000000 0.7311000000
0.2574000000 3.9229000000 1.3776000000
0.2568000000 5.1861000000 0.8809000000
0.2568000000 1.8172000000 0.9034000000
0.2560000000 3.4029000000 1.5284000000
0.2560000000 6.4043000000 0.3914000000
0.2559000000 6.2009000000 0.4832000000
0.2558000000 6.3565000000 0.4183000000
0.2556000000 3.0188000000 1.3724000000
0.2555000000 4.4371000000 1.1678000000
0.2555000000 0.6787000000 0.4590000000
0.2552000000 4.9948000000 0.9464000000
0.2548000000 2.1044000000 1.0185000000
0.2547000000 5.0376000000 0.9310000000
0.2545000000 5.3038000000 0.8322000000
0.2543000000 4.9358000000 0.9774000000
0.2543000000 5.6079000000 0.7107000000
0.2539000000 1.0671000000 0.6089000000
0.2534000000 2.7272000000 1.2579000000
0.2531000000 3.0181000000 1.3722000000
0.2530000000 5.2266000000 0.8601000000
0.2529000000 6.5182000000 0.3292000000
0.2525000000 3.1622000000 1.4251000000
0.2520000000 4.1872000000 1.2636000000
0.2520000000 5.2264000000 0.8526000000
0.2517000000 3.3740000000 1.5064000000
0.2516000000 5.5225000000 0.7426000000
0.2515000000 3.2742000000 1.4720000000
0.2513000000 5.6493000000 0.6945000000
0.2510000000 0.6956000000 0.4680000000
0.2508000000 0.7734000000 0.4891000000
0.2503000000 0.2875000000 0.2444000000
0.2501000000 0.4784000000 0.3664000000
0.2498000000 3.0579000000 1.3847000000
0.2497000000 5.3770000000 0.7912000000
0.2495000000 2.0497000000 0.9911000000
0.2488000000 0.2503000000 0.2166000000
0.2482000000 0.4888000000 0.3724000000
0.2479000000 1.9282000000 0.9440000000
0.2472000000 2.8620000000 1.3090000000
0.2465000000 6.4241000000 0.3723000000
0.2460000000 5.3718000000 0.7971000000
0.2453000000 1.0710000000 0.6050000000
0.0108000000 6.2739000000 0.2882000000
0.0105000000 6.9101000000 0.0215000000
0.0102000000 5.3536000000 0.6403000000
0.0101000000 5.6189000000 0.5445000000
0.0095000000 5.2208000000 0.6973000000
0.0088000000 6.7857000000 0.0829000000
0.0084000000 6.7449000000 0.0947000000
0.0083000000 3.4444000000 1.3652000000
0.0082000000 6.1996000000 0.3109000000
0.0080000000 6.6593000000 0.1286000000
0.0077000000 6.2375000000 0.2979000000
0.0073000000 5.3335000000 0.6504000000
0.0068000000 6.1417000000 0.3289000000
0.0063000000 5.2675000000 0.6713000000
0.0061000000 3.0493000000 1.2250000000
0.0058000000 6.4831000000 0.1998000000
0.0055000000 1.5187000000 0.6236000000
0.0052000000 6.7029000000 0.1130000000
0.0049000000 4.7083000000 0.8954000000
0.0047000000 2.5638000000 1.0226000000
0.0045000000 3.5615000000 1.3413000000
0.0043000000 5.0830000000 0.7458000000
0.0042000000 6.6260000000 0.1406000000
0.0040000000 0.1879000000 0.0956000000
0.0039000000 1.4611000000 0.5908000000
0.0038000000 1.2171000000 0.4990000000
0.0035000000 2.4544000000 0.9868000000
0.0035000000 4.9956000000 0.7794000000
0.0033000000 2.9605000000 1.1780000000
0.0033000000 0.6081000000 0.2601000000
0.0031000000 0.0273000000 0.0185000000
0.0028000000 4.0480000000 1.1459000000
0.0028000000 2.8423000000 1.1384000000
0.0026000000 4.4480000000 0.9946000000
0.0024000000 1.7762000000 0.7169000000
0.0020000000 2.4992000000 0.9976000000
0.0018000000 1.9040000000 0.7682000000
0.0016000000 4.4002000000 1.0070000000
0.0015000000 2.3631000000 0.9440000000
0.0014000000 0.9140000000 0.3805000000
0.0012000000 0.9449000000 0.3894000000
0.0010000000 5.1766000000 0.7035000000
0.0008000000 4.9216000000 0.8058000000
0.0006000000 3.2667000000 1.2968000000
0.0003000000 5.6382000000 0.5219000000
0.0001000000 6.8636000000 0.0259000000
-0.0004000000 0.3586000000 0.1646000000
-0.0011000000 4.5850000000 0.9424000000
-0.0019000000 2.9358000000 1.1686000000
-0.0022000000 1.8526000000 0.7386000000
-0.0030000000 0.7858000000 0.3236000000
-0.0037000000 2.7034000000 1.0707000000
-0.0040000000 0.7228000000 0.2978000000
-0.2389000000 4.1999000000 0.9250000000
-0.2397000000 5.9859000000 0.2286000000
-0.2403000000 4.8870000000 0.6567000000
-0.2406000000 5.6444000000 0.3613000000
-0.2413000000 2.4569000000 0.8143000000
-0.2415000000 5.8227000000 0.2887000000
-0.2422000000 4.8103000000 0.6803000000
-0.2427000000 2.4698000000 0.8254000000
-0.2431000000 6.6233000000 0.0483000000
-0.2434000000 3.1983000000 1.1066000000
-0.2437000000 4.5867000000 0.7728000000
-0.2440000000 4.8595000000 0.6669000000
-0.2443000000 0.3142000000 0.0516000000
-0.2444000000 5.1057000000 0.5707000000
-0.2446000000 3.1288000000 1.0766000000
-0.2449000000 0.6432000000 0.1056000000
-0.2450000000 0.6255000000 0.0922000000
-0.2453000000 5.2798000000 0.4979000000
-0.2454000000 1.2990000000 0.3599000000
-0.2457000000 4.7135000000 0.7235000000
-0.2459000000 4.2974000000 0.8877000000
-0.2460000000 1.7073000000 0.5254000000
-0.2464000000 0.9950000000 0.2434000000
-0.2465000000 5.4230000000 0.4438000000
-0.2466000000 0.2880000000 0.0417000000
-0.2468000000 2.9448000000 1.0075000000
-0.2470000000 3.2384000000 1.1221000000
-0.2473000000 5.0238000000 0.5998000000
-0.2477000000 0.8220000000 0.1733000000
-0.2479000000 0.3826000000 0.0743000000
-0.2481000000 5.1301000000 0.5545000000
-0.2483000000 2.8694000000 0.9719000000
-0.2485000000 6.4785000000 0.0257000000
-0.2489000000 2.6893000000 0.9031000000
-0.2490000000 1.0895000000 0.2801000000
-0.2492000000 2.9199000000 0.9947000000
-0.2496000000 0.5621000000 0.0692000000
-0.2498000000 3.0181000000 1.0304000000
-0.2500000000 0.2333000000 0.0183000000
-0.2502000000 0.2799000000 0.0328000000
-0.2504000000 3.5516000000 1.1745000000
-0.2507000000 0.5835000000 0.0790000000
-0.2510000000 5.2788000000 0.4948000000
-0.2515000000 2.8370000000 0.9633000000
-0.2521000000 4.0553000000 0.9709000000
-0.2536000000 3.9556000000 1.0119000000
-0.2549000000 2.5242000000 0.8360000000
-0.4880000000 3.9825000000 0.8415000000
-0.4905000000 6.0955000000 0.0886000000
-0.4915000000 1.4096000000 0.2400000000
-0.4919000000 2.2840000000 0.5754000000
-0.4921000000 1.9057000000 0.4316000000
-0.4928000000 5.0560000000 0.4226000000
-0.4930000000 4.0117000000 0.8330000000
-0.4933000000 6.2000000000 0.0460000000
-0.4937000000 6.0746000000 0.0886000000
-0.4945000000 6.0698000000 0.0196000000
-0.4949000000 2.8313000000 0.7958000000
-0.4952000000 2.7577000000 0.7643000000
-0.4953000000 4.7932000000 0.5175000000
-0.4957000000 0.6289000000 -0.0004000000
-0.4963000000 0.8048000000 0.0726000000
-0.4964000000 1.9638000000 0.4529000000
-0.4966000000 2.5491000000 0.6805000000
-0.4969000000 4.2242000000 0.7393000000
-0.4972000000 3.3451000000 0.9916000000
-0.4975000000 3.8224000000 0.8929000000
-0.4977000000 1.7841000000 0.3758000000
-0.4980000000 1.1420000000 0.1230000000
-0.4980000000 5.5372000000 0.2311000000
-0.4982000000 1.2796000000 0.1797000000
-0.4983000000 1.7142000000 0.3499000000
-0.4985000000 3.1826000000 0.9218000000
-0.4990000000 2.2144000000 0.5516000000
-0.4997000000 3.6323000000 0.9712000000
-0.5012000000 1.2941000000 0.1865000000
-0.5017000000 6.2004000000 0.0345000000
-0.5026000000 1.2755000000 0.1762000000
-0.5028000000 2.6707000000 0.7228000000
-0.5047000000 1.0223000000 0.0797000000
-0.7401000000 2.3617000000 0.4423000000
-0.7411000000 2.5554000000 0.5172000000
-0.7413000000 2.8369000000 0.6317000000
-0.7415000000 4.5071000000 0.4682000000
-0.7422000000 5.8009000000 0.0355000000
-0.7430000000 3.9545000000 0.6764000000
-0.7434000000 2.2668000000 0.4028000000
-0.7438000000 1.9734000000 0.2922000000
-0.7440000000 4.5204000000 0.4552000000
-0.7445000000 1.2623000000 0.0843000000
-0.7447000000 2.6806000000 0.5653000000
-0.7450000000 5.6077000000 0.0258000000
-0.7453000000 3.2312000000 0.7795000000
-0.7457000000 4.6228000000 0.4134000000
-0.7459000000 2.7083000000 0.5747000000
-0.7460000000 5.2855000000 0.1556000000
-0.7461000000 4.1664000000 0.5911000000
-0.7465000000 3.5412000000 0.8419000000
-0.7467000000 2.8087000000 0.6082000000
-0.7467000000 4.7464000000 0.3721000000
-0.7468000000 4.4094000000 0.4998000000
-0.7471000000 4.9840000000 0.2768000000
-0.7472000000 4.5063000000 0.4632000000
-0.7474000000 1.1370000000 0.0306000000
-0.7475000000 1.6841000000 0.1739000000
-0.7478000000 1.0763000000 0.0057000000
-0.7480000000 2.7708000000 0.6006000000
-0.7482000000 5.7322000000 0.0535000000
-0.7486000000 3.9996000000 0.6507000000
-0.7494000000 3.8462000000 0.7197000000
-0.7497000000 4.5321000000 0.4513000000
-0.7503000000 1.5066000000 0.0971000000
-0.7506000000 5.6276000000 0.0229000000
-0.7516000000 3.8250000000 0.7272000000
-0.7530000000 4.5258000000 0.4525000000
-0.9903000000 4.4609000000 0.3167000000
-0.9912000000 4.5346000000 0.2872000000
-0.9915000000 3.2979000000 0.6408000000
-0.9916000000 3.2391000000 0.6081000000
-0.9922000000 2.6662000000 0.3860000000
-0.9924000000 2.8836000000 0.4736000000
-0.9926000000 4.6985000000 0.2218000000
-0.9930000000 3.7554000000 0.5839000000
-0.9939000000 5.2381000000 0.0757000000
-0.9942000000 1.7866000000 0.0481000000
-0.9946000000 3.0166000000 0.5266000000
-0.9951000000 4.1483000000 0.4397000000
-0.9953000000 4.8569000000 0.1533000000
-0.9955000000 3.1080000000 0.5590000000
-0.9959000000 2.1740000000 0.1918000000
-0.9960000000 2.8067000000 0.4421000000
-0.9967000000 5.2790000000 0.0614000000
-0.9968000000 3.3026000000 0.6385000000
-0.9975000000 4.1722000000 0.4225000000
-0.9977000000 2.0099000000 0.1304000000
-0.9979000000 3.7913000000 0.5719000000
-0.9981000000 3.7564000000 0.5843000000
-0.9985000000 4.0518000000 0.4662000000
-0.9988000000 2.7398000000 0.4068000000
-0.9992000000 3.6737000000 0.6136000000
-0.9996000000 3.5697000000 0.6562000000
-0.9999000000 2.6242000000 0.3699000000
-1.0008000000 2.8023000000 0.4405000000
-1.0011000000 2.1876000000 0.1936000000
-1.0014000000 1.9927000000 0.1208000000
-1.0018000000 2.9997000000 0.5131000000
-1.0024000000 3.8398000000 0.5559000000
-1.2395000000 3.8790000000 0.3777000000
-1.2398000000 4.7396000000 0.0332000000
-1.2412000000 3.5831000000 0.4818000000
-1.2418000000 4.3074000000 0.2085000000
-1.2432000000 4.8988000000 0.0467000000
-1.2437000000 4.1111000000 0.2748000000
-1.2446000000 4.4088000000 0.1639000000
-1.2454000000 3.0331000000 0.3668000000
-1.2461000000 2.0894000000 0.0636000000
-1.2465000000 2.6461000000 0.2131000000
-1.2473000000 3.8603000000 0.3724000000
-1.2476000000 2.9720000000 0.3397000000
-1.2479000000 4.7556000000 0.0206000000
-1.2483000000 3.2849000000 0.4527000000
