7.0117000000 3.9979000000 0.0704000000
7.0094000000 4.3522000000 0.0161000000
7.0078000000 4.4022000000 0.0629000000
7.0060000000 4.3747000000 0.0071000000
7.0036000000 3.8165000000 0.0421000000
7.0004000000 4.3038000000 0.0589000000
6.7606000000 4.1551000000 0.3942000000
6.7593000000 4.2654000000 0.3509000000
6.7578000000 3.2349000000 0.0144000000
6.7570000000 3.9609000000 0.3359000000
6.7554000000 4.3951000000 0.2721000000
6.7543000000 3.5650000000 0.0842000000
6.7536000000 3.2401000000 0.0281000000
6.7528000000 5.0253000000 0.0240000000
6.7524000000 4.5121000000 0.1997000000
6.7511000000 4.3380000000 0.3165000000
6.7486000000 4.4448000000 0.2480000000
6.5144000000 4.4064000000 0.5375000000
6.5104000000 3.4839000000 0.2973000000
6.5097000000 4.9888000000 0.1654000000
6.5083000000 3.8286000000 0.5237000000
6.5061000000 3.1232000000 0.0689000000
6.5051000000 4.1699000000 0.6703000000
6.5050000000 5.0545000000 0.1296000000
6.5043000000 3.1028000000 0.0637000000
6.5036000000 3.8336000000 0.5306000000
6.5031000000 2.9157000000 0.0168000000
6.5020000000 5.4449000000 0.0300000000
6.2630000000 2.8693000000 0.1814000000
6.2615000000 5.5935000000 0.0533000000
6.2602000000 2.9114000000 0.2073000000
6.2578000000 5.0524000000 0.4025000000
6.2570000000 4.5315000000 0.7400000000
6.2565000000 5.5044000000 0.1144000000
6.2563000000 2.9242000000 0.2261000000
6.2558000000 4.6808000000 0.6386000000
6.2553000000 3.1527000000 0.3749000000
6.2550000000 5.9089000000 0.0036000000
6.2547000000 4.0383000000 0.9410000000
6.2544000000 5.8141000000 0.0681000000
6.2538000000 4.0576000000 0.9508000000
6.2536000000 2.9383000000 0.2349000000
6.2533000000 3.4116000000 0.5368000000
6.2527000000 3.5005000000 0.5955000000
6.2525000000 3.7297000000 0.7418000000
6.2518000000 2.6133000000 0.0339000000
6.2501000000 5.7663000000 0.0278000000
6.2431000000 5.0114000000 0.4487000000
6.0131000000 5.4403000000 0.4298000000
6.0121000000 1.9796000000 0.0419000000
6.0099000000 4.5059000000 1.0286000000
6.0091000000 5.2467000000 0.5528000000
6.0087000000 3.2342000000 0.6995000000
6.0083000000 4.2835000000 1.1687000000
6.0078000000 4.7711000000 0.8638000000
6.0073000000 2.6306000000 0.3116000000
6.0067000000 5.9367000000 0.1122000000
6.0063000000 3.7899000000 1.0585000000
6.0057000000 4.3275000000 1.1466000000
6.0055000000 3.9382000000 1.1540000000
6.0053000000 3.3433000000 0.7699000000
6.0049000000 6.0176000000 0.0634000000
6.0046000000 3.1967000000 0.6774000000
6.0044000000 4.1001000000 1.2349000000
6.0042000000 2.5851000000 0.2868000000
6.0040000000 5.0416000000 0.6919000000
6.0026000000 6.1830000000 0.0427000000
6.0023000000 5.0823000000 0.6661000000
6.0021000000 3.2865000000 0.7372000000
6.0015000000 4.9120000000 0.7815000000
6.0003000000 5.5482000000 0.3667000000
5.9999000000 2.3463000000 0.1423000000
5.9984000000 5.3555000000 0.5026000000
5.9971000000 5.1415000000 0.6389000000
5.7616000000 5.2046000000 0.8586000000
5.7602000000 2.4018000000 0.4372000000
5.7596000000 6.7455000000 0.0183000000
5.7588000000 6.0301000000 0.3322000000
5.7579000000 1.5815000000 0.0673000000
5.7574000000 5.4706000000 0.6849000000
5.7570000000 5.9320000000 0.3969000000
5.7563000000 5.2979000000 0.8028000000
5.7560000000 3.2048000000 0.9562000000
5.7558000000 4.9083000000 1.0574000000
5.7554000000 2.6836000000 0.6199000000
5.7547000000 1.6916000000 0.0663000000
5.7544000000 3.9565000000 1.4423000000
5.7541000000 5.4628000000 0.7025000000
5.7540000000 3.3277000000 1.0403000000
5.7536000000 5.4259000000 0.7272000000
5.7531000000 2.4364000000 0.4691000000
5.7528000000 2.1524000000 0.2826000000
5.7524000000 1.9549000000 0.1567000000
5.7521000000 2.5893000000 0.5666000000
5.7515000000 4.3503000000 1.4169000000
5.7511000000 5.6787000000 0.5654000000
5.7495000000 3.8925000000 1.4033000000
5.7476000000 3.1708000000 0.9431000000
5.5126000000 6.0759000000 0.5780000000
5.5103000000 5.5439000000 0.9149000000
5.5099000000 5.3872000000 1.0175000000
5.5090000000 2.1643000000 0.5656000000
5.5084000000 2.9080000000 1.0484000000
5.5078000000 7.1882000000 0.0133000000
5.5073000000 5.7436000000 0.7925000000
5.5069000000 5.4979000000 0.9457000000
5.5065000000 6.0378000000 0.5993000000
5.5063000000 5.4171000000 1.0049000000
5.5058000000 4.1729000000 1.7816000000
5.5052000000 5.0311000000 1.2532000000
5.5048000000 4.9235000000 1.3147000000
5.5046000000 4.7873000000 1.4055000000
5.5043000000 7.1978000000 0.0144000000
5.5039000000 4.7912000000 1.4067000000
5.5036000000 5.6804000000 0.8390000000
5.5034000000 2.2383000000 0.6180000000
5.5030000000 5.9146000000 0.6922000000
5.5028000000 3.6516000000 1.5293000000
5.5025000000 6.5711000000 0.2677000000
5.5023000000 5.4680000000 0.9774000000
5.5016000000 6.3544000000 0.4059000000
5.5011000000 4.9032000000 1.3346000000
5.5009000000 1.4589000000 0.1231000000
5.5004000000 6.4174000000 0.3690000000
5.4983000000 1.4818000000 0.1428000000
5.2629000000 7.0067000000 0.2618000000
5.2615000000 7.5207000000 0.0750000000
5.2598000000 2.6446000000 1.1461000000
5.2588000000 7.5008000000 0.0151000000
5.2584000000 2.8237000000 1.2647000000
5.2582000000 6.6310000000 0.5005000000
5.2579000000 7.1388000000 0.1814000000
5.2576000000 6.2534000000 0.7434000000
5.2570000000 4.9700000000 1.5653000000
5.2568000000 7.1907000000 0.1390000000
5.2562000000 1.5065000000 0.4310000000
5.2560000000 5.6973000000 1.1015000000
5.2558000000 7.2302000000 0.1216000000
5.2555000000 6.6815000000 0.4683000000
5.2553000000 2.9480000000 1.3492000000
5.2552000000 4.5910000000 1.8120000000
5.2548000000 7.5069000000 0.0160000000
5.2547000000 2.3831000000 0.9888000000
5.2542000000 6.6203000000 0.5093000000
5.2540000000 3.0606000000 1.4227000000
5.2534000000 2.4299000000 1.0168000000
5.2532000000 5.4629000000 1.2578000000
5.2529000000 5.5656000000 1.1833000000
5.2523000000 6.0508000000 0.8720000000
5.2519000000 2.5005000000 1.0678000000
5.2515000000 5.4380000000 1.2735000000
5.2508000000 2.3903000000 0.9957000000
5.2496000000 0.7932000000 0.0496000000
5.2493000000 1.0434000000 0.1359000000
5.2487000000 2.5338000000 1.0879000000
5.2482000000 4.5828000000 1.8331000000
5.2470000000 1.1293000000 0.1915000000
5.2465000000 0.5906000000 0.0047000000
5.0128000000 6.7315000000 0.7078000000
5.0110000000 6.8329000000 0.6480000000
5.0104000000 6.7730000000 0.6925000000
5.0098000000 2.4357000000 1.2913000000
5.0095000000 5.8154000000 1.2999000000
5.0093000000 5.2077000000 1.6890000000
5.0089000000 6.2446000000 1.0291000000
5.0080000000 6.9695000000 0.5628000000
5.0079000000 4.0667000000 2.3431000000
5.0074000000 3.2272000000 1.7962000000
5.0070000000 7.3633000000 0.3113000000
5.0065000000 6.5113000000 0.8569000000
5.0066000000 5.9734000000 1.2006000000
5.0062000000 5.3011000000 1.6300000000
5.0060000000 4.2331000000 2.3147000000
5.0058000000 6.5941000000 0.8048000000
5.0053000000 0.2621000000 0.0534000000
5.0052000000 5.6783000000 1.3886000000
5.0051000000 4.5481000000 2.1156000000
5.0050000000 3.8780000000 2.2202000000
5.0048000000 1.1718000000 0.4911000000
5.0045000000 2.1728000000 1.1373000000
5.0039000000 4.2466000000 2.3120000000
5.0036000000 6.1609000000 1.0840000000
5.0034000000 4.7651000000 1.9791000000
5.0033000000 1.2002000000 0.5077000000
5.0028000000 6.0141000000 1.1802000000
5.0026000000 4.2362000000 2.3150000000
5.0021000000 2.4563000000 1.3171000000
5.0016000000 0.2936000000 0.0009000000
5.0014000000 2.5295000000 1.3652000000
5.0011000000 1.9913000000 1.0193000000
5.0009000000 2.4737000000 1.3282000000
5.0003000000 5.6856000000 1.3960000000
4.9998000000 0.6439000000 0.1538000000
4.9994000000 1.0627000000 0.4295000000
4.9987000000 4.0174000000 2.3180000000
4.9965000000 0.6339000000 0.1569000000
4.7642000000 4.0510000000 2.6038000000
4.7613000000 4.9699000000 2.1152000000
4.7599000000 7.5813000000 0.4452000000
4.7595000000 5.5019000000 1.7778000000
4.7591000000 4.3968000000 2.4850000000
4.7588000000 1.5216000000 0.9898000000
4.7585000000 6.9898000000 0.8230000000
4.7582000000 6.0296000000 1.4482000000
4.7579000000 6.7726000000 0.9641000000
4.7571000000 5.4904000000 1.7858000000
4.7567000000 3.1465000000 2.0246000000
4.7564000000 0.6225000000 0.4170000000
4.7560000000 8.0306000000 0.1670000000
4.7557000000 4.3914000000 2.4902000000
4.7555000000 4.2980000000 2.5571000000
4.7553000000 6.5383000000 1.1198000000
4.7553000000 6.9602000000 0.8480000000
4.7547000000 0.4751000000 0.3167000000
4.7543000000 5.7061000000 1.6526000000
4.7543000000 0.1769000000 0.1297000000
4.7541000000 1.1556000000 0.7599000000
4.7540000000 6.5577000000 1.1063000000
4.7539000000 1.5387000000 1.0011000000
4.7535000000 1.4005000000 0.9144000000
4.7530000000 6.1316000000 1.3789000000
4.7526000000 0.4760000000 0.3252000000
4.7524000000 4.5208000000 2.4144000000
4.7521000000 4.7959000000 2.2376000000
4.7519000000 2.1959000000 1.4293000000
4.7517000000 6.5172000000 1.1366000000
4.7515000000 2.6900000000 1.7478000000
4.7513000000 0.7055000000 0.4759000000
4.7510000000 6.1470000000 1.3715000000
4.7507000000 5.9838000000 1.4743000000
4.7504000000 3.7303000000 2.4119000000
4.7502000000 3.1833000000 2.0578000000
4.7495000000 1.4449000000 0.9488000000
4.7490000000 1.6548000000 1.0862000000
4.7458000000 0.0247000000 0.0880000000
4.5160000000 8.2638000000 0.0707000000
4.5134000000 6.5735000000 1.3652000000
4.5115000000 6.2279000000 1.5883000000
4.5106000000 5.5953000000 1.9986000000
4.5103000000 2.9741000000 2.1926000000
4.5097000000 7.1581000000 0.9952000000
4.5093000000 5.3445000000 2.1550000000
4.5089000000 3.3476000000 2.4322000000
4.5087000000 4.1498000000 2.8979000000
4.5079000000 2.1035000000 1.6374000000
4.5076000000 1.1020000000 0.9958000000
4.5072000000 7.2555000000 0.9392000000
4.5069000000 6.7431000000 1.2696000000
4.5064000000 7.7008000000 0.6398000000
4.5062000000 6.4801000000 1.4338000000
4.5060000000 8.0185000000 0.3140000000
4.5058000000 5.2662000000 2.2022000000
4.5055000000 8.1962000000 0.0817000000
4.5050000000 3.4251000000 2.4852000000
4.5048000000 0.7846000000 0.7964000000
4.5044000000 6.4504000000 1.4559000000
4.5042000000 4.9618000000 2.4076000000
4.5039000000 6.2721000000 1.5670000000
4.5038000000 8.2172000000 0.0603000000
4.5035000000 5.6860000000 1.9400000000
4.5032000000 4.3720000000 2.7822000000
4.5029000000 5.4422000000 2.1022000000
4.5025000000 0.9544000000 0.9088000000
4.5022000000 6.1142000000 1.6715000000
4.5020000000 2.0566000000 1.6161000000
4.5018000000 4.7752000000 2.5290000000
4.5016000000 4.0117000000 2.8655000000
4.5014000000 2.2084000000 1.7132000000
4.5012000000 4.2642000000 2.8587000000
4.5009000000 3.3630000000 2.4563000000
4.5004000000 0.0456000000 0.0610000000
4.5001000000 2.0359000000 1.6027000000
4.5000000000 5.9396000000 1.7908000000
4.4998000000 5.6237000000 1.9883000000
4.4987000000 2.5126000000 1.9111000000
4.4978000000 1.3208000000 1.1487000000
4.2658000000 7.1191000000 1.2894000000
4.2624000000 7.0539000000 1.3375000000
4.2614000000 5.4209000000 2.3886000000
4.2610000000 7.1352000000 1.2831000000
4.2601000000 5.4224000000 2.3821000000
4.2592000000 3.1621000000 2.5960000000
4.2588000000 3.8154000000 3.0141000000
4.2585000000 6.8605000000 1.4620000000
4.2580000000 4.0302000000 3.1512000000
4.2573000000 8.2526000000 0.0141000000
4.2571000000 3.1502000000 2.5860000000
4.2569000000 3.8118000000 3.0082000000
4.2566000000 2.5237000000 2.1878000000
4.2561000000 4.8086000000 2.7803000000
4.2559000000 4.6413000000 2.8861000000
4.2556000000 7.4609000000 1.0111000000
4.2554000000 4.6331000000 2.8973000000
4.2550000000 3.6378000000 2.9053000000
4.2548000000 4.3527000000 3.0738000000
4.2545000000 7.6754000000 0.7531000000
4.2540000000 4.7197000000 2.8385000000
4.2538000000 2.5306000000 2.1965000000
4.2535000000 3.6975000000 2.9409000000
4.2531000000 6.5116000000 1.6957000000
4.2527000000 2.9581000000 2.4709000000
4.2525000000 1.5267000000 1.5538000000
4.2519000000 2.0729000000 1.9012000000
4.2518000000 5.9957000000 2.0246000000
4.2512000000 1.3833000000 1.4609000000
4.2505000000 2.4918000000 2.1721000000
4.2502000000 6.4503000000 1.7342000000
4.2496000000 5.5000000000 2.3444000000
4.2488000000 6.0683000000 1.9805000000
4.2487000000 3.4455000000 2.7867000000
4.2483000000 0.0419000000 0.0608000000
4.2480000000 1.9868000000 1.8496000000
4.2463000000 1.8950000000 1.7957000000
4.2441000000 1.2509000000 1.3823000000
4.0143000000 6.6191000000 1.8875000000
4.0126000000 8.0721000000 0.2474000000
4.0111000000 6.8844000000 1.7093000000
4.0106000000 1.2135000000 1.5454000000
4.0103000000 5.8222000000 2.4027000000
4.0095000000 6.3325000000 2.0780000000
4.0088000000 6.5606000000 1.9384000000
4.0084000000 6.5480000000 1.9383000000
4.0078000000 5.7282000000 2.4684000000
4.0075000000 4.8849000000 3.0062000000
4.0072000000 7.7784000000 0.6200000000
4.0070000000 4.6118000000 3.1824000000
4.0068000000 7.9432000000 0.4084000000
4.0064000000 5.9981000000 2.2958000000
4.0061000000 5.2839000000 2.7560000000
4.0060000000 8.1259000000 0.1739000000
4.0058000000 6.5417000000 1.9505000000
4.0055000000 2.2930000000 2.3095000000
4.0053000000 2.3585000000 2.3586000000
4.0050000000 5.7822000000 2.4366000000
4.0048000000 1.2188000000 1.5508000000
4.0047000000 7.4158000000 1.0806000000
4.0044000000 3.2536000000 2.9410000000
4.0043000000 3.9093000000 3.3536000000
4.0040000000 0.4289000000 0.5562000000
4.0038000000 0.3633000000 0.4682000000
4.0035000000 2.4151000000 2.4003000000
4.0034000000 6.9971000000 1.5984000000
4.0031000000 1.9359000000 2.0914000000
4.0030000000 2.5388000000 2.4799000000
4.0028000000 7.1101000000 1.4743000000
4.0026000000 1.4141000000 1.7397000000
4.0021000000 1.2211000000 1.5565000000
4.0017000000 0.6881000000 0.8860000000
4.0013000000 1.3522000000 1.6976000000
4.0011000000 0.2542000000 0.3315000000
4.0007000000 1.9732000000 2.1179000000
4.0001000000 1.8193000000 2.0230000000
3.9997000000 0.6472000000 0.8339000000
3.9990000000 1.6431000000 1.9147000000
3.9983000000 0.1447000000 0.1883000000
3.9976000000 1.1327000000 1.4540000000
3.7629000000 7.5709000000 0.8872000000
3.7610000000 5.8263000000 2.6804000000
3.7603000000 7.5781000000 0.8719000000
3.7599000000 6.6598000000 2.0459000000
3.7595000000 2.8326000000 2.9279000000
3.7588000000 3.8658000000 3.5981000000
3.7584000000 3.8126000000 3.5608000000
3.7583000000 5.3611000000 2.9793000000
3.7578000000 5.3821000000 2.9645000000
3.7574000000 5.9418000000 2.6105000000
3.7571000000 5.7581000000 2.7218000000
3.7569000000 2.0673000000 2.4469000000
3.7567000000 2.2951000000 2.5875000000
3.7565000000 7.9737000000 0.3691000000
3.7563000000 6.4916000000 2.2368000000
3.7560000000 7.1326000000 1.4482000000
3.7558000000 8.2226000000 0.0513000000
3.7555000000 2.5737000000 2.7774000000
3.7550000000 5.5517000000 2.8579000000
3.7548000000 3.1800000000 3.1644000000
3.7547000000 7.1356000000 1.4456000000
3.7545000000 3.6267000000 3.4518000000
3.7542000000 7.0173000000 1.5932000000
3.7539000000 2.8131000000 2.9286000000
3.7538000000 4.7355000000 3.3889000000
3.7535000000 1.7197000000 2.1872000000
3.7533000000 4.0824000000 3.7233000000
3.7528000000 3.7142000000 3.5082000000
3.7527000000 4.3352000000 3.6358000000
3.7527000000 2.0479000000 2.4371000000
3.7523000000 0.7779000000 1.0017000000
3.7521000000 0.0776000000 0.1038000000
3.7516000000 0.5947000000 0.7645000000
3.7511000000 0.9991000000 1.2828000000
3.7508000000 5.2739000000 3.0385000000
3.7499000000 7.5128000000 0.9568000000
3.7497000000 0.7534000000 0.9666000000
3.7491000000 2.1722000000 2.5244000000
3.7477000000 1.5809000000 2.0318000000
3.7463000000 2.4383000000 2.6981000000
3.5149000000 7.4744000000 1.0106000000
3.5135000000 5.7852000000 2.9809000000
3.5121000000 5.9738000000 2.8546000000
3.5111000000 4.9885000000 3.4907000000
3.5108000000 6.7977000000 1.8709000000
3.5101000000 8.3184000000 0.0745000000
3.5094000000 6.7410000000 1.9510000000
3.5090000000 2.6168000000 3.0752000000
3.5087000000 1.4903000000 1.9117000000
3.5083000000 3.6704000000 3.7465000000
3.5082000000 7.8087000000 0.5824000000
3.5074000000 8.0292000000 0.2938000000
3.5069000000 0.5114000000 0.6570000000
3.5067000000 7.6203000000 0.8200000000
3.5065000000 6.4843000000 2.2720000000
3.5063000000 0.9849000000 1.2673000000
3.5061000000 3.3199000000 3.5260000000
3.5056000000 4.6456000000 3.7200000000
3.5054000000 6.0647000000 2.7949000000
3.5052000000 7.0116000000 1.6005000000
3.5050000000 4.1042000000 4.0184000000
3.5048000000 5.5177000000 3.1637000000
3.5046000000 4.4255000000 3.8606000000
3.5044000000 4.3185000000 3.9269000000
3.5041000000 7.4440000000 1.0435000000
3.5035000000 7.3060000000 1.2264000000
3.5033000000 2.3868000000 2.9346000000
3.5027000000 2.1785000000 2.7736000000
3.5026000000 0.9547000000 1.2294000000
3.5023000000 6.9345000000 1.6970000000
3.5021000000 5.5615000000 3.1374000000
3.5017000000 2.2122000000 2.8023000000
3.5011000000 6.4199000000 2.3615000000
3.5007000000 5.7338000000 3.0258000000
3.5003000000 0.4747000000 0.6066000000
3.4998000000 6.2076000000 2.6297000000
3.4996000000 1.3738000000 1.7625000000
3.4988000000 3.6386000000 3.7470000000
3.4978000000 1.8444000000 2.3646000000
3.4963000000 0.2889000000 0.3711000000
3.2636000000 4.7895000000 3.8937000000
3.2607000000 0.2420000000 0.3079000000
3.2600000000 2.0155000000 2.5849000000
3.2598000000 3.6767000000 4.0298000000
3.2593000000 4.6970000000 3.9552000000
3.2588000000 4.7819000000 3.9068000000
3.2585000000 7.0631000000 1.5379000000
3.2584000000 6.3149000000 2.4907000000
3.2583000000 3.9885000000 4.2325000000
3.2580000000 2.3214000000 2.9794000000
3.2576000000 4.5683000000 4.0438000000
3.2574000000 4.2971000000 4.2082000000
3.2570000000 2.0642000000 2.6475000000
3.2568000000 4.9866000000 3.7728000000
3.2564000000 7.5578000000 0.9031000000
3.2561000000 1.7405000000 2.2336000000
3.2560000000 6.0884000000 2.7898000000
3.2558000000 5.7225000000 3.2350000000
3.2556000000 1.4187000000 1.8182000000
3.2555000000 5.3101000000 3.5617000000
3.2553000000 3.8403000000 4.1429000000
3.2552000000 0.9937000000 1.2765000000
3.2548000000 4.3456000000 4.1913000000
3.2546000000 2.9147000000 3.5468000000
3.2544000000 2.7632000000 3.4454000000
3.2540000000 5.5988000000 3.3655000000
3.2538000000 6.6336000000 2.0856000000
3.2535000000 6.6256000000 2.0990000000
3.2532000000 7.0843000000 1.5172000000
3.2530000000 5.0823000000 3.7148000000
3.2526000000 6.1942000000 2.6476000000
3.2524000000 1.8699000000 2.3952000000
3.2523000000 6.3642000000 2.4335000000
3.2520000000 1.7539000000 2.2458000000
3.2512000000 5.3283000000 3.5659000000
3.2508000000 6.2039000000 2.6427000000
3.2505000000 5.9773000000 2.9292000000
3.2502000000 0.8036000000 1.0371000000
3.2491000000 1.1952000000 1.5336000000
3.2487000000 5.8728000000 3.0652000000
3.2483000000 1.3091000000 1.6852000000
3.2478000000 2.6514000000 3.3609000000
3.2469000000 0.2240000000 0.2891000000
3.0146000000 5.2846000000 3.7890000000
3.0113000000 2.5307000000 3.2469000000
3.0105000000 6.4906000000 2.2746000000
3.0093000000 6.1007000000 2.7648000000
3.0086000000 4.1052000000 4.5624000000
3.0082000000 7.7803000000 0.6148000000
3.0078000000 1.3584000000 1.7452000000
3.0075000000 2.3966000000 3.0801000000
3.0072000000 6.9744000000 1.6485000000
3.0069000000 7.3803000000 1.1312000000
3.0066000000 4.1232000000 4.5771000000
3.0062000000 0.2572000000 0.3351000000
3.0058000000 7.8690000000 0.5017000000
3.0056000000 3.1161000000 3.9340000000
3.0055000000 6.3375000000 2.4665000000
3.0052000000 4.9461000000 4.0768000000
3.0049000000 5.3929000000 3.6773000000
3.0047000000 4.1230000000 4.5793000000
3.0044000000 2.7686000000 3.5437000000
3.0043000000 7.0544000000 1.5467000000
3.0041000000 1.6508000000 2.1192000000
3.0037000000 5.4407000000 3.6113000000
3.0035000000 0.3585000000 0.4607000000
3.0031000000 3.7515000000 4.3599000000
3.0029000000 4.7373000000 4.2216000000
3.0027000000 1.4508000000 1.8644000000
3.0025000000 2.4077000000 3.0860000000
3.0023000000 5.7893000000 3.1671000000
3.0020000000 1.3262000000 1.6970000000
3.0018000000 5.6903000000 3.2952000000
3.0015000000 3.3260000000 4.0912000000
3.0012000000 0.7543000000 0.9730000000
3.0010000000 2.8066000000 3.5938000000
3.0008000000 2.1092000000 2.7056000000
3.0006000000 4.0585000000 4.5571000000
2.9997000000 0.2486000000 0.3294000000
2.9990000000 3.7190000000 4.3491000000
2.9983000000 5.7093000000 3.2712000000
2.9978000000 2.2267000000 2.8529000000
2.9966000000 0.9163000000 1.1669000000
2.7627000000 5.5323000000 3.5032000000
2.7611000000 7.1768000000 1.3943000000
2.7603000000 5.3110000000 3.7793000000
2.7597000000 5.0542000000 4.1031000000
2.7588000000 7.9308000000 0.4273000000
2.7579000000 3.2933000000 4.2275000000
2.7578000000 7.5624000000 0.8970000000
2.7575000000 4.0989000000 4.8383000000
2.7573000000 3.5346000000 4.4790000000
2.7570000000 1.9526000000 2.5043000000
2.7565000000 0.5957000000 0.7617000000
2.7562000000 7.9326000000 0.4270000000
2.7559000000 1.1024000000 1.4208000000
2.7558000000 2.9243000000 3.7434000000
2.7555000000 1.4250000000 1.8242000000
2.7552000000 0.0615000000 0.0865000000
2.7550000000 2.7226000000 3.4923000000
2.7548000000 2.6364000000 3.3852000000
2.7545000000 6.0107000000 2.8842000000
2.7540000000 8.0467000000 0.2757000000
2.7538000000 1.7956000000 2.3062000000
2.7535000000 1.3475000000 1.7313000000
2.7534000000 2.6958000000 3.4501000000
2.7530000000 4.6917000000 4.5017000000
2.7529000000 3.6223000000 4.5566000000
2.7526000000 3.3941000000 4.3309000000
2.7525000000 1.6611000000 2.1369000000
2.7522000000 0.0936000000 0.1235000000
2.7520000000 2.5096000000 3.2160000000
2.7517000000 4.4686000000 4.6670000000
2.7513000000 6.2951000000 2.5183000000
2.7509000000 0.1781000000 0.2314000000
2.7507000000 4.1001000000 4.8529000000
2.7502000000 2.6844000000 3.4423000000
2.7487000000 3.0088000000 3.8559000000
2.7481000000 4.1979000000 4.8488000000
2.7476000000 0.5293000000 0.6831000000
2.7469000000 3.2436000000 4.1591000000
2.5130000000 8.1510000000 0.1374000000
2.5112000000 5.2495000000 3.8555000000
2.5105000000 7.8770000000 0.4965000000
2.5103000000 6.2529000000 2.5780000000
2.5101000000 5.0082000000 4.1622000000
2.5097000000 0.8486000000 1.0886000000
2.5094000000 3.0522000000 3.9140000000
2.5089000000 3.8893000000 4.9650000000
2.5088000000 8.2433000000 0.0207000000
2.5085000000 7.3582000000 1.1515000000
2.5081000000 7.2645000000 1.2825000000
2.5077000000 2.9348000000 3.7669000000
2.5073000000 3.7726000000 4.8336000000
2.5070000000 3.0632000000 3.9303000000
2.5066000000 8.2954000000 0.0321000000
2.5062000000 4.4622000000 4.7979000000
2.5060000000 7.7368000000 0.6748000000
2.5058000000 4.8137000000 4.4181000000
2.5055000000 3.5397000000 4.5387000000
2.5053000000 2.7550000000 3.5262000000
2.5051000000 0.6488000000 0.8350000000
2.5049000000 4.8577000000 4.3585000000
2.5045000000 4.0339000000 5.0924000000
2.5042000000 7.7452000000 0.6629000000
2.5040000000 5.2304000000 3.8825000000
2.5038000000 3.3311000000 4.2741000000
2.5033000000 6.4029000000 2.3793000000
2.5028000000 2.3149000000 2.9691000000
2.5027000000 3.1818000000 4.0797000000
2.5025000000 2.3965000000 3.0735000000
2.5023000000 3.5206000000 4.5081000000
2.5022000000 3.6495000000 4.6759000000
2.5019000000 4.7286000000 4.5251000000
2.5013000000 6.8545000000 1.8064000000
2.5010000000 6.0268000000 2.8623000000
2.5008000000 1.9899000000 2.5543000000
2.5003000000 5.7450000000 3.2221000000
2.4997000000 3.5850000000 4.5952000000
2.4991000000 1.0560000000 1.3590000000
2.4983000000 1.5478000000 1.9859000000
2.4970000000 2.7004000000 3.4651000000
2.2614000000 8.1727000000 0.1147000000
2.2606000000 3.6774000000 4.7132000000
2.2597000000 6.7733000000 1.9047000000
2.2592000000 2.3552000000 3.0191000000
2.2587000000 0.1925000000 0.2511000000
2.2583000000 3.8723000000 4.9460000000
2.2580000000 6.5363000000 2.2141000000
2.2576000000 2.4576000000 3.1475000000
2.2575000000 6.4026000000 2.3772000000
2.2572000000 6.6336000000 2.0837000000
2.2570000000 6.9114000000 1.7276000000
2.2568000000 5.3814000000 3.6906000000
2.2566000000 4.1914000000 5.0354000000
2.2563000000 8.0020000000 0.3360000000
2.2560000000 0.4464000000 0.5736000000
2.2558000000 7.2147000000 1.3433000000
2.2554000000 4.1349000000 5.1303000000
2.2552000000 7.1509000000 1.4243000000
2.2550000000 6.5786000000 2.1558000000
2.2547000000 5.5273000000 3.5013000000
2.2543000000 2.7848000000 3.5691000000
2.2541000000 1.9439000000 2.4898000000
2.2539000000 4.1156000000 5.1195000000
2.2536000000 0.8332000000 1.0699000000
2.2533000000 6.1723000000 2.6795000000
2.2532000000 1.6465000000 2.1127000000
2.2528000000 8.2102000000 0.0665000000
2.2526000000 2.5197000000 3.2247000000
2.2525000000 4.3016000000 5.0129000000
2.2522000000 2.6538000000 3.4077000000
2.2521000000 1.7596000000 2.2541000000
2.2517000000 4.3754000000 4.9603000000
2.2513000000 3.3934000000 4.3481000000
2.2508000000 6.4195000000 2.3608000000
2.2505000000 0.6250000000 0.8031000000
2.2502000000 3.1258000000 4.0078000000
2.2499000000 3.6985000000 4.7407000000
2.2496000000 4.3981000000 4.9278000000
2.2490000000 0.4683000000 0.6077000000
2.2481000000 0.5246000000 0.6776000000
2.2468000000 1.4791000000 1.8965000000
2.2452000000 4.1163000000 5.1125000000
2.0127000000 6.7205000000 1.9809000000
2.0117000000 0.7673000000 0.9883000000
2.0107000000 3.7293000000 4.6214000000
2.0093000000 0.8500000000 1.0900000000
2.0089000000 8.0247000000 0.3016000000
2.0082000000 7.0754000000 1.5181000000
2.0079000000 7.3708000000 1.1395000000
2.0074000000 2.3681000000 3.0335000000
2.0070000000 6.1817000000 2.6634000000
2.0069000000 7.4338000000 1.0627000000
2.0067000000 6.6488000000 2.0674000000
2.0065000000 0.1256000000 0.1683000000
2.0063000000 0.7102000000 0.9172000000
2.0062000000 8.1368000000 0.1621000000
2.0059000000 6.1178000000 2.7469000000
2.0054000000 1.9498000000 2.4997000000
2.0050000000 5.5406000000 3.4843000000
2.0049000000 6.1903000000 2.6553000000
2.0047000000 2.4152000000 3.0944000000
2.0044000000 5.8884000000 3.0378000000
2.0041000000 7.8764000000 0.4943000000
2.0038000000 0.6236000000 0.8022000000
2.0035000000 4.2290000000 4.8071000000
2.0033000000 1.5191000000 1.9491000000
2.0028000000 2.4639000000 3.1607000000
2.0026000000 7.1494000000 1.4295000000
2.0025000000 4.7951000000 4.4204000000
2.0021000000 0.0283000000 0.0417000000
2.0020000000 4.2270000000 4.8087000000
2.0018000000 3.5417000000 4.4691000000
2.0017000000 0.3668000000 0.4764000000
2.0010000000 0.4034000000 0.5270000000
2.0006000000 2.6871000000 3.4471000000
2.0002000000 1.1425000000 1.4648000000
1.9998000000 5.0722000000 4.0875000000
1.9990000000 0.3337000000 0.4341000000
1.9985000000 1.8067000000 2.3153000000
1.9976000000 1.5380000000 1.9732000000
1.7672000000 6.2068000000 2.6339000000
1.7642000000 6.6363000000 2.0872000000
1.7621000000 2.7668000000 3.5479000000
1.7605000000 4.2491000000 4.5241000000
1.7601000000 5.0001000000 4.0470000000
1.7596000000 2.9100000000 3.7313000000
1.7591000000 5.8810000000 3.0505000000
1.7586000000 4.5138000000 4.3545000000
1.7580000000 8.1272000000 0.1813000000
1.7576000000 2.4009000000 3.0801000000
1.7573000000 5.7220000000 3.2549000000
1.7570000000 4.5241000000 4.3451000000
1.7567000000 3.2554000000 4.0394000000
1.7565000000 8.1657000000 0.1251000000
1.7564000000 7.3878000000 1.1224000000
1.7562000000 7.3459000000 1.1748000000
1.7559000000 6.1944000000 2.6477000000
1.7555000000 5.4002000000 3.6632000000
1.7553000000 3.9950000000 4.5117000000
1.7550000000 6.1961000000 2.6437000000
1.7549000000 4.6155000000 4.2844000000
1.7547000000 6.2370000000 2.5957000000
1.7545000000 0.3169000000 0.4066000000
1.7543000000 3.8783000000 4.4356000000
1.7541000000 3.1427000000 3.9527000000
1.7539000000 3.6644000000 4.2972000000
1.7538000000 2.1117000000 2.7085000000
1.7536000000 8.3036000000 0.0196000000
1.7534000000 0.7962000000 1.0266000000
1.7532000000 2.2662000000 2.9025000000
1.7528000000 8.0801000000 0.2351000000
1.7527000000 1.6248000000 2.0826000000
1.7525000000 7.2525000000 1.2985000000
1.7524000000 2.3754000000 3.0503000000
1.7521000000 2.3114000000 2.9667000000
1.7519000000 2.3990000000 3.0748000000
1.7517000000 0.5190000000 0.6727000000
1.7514000000 6.8610000000 1.7915000000
1.7513000000 7.4471000000 1.0432000000
1.7506000000 4.9081000000 4.0930000000
1.7503000000 3.9135000000 4.4513000000
1.7500000000 0.3365000000 0.4337000000
1.7491000000 3.5328000000 4.2078000000
1.7487000000 1.2292000000 1.5752000000
1.7483000000 1.5411000000 1.9746000000
1.7467000000 0.1602000000 0.2093000000
1.5127000000 2.1384000000 2.7347000000
1.5119000000 5.4857000000 3.4597000000
1.5109000000 1.8554000000 2.3812000000
1.5100000000 5.2730000000 3.5949000000
1.5096000000 7.1773000000 1.3929000000
1.5091000000 4.8978000000 3.8353000000
1.5089000000 5.6265000000 3.3478000000
1.5087000000 1.2954000000 1.6605000000
1.5082000000 6.4964000000 2.2610000000
1.5076000000 1.9528000000 2.5062000000
1.5074000000 5.9423000000 2.9674000000
1.5071000000 2.6865000000 3.3805000000
1.5068000000 6.8901000000 1.7583000000
1.5065000000 3.7735000000 4.0887000000
1.5061000000 7.3713000000 1.1390000000
1.5059000000 7.3960000000 1.1087000000
1.5055000000 7.8011000000 0.5914000000
1.5054000000 7.6796000000 0.7453000000
1.5053000000 6.3725000000 2.4219000000
1.5047000000 5.8288000000 3.1114000000
1.5045000000 0.9792000000 1.2596000000
1.5043000000 2.0218000000 2.5929000000
1.5041000000 1.6447000000 2.1121000000
1.5036000000 7.3116000000 1.2221000000
1.5035000000 4.9001000000 3.8194000000
1.5032000000 0.4696000000 0.6053000000
1.5029000000 4.1752000000 4.2684000000
1.5027000000 1.0319000000 1.3254000000
1.5023000000 1.9896000000 2.5520000000
1.5020000000 4.7671000000 3.9045000000
1.5018000000 2.8219000000 3.4789000000
1.5015000000 5.9773000000 2.9207000000
1.5013000000 6.5518000000 2.1900000000
1.5008000000 3.3727000000 3.8315000000
1.5002000000 2.6108000000 3.3161000000
1.4995000000 4.2363000000 4.2431000000
1.4991000000 1.2235000000 1.5711000000
1.4986000000 2.7502000000 3.4236000000
1.4973000000 4.6324000000 3.9922000000
1.4960000000 2.3981000000 3.0713000000
1.4945000000 5.6162000000 3.3288000000
1.2634000000 7.6685000000 0.7627000000
1.2600000000 8.0714000000 0.2397000000
1.2590000000 7.1447000000 1.4326000000
1.2584000000 8.2352000000 0.0327000000
1.2584000000 5.7454000000 3.0053000000
1.2578000000 6.6585000000 2.0512000000
1.2575000000 7.5288000000 0.9433000000
1.2570000000 1.6904000000 2.1681000000
1.2568000000 6.6045000000 2.1250000000
1.2565000000 2.1649000000 2.7563000000
1.2561000000 0.5288000000 0.6799000000
1.2559000000 1.6991000000 2.1804000000
1.2558000000 3.8855000000 3.8823000000
1.2553000000 7.9862000000 0.3531000000
1.2550000000 5.2149000000 3.3472000000
1.2548000000 6.9459000000 1.6857000000
1.2545000000 6.3831000000 2.4002000000
1.2544000000 4.0097000000 3.9641000000
1.2541000000 7.4587000000 1.0277000000
1.2538000000 8.2794000000 0.0541000000
1.2535000000 2.3604000000 2.9065000000
1.2533000000 3.9562000000 3.9299000000
1.2531000000 6.2746000000 2.5472000000
1.2528000000 3.5902000000 3.6880000000
1.2525000000 7.8873000000 0.4808000000
1.2524000000 3.3969000000 3.5627000000
1.2521000000 5.5458000000 3.1327000000
1.2519000000 0.6971000000 0.8980000000
1.2515000000 8.3181000000 0.0711000000
1.2514000000 3.1286000000 3.3938000000
1.2511000000 3.0143000000 3.3171000000
1.2503000000 0.2836000000 0.3661000000
1.2493000000 6.3657000000 2.4298000000
1.2488000000 0.7458000000 0.9623000000
1.2479000000 4.7166000000 3.6598000000
1.2458000000 2.4084000000 2.9292000000
1.0127000000 5.3331000000 3.0038000000
1.0104000000 6.9407000000 1.6955000000
1.0092000000 5.7551000000 2.7325000000
1.0087000000 7.9122000000 0.4509000000
1.0082000000 6.8519000000 1.8050000000
1.0075000000 4.7450000000 3.3729000000
1.0072000000 6.8925000000 1.7550000000
1.0070000000 4.9988000000 3.2089000000
1.0069000000 6.0864000000 2.5087000000
1.0067000000 7.1296000000 1.4500000000
1.0061000000 6.8583000000 1.7950000000
1.0058000000 5.6535000000 2.7869000000
1.0057000000 2.6198000000 2.7973000000
1.0055000000 1.7450000000 2.2141000000
1.0053000000 3.3396000000 3.2631000000
1.0052000000 7.1376000000 1.4415000000
1.0050000000 1.2029000000 1.5461000000
1.0044000000 3.9671000000 3.6571000000
1.0042000000 4.0053000000 3.6826000000
1.0040000000 2.8660000000 2.9521000000
1.0035000000 4.1303000000 3.7380000000
1.0033000000 6.7071000000 1.9911000000
1.0030000000 4.2372000000 3.6930000000
1.0029000000 2.6461000000 2.8083000000
1.0027000000 2.2646000000 2.5690000000
1.0025000000 6.3698000000 2.3337000000
1.0024000000 8.1155000000 0.1897000000
1.0022000000 8.1474000000 0.1414000000
1.0018000000 3.8689000000 3.5932000000
1.0017000000 6.2100000000 2.4292000000
1.0015000000 0.5884000000 0.7543000000
1.0013000000 0.6353000000 0.8136000000
1.0011000000 2.6346000000 2.7994000000
1.0007000000 3.3276000000 3.2423000000
1.0001000000 2.9960000000 3.0347000000
0.9997000000 5.5764000000 2.8352000000
0.9993000000 2.3794000000 2.6373000000
0.9992000000 1.2404000000 1.5944000000
0.9986000000 2.9332000000 2.9871000000
0.9974000000 0.4504000000 0.5822000000
0.9966000000 2.9877000000 3.0220000000
0.7644000000 8.1506000000 0.1449000000
0.7605000000 7.2335000000 1.3209000000
0.7595000000 6.5018000000 1.9694000000
0.7586000000 6.9430000000 1.6701000000
0.7582000000 0.7445000000 0.9621000000
0.7577000000 2.5139000000 2.4584000000
0.7573000000 6.9551000000 1.6526000000
0.7569000000 3.5748000000 3.1333000000
0.7568000000 6.6079000000 1.8996000000
0.7566000000 3.0981000000 2.8294000000
0.7561000000 2.1161000000 2.1989000000
0.7559000000 6.7452000000 1.8191000000
0.7557000000 4.5844000000 3.1947000000
0.7555000000 0.3941000000 0.5086000000
0.7554000000 6.7503000000 1.8068000000
0.7553000000 3.9714000000 3.3879000000
0.7551000000 7.4511000000 1.0414000000
0.7549000000 1.8795000000 2.0461000000
0.7546000000 0.5531000000 0.7169000000
0.7542000000 7.0942000000 1.5012000000
0.7540000000 2.2323000000 2.2700000000
0.7539000000 1.9462000000 2.0885000000
0.7535000000 5.8742000000 2.3673000000
0.7532000000 6.2431000000 2.1258000000
0.7529000000 1.7446000000 1.9537000000
0.7527000000 3.7996000000 3.2717000000
0.7525000000 3.4040000000 3.0192000000
0.7522000000 4.7282000000 3.1020000000
0.7519000000 0.6718000000 0.8627000000
0.7518000000 3.0293000000 2.7760000000
0.7512000000 4.6317000000 3.1571000000
0.7510000000 5.3165000000 2.7184000000
0.7507000000 0.6210000000 0.7990000000
0.7502000000 1.2802000000 1.6194000000
0.7498000000 4.4213000000 3.3015000000
0.7494000000 5.9540000000 2.3156000000
0.7487000000 0.4261000000 0.5486000000
0.7483000000 0.2971000000 0.3874000000
0.7465000000 3.9576000000 3.3646000000
0.7445000000 0.3632000000 0.4672000000
0.5121000000 5.1877000000 2.5402000000
0.5107000000 5.7324000000 2.1903000000
0.5097000000 6.4206000000 1.7442000000
0.5087000000 6.9761000000 1.3859000000
0.5080000000 8.3016000000 0.0252000000
0.5078000000 1.1275000000 1.2898000000
0.5072000000 5.7212000000 2.1890000000
0.5070000000 5.9974000000 2.0132000000
0.5067000000 6.8468000000 1.4714000000
0.5063000000 3.6129000000 2.8817000000
0.5060000000 2.6885000000 2.2813000000
0.5058000000 7.3326000000 1.1363000000
0.5056000000 5.8520000000 2.1114000000
0.5054000000 7.6193000000 0.8321000000
0.5053000000 3.4847000000 2.7906000000
0.5051000000 6.6655000000 1.5892000000
0.5047000000 1.4039000000 1.4652000000
0.5044000000 1.6886000000 1.6470000000
0.5040000000 3.9905000000 3.1159000000
0.5035000000 2.8760000000 2.4066000000
0.5031000000 7.7496000000 0.6568000000
0.5028000000 5.0989000000 2.5847000000
0.5025000000 7.5252000000 0.9457000000
0.5024000000 6.0486000000 1.9755000000
0.5023000000 1.1888000000 1.3213000000
0.5020000000 5.6861000000 2.2129000000
0.5018000000 0.7091000000 0.9132000000
0.5014000000 3.9455000000 3.0827000000
0.5012000000 0.3349000000 0.4324000000
0.5007000000 6.6045000000 1.6197000000
0.5005000000 0.1844000000 0.2399000000
0.4998000000 0.5407000000 0.6928000000
0.4991000000 6.7814000000 1.5029000000
0.4983000000 5.3583000000 2.4170000000
0.4968000000 0.3772000000 0.4899000000
0.4932000000 0.7921000000 0.9934000000
0.2608000000 7.8652000000 0.4897000000
0.2594000000 8.1138000000 0.1884000000
0.2591000000 7.8985000000 0.4477000000
0.2589000000 7.1011000000 1.0337000000
0.2584000000 5.6523000000 1.9647000000
0.2579000000 0.3922000000 0.4850000000
0.2575000000 0.7591000000 0.7795000000
0.2570000000 5.6782000000 1.9438000000
0.2564000000 8.1291000000 0.1724000000
0.2563000000 5.3489000000 2.1501000000
0.2559000000 2.7355000000 2.0401000000
0.2556000000 7.0178000000 1.0858000000
0.2553000000 5.7742000000 1.8803000000
0.2551000000 7.9721000000 0.3739000000
0.2549000000 7.3659000000 0.8588000000
0.2546000000 5.1091000000 2.3052000000
0.2544000000 6.0619000000 1.6905000000
0.2542000000 6.1291000000 1.6466000000
0.2538000000 2.0147000000 1.5705000000
0.2535000000 3.3284000000 2.4213000000
0.2532000000 6.4788000000 1.4245000000
0.2528000000 1.3063000000 1.1182000000
0.2526000000 2.3751000000 1.8011000000
0.2525000000 1.5806000000 1.2941000000
0.2521000000 6.8493000000 1.1862000000
0.2518000000 2.8497000000 2.1056000000
0.2514000000 0.5822000000 0.6540000000
0.2511000000 3.8967000000 2.7736000000
0.2505000000 2.7890000000 2.0614000000
0.2500000000 4.3876000000 2.7638000000
0.2497000000 1.7299000000 1.3847000000
0.2494000000 3.7490000000 2.6782000000
0.2487000000 4.4939000000 2.6848000000
0.2476000000 1.5146000000 1.2521000000
0.0140000000 5.9188000000 1.5214000000
0.0117000000 8.1861000000 0.0437000000
0.0098000000 6.0194000000 1.4456000000
0.0093000000 1.6344000000 1.0563000000
0.0087000000 8.3034000000 0.0725000000
0.0080000000 7.0595000000 0.7813000000
0.0075000000 3.9137000000 2.5168000000
0.0072000000 2.3349000000 1.5070000000
0.0068000000 6.0902000000 1.3973000000
0.0065000000 7.8630000000 0.2680000000
0.0063000000 0.9691000000 0.6331000000
0.0060000000 4.3406000000 2.5177000000
0.0058000000 0.8308000000 0.5418000000
0.0055000000 7.4971000000 0.5023000000
0.0054000000 5.4876000000 1.7873000000
0.0053000000 6.7797000000 0.9606000000
0.0050000000 8.0225000000 0.1648000000
0.0047000000 4.4735000000 2.4317000000
0.0045000000 2.4470000000 1.5752000000
0.0043000000 7.8153000000 0.2973000000
0.0040000000 1.6542000000 1.0709000000
0.0038000000 2.1441000000 1.3812000000
0.0036000000 7.1057000000 0.7472000000
0.0034000000 3.6942000000 2.3701000000
0.0033000000 6.9922000000 0.8195000000
0.0032000000 2.2157000000 1.4264000000
0.0030000000 3.7645000000 2.4217000000
0.0028000000 6.1090000000 1.3820000000
0.0027000000 2.1336000000 1.3722000000
0.0024000000 2.2741000000 1.4640000000
0.0020000000 3.1217000000 1.9997000000
0.0019000000 5.2280000000 1.9434000000
0.0017000000 5.1748000000 1.9768000000
0.0015000000 2.6804000000 1.7249000000
0.0013000000 5.1734000000 1.9801000000
0.0010000000 4.2585000000 2.5684000000
0.0005000000 1.8525000000 1.1943000000
0.0003000000 7.4889000000 0.4993000000
-0.0000000000 0.1297000000 0.0879000000
-0.0005000000 1.8083000000 1.1656000000
-0.0010000000 3.1708000000 2.0325000000
-0.0022000000 0.2917000000 0.1857000000
-0.0038000000 0.0637000000 0.0987000000
-0.2382000000 7.8312000000 0.0163000000
-0.2389000000 7.6543000000 0.1256000000
-0.2393000000 6.7734000000 0.6879000000
-0.2406000000 6.9352000000 0.5876000000
-0.2410000000 3.7651000000 2.1493000000
-0.2413000000 6.7267000000 0.7212000000
-0.2416000000 1.2591000000 0.5444000000
-0.2418000000 7.6393000000 0.1330000000
-0.2423000000 4.2075000000 2.3292000000
-0.2426000000 3.4567000000 1.9439000000
-0.2429000000 1.4929000000 0.6905000000
-0.2431000000 7.8528000000 0.0722000000
-0.2436000000 4.7084000000 2.0069000000
-0.2439000000 0.9105000000 0.3170000000
-0.2441000000 2.0398000000 1.0346000000
-0.2445000000 6.2517000000 1.0193000000
-0.2447000000 4.2193000000 2.3205000000
-0.2451000000 3.6078000000 2.0472000000
-0.2453000000 4.5841000000 2.0871000000
-0.2455000000 1.6037000000 0.7627000000
-0.2459000000 2.0822000000 1.0648000000
-0.2462000000 7.9472000000 0.0095000000
-0.2464000000 7.7356000000 0.0716000000
-0.2466000000 4.8175000000 1.9311000000
-0.2467000000 3.5181000000 1.9837000000
-0.2469000000 0.7082000000 0.1802000000
-0.2473000000 1.0437000000 0.3991000000
-0.2475000000 4.8961000000 1.8831000000
-0.2480000000 3.2752000000 1.8287000000
-0.2483000000 7.6461000000 0.1221000000
-0.2491000000 6.4359000000 0.9004000000
-0.2492000000 1.8029000000 0.8808000000
-0.2494000000 0.7624000000 0.2215000000
-0.2495000000 7.0673000000 0.4884000000
-0.2500000000 4.9164000000 1.8648000000
-0.2501000000 3.8763000000 2.2087000000
-0.2505000000 2.5277000000 1.3466000000
-0.2509000000 0.2904000000 0.0603000000
-0.2511000000 0.3165000000 0.0006000000
-0.2526000000 3.2593000000 1.8122000000
-0.2537000000 1.8753000000 0.9225000000
-0.4880000000 7.6488000000 0.0047000000
-0.4891000000 6.8706000000 0.3498000000
-0.4899000000 1.9548000000 0.7153000000
-0.4913000000 5.3552000000 1.3150000000
-0.4916000000 6.4140000000 0.6368000000
-0.4920000000 7.0785000000 0.2156000000
-0.4925000000 5.0062000000 1.5429000000
-0.4930000000 6.8388000000 0.3683000000
-0.4932000000 4.2821000000 2.0056000000
-0.4936000000 6.6821000000 0.4630000000
-0.4939000000 4.6090000000 1.7978000000
-0.4941000000 6.7161000000 0.4424000000
-0.4945000000 3.0797000000 1.4288000000
-0.4950000000 6.2815000000 0.7193000000
-0.4952000000 2.4890000000 1.0448000000
-0.4954000000 2.8900000000 1.3051000000
-0.4957000000 7.5963000000 0.0255000000
-0.4959000000 5.1305000000 1.4535000000
-0.4962000000 7.3056000000 0.0623000000
-0.4964000000 3.9284000000 1.9737000000
-0.4966000000 2.4307000000 1.0083000000
-0.4970000000 7.1125000000 0.1824000000
-0.4971000000 2.8158000000 1.2574000000
-0.4974000000 1.9258000000 0.6850000000
-0.4977000000 3.5468000000 1.7244000000
-0.4982000000 1.5069000000 0.4129000000
-0.4983000000 2.6647000000 1.1581000000
-0.4989000000 4.8103000000 1.6553000000
-0.4992000000 1.1327000000 0.1730000000
-0.4993000000 5.1150000000 1.4647000000
-0.5001000000 4.2283000000 2.0335000000
-0.5010000000 6.1835000000 0.7792000000
-0.5016000000 3.5225000000 1.7042000000
-0.5021000000 7.0679000000 0.2141000000
-0.5026000000 2.3733000000 0.9698000000
-0.5031000000 4.3970000000 1.9189000000
-0.5056000000 2.0574000000 0.7575000000
-0.5067000000 0.9263000000 0.0340000000
-0.7400000000 2.7176000000 0.9220000000
-0.7416000000 6.1208000000 0.5444000000
-0.7420000000 5.8864000000 0.6916000000
-0.7427000000 6.0520000000 0.6001000000
-0.7430000000 6.7596000000 0.1404000000
-0.7432000000 3.6824000000 1.5350000000
-0.7438000000 1.3343000000 0.0315000000
-0.7441000000 5.6538000000 0.8444000000
-0.7442000000 7.0648000000 0.0185000000
-0.7445000000 7.0542000000 0.0240000000
-0.7446000000 2.1060000000 0.5242000000
-0.7449000000 1.4842000000 0.1326000000
-0.7452000000 3.7884000000 1.6024000000
-0.7452000000 2.8907000000 1.0317000000
-0.7459000000 3.2837000000 1.2748000000
-0.7460000000 5.5222000000 0.9323000000
-0.7465000000 5.2978000000 1.0709000000
-0.7467000000 2.9311000000 1.0512000000
-0.7470000000 2.1713000000 0.5663000000
-0.7473000000 2.5259000000 0.7893000000
-0.7477000000 5.7563000000 0.7766000000
-0.7479000000 2.4115000000 0.7166000000
-0.7483000000 1.3250000000 0.0257000000
-0.7487000000 6.3559000000 0.3903000000
-0.7491000000 1.2497000000 0.0476000000
-0.7500000000 2.5787000000 0.8262000000
-0.7507000000 5.6277000000 0.8626000000
-0.7510000000 2.1070000000 0.5235000000
-0.7520000000 4.0999000000 1.7758000000
-0.7557000000 4.5445000000 1.5377000000
-0.9900000000 5.1539000000 0.8898000000
-0.9909000000 5.5459000000 0.6484000000
-0.9912000000 5.9172000000 0.3968000000
-0.9917000000 2.7926000000 0.6947000000
-0.9920000000 5.4556000000 0.6934000000
-0.9930000000 2.9668000000 0.8042000000
-0.9937000000 3.2871000000 1.0006000000
-0.9942000000 5.8149000000 0.4640000000
-0.9945000000 6.3931000000 0.0930000000
-0.9948000000 2.3386000000 0.3970000000
-0.9951000000 3.3517000000 1.0468000000
-0.9953000000 4.2031000000 1.4976000000
-0.9956000000 3.1030000000 0.8878000000
-0.9960000000 4.9943000000 0.9918000000
-0.9962000000 2.8283000000 0.7080000000
-0.9965000000 2.9891000000 0.8156000000
-0.9970000000 3.6288000000 1.2234000000
-0.9973000000 4.7338000000 1.1555000000
-0.9976000000 2.8253000000 0.7023000000
-0.9980000000 2.0944000000 0.2370000000
-0.9986000000 5.5787000000 0.6123000000
-0.9988000000 3.6913000000 1.2603000000
-1.0000000000 1.8842000000 0.1047000000
-1.0012000000 4.8859000000 1.0580000000
-1.0015000000 4.1466000000 1.5099000000
-1.0022000000 6.5402000000 0.0703000000
-1.0056000000 1.7628000000 0.0182000000
-1.2400000000 6.1591000000 0.0512000000
-1.2418000000 2.2622000000 0.0743000000
-1.2420000000 2.7779000000 0.4080000000
-1.2423000000 4.8305000000 0.8216000000
-1.2435000000 2.5462000000 0.2582000000
-1.2438000000 5.5867000000 0.3313000000
-1.2441000000 3.3957000000 0.7977000000
-1.2444000000 5.5878000000 0.3264000000
-1.2450000000 3.2909000000 0.7264000000
-1.2453000000 6.2962000000 0.0294000000
-1.2459000000 4.0175000000 1.1909000000
-1.2464000000 6.2414000000 0.0666000000
-1.2472000000 2.5600000000 0.2552000000
-1.2475000000 5.8168000000 0.1840000000
-1.2480000000 4.8245000000 0.8206000000
-1.2484000000 3.4063000000 0.8020000000
-1.2493000000 3.9374000000 1.1399000000
-1.2507000000 6.0933000000 0.0797000000
-1.2520000000 2.9992000000 0.5359000000
-1.2527000000 2.2465000000 0.0530000000
-1.4909000000 2.9712000000 0.2574000000
-1.4921000000 2.4552000000 0.0670000000
-1.4925000000 4.0785000000 0.9515000000
-1.4936000000 3.4124000000 0.5343000000
-1.4946000000 2.8141000000 0.1445000000
-1.4950000000 4.5237000000 0.7375000000
-1.4953000000 3.7893000000 0.7729000000
-1.4955000000 4.3358000000 0.8605000000
-1.4961000000 5.5141000000 0.1006000000
-1.4965000000 5.2281000000 0.2831000000
-1.4969000000 3.5053000000 0.5891000000
-1.4973000000 5.7845000000 0.0019000000
-1.4984000000 5.5166000000 0.0981000000
-1.4987000000 3.1028000000 0.3303000000
-1.4998000000 3.5104000000 0.5843000000
-1.5004000000 3.3988000000 0.5158000000
-1.5020000000 3.3771000000 0.4992000000
-1.5048000000 3.1581000000 0.3580000000
-1.7411000000 3.6769000000 0.4249000000
-1.7423000000 3.6584000000 0.4141000000
-1.7431000000 3.9897000000 0.6197000000
-1.7440000000 4.0329000000 0.6506000000
-1.7445000000 4.4167000000 0.5281000000
-1.7449000000 5.0233000000 0.1421000000
-1.7456000000 4.6073000000 0.4058000000
-1.7465000000 2.8574000000 0.0486000000
-1.7473000000 2.8579000000 0.0445000000
-1.7476000000 3.9236000000 0.5774000000
-1.7480000000 3.0008000000 0.0601000000
-1.7494000000 4.5928000000 0.4093000000
-1.7504000000 4.2715000000 0.6166000000
-1.7532000000 3.2484000000 0.1426000000
-1.9943000000 4.5392000000 0.1802000000
-1.9956000000 3.6836000000 0.1451000000
-1.9966000000 3.6851000000 0.1468000000
-1.9985000000 4.0262000000 0.3612000000
