7.0071000000 3.9305000000 0.0529000000
7.0009000000 3.8297000000 0.0183000000
6.7588000000 3.5544000000 0.0740000000
6.7580000000 4.7233000000 0.0075000000
6.7571000000 3.7493000000 0.0750000000
6.7556000000 4.1598000000 0.1493000000
6.7548000000 3.8469000000 0.1199000000
6.7531000000 4.1411000000 0.1622000000
6.7485000000 4.6784000000 0.0214000000
6.5107000000 4.9725000000 0.0718000000
6.5081000000 4.9397000000 0.0912000000
6.5062000000 5.1367000000 0.0072000000
6.5056000000 4.8380000000 0.0483000000
6.5050000000 3.9583000000 0.3282000000
6.5043000000 3.1889000000 0.0209000000
6.5042000000 3.2252000000 0.0352000000
6.5033000000 3.0924000000 0.0637000000
6.5020000000 3.7376000000 0.2447000000
6.4973000000 5.0108000000 0.0666000000
6.2607000000 3.4907000000 0.3119000000
6.2582000000 3.9716000000 0.4973000000
6.2564000000 4.9310000000 0.1890000000
6.2555000000 4.9972000000 0.1640000000
6.2550000000 5.2169000000 0.0751000000
6.2544000000 5.0569000000 0.1429000000
6.2541000000 5.4947000000 0.0378000000
6.2536000000 3.6361000000 0.3736000000
6.2525000000 4.2879000000 0.4380000000
6.2522000000 3.1538000000 0.1814000000
6.2514000000 2.9094000000 0.0878000000
6.2511000000 5.2391000000 0.0631000000
6.2502000000 5.3337000000 0.0325000000
6.0131000000 5.4899000000 0.1363000000
6.0095000000 2.0965000000 0.0145000000
6.0085000000 5.8517000000 0.0725000000
6.0083000000 4.0729000000 0.6836000000
6.0071000000 5.9494000000 0.0312000000
6.0069000000 2.1922000000 0.0532000000
6.0061000000 4.2299000000 0.6309000000
6.0055000000 4.6662000000 0.4593000000
6.0053000000 3.9700000000 0.6689000000
6.0046000000 4.6491000000 0.4711000000
6.0042000000 4.0969000000 0.6805000000
6.0033000000 2.4962000000 0.0992000000
6.0026000000 4.2523000000 0.6284000000
6.0019000000 3.5841000000 0.5230000000
6.0010000000 3.3160000000 0.4184000000
5.9998000000 3.9035000000 0.6509000000
5.7603000000 2.6669000000 0.3232000000
5.7591000000 5.7369000000 0.2106000000
5.7587000000 3.6505000000 0.7172000000
5.7584000000 4.2977000000 0.7789000000
5.7577000000 2.5393000000 0.2804000000
5.7571000000 4.8426000000 0.5642000000
5.7566000000 5.0426000000 0.4828000000
5.7565000000 4.7365000000 0.6045000000
5.7563000000 4.6939000000 0.6178000000
5.7558000000 6.0373000000 0.0971000000
5.7556000000 4.2576000000 0.7954000000
5.7551000000 5.3215000000 0.3768000000
5.7548000000 2.9170000000 0.4300000000
5.7543000000 4.7268000000 0.6074000000
5.7540000000 2.6896000000 0.3387000000
5.7537000000 5.0289000000 0.4913000000
5.7532000000 5.0726000000 0.4730000000
5.7524000000 3.3074000000 0.5804000000
5.7520000000 3.8085000000 0.7814000000
5.7517000000 5.7885000000 0.1943000000
5.7513000000 1.8720000000 0.0206000000
5.7509000000 3.8557000000 0.7958000000
5.7504000000 1.8215000000 0.0777000000
5.7492000000 4.5314000000 0.6819000000
5.7489000000 4.5388000000 0.6853000000
5.7451000000 3.6812000000 0.7357000000
5.5104000000 6.8799000000 0.0046000000
5.5095000000 2.6679000000 0.5028000000
5.5093000000 3.3502000000 0.7676000000
5.5090000000 4.5713000000 0.8377000000
5.5088000000 6.2678000000 0.1675000000
5.5082000000 3.1230000000 0.6766000000
5.5079000000 1.5159000000 0.0479000000
5.5073000000 6.1482000000 0.2239000000
5.5069000000 3.0184000000 0.6391000000
5.5066000000 3.5179000000 0.8355000000
5.5064000000 6.2389000000 0.1856000000
5.5059000000 4.8422000000 0.7320000000
5.5054000000 1.5660000000 0.0699000000
5.5053000000 6.8027000000 0.0419000000
5.5051000000 2.6519000000 0.4925000000
5.5050000000 2.7047000000 0.5113000000
5.5045000000 2.0197000000 0.2517000000
5.5035000000 1.8552000000 0.1818000000
5.5030000000 2.6480000000 0.4909000000
5.5028000000 2.0818000000 0.2758000000
5.5021000000 6.7792000000 0.0471000000
5.5012000000 5.8455000000 0.3396000000
5.5008000000 4.9040000000 0.7187000000
5.5002000000 2.6867000000 0.5135000000
5.4990000000 1.3577000000 0.0687000000
5.4979000000 3.0104000000 0.6435000000
5.4963000000 1.5730000000 0.0764000000
5.2645000000 6.3675000000 0.2969000000
5.2618000000 6.8186000000 0.1233000000
5.2610000000 4.5401000000 1.0161000000
5.2597000000 4.2009000000 1.1474000000
5.2594000000 6.1664000000 0.3826000000
5.2590000000 6.9818000000 0.0531000000
5.2588000000 5.8247000000 0.5176000000
5.2583000000 2.8532000000 0.7449000000
5.2579000000 6.6856000000 0.1816000000
5.2577000000 6.6207000000 0.2006000000
5.2573000000 3.3667000000 0.9506000000
5.2569000000 1.8752000000 0.3563000000
5.2567000000 5.5809000000 0.6127000000
5.2564000000 6.8538000000 0.1183000000
5.2563000000 4.1740000000 1.1669000000
5.2558000000 4.5835000000 1.0037000000
5.2549000000 2.0404000000 0.4269000000
5.2547000000 7.0471000000 0.0370000000
5.2544000000 6.0662000000 0.4263000000
5.2540000000 2.1237000000 0.4604000000
5.2536000000 4.8557000000 0.8972000000
5.2533000000 1.6837000000 0.2861000000
5.2531000000 0.8925000000 0.0557000000
5.2529000000 5.9607000000 0.4631000000
5.2526000000 3.2667000000 0.9068000000
5.2523000000 3.4472000000 0.9774000000
5.2520000000 6.1751000000 0.3767000000
5.2518000000 2.4023000000 0.5727000000
5.2514000000 4.2358000000 1.1443000000
5.2512000000 4.0395000000 1.1989000000
5.2507000000 3.6110000000 1.0373000000
5.2503000000 1.8879000000 0.3679000000
5.2497000000 1.0200000000 0.0306000000
5.2487000000 2.2072000000 0.4962000000
5.2468000000 4.1254000000 1.1946000000
5.0182000000 5.7280000000 0.7192000000
5.0122000000 6.9643000000 0.2367000000
5.0108000000 7.5178000000 0.0924000000
5.0105000000 7.6523000000 0.0437000000
5.0099000000 4.3889000000 1.2469000000
5.0095000000 7.3168000000 0.1037000000
5.0092000000 7.1316000000 0.1694000000
5.0088000000 5.3753000000 0.8642000000
5.0086000000 0.9763000000 0.1694000000
5.0082000000 3.0610000000 0.9943000000
5.0078000000 7.5752000000 0.0751000000
5.0075000000 3.7546000000 1.2665000000
5.0071000000 6.4998000000 0.4217000000
5.0068000000 4.9732000000 1.0237000000
5.0064000000 5.8968000000 0.6579000000
5.0062000000 7.2988000000 0.1112000000
5.0060000000 1.0391000000 0.2014000000
5.0059000000 3.7232000000 1.2573000000
5.0054000000 6.4019000000 0.4624000000
5.0052000000 5.6443000000 0.7591000000
5.0050000000 5.3866000000 0.8583000000
5.0049000000 7.0548000000 0.2022000000
5.0047000000 1.5750000000 0.4147000000
5.0045000000 3.4745000000 1.1597000000
5.0043000000 7.3736000000 0.0829000000
5.0041000000 5.0032000000 1.0062000000
5.0039000000 2.3390000000 0.7142000000
5.0036000000 3.9271000000 1.3388000000
5.0029000000 1.8592000000 0.5228000000
5.0025000000 0.9625000000 0.1749000000
5.0023000000 7.6816000000 0.0420000000
5.0019000000 5.5516000000 0.7969000000
5.0016000000 1.9111000000 0.5512000000
5.0013000000 5.9424000000 0.6470000000
5.0011000000 6.2255000000 0.5347000000
5.0008000000 6.0532000000 0.6024000000
5.0003000000 3.3797000000 1.1272000000
4.9997000000 0.5562000000 0.0883000000
4.9989000000 1.1891000000 0.2672000000
4.9985000000 4.1564000000 1.3415000000
4.9983000000 2.8925000000 0.9292000000
4.9974000000 6.7620000000 0.3267000000
4.7631000000 2.5688000000 0.9728000000
4.7620000000 2.3533000000 0.8835000000
4.7615000000 8.1245000000 0.0240000000
4.7611000000 4.2275000000 1.4829000000
4.7606000000 4.3682000000 1.4232000000
4.7600000000 5.7052000000 0.9038000000
4.7596000000 2.1279000000 0.7958000000
4.7592000000 5.5616000000 0.9585000000
4.7588000000 0.5369000000 0.1692000000
4.7584000000 5.2697000000 1.0660000000
4.7581000000 1.8321000000 0.6790000000
4.7575000000 5.3505000000 1.0367000000
4.7569000000 4.1518000000 1.5140000000
4.7568000000 7.2302000000 0.3059000000
4.7564000000 5.9248000000 0.8153000000
4.7562000000 3.9930000000 1.5259000000
4.7561000000 4.3460000000 1.4344000000
4.7558000000 7.4065000000 0.2377000000
4.7557000000 0.9197000000 0.3266000000
4.7555000000 5.5852000000 0.9500000000
4.7553000000 3.0170000000 1.1484000000
4.7549000000 4.4270000000 1.4019000000
4.7549000000 2.2404000000 0.8416000000
4.7545000000 2.6616000000 1.0150000000
4.7544000000 3.2191000000 1.2308000000
4.7542000000 7.9406000000 0.0247000000
4.7541000000 1.8579000000 0.6967000000
4.7538000000 2.9859000000 1.1333000000
4.7535000000 0.1250000000 0.0842000000
4.7533000000 1.0492000000 0.3708000000
4.7529000000 1.8824000000 0.7093000000
4.7528000000 7.4251000000 0.2283000000
4.7523000000 4.2779000000 1.4662000000
4.7520000000 1.1714000000 0.4246000000
4.7519000000 2.4227000000 0.9266000000
4.7515000000 5.7770000000 0.8783000000
4.7513000000 6.6572000000 0.5353000000
4.7510000000 5.0850000000 1.1485000000
4.7503000000 5.2509000000 1.0827000000
4.7499000000 0.7345000000 0.2544000000
4.7494000000 4.2452000000 1.4836000000
4.7484000000 1.1759000000 0.4291000000
4.7458000000 4.1600000000 1.5131000000
4.5144000000 7.6380000000 0.3105000000
4.5112000000 0.9643000000 0.5067000000
4.5105000000 7.3246000000 0.4329000000
4.5098000000 7.9574000000 0.1335000000
4.5095000000 1.2291000000 0.6105000000
4.5090000000 2.8732000000 1.2585000000
4.5087000000 5.2940000000 1.2300000000
4.5081000000 2.5336000000 1.1239000000
4.5077000000 1.2656000000 0.6291000000
4.5075000000 6.9519000000 0.5843000000
4.5072000000 6.3621000000 0.8195000000
4.5071000000 1.8369000000 0.8578000000
4.5068000000 3.6644000000 1.5738000000
4.5066000000 8.0735000000 0.0421000000
4.5064000000 1.9474000000 0.8966000000
4.5058000000 3.5364000000 1.5190000000
4.5056000000 3.5067000000 1.5092000000
4.5053000000 0.6224000000 0.3825000000
4.5051000000 6.5646000000 0.7335000000
4.5049000000 6.9079000000 0.5991000000
4.5045000000 1.7974000000 0.8425000000
4.5043000000 5.7727000000 1.0483000000
4.5041000000 4.7811000000 1.4407000000
4.5039000000 3.8676000000 1.6516000000
4.5037000000 6.3236000000 0.8344000000
4.5035000000 0.5631000000 0.3600000000
4.5033000000 0.2526000000 0.2044000000
4.5030000000 3.9634000000 1.6923000000
4.5029000000 3.1745000000 1.3857000000
4.5027000000 7.6927000000 0.2891000000
4.5022000000 1.4686000000 0.7130000000
4.5020000000 8.0220000000 0.0789000000
4.5017000000 0.5286000000 0.3440000000
4.5015000000 1.4266000000 0.6971000000
4.5011000000 1.3188000000 0.6559000000
4.5004000000 0.8244000000 0.4634000000
4.4990000000 1.4146000000 0.6937000000
4.4988000000 1.7673000000 0.8298000000
4.4982000000 0.3119000000 0.2488000000
4.4968000000 2.2450000000 1.0128000000
4.2629000000 4.8160000000 1.5913000000
4.2618000000 7.1361000000 0.6770000000
4.2612000000 5.4088000000 1.3565000000
4.2603000000 6.1374000000 1.0740000000
4.2600000000 0.5894000000 0.4831000000
4.2590000000 5.9174000000 1.1630000000
4.2585000000 7.6648000000 0.3601000000
4.2581000000 5.0218000000 1.5101000000
4.2578000000 2.5206000000 1.2930000000
4.2575000000 7.0133000000 0.7261000000
4.2570000000 3.9146000000 1.8399000000
4.2569000000 5.0499000000 1.4968000000
4.2568000000 6.6078000000 0.8949000000
4.2566000000 3.6233000000 1.7222000000
4.2564000000 3.1024000000 1.5186000000
4.2562000000 2.3293000000 1.2204000000
4.2560000000 0.7181000000 0.5694000000
4.2558000000 1.7627000000 0.9969000000
4.2555000000 4.0505000000 1.8771000000
4.2553000000 5.6862000000 1.2496000000
4.2550000000 6.7238000000 0.8419000000
4.2549000000 7.1374000000 0.6826000000
4.2547000000 6.6334000000 0.8823000000
4.2545000000 2.8109000000 1.4119000000
4.2543000000 2.9252000000 1.4527000000
4.2541000000 5.6717000000 1.2595000000
4.2539000000 3.7319000000 1.7691000000
4.2537000000 6.8237000000 0.8091000000
4.2538000000 0.4588000000 0.3800000000
4.2532000000 0.4761000000 0.3911000000
4.2531000000 5.6412000000 1.2667000000
4.2527000000 5.1236000000 1.4723000000
4.2519000000 7.6686000000 0.3554000000
4.2515000000 2.8144000000 1.4140000000
4.2511000000 2.8517000000 1.4232000000
4.2507000000 0.4935000000 0.4080000000
4.2504000000 0.1556000000 0.1451000000
4.2501000000 1.5207000000 0.9023000000
4.2496000000 2.2788000000 1.2028000000
4.2482000000 1.9348000000 1.0728000000
4.2475000000 1.0226000000 0.7114000000
4.2468000000 2.3460000000 1.2285000000
4.0125000000 7.9986000000 0.0972000000
4.0108000000 6.8953000000 0.9320000000
4.0105000000 5.5204000000 1.4828000000
4.0090000000 4.7700000000 1.7767000000
4.0085000000 5.6050000000 1.4510000000
4.0081000000 3.5747000000 1.8800000000
4.0078000000 0.9431000000 0.7551000000
4.0075000000 2.7936000000 1.5684000000
4.0073000000 1.7199000000 1.1528000000
4.0071000000 5.3680000000 1.5410000000
4.0069000000 0.2505000000 0.2177000000
4.0066000000 2.5114000000 1.4616000000
4.0063000000 5.9080000000 1.3344000000
4.0060000000 6.5779000000 1.0721000000
4.0059000000 4.5811000000 1.8517000000
4.0057000000 4.3382000000 1.9476000000
4.0055000000 2.8292000000 1.5838000000
4.0053000000 2.2815000000 1.3722000000
4.0050000000 1.6142000000 1.1064000000
4.0048000000 2.1712000000 1.3277000000
4.0044000000 4.5201000000 1.8799000000
4.0041000000 6.6171000000 1.0562000000
4.0039000000 2.7772000000 1.5631000000
4.0038000000 1.7386000000 1.1619000000
4.0036000000 5.6704000000 1.4282000000
4.0034000000 0.3830000000 0.3134000000
4.0032000000 3.6544000000 1.9044000000
4.0030000000 5.0287000000 1.6806000000
4.0028000000 1.9778000000 1.2510000000
4.0025000000 3.4912000000 1.8421000000
4.0018000000 4.5952000000 1.8536000000
4.0010000000 7.6570000000 0.3634000000
4.0005000000 1.5846000000 1.0989000000
4.0001000000 4.4886000000 1.8935000000
3.9995000000 2.8821000000 1.6104000000
3.9989000000 1.1867000000 0.9368000000
3.9984000000 0.6771000000 0.5518000000
3.9981000000 2.3448000000 1.3955000000
3.9972000000 1.0037000000 0.8061000000
3.9958000000 5.3245000000 1.5659000000
3.7648000000 1.5183000000 1.1994000000
3.7623000000 4.0221000000 2.2045000000
3.7612000000 5.0205000000 1.8501000000
3.7604000000 7.5528000000 0.4480000000
3.7591000000 6.0737000000 1.4340000000
3.7586000000 8.0504000000 0.0640000000
3.7583000000 0.8043000000 0.6510000000
3.7579000000 7.8247000000 0.2312000000
3.7575000000 3.2279000000 1.9073000000
3.7573000000 5.4414000000 1.6885000000
3.7570000000 2.6351000000 1.6829000000
3.7565000000 7.9509000000 0.1421000000
3.7559000000 4.8925000000 1.9041000000
3.7553000000 2.2713000000 1.5322000000
3.7552000000 6.4704000000 1.2740000000
3.7549000000 8.0368000000 0.0680000000
3.7548000000 1.1148000000 0.8966000000
3.7546000000 6.5301000000 1.2468000000
3.7545000000 0.6942000000 0.5699000000
3.7543000000 4.2462000000 2.1553000000
3.7541000000 6.0847000000 1.4381000000
3.7538000000 3.1202000000 1.8666000000
3.7535000000 4.3550000000 2.1148000000
3.7534000000 6.5306000000 1.2425000000
3.7532000000 3.4946000000 2.0191000000
3.7530000000 3.4733000000 2.0105000000
3.7523000000 0.0287000000 0.0424000000
3.7522000000 6.0547000000 1.4546000000
3.7519000000 2.2672000000 1.5322000000
3.7515000000 6.6763000000 1.1374000000
3.7510000000 6.6371000000 1.1642000000
3.7505000000 7.5757000000 0.4298000000
3.7498000000 1.3774000000 1.1009000000
3.7495000000 2.0944000000 1.4663000000
3.7485000000 7.8713000000 0.2009000000
3.7479000000 1.4426000000 1.1511000000
3.7470000000 3.2912000000 1.9425000000
3.5165000000 4.4383000000 2.2414000000
3.5117000000 7.7511000000 0.2975000000
3.5114000000 8.1274000000 0.0717000000
3.5108000000 7.8663000000 0.2063000000
3.5097000000 5.8255000000 1.7044000000
3.5090000000 8.0384000000 0.0690000000
3.5083000000 7.9014000000 0.1746000000
3.5079000000 6.1383000000 1.5448000000
3.5078000000 7.6203000000 0.3933000000
3.5075000000 0.6614000000 0.5450000000
3.5074000000 2.0604000000 1.6047000000
3.5071000000 1.0602000000 0.8525000000
3.5067000000 6.1090000000 1.5803000000
3.5064000000 7.1566000000 0.7560000000
3.5061000000 0.9753000000 0.7883000000
3.5060000000 4.9915000000 2.0333000000
3.5058000000 5.0438000000 2.0159000000
3.5056000000 5.1268000000 1.9800000000
3.5053000000 7.8185000000 0.2399000000
3.5052000000 6.9526000000 0.9208000000
3.5050000000 1.6302000000 1.2932000000
3.5046000000 5.9783000000 1.6335000000
3.5044000000 1.5096000000 1.2042000000
3.5043000000 6.0974000000 1.5737000000
3.5038000000 0.1064000000 0.1016000000
3.5036000000 4.4108000000 2.2577000000
3.5034000000 0.0151000000 0.0254000000
3.5032000000 2.2925000000 1.7148000000
3.5030000000 6.7143000000 1.1090000000
3.5025000000 7.2885000000 0.6537000000
3.5021000000 0.8058000000 0.6512000000
3.5020000000 0.7486000000 0.6099000000
3.5016000000 3.7069000000 2.2727000000
3.5014000000 2.8471000000 1.9349000000
3.5010000000 0.6058000000 0.5007000000
3.5007000000 0.5464000000 0.4508000000
3.5005000000 2.0792000000 1.6240000000
3.4998000000 0.4520000000 0.3719000000
3.4993000000 5.8925000000 1.6795000000
3.4985000000 1.8915000000 1.5025000000
3.4983000000 4.2792000000 2.3208000000
3.4979000000 2.2051000000 1.6870000000
3.4969000000 0.3853000000 0.3155000000
3.4932000000 5.6726000000 1.7764000000
3.2633000000 6.3447000000 1.3934000000
3.2611000000 2.0502000000 1.6266000000
3.2603000000 5.6988000000 1.8900000000
3.2597000000 5.8148000000 1.8080000000
3.2594000000 7.8446000000 0.2204000000
3.2592000000 6.4617000000 1.3047000000
3.2586000000 6.6857000000 1.1291000000
3.2583000000 3.4075000000 2.3233000000
3.2579000000 7.7853000000 0.2670000000
3.2577000000 3.9357000000 2.5285000000
3.2575000000 7.4574000000 0.5222000000
3.2569000000 7.3017000000 0.6439000000
3.2568000000 4.2266000000 2.5016000000
3.2564000000 1.5075000000 1.1968000000
3.2559000000 7.5251000000 0.4702000000
3.2555000000 6.1391000000 1.5555000000
3.2553000000 0.1724000000 0.1529000000
3.2552000000 4.6895000000 2.3226000000
3.2550000000 2.1770000000 1.7260000000
3.2548000000 0.7763000000 0.6254000000
3.2547000000 7.0328000000 0.8580000000
3.2545000000 4.9662000000 2.2151000000
3.2543000000 0.7297000000 0.5878000000
3.2541000000 6.6270000000 1.1760000000
3.2538000000 1.9753000000 1.5727000000
3.2536000000 1.3140000000 1.0502000000
3.2533000000 0.9001000000 0.7271000000
3.2531000000 6.3984000000 1.3519000000
3.2528000000 2.4724000000 1.9406000000
3.2526000000 7.9726000000 0.1174000000
3.2525000000 0.0955000000 0.0933000000
3.2523000000 6.0850000000 1.5948000000
3.2517000000 4.0608000000 2.5576000000
3.2512000000 4.0234000000 2.5535000000
3.2508000000 2.9955000000 2.1620000000
3.2505000000 5.8055000000 1.8177000000
3.2490000000 3.4190000000 2.3327000000
3.2480000000 0.1495000000 0.1393000000
3.2476000000 2.9962000000 2.1642000000
3.2470000000 0.0102000000 0.0277000000
3.2465000000 1.0852000000 0.8764000000
3.0112000000 7.2976000000 0.6468000000
3.0101000000 5.8174000000 1.8131000000
3.0096000000 5.8957000000 1.7487000000
3.0083000000 4.6411000000 2.4995000000
3.0081000000 4.3165000000 2.6376000000
3.0079000000 3.3188000000 2.4532000000
3.0076000000 7.9872000000 0.1100000000
3.0072000000 6.1748000000 1.5328000000
3.0068000000 2.6967000000 2.1330000000
3.0067000000 0.8309000000 0.6734000000
3.0064000000 6.4807000000 1.2842000000
3.0059000000 4.2189000000 2.6761000000
3.0057000000 5.7149000000 1.8876000000
3.0055000000 7.7920000000 0.2609000000
3.0053000000 5.2826000000 2.2170000000
3.0052000000 0.1301000000 0.1221000000
3.0051000000 7.4250000000 0.5465000000
3.0050000000 0.8369000000 0.6783000000
3.0047000000 4.6978000000 2.4899000000
3.0042000000 1.1870000000 0.9458000000
3.0037000000 6.3072000000 1.4289000000
3.0033000000 1.1604000000 0.9305000000
3.0030000000 2.2914000000 1.8222000000
3.0028000000 5.5495000000 2.0226000000
3.0026000000 2.1503000000 1.7119000000
3.0025000000 0.3535000000 0.3035000000
3.0023000000 0.6909000000 0.5529000000
3.0019000000 5.6935000000 1.9084000000
3.0017000000 2.2108000000 1.7538000000
3.0013000000 7.7428000000 0.2969000000
3.0010000000 1.2501000000 1.0022000000
3.0004000000 0.7555000000 0.6127000000
2.9995000000 5.6772000000 1.9223000000
2.9983000000 0.8169000000 0.6613000000
2.9971000000 1.3199000000 1.0571000000
2.9944000000 0.3112000000 0.2637000000
2.7612000000 0.1091000000 0.1053000000
2.7605000000 3.2659000000 2.5651000000
2.7600000000 6.0769000000 1.6056000000
2.7597000000 7.1596000000 0.7622000000
2.7592000000 7.6050000000 0.4105000000
2.7589000000 2.9696000000 2.3490000000
2.7584000000 5.1047000000 2.3690000000
2.7579000000 6.5880000000 1.2039000000
2.7576000000 6.2741000000 1.4546000000
2.7573000000 6.5944000000 1.1993000000
2.7569000000 7.6717000000 0.3576000000
2.7565000000 2.9795000000 2.3566000000
2.7563000000 5.5352000000 2.0312000000
2.7560000000 4.1768000000 2.8690000000
2.7555000000 4.8463000000 2.5590000000
2.7553000000 2.5575000000 2.0219000000
2.7550000000 5.9182000000 1.7310000000
2.7548000000 2.4746000000 1.9649000000
2.7547000000 1.0539000000 0.8426000000
2.7544000000 6.6548000000 1.1565000000
2.7542000000 5.3592000000 2.1666000000
2.7540000000 4.1519000000 2.8688000000
2.7538000000 7.9788000000 0.1148000000
2.7536000000 2.2867000000 1.8136000000
2.7533000000 0.4697000000 0.3955000000
2.7530000000 8.0959000000 0.0250000000
2.7528000000 1.9541000000 1.5540000000
2.7525000000 5.6198000000 1.9603000000
2.7524000000 5.5174000000 2.0450000000
2.7521000000 0.4612000000 0.3815000000
2.7516000000 6.6989000000 1.1198000000
2.7513000000 3.3702000000 2.6354000000
2.7508000000 2.2493000000 1.7769000000
2.7505000000 2.3013000000 1.8265000000
2.7493000000 7.5133000000 0.4752000000
2.7485000000 4.6455000000 2.6777000000
2.5118000000 6.5757000000 1.2082000000
2.5112000000 5.2724000000 2.2347000000
2.5100000000 5.8561000000 1.7779000000
2.5098000000 7.0978000000 0.8047000000
2.5090000000 8.0794000000 0.0307000000
2.5083000000 5.5219000000 2.0438000000
2.5077000000 5.7091000000 1.8950000000
2.5072000000 4.2489000000 2.9938000000
2.5068000000 0.0477000000 0.0621000000
2.5065000000 2.1065000000 1.6706000000
2.5061000000 2.4675000000 1.9537000000
2.5059000000 3.4153000000 2.7032000000
2.5058000000 7.0537000000 0.8405000000
2.5054000000 3.0398000000 2.4107000000
2.5051000000 2.5901000000 2.0535000000
2.5049000000 7.9153000000 0.1719000000
2.5048000000 2.8079000000 2.2216000000
2.5044000000 2.3142000000 1.8347000000
2.5041000000 5.5026000000 2.0636000000
2.5040000000 0.5345000000 0.4361000000
2.5038000000 4.4623000000 2.8753000000
2.5036000000 6.4163000000 1.3387000000
2.5034000000 7.7246000000 0.3165000000
2.5030000000 2.4508000000 1.9384000000
2.5028000000 5.3655000000 2.1647000000
2.5024000000 3.7497000000 2.9487000000
2.5021000000 1.2439000000 0.9970000000
2.5019000000 0.5045000000 0.4129000000
2.5014000000 5.8407000000 1.7908000000
2.5009000000 4.9787000000 2.4676000000
2.5003000000 1.4080000000 1.1236000000
2.4997000000 3.3661000000 2.6649000000
2.4992000000 5.3353000000 2.1861000000
2.4988000000 0.7123000000 0.5779000000
2.4980000000 1.4721000000 1.1800000000
2.4976000000 4.0320000000 3.0722000000
2.4968000000 1.0171000000 0.8157000000
2.4945000000 6.3995000000 1.3489000000
2.2611000000 1.3186000000 1.0538000000
2.2603000000 7.1598000000 0.7514000000
2.2596000000 2.2446000000 1.7797000000
2.2593000000 7.5930000000 0.4184000000
2.2589000000 2.5966000000 2.0569000000
2.2580000000 1.7882000000 1.4146000000
2.2576000000 7.5824000000 0.4227000000
2.2574000000 6.5241000000 1.2576000000
2.2570000000 7.3849000000 0.5810000000
2.2564000000 2.7597000000 2.1853000000
2.2561000000 1.7324000000 1.3775000000
2.2559000000 2.6998000000 2.1372000000
2.2557000000 4.2136000000 3.0589000000
2.2554000000 7.1922000000 0.7314000000
2.2552000000 3.4270000000 2.7067000000
2.2549000000 1.1553000000 0.9325000000
2.2547000000 5.3688000000 2.1659000000
2.2545000000 7.9185000000 0.1617000000
2.2543000000 7.2814000000 0.6580000000
2.2540000000 3.7212000000 2.9387000000
2.2538000000 4.5292000000 2.8167000000
2.2533000000 6.9555000000 0.9140000000
2.2531000000 2.5254000000 1.9933000000
2.2530000000 4.7193000000 2.6703000000
2.2528000000 0.7502000000 0.6110000000
2.2525000000 0.7812000000 0.6328000000
2.2521000000 5.1501000000 2.3338000000
2.2519000000 3.2299000000 2.5560000000
2.2515000000 7.2630000000 0.6717000000
2.2513000000 2.2959000000 1.8202000000
2.2507000000 0.4079000000 0.3408000000
2.2501000000 1.1732000000 0.9434000000
2.2498000000 3.0830000000 2.4332000000
2.2496000000 2.7676000000 2.1872000000
2.2482000000 3.6356000000 2.8692000000
2.2470000000 0.4944000000 0.4074000000
2.2459000000 1.6127000000 1.2863000000
2.0122000000 6.7969000000 1.0462000000
2.0113000000 1.7692000000 1.4011000000
2.0095000000 4.5464000000 2.7668000000
2.0087000000 3.5471000000 2.7661000000
2.0083000000 7.2891000000 0.6555000000
2.0081000000 2.9172000000 2.3078000000
2.0079000000 6.8764000000 0.9780000000
2.0074000000 4.3115000000 2.8672000000
2.0072000000 2.0999000000 1.6656000000
2.0068000000 5.5717000000 2.0012000000
2.0065000000 1.4979000000 1.1909000000
2.0061000000 2.8347000000 2.2414000000
2.0058000000 3.0941000000 2.4485000000
2.0056000000 0.3436000000 0.2872000000
2.0054000000 2.5499000000 2.0188000000
2.0053000000 6.4229000000 1.3341000000
2.0050000000 1.0531000000 0.8476000000
2.0048000000 1.5643000000 1.2461000000
2.0046000000 7.2558000000 0.6828000000
2.0045000000 3.2553000000 2.5763000000
2.0043000000 3.7688000000 2.8617000000
2.0040000000 4.9440000000 2.4935000000
2.0038000000 0.4455000000 0.3709000000
2.0033000000 1.5893000000 1.2679000000
2.0032000000 5.6428000000 1.9484000000
2.0028000000 3.6829000000 2.8253000000
2.0025000000 3.9727000000 2.9441000000
2.0021000000 5.9468000000 1.7084000000
2.0018000000 3.9145000000 2.9142000000
2.0017000000 6.9501000000 0.9223000000
2.0015000000 3.2176000000 2.5431000000
2.0008000000 2.8879000000 2.2830000000
2.0006000000 0.5781000000 0.4743000000
2.0004000000 0.7600000000 0.6185000000
1.9996000000 3.4552000000 2.7154000000
1.9992000000 0.0728000000 0.0770000000
1.9987000000 3.4544000000 2.7154000000
1.9982000000 5.4052000000 2.1316000000
1.9969000000 0.0944000000 0.0918000000
1.9965000000 5.7660000000 1.8524000000
1.7636000000 7.6275000000 0.3933000000
1.7616000000 3.9409000000 2.7607000000
1.7608000000 4.7282000000 2.5436000000
1.7595000000 0.5363000000 0.4393000000
1.7588000000 7.9788000000 0.1186000000
1.7585000000 7.1345000000 0.7794000000
1.7581000000 5.8462000000 1.7870000000
1.7575000000 6.1816000000 1.5252000000
1.7572000000 1.0710000000 0.8588000000
1.7567000000 1.1624000000 0.9291000000
1.7565000000 4.9898000000 2.4140000000
1.7562000000 3.9991000000 2.7749000000
1.7558000000 7.8599000000 0.2093000000
1.7556000000 3.1048000000 2.4153000000
1.7553000000 2.7983000000 2.2208000000
1.7550000000 5.8613000000 1.7754000000
1.7549000000 1.0082000000 0.8113000000
1.7547000000 4.9322000000 2.4562000000
1.7544000000 4.5528000000 2.6058000000
1.7542000000 6.6105000000 1.1869000000
1.7540000000 2.1518000000 1.7070000000
1.7538000000 3.3656000000 2.5329000000
1.7537000000 7.6119000000 0.4013000000
1.7535000000 6.3354000000 1.4031000000
1.7533000000 2.9244000000 2.3127000000
1.7529000000 6.0756000000 1.6069000000
1.7527000000 7.6554000000 0.3676000000
1.7525000000 5.5414000000 2.0294000000
1.7523000000 2.2310000000 1.7740000000
1.7519000000 2.8674000000 2.2680000000
1.7517000000 3.7622000000 2.6818000000
1.7514000000 4.7677000000 2.5131000000
1.7510000000 0.7187000000 0.5896000000
1.7507000000 0.7202000000 0.5855000000
1.7503000000 2.7524000000 2.1769000000
1.7500000000 5.4360000000 2.1134000000
1.7496000000 2.5298000000 2.0079000000
1.7488000000 1.1115000000 0.8923000000
1.7476000000 2.2769000000 1.8080000000
1.5138000000 6.2180000000 1.4988000000
1.5122000000 6.8972000000 0.9538000000
1.5106000000 4.5907000000 2.4220000000
1.5100000000 5.9356000000 1.7166000000
1.5095000000 6.2939000000 1.4412000000
1.5089000000 4.8059000000 2.3401000000
1.5085000000 7.9022000000 0.1743000000
1.5083000000 5.7092000000 1.8952000000
1.5080000000 7.2877000000 0.6593000000
1.5078000000 7.6640000000 0.3625000000
1.5075000000 1.2765000000 1.0190000000
1.5073000000 5.5603000000 2.0045000000
1.5069000000 5.3345000000 2.1352000000
1.5068000000 7.6642000000 0.3626000000
1.5062000000 1.0663000000 0.8584000000
1.5060000000 1.0885000000 0.8710000000
1.5059000000 2.4067000000 1.9104000000
1.5055000000 6.9525000000 0.9219000000
1.5052000000 5.5447000000 2.0153000000
1.5050000000 5.9166000000 1.7251000000
1.5047000000 3.2589000000 2.3222000000
1.5045000000 6.3844000000 1.3638000000
1.5041000000 4.1381000000 2.5961000000
1.5040000000 5.7801000000 1.8410000000
1.5037000000 2.4385000000 1.9338000000
1.5035000000 1.9593000000 1.5584000000
1.5032000000 3.0660000000 2.2468000000
1.5030000000 0.4497000000 0.3765000000
1.5028000000 7.6860000000 0.3438000000
1.5026000000 3.9741000000 2.5990000000
1.5021000000 4.2726000000 2.5449000000
1.5020000000 5.4833000000 2.0579000000
1.5016000000 0.9874000000 0.7980000000
1.5013000000 7.2405000000 0.6920000000
1.5010000000 1.5056000000 1.2013000000
1.5007000000 0.1446000000 0.1383000000
1.5004000000 5.1123000000 2.2157000000
1.5002000000 4.3145000000 2.5247000000
1.4997000000 3.9401000000 2.5850000000
1.4995000000 7.9338000000 0.1536000000
1.4992000000 0.7143000000 0.5792000000
1.4988000000 1.6684000000 1.3291000000
1.4971000000 3.6048000000 2.4484000000
1.2657000000 6.4390000000 1.3177000000
1.2620000000 7.2815000000 0.6636000000
1.2608000000 0.7240000000 0.5816000000
1.2594000000 6.3614000000 1.3812000000
1.2591000000 3.9628000000 2.4294000000
1.2588000000 3.7608000000 2.3527000000
1.2585000000 2.6267000000 1.9032000000
1.2580000000 3.8464000000 2.3809000000
1.2573000000 3.4502000000 2.2297000000
1.2570000000 7.3653000000 0.5943000000
1.2567000000 3.9307000000 2.4127000000
1.2565000000 4.5480000000 2.2652000000
1.2562000000 7.2412000000 0.6936000000
1.2560000000 2.3292000000 1.7877000000
1.2557000000 7.4912000000 0.5014000000
1.2553000000 5.0343000000 2.0730000000
1.2552000000 3.7691000000 2.3521000000
1.2549000000 5.9269000000 1.7122000000
1.2547000000 4.3361000000 2.3498000000
1.2544000000 5.3799000000 1.9395000000
1.2543000000 7.0473000000 0.8444000000
1.2540000000 6.7451000000 1.0890000000
1.2538000000 4.4414000000 2.3114000000
1.2535000000 7.0867000000 0.8144000000
1.2531000000 0.6315000000 0.5126000000
1.2529000000 7.4946000000 0.4964000000
1.2528000000 2.3119000000 1.7753000000
1.2526000000 2.9374000000 2.0240000000
1.2520000000 0.5932000000 0.4829000000
1.2519000000 0.1013000000 0.1010000000
1.2515000000 3.4535000000 2.2308000000
1.2510000000 5.9980000000 1.6502000000
1.2504000000 0.0918000000 0.0905000000
1.2501000000 1.5045000000 1.1921000000
1.2496000000 6.9432000000 0.9288000000
1.2491000000 1.3870000000 1.1083000000
1.2488000000 3.8111000000 2.3629000000
1.2478000000 2.8210000000 1.9724000000
1.2458000000 2.2415000000 1.7308000000
1.0131000000 7.3970000000 0.5718000000
1.0105000000 7.4938000000 0.4951000000
1.0100000000 5.6901000000 1.6511000000
1.0088000000 6.3290000000 1.3885000000
1.0087000000 5.4399000000 1.7497000000
1.0082000000 7.4798000000 0.5047000000
1.0078000000 5.5382000000 1.7091000000
1.0073000000 3.3416000000 2.0123000000
1.0069000000 5.5092000000 1.7222000000
1.0065000000 6.0820000000 1.4938000000
1.0063000000 4.1615000000 2.2469000000
1.0061000000 6.1715000000 1.4628000000
1.0058000000 8.1341000000 0.0647000000
1.0056000000 3.9710000000 2.2639000000
1.0053000000 0.0388000000 0.0462000000
1.0050000000 0.8705000000 0.6996000000
1.0046000000 7.4227000000 0.5569000000
1.0042000000 3.4074000000 2.0327000000
1.0041000000 1.6804000000 1.3238000000
1.0039000000 2.4564000000 1.6630000000
1.0037000000 4.5030000000 2.1173000000
1.0034000000 4.7527000000 2.0120000000
1.0031000000 2.0734000000 1.5084000000
1.0030000000 4.9887000000 1.9252000000
1.0028000000 5.1219000000 1.8705000000
1.0023000000 1.8779000000 1.4360000000
1.0021000000 2.5574000000 1.7050000000
1.0019000000 0.9741000000 0.7813000000
1.0018000000 3.1533000000 1.9410000000
1.0014000000 5.4718000000 1.7285000000
1.0012000000 1.1554000000 0.9299000000
1.0009000000 5.0801000000 1.8894000000
1.0005000000 1.9101000000 1.4500000000
0.9998000000 2.3285000000 1.6121000000
0.9987000000 3.2263000000 1.9648000000
0.9968000000 2.4915000000 1.6740000000
0.9953000000 0.6923000000 0.5645000000
0.7621000000 5.3594000000 1.6105000000
0.7600000000 4.8665000000 1.8000000000
0.7593000000 5.8075000000 1.4336000000
0.7584000000 7.5049000000 0.4961000000
0.7580000000 2.5463000000 1.5323000000
0.7571000000 3.1861000000 1.7849000000
0.7568000000 3.0884000000 1.7446000000
0.7565000000 4.5935000000 1.9106000000
0.7564000000 4.8548000000 1.8080000000
0.7562000000 5.5479000000 1.5332000000
0.7557000000 6.5800000000 1.1277000000
0.7556000000 7.3871000000 0.5775000000
0.7553000000 1.1210000000 0.8986000000
0.7550000000 1.0090000000 0.8073000000
0.7548000000 1.0931000000 0.8745000000
0.7546000000 8.1361000000 0.0642000000
0.7543000000 1.8275000000 1.2492000000
0.7540000000 3.1503000000 1.7642000000
0.7538000000 4.8864000000 1.7885000000
0.7536000000 4.6537000000 1.8816000000
0.7534000000 1.8233000000 1.2441000000
0.7533000000 5.3770000000 1.6016000000
0.7530000000 3.6839000000 1.9764000000
0.7529000000 0.6684000000 0.5440000000
0.7528000000 3.9837000000 2.0956000000
0.7525000000 5.4711000000 1.5646000000
0.7523000000 4.7144000000 1.8605000000
0.7521000000 1.2532000000 0.9910000000
0.7520000000 2.7755000000 1.6167000000
0.7513000000 1.9160000000 1.2830000000
0.7511000000 5.3384000000 1.6123000000
0.7503000000 2.1112000000 1.3557000000
0.7501000000 0.5632000000 0.4655000000
0.7498000000 1.0464000000 0.8421000000
0.7495000000 3.4234000000 1.8719000000
0.7490000000 2.8240000000 1.6352000000
0.7486000000 2.1928000000 1.3886000000
0.7450000000 2.6817000000 1.5769000000
0.5124000000 7.4317000000 0.5416000000
0.5105000000 5.1883000000 1.5082000000
0.5093000000 7.3844000000 0.5757000000
0.5090000000 2.3668000000 1.2953000000
0.5082000000 7.7399000000 0.3035000000
0.5080000000 7.5344000000 0.4559000000
0.5075000000 7.7000000000 0.3268000000
0.5072000000 3.5616000000 1.7573000000
0.5068000000 2.9035000000 1.5033000000
0.5067000000 0.8198000000 0.6518000000
0.5063000000 3.0102000000 1.5408000000
0.5060000000 4.4730000000 1.7845000000
0.5058000000 2.5595000000 1.3726000000
0.5056000000 2.4539000000 1.3231000000
0.5054000000 2.2031000000 1.2249000000
0.5051000000 2.9248000000 1.5082000000
0.5050000000 0.8728000000 0.6918000000
0.5048000000 5.0473000000 1.5590000000
0.5044000000 5.0596000000 1.5469000000
0.5043000000 5.7263000000 1.2941000000
0.5041000000 1.8952000000 1.1031000000
0.5038000000 0.2136000000 0.1887000000
0.5037000000 2.9305000000 1.5079000000
0.5034000000 0.1390000000 0.1263000000
0.5033000000 4.9264000000 1.6037000000
0.5029000000 6.9802000000 0.8031000000
0.5028000000 5.3589000000 1.4320000000
0.5026000000 2.3294000000 1.2711000000
0.5025000000 3.0510000000 1.5605000000
0.5021000000 0.7174000000 0.5795000000
0.5018000000 0.5374000000 0.4466000000
0.5015000000 1.4515000000 0.9316000000
0.5013000000 2.2822000000 1.2598000000
0.5009000000 1.2559000000 0.8519000000
0.5002000000 2.3174000000 1.2687000000
0.4995000000 3.7668000000 1.8357000000
0.4988000000 1.2976000000 0.8655000000
0.4982000000 0.3866000000 0.3220000000
0.4960000000 3.1305000000 1.5835000000
0.2618000000 7.8048000000 0.2485000000
0.2613000000 6.7751000000 0.7195000000
0.2606000000 1.2309000000 0.6896000000
0.2598000000 6.9478000000 0.6497000000
0.2592000000 7.5649000000 0.3946000000
0.2583000000 6.6187000000 0.7740000000
0.2579000000 2.7667000000 1.2780000000
0.2576000000 2.6240000000 1.2267000000
0.2573000000 7.8778000000 0.1920000000
0.2570000000 5.0900000000 1.3793000000
0.2569000000 4.7158000000 1.5215000000
0.2566000000 0.2755000000 0.2335000000
0.2564000000 4.2051000000 1.7267000000
0.2559000000 4.6708000000 1.5353000000
0.2556000000 1.4133000000 0.7470000000
0.2555000000 1.7918000000 0.8964000000
0.2550000000 1.4743000000 0.7713000000
0.2548000000 0.8783000000 0.5336000000
0.2545000000 1.5748000000 0.8055000000
0.2543000000 1.4632000000 0.7664000000
0.2542000000 4.8437000000 1.4695000000
0.2538000000 2.3588000000 1.1129000000
0.2536000000 7.1251000000 0.5730000000
0.2534000000 5.6902000000 1.1394000000
0.2532000000 3.7027000000 1.6422000000
0.2530000000 3.0065000000 1.3676000000
0.2528000000 3.8036000000 1.6801000000
0.2526000000 0.7125000000 0.4728000000
0.2523000000 0.9856000000 0.5702000000
0.2522000000 1.5502000000 0.7977000000
0.2518000000 0.6805000000 0.4565000000
0.2516000000 6.3257000000 0.8877000000
0.2512000000 7.4051000000 0.4635000000
0.2510000000 2.8574000000 1.3127000000
0.2509000000 2.7707000000 1.2734000000
0.2504000000 0.4932000000 0.3680000000
0.2501000000 1.3747000000 0.7281000000
0.2492000000 4.2757000000 1.6867000000
0.2485000000 6.7431000000 0.7237000000
0.0121000000 4.3475000000 1.4997000000
0.0110000000 7.9796000000 0.0689000000
0.0096000000 5.5054000000 1.0471000000
0.0091000000 6.4372000000 0.6810000000
0.0083000000 6.1422000000 0.7934000000
0.0079000000 4.6458000000 1.3721000000
0.0072000000 6.8993000000 0.4932000000
0.0069000000 5.6636000000 0.9800000000
0.0065000000 6.9437000000 0.4726000000
0.0063000000 7.9480000000 0.0865000000
0.0060000000 6.4744000000 0.6648000000
0.0059000000 0.0903000000 0.0462000000
0.0057000000 6.6394000000 0.5969000000
0.0055000000 1.8359000000 0.7363000000
0.0054000000 1.1200000000 0.4639000000
0.0049000000 5.4436000000 1.0635000000
0.0047000000 5.9009000000 0.8869000000
0.0045000000 2.9126000000 1.1589000000
0.0043000000 6.4783000000 0.6565000000
0.0041000000 0.1067000000 0.0568000000
0.0040000000 6.3807000000 0.6979000000
0.0038000000 1.9245000000 0.7791000000
0.0035000000 3.8486000000 1.5319000000
0.0034000000 4.4203000000 1.4688000000
0.0031000000 0.0560000000 0.0320000000
0.0029000000 6.1202000000 0.8007000000
0.0028000000 4.3229000000 1.5031000000
0.0025000000 4.4567000000 1.4517000000
0.0023000000 3.2159000000 1.2818000000
0.0021000000 2.0492000000 0.8237000000
0.0019000000 2.1905000000 0.8793000000
0.0016000000 6.5964000000 0.6069000000
0.0012000000 5.0250000000 1.2269000000
0.0011000000 3.8194000000 1.5196000000
0.0008000000 4.0450000000 1.5980000000
0.0003000000 2.4262000000 0.9744000000
-0.0003000000 1.3850000000 0.5633000000
-0.0006000000 1.2929000000 0.5270000000
-0.0012000000 4.1336000000 1.5741000000
-0.0020000000 0.0794000000 0.0411000000
-0.0024000000 4.6776000000 1.3630000000
-0.2367000000 7.6662000000 0.0287000000
-0.2387000000 5.7923000000 0.7605000000
-0.2400000000 4.7873000000 1.1559000000
-0.2406000000 6.7452000000 0.3863000000
-0.2412000000 4.5314000000 1.2543000000
-0.2418000000 2.0925000000 0.6718000000
-0.2422000000 6.5813000000 0.4466000000
-0.2426000000 6.6814000000 0.4113000000
-0.2429000000 5.2952000000 0.9584000000
-0.2435000000 7.2042000000 0.2050000000
-0.2437000000 2.6333000000 0.8904000000
-0.2439000000 4.7971000000 1.1480000000
-0.2442000000 6.7248000000 0.3991000000
-0.2448000000 6.2743000000 0.5625000000
-0.2452000000 1.8620000000 0.5848000000
-0.2454000000 2.8663000000 0.9739000000
-0.2457000000 6.9318000000 0.3127000000
-0.2459000000 7.0313000000 0.2756000000
-0.2464000000 7.8626000000 0.0200000000
-0.2465000000 5.5407000000 0.8616000000
-0.2469000000 2.9897000000 1.0246000000
-0.2471000000 4.0586000000 1.4280000000
-0.2473000000 3.0669000000 1.0497000000
-0.2476000000 1.8323000000 0.5688000000
-0.2477000000 6.5176000000 0.4667000000
-0.2480000000 5.9313000000 0.7066000000
-0.2486000000 2.9441000000 1.0065000000
-0.2492000000 3.1758000000 1.0974000000
-0.2493000000 3.0858000000 1.0605000000
-0.2499000000 6.1138000000 0.6296000000
-0.2501000000 4.1419000000 1.4001000000
-0.2503000000 0.6296000000 0.0981000000
-0.2508000000 4.4872000000 1.2675000000
-0.2529000000 0.6197000000 0.0893000000
-0.2547000000 1.7184000000 0.5222000000
-0.4864000000 4.4081000000 1.1378000000
-0.4899000000 3.7963000000 1.1777000000
-0.4907000000 5.6814000000 0.6363000000
-0.4915000000 3.4350000000 1.0352000000
-0.4920000000 4.1254000000 1.2416000000
-0.4926000000 4.8621000000 0.9615000000
-0.4931000000 1.2409000000 0.1697000000
-0.4937000000 5.5446000000 0.6852000000
-0.4940000000 1.1956000000 0.1522000000
-0.4944000000 7.1204000000 0.0672000000
-0.4950000000 3.7216000000 1.1456000000
-0.4952000000 2.7679000000 0.7652000000
-0.4955000000 1.1270000000 0.1223000000
-0.4956000000 4.1279000000 1.2363000000
-0.4961000000 2.8718000000 0.8111000000
-0.4963000000 1.1163000000 0.1243000000
-0.4968000000 5.8848000000 0.5525000000
-0.4975000000 5.8439000000 0.5611000000
-0.4979000000 6.7628000000 0.2045000000
-0.4981000000 1.1886000000 0.1425000000
-0.4983000000 4.4497000000 1.1096000000
-0.4986000000 0.6333000000 -0.0008000000
-0.4992000000 5.0027000000 0.8952000000
-0.4995000000 2.0934000000 0.4987000000
-0.4997000000 2.4250000000 0.6331000000
-0.5003000000 1.8265000000 0.3970000000
-0.5011000000 7.4074000000 0.0243000000
-0.5017000000 0.6775000000 0.0241000000
-0.5027000000 1.4176000000 0.2355000000
-0.7354000000 4.8957000000 0.7742000000
-0.7390000000 5.4266000000 0.5644000000
-0.7403000000 6.7480000000 0.0439000000
-0.7406000000 2.9860000000 0.6877000000
-0.7415000000 5.8628000000 0.3920000000
-0.7418000000 5.9084000000 0.3749000000
-0.7423000000 6.6804000000 0.0772000000
-0.7430000000 3.1682000000 0.7583000000
-0.7432000000 5.4011000000 0.5679000000
-0.7436000000 6.3237000000 0.2089000000
-0.7439000000 6.6083000000 0.1030000000
-0.7445000000 4.0990000000 1.0735000000
-0.7448000000 3.1034000000 0.7308000000
-0.7451000000 2.0175000000 0.3059000000
-0.7455000000 6.8143000000 0.0888000000
-0.7459000000 4.6686000000 0.8609000000
-0.7465000000 3.4473000000 0.8628000000
-0.7467000000 1.7656000000 0.2060000000
-0.7471000000 4.1834000000 1.0489000000
-0.7472000000 4.7841000000 0.8151000000
-0.7475000000 3.7483000000 0.9822000000
-0.7477000000 5.3765000000 0.5724000000
-0.7482000000 1.6065000000 0.1465000000
-0.7488000000 2.1369000000 0.3489000000
-0.7491000000 4.9084000000 0.7604000000
-0.7493000000 6.3973000000 0.1775000000
-0.7499000000 2.6023000000 0.5357000000
-0.7502000000 3.9660000000 1.0617000000
-0.7508000000 6.0166000000 0.3275000000
-0.7513000000 4.9443000000 0.7457000000
-0.7527000000 3.6463000000 0.9386000000
-0.7540000000 4.1510000000 1.0554000000
-0.9892000000 5.1743000000 0.4911000000
-0.9907000000 3.7304000000 0.8058000000
-0.9915000000 4.2523000000 0.8561000000
-0.9921000000 6.3851000000 0.0903000000
-0.9923000000 2.9133000000 0.4876000000
-0.9933000000 6.1622000000 0.1055000000
-0.9937000000 3.7840000000 0.8275000000
-0.9943000000 5.4379000000 0.3877000000
-0.9948000000 3.3896000000 0.6724000000
-0.9953000000 3.2455000000 0.6164000000
-0.9959000000 4.1325000000 0.8987000000
-0.9961000000 2.8001000000 0.4410000000
-0.9965000000 4.9901000000 0.5614000000
-0.9970000000 3.6859000000 0.7864000000
-0.9977000000 3.9420000000 0.8859000000
-0.9980000000 5.1242000000 0.5070000000
-0.9984000000 5.4302000000 0.3938000000
-0.9993000000 3.8090000000 0.8321000000
-0.9997000000 3.4035000000 0.6760000000
-1.0003000000 2.6202000000 0.3651000000
-1.0005000000 2.0121000000 0.1309000000
-1.0014000000 2.3986000000 0.2832000000
-1.0016000000 5.7160000000 0.2739000000
-1.0020000000 4.2024000000 0.8709000000
-1.2371000000 3.7934000000 0.6655000000
-1.2400000000 2.0327000000 0.0441000000
-1.2411000000 4.3093000000 0.6639000000
-1.2425000000 5.5655000000 0.1723000000
-1.2432000000 5.3060000000 0.2726000000
-1.2445000000 5.0990000000 0.3484000000
-1.2448000000 3.1213000000 0.4001000000
-1.2450000000 4.0126000000 0.7414000000
-1.2457000000 5.0797000000 0.3540000000
-1.2459000000 4.8053000000 0.4589000000
-1.2470000000 3.0974000000 0.3830000000
-1.2480000000 4.0730000000 0.7387000000
-1.2483000000 5.4932000000 0.1961000000
-1.2492000000 3.8286000000 0.6687000000
-1.2500000000 3.6585000000 0.6047000000
-1.2512000000 5.8617000000 0.0450000000
-1.2525000000 4.4868000000 0.5885000000
-1.4885000000 5.4276000000 0.0530000000
-1.4907000000 2.9705000000 0.1794000000
-1.4925000000 2.7913000000 0.1008000000
-1.4931000000 5.0608000000 0.1900000000
-1.4934000000 2.7516000000 0.0828000000
-1.4950000000 4.4307000000 0.4383000000
-1.4955000000 5.5642000000 0.0707000000
-1.4961000000 3.5030000000 0.3785000000
-1.4963000000 2.8908000000 0.1343000000
-1.4965000000 4.8094000000 0.2914000000
-1.4969000000 5.3669000000 0.0731000000
-1.4981000000 5.0158000000 0.2144000000
-1.4991000000 3.7270000000 0.4587000000
-1.5001000000 2.6121000000 0.0245000000
-1.5014000000 3.1080000000 0.2209000000
-1.5027000000 3.1831000000 0.2449000000
-1.7407000000 3.8303000000 0.3381000000
-1.7422000000 4.5246000000 0.2372000000
-1.7439000000 2.8803000000 0.0346000000
-1.7456000000 3.9431000000 0.3768000000
-1.7466000000 4.8281000000 0.1161000000
-1.7469000000 3.4871000000 0.1976000000
-1.7477000000 3.5547000000 0.2289000000
-1.7480000000 2.8655000000 0.0320000000
-1.7487000000 3.7282000000 0.2902000000
-1.7500000000 3.3537000000 0.1468000000
-1.7535000000 3.4117000000 0.1739000000
-1.9913000000 4.8645000000 0.0087000000
-1.9935000000 4.7770000000 0.0423000000
-1.9946000000 4.2547000000 0.1756000000
-1.9959000000 4.3003000000 0.1505000000
-1.9970000000 4.3927000000 0.1201000000
-1.9975000000 4.3286000000 0.1454000000
-1.9988000000 3.2884000000 0.0266000000
