3.7553000000 2.9104000000 1.0224000000
3.7551000000 4.0504000000 0.5967000000
3.7550000000 0.4045000000 0.0632000000
3.7551000000 1.4694000000 0.3885000000
3.7548000000 5.4913000000 0.0362000000
3.7546000000 5.0729000000 0.1426000000
3.7545000000 0.5535000000 0.0497000000
3.7545000000 3.5053000000 0.8449000000
3.7544000000 3.5480000000 0.8242000000
3.7543000000 3.3451000000 0.9161000000
3.7541000000 1.3166000000 0.3155000000
3.7540000000 0.6005000000 0.0696000000
3.7540000000 1.6615000000 0.4708000000
3.7538000000 1.7206000000 0.4997000000
3.7537000000 5.4922000000 0.0332000000
3.7538000000 2.1462000000 0.6845000000
3.7536000000 0.6603000000 0.1087000000
3.7534000000 0.4222000000 0.0729000000
3.7533000000 0.3300000000 0.0311000000
3.7532000000 5.7186000000 0.0106000000
3.7529000000 3.7391000000 0.7400000000
3.7528000000 3.3924000000 0.8957000000
3.7526000000 4.6492000000 0.3307000000
3.7525000000 3.6592000000 0.7715000000
3.7523000000 4.1761000000 0.5448000000
3.7523000000 3.1122000000 1.0205000000
3.7522000000 3.8688000000 0.6788000000
3.7522000000 3.8587000000 0.6894000000
3.7521000000 1.8771000000 0.5728000000
3.7520000000 2.0697000000 0.6520000000
3.7519000000 3.8135000000 0.7059000000
3.7518000000 4.1746000000 0.5429000000
3.7510000000 3.6723000000 0.7658000000
3.7510000000 1.5964000000 0.4495000000
3.7509000000 4.2789000000 0.5007000000
3.7509000000 3.6033000000 0.8035000000
3.7508000000 4.8215000000 0.2598000000
3.7508000000 2.4571000000 0.8244000000
3.7504000000 1.2510000000 0.2906000000
3.7503000000 4.7862000000 0.2800000000
3.7502000000 3.1681000000 0.9955000000
3.7497000000 3.2533000000 0.9566000000
3.7496000000 2.8341000000 0.9993000000
3.7495000000 1.2526000000 0.2924000000
3.7491000000 2.5254000000 0.8593000000
3.7488000000 3.2769000000 0.9453000000
3.7487000000 2.9079000000 1.0320000000
3.7483000000 2.1908000000 0.7048000000
3.7477000000 2.9572000000 1.1132000000
3.7476000000 2.9167000000 1.0360000000
3.7468000000 4.6381000000 0.3429000000
3.7467000000 1.1711000000 0.2581000000
3.5153000000 2.3813000000 0.9762000000
3.5144000000 2.4946000000 1.0260000000
3.5130000000 3.7603000000 0.9188000000
3.5115000000 3.0888000000 1.2145000000
3.5110000000 4.8303000000 0.4380000000
3.5098000000 4.4782000000 0.5966000000
3.5085000000 5.2168000000 0.2708000000
3.5084000000 3.7050000000 0.9400000000
3.5083000000 5.5296000000 0.1366000000
3.5083000000 1.1442000000 0.4274000000
3.5082000000 3.1191000000 1.2021000000
3.5079000000 1.7051000000 0.6799000000
3.5078000000 5.0049000000 0.3650000000
3.5076000000 3.6019000000 0.9898000000
3.5072000000 5.2256000000 0.2651000000
3.5072000000 3.4388000000 1.0634000000
3.5071000000 5.6444000000 0.0890000000
3.5068000000 2.2176000000 0.9099000000
3.5066000000 5.5231000000 0.1354000000
3.5063000000 2.1369000000 0.8738000000
3.5063000000 1.8871000000 0.7609000000
3.5063000000 5.0642000000 0.3379000000
3.5060000000 4.1371000000 0.7499000000
3.5060000000 5.4199000000 0.1788000000
3.5062000000 1.0875000000 0.4073000000
3.5058000000 0.5405000000 0.1635000000
3.5057000000 4.9070000000 0.4092000000
3.5056000000 5.2374000000 0.2639000000
3.5055000000 3.6394000000 0.9689000000
3.5054000000 2.9303000000 1.2248000000
3.5054000000 1.9354000000 0.7830000000
3.5053000000 4.3235000000 0.6672000000
3.5050000000 1.8262000000 0.7379000000
3.5049000000 3.0935000000 1.2154000000
3.5048000000 3.9486000000 0.8394000000
3.5047000000 5.2223000000 0.2653000000
3.5046000000 0.8171000000 0.2884000000
3.5045000000 2.0623000000 0.8431000000
3.5044000000 1.7702000000 0.7172000000
3.5044000000 1.7246000000 0.6911000000
3.5043000000 3.8787000000 0.8661000000
3.5042000000 3.1493000000 1.1920000000
3.5041000000 4.1741000000 0.7343000000
3.5040000000 2.6598000000 1.1014000000
3.5039000000 0.5980000000 0.1931000000
3.5038000000 1.5648000000 0.6270000000
3.5037000000 2.6803000000 1.1190000000
3.5033000000 1.5432000000 0.6100000000
3.5032000000 2.0822000000 0.8485000000
3.5031000000 0.8591000000 0.3074000000
3.5030000000 2.8138000000 1.1758000000
3.5028000000 3.1109000000 1.2111000000
3.5027000000 3.6489000000 0.9702000000
3.5026000000 0.9208000000 0.3374000000
3.5025000000 3.7796000000 0.9116000000
3.5022000000 4.6880000000 0.5145000000
3.5021000000 0.7006000000 0.2321000000
3.5020000000 5.8295000000 0.0804000000
3.5019000000 2.4604000000 1.0157000000
3.5018000000 5.6091000000 0.1015000000
3.5016000000 5.2758000000 0.2531000000
3.5015000000 2.7475000000 1.1473000000
3.5014000000 3.1171000000 1.2119000000
3.5014000000 2.1107000000 0.8676000000
3.5013000000 3.2591000000 1.1435000000
3.5013000000 1.8194000000 0.7379000000
3.5010000000 2.7943000000 1.1675000000
3.5007000000 1.8191000000 0.7359000000
3.5005000000 1.3679000000 0.5312000000
3.5004000000 3.1578000000 1.1913000000
3.5003000000 1.7862000000 0.7245000000
3.4999000000 3.8517000000 0.8799000000
3.4997000000 5.8506000000 0.0691000000
3.4995000000 2.8221000000 1.1827000000
3.4995000000 1.6064000000 0.6348000000
3.4994000000 2.3783000000 0.9867000000
3.4989000000 0.2814000000 0.1279000000
3.4988000000 0.7898000000 0.2810000000
3.4988000000 1.1192000000 0.4300000000
3.4985000000 2.0461000000 0.8379000000
3.4983000000 1.0843000000 0.4056000000
3.4969000000 2.3342000000 0.9657000000
3.4968000000 1.9386000000 0.7861000000
3.4966000000 0.8562000000 0.3053000000
3.2638000000 2.6734000000 1.2973000000
3.2624000000 2.8936000000 1.3927000000
3.2619000000 5.3789000000 0.3895000000
3.2608000000 0.1313000000 0.0728000000
3.2607000000 3.4286000000 1.2604000000
3.2603000000 4.7288000000 0.6741000000
3.2600000000 3.8586000000 1.0672000000
3.2590000000 0.6411000000 0.4025000000
3.2584000000 5.6903000000 0.2977000000
3.2583000000 3.8462000000 1.0771000000
3.2583000000 2.7610000000 1.3379000000
3.2579000000 5.4975000000 0.3343000000
3.2578000000 4.5335000000 0.7637000000
3.2575000000 4.6462000000 0.7200000000
3.2568000000 4.5189000000 0.7783000000
3.2568000000 1.3876000000 0.7336000000
3.2566000000 4.2863000000 0.8712000000
3.2565000000 5.4461000000 0.3615000000
3.2565000000 5.4474000000 0.3594000000
3.2563000000 3.4912000000 1.2303000000
3.2559000000 3.7551000000 1.1083000000
3.2557000000 5.5869000000 0.3630000000
3.2557000000 0.2124000000 0.1423000000
3.2556000000 3.9724000000 1.0194000000
3.2556000000 0.3781000000 0.3396000000
3.2555000000 5.6370000000 0.3423000000
3.2555000000 0.2266000000 0.1560000000
3.2554000000 3.8890000000 1.0534000000
3.2553000000 3.6773000000 1.1453000000
3.2552000000 5.7487000000 0.1827000000
3.2551000000 1.5400000000 0.7998000000
3.2551000000 2.4421000000 1.2049000000
3.2550000000 1.7787000000 0.9095000000
3.2549000000 1.0609000000 0.5894000000
3.2549000000 4.0997000000 0.9634000000
3.2548000000 1.4655000000 0.7715000000
3.2546000000 0.2829000000 0.2696000000
3.2546000000 2.1974000000 1.0944000000
3.2545000000 2.7722000000 1.3498000000
3.2542000000 3.7284000000 1.1264000000
3.2540000000 1.1809000000 0.6395000000
3.2542000000 0.3789000000 0.3416000000
3.2539000000 3.2414000000 1.3424000000
3.2537000000 0.8783000000 0.5106000000
3.2537000000 3.5091000000 1.2234000000
3.2536000000 0.5237000000 0.3521000000
3.2535000000 0.0566000000 0.0845000000
3.2535000000 1.7225000000 0.8818000000
3.2533000000 1.6291000000 0.8402000000
3.2531000000 4.5597000000 0.7557000000
3.2530000000 3.5555000000 1.2081000000
3.2530000000 2.2540000000 1.1216000000
3.2530000000 2.1090000000 1.0575000000
3.2529000000 0.7816000000 0.4695000000
3.2529000000 1.7641000000 0.9017000000
3.2528000000 0.0568000000 0.0818000000
3.2527000000 2.6373000000 1.2859000000
3.2526000000 0.0843000000 0.1047000000
3.2525000000 2.1220000000 1.0597000000
3.2524000000 1.0665000000 0.5934000000
3.2523000000 0.1581000000 0.0983000000
3.2523000000 2.6901000000 1.3105000000
3.2520000000 3.2165000000 1.3595000000
3.2518000000 5.1246000000 0.5081000000
3.2518000000 0.0670000000 0.0951000000
3.2518000000 3.0906000000 1.4104000000
3.2516000000 0.0568000000 0.0824000000
3.2515000000 2.0181000000 1.0148000000
3.2515000000 2.3641000000 1.1693000000
3.2514000000 3.3358000000 1.3029000000
3.2514000000 3.3904000000 1.2801000000
3.2513000000 5.8684000000 0.0718000000
3.2512000000 0.1166000000 0.1380000000
3.2511000000 5.9826000000 0.0468000000
3.2510000000 1.6686000000 0.8566000000
3.2505000000 1.1739000000 0.6421000000
3.2505000000 5.2815000000 0.4408000000
3.2503000000 1.9460000000 0.9844000000
3.2502000000 2.9211000000 1.4173000000
3.2499000000 1.5923000000 0.8256000000
3.2491000000 4.2063000000 0.9158000000
3.2486000000 1.1824000000 0.6496000000
3.2483000000 4.4779000000 0.7987000000
3.2480000000 0.9902000000 0.5611000000
3.2472000000 1.4015000000 0.7444000000
3.2472000000 2.2521000000 1.1273000000
3.2459000000 1.3073000000 0.7095000000
3.0128000000 5.6422000000 0.2750000000
3.0128000000 3.6629000000 1.3407000000
3.0110000000 3.5032000000 1.4078000000
3.0109000000 5.2957000000 0.6445000000
3.0101000000 3.5486000000 1.3973000000
3.0099000000 4.1451000000 1.1331000000
3.0088000000 2.9890000000 1.6979000000
3.0083000000 4.8476000000 0.8209000000
3.0080000000 3.1408000000 1.5782000000
3.0080000000 5.4669000000 0.4358000000
3.0078000000 1.0033000000 0.7547000000
3.0075000000 5.1120000000 0.6914000000
3.0073000000 1.0548000000 0.7774000000
3.0071000000 4.2285000000 1.0993000000
3.0070000000 3.4565000000 1.4352000000
3.0069000000 0.7811000000 0.7052000000
3.0069000000 0.0972000000 0.1179000000
3.0064000000 4.5558000000 0.9521000000
3.0063000000 3.9070000000 1.2403000000
3.0063000000 5.3216000000 0.5596000000
3.0059000000 2.9135000000 1.5995000000
3.0058000000 1.2516000000 0.8721000000
3.0057000000 3.3269000000 1.4952000000
3.0056000000 3.2222000000 1.5384000000
3.0056000000 1.2369000000 0.8604000000
3.0053000000 1.5504000000 0.9967000000
3.0050000000 0.4227000000 0.3320000000
3.0049000000 2.1795000000 1.2834000000
3.0048000000 3.3889000000 1.4696000000
3.0045000000 3.8893000000 1.2477000000
3.0044000000 1.5972000000 1.0181000000
3.0043000000 1.2088000000 0.8472000000
3.0042000000 2.9089000000 1.5978000000
3.0040000000 3.6549000000 1.3515000000
3.0039000000 4.8353000000 0.8300000000
3.0039000000 3.7182000000 1.3234000000
3.0038000000 3.8852000000 1.2493000000
3.0038000000 4.9913000000 0.7572000000
3.0037000000 1.4978000000 0.9764000000
3.0036000000 2.9642000000 1.6864000000
3.0035000000 5.9096000000 0.1167000000
3.0032000000 1.5565000000 1.0036000000
3.0031000000 0.8132000000 0.7329000000
3.0030000000 1.3753000000 0.9225000000
3.0028000000 1.7154000000 1.0707000000
3.0027000000 3.1493000000 1.5771000000
3.0027000000 0.9944000000 0.7586000000
3.0026000000 4.7771000000 0.8637000000
3.0023000000 1.5024000000 0.9814000000
3.0021000000 0.3841000000 0.2978000000
3.0020000000 5.9631000000 0.0650000000
3.0019000000 2.9372000000 1.6161000000
3.0018000000 1.8778000000 1.1463000000
3.0015000000 3.5238000000 1.4087000000
3.0014000000 4.2392000000 1.0903000000
3.0013000000 5.7095000000 0.2124000000
3.0014000000 1.6634000000 1.0547000000
3.0011000000 0.5321000000 0.4240000000
3.0009000000 4.4548000000 0.9951000000
3.0008000000 5.2354000000 0.6925000000
3.0006000000 3.2068000000 1.5540000000
3.0005000000 0.3305000000 0.2541000000
3.0003000000 5.2266000000 0.7048000000
3.0002000000 0.0984000000 0.1202000000
3.0001000000 3.5990000000 1.3793000000
3.0000000000 2.7912000000 1.5535000000
3.0000000000 2.4291000000 1.3916000000
2.9996000000 3.8700000000 1.2607000000
2.9989000000 0.9994000000 0.7642000000
2.9987000000 0.7837000000 0.7174000000
2.9981000000 4.9823000000 0.7655000000
2.9979000000 4.0829000000 1.1675000000
2.9978000000 0.2813000000 0.2078000000
2.9977000000 4.5825000000 0.9444000000
2.9972000000 0.0849000000 0.1092000000
2.9967000000 2.3755000000 1.3730000000
2.9967000000 4.9905000000 0.7649000000
2.9959000000 0.4603000000 0.3680000000
2.7631000000 0.6749000000 0.5564000000
2.7617000000 4.8532000000 1.0373000000
2.7608000000 0.0447000000 0.0734000000
2.7605000000 2.4972000000 1.6051000000
2.7603000000 5.9390000000 0.0892000000
2.7595000000 5.7880000000 0.1503000000
2.7595000000 1.7477000000 1.2748000000
2.7593000000 5.6454000000 0.2759000000
2.7593000000 5.3550000000 0.5323000000
2.7592000000 5.9528000000 0.0823000000
2.7591000000 2.6554000000 1.6776000000
2.7589000000 5.8941000000 0.1260000000
2.7583000000 2.9721000000 1.8783000000
2.7579000000 5.5925000000 0.3194000000
2.7577000000 1.5849000000 1.2060000000
2.7577000000 5.4428000000 0.4514000000
2.7575000000 3.0695000000 1.8026000000
2.7573000000 2.6063000000 1.6615000000
2.7573000000 3.0730000000 1.7951000000
2.7571000000 5.5494000000 0.3559000000
2.7570000000 2.9401000000 1.8046000000
2.7570000000 1.5331000000 1.1798000000
2.7568000000 2.8624000000 1.7667000000
2.7565000000 3.9349000000 1.4100000000
2.7565000000 5.3956000000 0.4986000000
2.7563000000 4.3113000000 1.2510000000
2.7560000000 0.4480000000 0.3550000000
2.7561000000 3.6751000000 1.5329000000
2.7557000000 4.5747000000 1.1344000000
2.7557000000 2.2900000000 1.5182000000
2.7555000000 4.8577000000 1.0327000000
2.7553000000 4.8715000000 0.9579000000
2.7553000000 4.5565000000 1.1454000000
2.7552000000 2.8372000000 1.7587000000
2.7550000000 1.2111000000 1.0927000000
2.7548000000 3.6815000000 1.5338000000
2.7546000000 2.9590000000 1.8743000000
2.7544000000 0.8143000000 0.6843000000
2.7543000000 0.6178000000 0.4997000000
2.7543000000 0.4838000000 0.3857000000
2.7542000000 4.4266000000 1.1976000000
2.7541000000 2.3399000000 1.5432000000
2.7541000000 1.0981000000 0.9328000000
2.7539000000 4.2864000000 1.2632000000
2.7537000000 1.0271000000 0.8669000000
2.7536000000 0.1009000000 0.1167000000
2.7534000000 3.6033000000 1.5656000000
2.7533000000 2.5131000000 1.6170000000
2.7532000000 4.9288000000 0.9074000000
2.7532000000 2.6414000000 1.6731000000
2.7531000000 5.5610000000 0.3469000000
2.7528000000 0.6863000000 0.5644000000
2.7528000000 5.9371000000 0.0885000000
2.7525000000 5.2242000000 0.6491000000
2.7521000000 0.2988000000 0.2190000000
2.7520000000 1.2868000000 1.1336000000
2.7519000000 1.0388000000 0.8730000000
2.7519000000 3.7713000000 1.4970000000
2.7518000000 3.1565000000 1.7729000000
2.7517000000 6.0086000000 0.0204000000
2.7514000000 1.5349000000 1.1865000000
2.7513000000 2.3024000000 1.5277000000
2.7513000000 5.4429000000 0.4530000000
2.7512000000 4.2755000000 1.2689000000
2.7510000000 3.1331000000 1.7788000000
2.7509000000 2.8675000000 1.7745000000
2.7508000000 2.2823000000 1.5212000000
2.7506000000 3.5317000000 1.6034000000
2.7503000000 0.3031000000 0.2247000000
2.7499000000 0.5852000000 0.4800000000
2.7498000000 3.5389000000 1.5956000000
2.7498000000 2.3670000000 1.5534000000
2.7496000000 0.7980000000 0.6642000000
2.7494000000 0.2935000000 0.2201000000
2.7492000000 1.4345000000 1.1410000000
2.7487000000 2.4915000000 1.6107000000
2.7473000000 0.3070000000 0.2287000000
2.7463000000 4.6992000000 1.1458000000
2.7462000000 1.2268000000 1.1094000000
2.5140000000 5.4293000000 0.4637000000
2.5089000000 5.6857000000 0.2428000000
2.5088000000 0.4615000000 0.3639000000
2.5088000000 0.7355000000 0.6100000000
2.5081000000 2.9098000000 1.9806000000
2.5079000000 2.0490000000 1.6024000000
2.5075000000 4.7924000000 1.0326000000
2.5072000000 0.6898000000 0.5659000000
2.5070000000 0.4157000000 0.3259000000
2.5068000000 4.8394000000 0.9878000000
2.5068000000 3.7197000000 1.7094000000
2.5068000000 3.2543000000 1.9104000000
2.5066000000 2.6709000000 1.8737000000
2.5066000000 2.4621000000 1.7858000000
2.5063000000 5.4812000000 0.4139000000
2.5063000000 3.1877000000 1.9443000000
2.5062000000 4.7754000000 1.0379000000
2.5060000000 5.4477000000 0.4471000000
2.5060000000 5.9155000000 0.1077000000
2.5058000000 3.6807000000 1.7270000000
2.5058000000 2.7695000000 1.9243000000
2.5058000000 2.3217000000 1.7248000000
2.5055000000 5.6496000000 0.2724000000
2.5055000000 2.4920000000 1.8001000000
2.5053000000 0.7007000000 0.5790000000
2.5053000000 3.5665000000 1.7786000000
2.5052000000 5.3899000000 0.5017000000
2.5050000000 0.9786000000 0.8280000000
2.5049000000 0.1399000000 0.0772000000
2.5048000000 4.9243000000 0.9195000000
2.5046000000 0.7690000000 0.6423000000
2.5045000000 3.5233000000 1.7954000000
2.5045000000 2.7113000000 1.8927000000
2.5043000000 5.6365000000 0.2780000000
2.5043000000 4.6856000000 1.1245000000
2.5042000000 5.5223000000 0.3869000000
2.5041000000 4.9225000000 0.9158000000
2.5041000000 0.6583000000 0.5405000000
2.5039000000 0.9858000000 0.8308000000
2.5037000000 2.0301000000 1.6005000000
2.5035000000 0.3493000000 0.2705000000
2.5035000000 4.9603000000 0.8838000000
2.5034000000 1.4128000000 1.2130000000
2.5032000000 3.2973000000 1.8954000000
2.5032000000 2.3187000000 1.7240000000
2.5030000000 1.4981000000 1.2916000000
2.5028000000 1.7906000000 1.4862000000
2.5028000000 4.4907000000 1.3038000000
2.5027000000 5.5455000000 0.3634000000
2.5025000000 4.7304000000 1.0908000000
2.5025000000 3.5018000000 1.7992000000
2.5024000000 5.5387000000 0.3715000000
2.5023000000 4.0532000000 1.5598000000
2.5023000000 2.3507000000 1.7403000000
2.5022000000 0.1520000000 0.0947000000
2.5020000000 1.2583000000 1.0760000000
2.5020000000 2.4841000000 1.8012000000
2.5017000000 4.1218000000 1.5282000000
2.5013000000 3.7122000000 1.7178000000
2.5013000000 2.1342000000 1.6491000000
2.5011000000 0.0090000000 0.0372000000
2.5010000000 1.2265000000 1.0418000000
2.5009000000 5.5133000000 0.3916000000
2.5008000000 2.0045000000 1.5905000000
2.5006000000 5.4481000000 0.4488000000
2.5006000000 3.4651000000 1.8190000000
2.5005000000 1.6391000000 1.4773000000
2.5000000000 0.6691000000 0.5500000000
2.4997000000 1.0512000000 0.8917000000
2.4996000000 1.0723000000 0.9130000000
2.4995000000 3.7466000000 1.6973000000
2.4993000000 2.3235000000 1.7306000000
2.4992000000 0.7567000000 0.6269000000
2.4990000000 4.2844000000 1.5187000000
2.4989000000 5.5497000000 0.3546000000
2.4988000000 1.7925000000 1.4943000000
2.4987000000 1.8963000000 1.5333000000
2.4979000000 2.3330000000 1.7340000000
2.4973000000 0.1202000000 0.0682000000
2.4970000000 5.6250000000 0.2952000000
2.4969000000 3.0386000000 2.0701000000
2.4968000000 0.6522000000 0.5317000000
2.4954000000 0.4570000000 0.3626000000
2.2602000000 5.4321000000 0.4647000000
2.2596000000 5.9084000000 0.1095000000
2.2592000000 5.5501000000 0.3552000000
2.2592000000 3.7383000000 1.8870000000
2.2585000000 3.1842000000 2.1365000000
2.2583000000 4.6287000000 1.1792000000
2.2579000000 3.3798000000 2.0453000000
2.2578000000 5.8648000000 0.0832000000
2.2576000000 2.8485000000 2.1518000000
2.2575000000 5.9756000000 0.0608000000
2.2574000000 3.1832000000 2.1361000000
2.2573000000 0.8659000000 0.7257000000
2.2573000000 4.5249000000 1.2678000000
2.2572000000 0.5532000000 0.4512000000
2.2571000000 4.0153000000 1.7107000000
2.2570000000 2.5591000000 2.0189000000
2.2568000000 4.5083000000 1.2875000000
2.2565000000 4.9356000000 0.9050000000
2.2565000000 4.7118000000 1.1024000000
2.2564000000 5.5914000000 0.3239000000
2.2558000000 1.6374000000 1.4039000000
2.2556000000 3.2410000000 2.1105000000
2.2553000000 0.4677000000 0.3728000000
2.2552000000 1.0185000000 0.8626000000
2.2551000000 3.4287000000 2.0232000000
2.2550000000 0.9911000000 0.8391000000
2.2549000000 4.3066000000 1.4586000000
2.2549000000 2.0111000000 1.8033000000
2.2548000000 5.5420000000 0.3669000000
2.2548000000 1.7696000000 1.5227000000
2.2541000000 1.2272000000 1.0468000000
2.2539000000 3.2223000000 2.1244000000
2.2537000000 2.0000000000 1.7999000000
2.2537000000 0.2902000000 0.2117000000
2.2536000000 1.7516000000 1.5132000000
2.2536000000 2.4753000000 1.9922000000
2.2535000000 1.2416000000 1.0606000000
2.2535000000 0.4187000000 0.3261000000
2.2534000000 5.5732000000 0.3383000000
2.2533000000 0.3707000000 0.2852000000
2.2531000000 2.2821000000 1.9042000000
2.2527000000 4.8982000000 0.9325000000
2.2525000000 2.8192000000 2.1411000000
2.2525000000 5.7191000000 0.2091000000
2.2524000000 1.3573000000 1.1623000000
2.2523000000 0.7896000000 0.6568000000
2.2521000000 0.6059000000 0.4930000000
2.2518000000 1.3133000000 1.1152000000
2.2517000000 3.9487000000 1.8421000000
2.2515000000 3.4702000000 2.0149000000
2.2513000000 0.3514000000 0.2678000000
2.2510000000 1.9095000000 1.6511000000
2.2510000000 3.2894000000 2.0965000000
2.2508000000 2.7175000000 2.0927000000
2.2503000000 0.1802000000 0.1125000000
2.2497000000 2.0046000000 1.8007000000
2.2495000000 3.5641000000 1.9696000000
2.2484000000 0.7891000000 0.6599000000
2.2482000000 3.3477000000 2.0721000000
2.2475000000 3.7993000000 1.9321000000
2.2474000000 0.7904000000 0.6605000000
2.2470000000 1.7137000000 1.4801000000
2.2453000000 0.0573000000 0.0849000000
2.0117000000 1.9562000000 1.6881000000
2.0113000000 3.7440000000 1.9592000000
2.0112000000 3.3101000000 2.2724000000
2.0111000000 5.9061000000 0.1150000000
2.0101000000 4.0616000000 1.6787000000
2.0097000000 5.9549000000 0.0716000000
2.0093000000 1.6760000000 1.4455000000
2.0091000000 2.1205000000 1.8328000000
2.0088000000 4.1971000000 1.5540000000
2.0083000000 5.2025000000 0.6679000000
2.0078000000 5.6769000000 0.2437000000
2.0078000000 1.9892000000 1.7269000000
2.0074000000 1.7991000000 1.5577000000
2.0073000000 0.4286000000 0.3342000000
2.0071000000 4.0702000000 1.6736000000
2.0071000000 4.8716000000 0.9639000000
2.0070000000 2.4830000000 2.2177000000
2.0066000000 3.2488000000 2.3026000000
2.0064000000 1.2503000000 1.0683000000
2.0063000000 4.0232000000 1.7137000000
2.0063000000 5.0050000000 0.8395000000
2.0062000000 0.7162000000 0.5916000000
2.0058000000 0.2313000000 0.1574000000
2.0052000000 4.0164000000 1.7225000000
2.0050000000 5.6847000000 0.2376000000
2.0049000000 1.9263000000 1.6665000000
2.0047000000 0.8071000000 0.6771000000
2.0045000000 4.7118000000 1.1025000000
2.0043000000 1.6485000000 1.4188000000
2.0042000000 5.2441000000 0.6290000000
2.0038000000 2.1375000000 1.8516000000
2.0038000000 1.2919000000 1.1031000000
2.0035000000 2.1434000000 1.8528000000
2.0035000000 0.5383000000 0.4343000000
2.0033000000 2.0481000000 1.7675000000
2.0032000000 4.8202000000 1.0012000000
2.0032000000 5.0900000000 0.7656000000
2.0031000000 4.9608000000 0.8820000000
2.0029000000 4.6004000000 1.1982000000
2.0028000000 1.4837000000 1.2724000000
2.0021000000 1.8832000000 1.6288000000
2.0019000000 0.1588000000 0.0975000000
2.0018000000 0.7372000000 0.6065000000
2.0015000000 3.0930000000 2.3726000000
2.0015000000 3.9710000000 1.7626000000
2.0013000000 2.3322000000 2.0206000000
2.0011000000 2.5298000000 2.2674000000
2.0010000000 2.2507000000 1.9516000000
2.0010000000 5.2307000000 0.6429000000
2.0009000000 4.0256000000 1.7133000000
2.0007000000 4.5813000000 1.2160000000
2.0007000000 2.9120000000 2.3775000000
2.0005000000 2.1147000000 1.8375000000
2.0005000000 4.8674000000 0.9650000000
2.0004000000 0.6620000000 0.5427000000
2.0000000000 3.2546000000 2.3028000000
1.9999000000 3.9311000000 1.7971000000
1.9996000000 2.9751000000 2.4688000000
1.9996000000 4.9458000000 0.8923000000
1.9995000000 0.2223000000 0.1550000000
1.9988000000 2.7105000000 2.2859000000
1.9988000000 0.3291000000 0.2456000000
1.9988000000 3.7992000000 1.9146000000
1.9986000000 0.2456000000 0.1749000000
1.9982000000 3.9524000000 1.7799000000
1.9982000000 3.9134000000 1.8136000000
1.9980000000 1.3048000000 1.1084000000
1.9976000000 0.2343000000 0.1675000000
1.9974000000 2.3409000000 2.0370000000
1.9973000000 3.0544000000 2.3899000000
1.9968000000 2.1332000000 1.8503000000
1.9965000000 3.3174000000 2.2791000000
1.9964000000 4.2056000000 1.5544000000
1.9963000000 3.6190000000 2.0687000000
1.9952000000 1.3171000000 1.1285000000
1.9939000000 1.3464000000 1.1512000000
1.7632000000 2.3501000000 2.0440000000
1.7628000000 3.7150000000 1.9901000000
1.7626000000 5.7563000000 0.1726000000
1.7615000000 5.5876000000 0.3254000000
1.7605000000 5.5514000000 0.3533000000
1.7601000000 4.6969000000 1.1201000000
1.7595000000 4.6384000000 1.1764000000
1.7595000000 3.8333000000 1.8853000000
1.7590000000 4.7817000000 1.0385000000
1.7590000000 4.5158000000 1.2787000000
1.7587000000 4.9327000000 0.9122000000
1.7586000000 4.9382000000 0.9034000000
1.7585000000 2.0163000000 1.7412000000
1.7584000000 0.6421000000 0.5274000000
1.7585000000 4.8238000000 1.0012000000
1.7583000000 5.4223000000 0.4759000000
1.7580000000 3.3054000000 2.3491000000
1.7579000000 2.8291000000 2.4655000000
1.7578000000 2.5727000000 2.2400000000
1.7577000000 0.9035000000 0.7603000000
1.7576000000 6.0105000000 0.0213000000
1.7574000000 5.0898000000 0.7696000000
1.7574000000 5.9111000000 0.1123000000
1.7572000000 5.7388000000 0.1915000000
1.7571000000 0.0847000000 0.1081000000
1.7568000000 2.5201000000 2.1948000000
1.7568000000 5.1416000000 0.7222000000
1.7567000000 4.0852000000 1.6570000000
1.7566000000 0.0020000000 0.0301000000
1.7565000000 2.5180000000 2.1869000000
1.7563000000 3.9814000000 1.7586000000
1.7562000000 3.8605000000 1.8564000000
1.7561000000 5.0704000000 0.7864000000
1.7562000000 4.0737000000 1.6705000000
1.7560000000 2.3126000000 2.0071000000
1.7559000000 3.8465000000 1.8726000000
1.7558000000 1.4485000000 1.2407000000
1.7558000000 4.0263000000 1.7139000000
1.7555000000 5.5662000000 0.3421000000
1.7551000000 3.2672000000 2.3824000000
1.7549000000 1.6596000000 1.4293000000
1.7548000000 4.0757000000 1.6650000000
1.7546000000 2.0328000000 1.7605000000
1.7545000000 4.3137000000 1.4563000000
1.7544000000 1.9716000000 1.7072000000
1.7542000000 2.1402000000 1.8567000000
1.7541000000 5.4918000000 0.4106000000
1.7540000000 3.9547000000 1.7721000000
1.7540000000 4.2975000000 1.4717000000
1.7538000000 1.4024000000 1.2083000000
1.7538000000 4.6160000000 1.1848000000
1.7537000000 0.9166000000 0.7713000000
1.7535000000 2.5470000000 2.2154000000
1.7530000000 5.6358000000 0.2803000000
1.7530000000 4.4022000000 1.3768000000
1.7527000000 1.1354000000 0.9628000000
1.7520000000 3.8451000000 1.8710000000
1.7520000000 1.3514000000 1.1613000000
1.7517000000 4.8839000000 0.9494000000
1.7517000000 1.2413000000 1.0658000000
1.7516000000 4.5186000000 1.2718000000
1.7515000000 0.1583000000 0.1022000000
1.7515000000 0.0359000000 0.0624000000
1.7514000000 0.3376000000 0.2531000000
1.7511000000 0.7294000000 0.6045000000
1.7509000000 0.6113000000 0.4973000000
1.7506000000 2.0714000000 1.7944000000
1.7504000000 1.6803000000 1.4504000000
1.7503000000 1.2844000000 1.0970000000
1.7500000000 0.2431000000 0.1733000000
1.7499000000 0.3606000000 0.2771000000
1.7498000000 4.8665000000 0.9647000000
1.7498000000 1.3051000000 1.1130000000
1.7497000000 1.3318000000 1.1384000000
1.7495000000 4.7064000000 1.1081000000
1.7494000000 1.7455000000 1.5071000000
1.7493000000 0.2872000000 0.2097000000
1.7491000000 2.7643000000 2.4099000000
1.7490000000 1.2200000000 1.0338000000
1.7489000000 0.9025000000 0.7534000000
1.7488000000 4.6987000000 1.1128000000
1.7487000000 5.5722000000 0.3389000000
1.7482000000 1.6329000000 1.4079000000
1.7480000000 2.1538000000 1.8670000000
1.7478000000 2.5192000000 2.1915000000
1.7468000000 1.2172000000 1.0306000000
1.7468000000 2.3907000000 2.0783000000
1.5113000000 5.7909000000 0.1438000000
1.5092000000 4.7955000000 1.0239000000
1.5090000000 4.2637000000 1.5030000000
1.5085000000 1.5668000000 1.3495000000
1.5084000000 3.3688000000 2.3463000000
1.5082000000 4.2451000000 1.5145000000
1.5080000000 5.9485000000 0.0817000000
1.5078000000 5.5845000000 0.3273000000
1.5075000000 5.5001000000 0.4075000000
1.5075000000 2.5106000000 2.1758000000
1.5073000000 1.8978000000 1.6361000000
1.5073000000 2.4796000000 2.1533000000
1.5071000000 2.4501000000 2.1358000000
1.5068000000 3.8929000000 1.8346000000
1.5068000000 5.5446000000 0.3623000000
1.5065000000 1.1639000000 0.9855000000
1.5064000000 3.2784000000 2.3204000000
1.5063000000 1.4760000000 1.2709000000
1.5063000000 0.7322000000 0.6025000000
1.5062000000 1.3993000000 1.1996000000
1.5061000000 1.4948000000 1.2845000000
1.5060000000 2.1767000000 1.8865000000
1.5059000000 4.5408000000 1.2508000000
1.5057000000 3.3521000000 2.3488000000
1.5055000000 5.9061000000 0.1176000000
1.5052000000 3.9387000000 1.7848000000
1.5051000000 5.9913000000 0.0401000000
1.5051000000 5.0075000000 0.8352000000
1.5050000000 5.9121000000 0.1126000000
1.5050000000 3.3210000000 2.3623000000
1.5049000000 1.0034000000 0.8485000000
1.5045000000 0.5134000000 0.4084000000
1.5045000000 4.1979000000 1.5603000000
1.5043000000 4.5609000000 1.2345000000
1.5042000000 3.9084000000 1.8207000000
1.5040000000 4.1001000000 1.6486000000
1.5039000000 5.4838000000 0.4137000000
1.5038000000 2.2750000000 1.9755000000
1.5038000000 3.1674000000 2.3664000000
1.5036000000 2.1564000000 1.8713000000
1.5037000000 2.7737000000 2.3420000000
1.5036000000 0.0924000000 0.1134000000
1.5035000000 2.2193000000 1.9310000000
1.5034000000 2.7980000000 2.3569000000
1.5033000000 3.0184000000 2.5057000000
1.5032000000 4.3249000000 1.4506000000
1.5030000000 3.8524000000 1.8588000000
1.5029000000 2.0605000000 1.7861000000
1.5028000000 0.7133000000 0.5887000000
1.5027000000 1.7779000000 1.5388000000
1.5026000000 4.4439000000 1.3420000000
1.5025000000 2.6578000000 2.3535000000
1.5024000000 0.6346000000 0.5228000000
1.5020000000 2.2255000000 1.9296000000
1.5019000000 5.6352000000 0.2825000000
1.5019000000 0.6291000000 0.5191000000
1.5018000000 4.8331000000 0.9920000000
1.5018000000 6.0151000000 0.0238000000
1.5015000000 1.4170000000 1.2182000000
1.5015000000 4.2264000000 1.5343000000
1.5013000000 0.6753000000 0.5560000000
1.5006000000 0.3940000000 0.3095000000
1.5003000000 0.9733000000 0.8277000000
1.5001000000 0.3618000000 0.2777000000
1.4999000000 0.8220000000 0.6883000000
1.4995000000 4.4228000000 1.3561000000
1.4992000000 1.0539000000 0.8904000000
1.4984000000 3.5836000000 2.1053000000
1.4984000000 3.1286000000 2.3854000000
1.4981000000 4.4426000000 1.3363000000
1.4973000000 1.3082000000 1.1114000000
1.4973000000 4.2082000000 1.5444000000
1.4971000000 5.1344000000 0.7287000000
1.4968000000 2.1606000000 1.8738000000
1.2618000000 5.2151000000 0.6598000000
1.2609000000 2.0791000000 1.7902000000
1.2600000000 4.8173000000 1.0085000000
1.2588000000 5.3615000000 0.5245000000
1.2585000000 4.9631000000 0.8768000000
1.2582000000 0.9117000000 0.7660000000
1.2581000000 5.6606000000 0.2619000000
1.2580000000 0.7295000000 0.5986000000
1.2571000000 1.4775000000 1.2645000000
1.2570000000 4.3472000000 1.4229000000
1.2569000000 0.1003000000 0.1210000000
1.2569000000 3.3907000000 2.0822000000
1.2567000000 5.0831000000 0.7698000000
1.2565000000 3.9421000000 1.7802000000
1.2563000000 4.0473000000 1.6919000000
1.2563000000 3.5526000000 2.0083000000
1.2561000000 3.1485000000 2.1832000000
1.2558000000 3.7805000000 1.9695000000
1.2558000000 4.9253000000 0.9124000000
1.2557000000 5.4523000000 0.4416000000
1.2557000000 4.7886000000 1.0327000000
1.2555000000 4.2590000000 1.5018000000
1.2554000000 0.7415000000 0.6122000000
1.2553000000 1.0401000000 0.8867000000
1.2553000000 2.2795000000 1.9283000000
1.2550000000 5.9576000000 0.0690000000
1.2550000000 5.6002000000 0.3121000000
1.2549000000 1.1603000000 0.9862000000
1.2547000000 5.2248000000 0.6486000000
1.2549000000 2.2098000000 1.9641000000
1.2545000000 2.7194000000 2.1305000000
1.2544000000 3.9914000000 1.7388000000
1.2544000000 4.3047000000 1.4651000000
1.2542000000 3.3584000000 2.0877000000
1.2541000000 3.6079000000 1.9840000000
1.2541000000 0.8537000000 0.7145000000
1.2540000000 4.0216000000 1.7163000000
1.2540000000 1.5699000000 1.3504000000
1.2539000000 5.9320000000 0.0968000000
1.2538000000 2.8873000000 2.2042000000
1.2538000000 2.2209000000 1.9681000000
1.2537000000 5.8216000000 0.1172000000
1.2536000000 2.8585000000 2.1858000000
1.2535000000 5.8938000000 0.1260000000
1.2533000000 5.9937000000 0.0408000000
1.2529000000 0.2394000000 0.1627000000
1.2528000000 5.1594000000 0.7052000000
1.2527000000 2.2504000000 1.9758000000
1.2526000000 5.5404000000 0.3642000000
1.2525000000 4.9127000000 0.9242000000
1.2524000000 0.3087000000 0.2306000000
1.2523000000 1.7789000000 1.5382000000
1.2524000000 1.0850000000 0.9188000000
1.2521000000 1.9183000000 1.6620000000
1.2521000000 2.9760000000 2.3047000000
1.2520000000 1.2797000000 1.0958000000
1.2520000000 1.1758000000 0.9995000000
1.2518000000 0.2599000000 0.1892000000
1.2518000000 5.6912000000 0.2283000000
1.2516000000 1.4109000000 1.2064000000
1.2515000000 0.9706000000 0.8182000000
1.2516000000 1.5434000000 1.3247000000
1.2515000000 1.6105000000 1.3862000000
1.2515000000 5.1251000000 0.7362000000
1.2513000000 3.6104000000 1.9835000000
1.2512000000 5.9811000000 0.0517000000
1.2511000000 0.1382000000 0.0820000000
1.2508000000 5.3334000000 0.5451000000
1.2510000000 5.5784000000 0.3404000000
1.2507000000 0.8286000000 0.6896000000
1.2505000000 0.6850000000 0.5648000000
1.2505000000 1.6616000000 1.4319000000
1.2504000000 5.3786000000 0.5108000000
1.2503000000 2.0649000000 1.7860000000
1.2497000000 2.8927000000 2.2009000000
1.2493000000 2.4859000000 2.0209000000
1.2490000000 1.9278000000 1.6717000000
1.2480000000 1.4251000000 1.2209000000
1.2475000000 0.4480000000 0.3567000000
1.2470000000 0.8854000000 0.7438000000
1.2468000000 0.0073000000 0.0409000000
1.2448000000 1.0638000000 0.8978000000
1.0147000000 5.7941000000 0.1427000000
1.0124000000 0.5203000000 0.4256000000
1.0115000000 3.8488000000 1.6893000000
1.0114000000 2.8672000000 2.0034000000
1.0106000000 0.4307000000 0.3445000000
1.0102000000 5.1738000000 0.6912000000
1.0102000000 3.5961000000 1.8017000000
1.0097000000 3.4633000000 1.8590000000
1.0083000000 4.4951000000 1.2922000000
1.0083000000 2.1672000000 1.6931000000
1.0082000000 4.7036000000 1.1082000000
1.0080000000 0.9442000000 0.7974000000
1.0079000000 4.8829000000 0.9566000000
1.0078000000 3.1957000000 1.9820000000
1.0073000000 1.1297000000 0.9576000000
1.0069000000 3.2812000000 1.9448000000
1.0069000000 2.3483000000 1.7714000000
1.0065000000 5.4424000000 0.4521000000
1.0065000000 4.2646000000 1.5590000000
1.0062000000 3.2395000000 1.9576000000
1.0060000000 3.7943000000 1.7137000000
1.0059000000 4.3617000000 1.4049000000
1.0058000000 4.9335000000 0.9029000000
1.0055000000 5.4296000000 0.4645000000
1.0054000000 0.9241000000 0.7742000000
1.0053000000 1.4654000000 1.2566000000
1.0052000000 4.6239000000 1.1814000000
1.0051000000 0.8014000000 0.6722000000
1.0050000000 5.8278000000 0.1091000000
1.0046000000 5.7523000000 0.1773000000
1.0048000000 4.0933000000 1.5759000000
1.0044000000 3.4483000000 1.8608000000
1.0041000000 3.5043000000 1.8348000000
1.0040000000 4.9151000000 0.9208000000
1.0040000000 2.8471000000 1.9931000000
1.0038000000 5.2644000000 0.6093000000
1.0037000000 4.5573000000 1.2413000000
1.0036000000 4.2969000000 1.5311000000
1.0035000000 0.0422000000 0.0665000000
1.0034000000 5.8640000000 0.0748000000
1.0033000000 2.2538000000 1.7277000000
1.0032000000 1.9161000000 1.5820000000
1.0032000000 5.6989000000 0.2250000000
1.0030000000 1.6183000000 1.3945000000
1.0028000000 4.1024000000 1.5731000000
1.0027000000 2.6408000000 1.8999000000
1.0025000000 3.8102000000 1.7031000000
1.0024000000 0.5184000000 0.4162000000
1.0023000000 2.3506000000 1.7710000000
1.0021000000 0.0582000000 0.0867000000
1.0021000000 1.6174000000 1.3875000000
1.0020000000 0.3536000000 0.2714000000
1.0020000000 1.7693000000 1.5793000000
1.0019000000 1.2914000000 1.1030000000
1.0015000000 3.5743000000 1.8072000000
1.0015000000 4.8064000000 1.0170000000
1.0014000000 2.7096000000 1.9284000000
1.0014000000 0.9320000000 0.7821000000
1.0013000000 2.0654000000 1.6425000000
1.0013000000 2.1021000000 1.6627000000
1.0012000000 0.1926000000 0.1281000000
1.0011000000 3.2771000000 1.9417000000
1.0007000000 0.7830000000 0.6496000000
1.0005000000 4.0648000000 1.5830000000
1.0001000000 2.6358000000 1.8950000000
1.0000000000 2.5259000000 1.8458000000
0.9998000000 3.8831000000 1.6677000000
0.9996000000 0.0486000000 0.0706000000
0.9995000000 4.5793000000 1.2197000000
0.9993000000 2.6623000000 1.9098000000
0.9992000000 1.2597000000 1.0694000000
0.9987000000 0.9543000000 0.8046000000
0.9983000000 3.6520000000 1.7658000000
0.9982000000 1.9136000000 1.5666000000
0.9981000000 2.4531000000 1.8129000000
0.9980000000 1.4460000000 1.2375000000
0.9975000000 1.1619000000 0.9875000000
0.9958000000 4.2369000000 1.5604000000
0.9954000000 2.2611000000 1.7231000000
0.7654000000 3.8034000000 1.5127000000
0.7613000000 5.7304000000 0.1978000000
0.7599000000 2.1292000000 1.4864000000
0.7598000000 5.6710000000 0.2491000000
0.7597000000 2.7078000000 1.7419000000
0.7587000000 2.9462000000 1.8476000000
0.7586000000 3.8921000000 1.4742000000
0.7576000000 3.3516000000 1.7124000000
0.7575000000 3.7906000000 1.5240000000
0.7573000000 3.7458000000 1.5404000000
0.7573000000 3.9159000000 1.4662000000
0.7570000000 3.0428000000 1.9152000000
0.7569000000 3.9865000000 1.4403000000
0.7568000000 0.6836000000 0.5604000000
0.7564000000 3.8075000000 1.5046000000
0.7563000000 2.4774000000 1.6310000000
0.7561000000 0.8435000000 0.7042000000
0.7560000000 4.3116000000 1.2915000000
0.7559000000 5.3265000000 0.5572000000
0.7557000000 3.4496000000 1.6722000000
0.7556000000 4.1076000000 1.3758000000
0.7555000000 5.4709000000 0.4255000000
0.7553000000 4.2399000000 1.3230000000
0.7552000000 1.6424000000 1.2701000000
0.7551000000 4.1448000000 1.3655000000
0.7550000000 1.9766000000 1.4160000000
0.7549000000 3.1171000000 1.8188000000
0.7548000000 3.9932000000 1.4310000000
0.7546000000 2.5911000000 1.6880000000
0.7546000000 4.6329000000 1.2055000000
0.7544000000 2.2359000000 1.5313000000
0.7543000000 0.0111000000 0.0461000000
0.7542000000 5.6605000000 0.2569000000
0.7541000000 5.3215000000 0.5595000000
0.7538000000 1.5153000000 1.2123000000
0.7536000000 4.0375000000 1.4054000000
0.7536000000 2.7163000000 1.7451000000
0.7535000000 2.6292000000 1.6991000000
0.7535000000 5.1701000000 0.7033000000
0.7534000000 2.7460000000 1.7581000000
0.7533000000 0.5706000000 0.4613000000
0.7532000000 4.2375000000 1.3222000000
0.7531000000 0.9800000000 0.8205000000
0.7530000000 2.1106000000 1.4711000000
0.7530000000 4.2035000000 1.3354000000
0.7529000000 0.3455000000 0.2592000000
0.7529000000 0.2611000000 0.1884000000
0.7528000000 3.4972000000 1.6443000000
0.7528000000 1.0798000000 0.9167000000
0.7527000000 0.8722000000 0.7330000000
0.7526000000 3.3082000000 1.7310000000
0.7526000000 3.4394000000 1.6757000000
0.7520000000 1.4576000000 1.1818000000
0.7519000000 4.4572000000 1.2219000000
0.7518000000 1.2496000000 1.1266000000
0.7515000000 5.6722000000 0.2513000000
0.7514000000 0.2417000000 0.1693000000
0.7513000000 5.8259000000 0.1154000000
0.7510000000 0.5977000000 0.4848000000
0.7511000000 5.6300000000 0.2882000000
0.7507000000 1.4293000000 1.1675000000
0.7501000000 0.9430000000 0.7931000000
0.7500000000 0.2934000000 0.2168000000
0.7499000000 0.2052000000 0.1389000000
0.7498000000 2.0386000000 1.4396000000
0.7496000000 3.9265000000 1.4515000000
0.7496000000 4.1811000000 1.3404000000
0.7494000000 0.3712000000 0.2880000000
0.7493000000 2.6344000000 1.6981000000
0.7490000000 2.9228000000 1.8276000000
0.7488000000 3.0424000000 1.9096000000
0.7485000000 1.7380000000 1.3047000000
0.7480000000 0.7162000000 0.6003000000
0.7477000000 4.4152000000 1.2355000000
0.7475000000 1.7514000000 1.3096000000
0.7476000000 1.0797000000 0.9196000000
0.7475000000 5.6817000000 0.2452000000
0.7470000000 1.8412000000 1.3495000000
0.7456000000 1.2395000000 1.1159000000
0.5161000000 4.7210000000 0.9204000000
0.5123000000 0.9059000000 0.8155000000
0.5104000000 5.6957000000 0.2310000000
0.5099000000 3.2266000000 1.5818000000
0.5091000000 0.3752000000 0.2943000000
0.5084000000 1.6637000000 1.0825000000
0.5083000000 3.5948000000 1.4163000000
0.5079000000 2.7050000000 1.5495000000
0.5076000000 5.9010000000 0.1224000000
0.5075000000 1.5062000000 1.0140000000
0.5071000000 0.5877000000 0.4766000000
0.5067000000 5.6815000000 0.2430000000
0.5066000000 2.1879000000 1.3218000000
0.5065000000 4.7530000000 0.9003000000
0.5063000000 3.8701000000 1.2963000000
0.5062000000 0.2054000000 0.1416000000
0.5059000000 4.6702000000 0.9325000000
0.5058000000 4.7702000000 0.8883000000
0.5056000000 4.3337000000 1.0883000000
0.5053000000 2.8812000000 1.6205000000
0.5052000000 0.6808000000 0.5632000000
0.5051000000 0.9167000000 0.8116000000
0.5050000000 5.7501000000 0.1794000000
0.5049000000 5.3482000000 0.5384000000
0.5047000000 2.8250000000 1.5976000000
0.5046000000 4.7509000000 0.9004000000
0.5047000000 3.1627000000 1.6119000000
0.5046000000 2.9779000000 1.7292000000
0.5045000000 0.5302000000 0.4250000000
0.5044000000 0.6514000000 0.5380000000
0.5043000000 5.9597000000 0.0661000000
0.5043000000 1.3312000000 0.9366000000
0.5041000000 3.6332000000 1.3911000000
0.5042000000 5.6135000000 0.3050000000
0.5041000000 4.2288000000 1.1228000000
0.5037000000 1.5225000000 1.0108000000
0.5036000000 4.6381000000 0.9469000000
0.5035000000 4.4289000000 1.0368000000
0.5033000000 0.6163000000 0.5061000000
0.5033000000 2.7870000000 1.5776000000
0.5030000000 5.5083000000 0.3974000000
0.5029000000 1.5645000000 1.0348000000
0.5028000000 2.2485000000 1.3432000000
0.5028000000 5.6232000000 0.2927000000
0.5025000000 0.9489000000 0.8276000000
0.5025000000 3.0699000000 1.6443000000
0.5024000000 0.3939000000 0.3083000000
0.5023000000 2.7322000000 1.5455000000
0.5023000000 1.3871000000 0.9602000000
0.5022000000 4.0679000000 1.2026000000
0.5022000000 1.0592000000 0.8104000000
0.5021000000 2.7461000000 1.5603000000
0.5020000000 3.4168000000 1.4954000000
0.5020000000 1.8109000000 1.1521000000
0.5018000000 0.1140000000 0.1349000000
0.5016000000 1.8985000000 1.1822000000
0.5015000000 1.4827000000 0.9937000000
0.5015000000 3.2887000000 1.5432000000
0.5015000000 2.1425000000 1.2951000000
0.5013000000 1.3656000000 0.9492000000
0.5012000000 2.2314000000 1.3337000000
0.5012000000 0.7026000000 0.5879000000
0.5011000000 0.2381000000 0.1657000000
0.5010000000 4.3616000000 1.0716000000
0.5009000000 0.7200000000 0.5978000000
0.5009000000 0.7935000000 0.7235000000
0.5005000000 1.8131000000 1.1492000000
0.5005000000 1.7852000000 1.1313000000
0.5004000000 2.5093000000 1.4541000000
0.5002000000 1.4086000000 0.9636000000
0.5001000000 1.6612000000 1.0744000000
0.5000000000 1.4128000000 0.9719000000
0.5000000000 2.4533000000 1.4285000000
0.5000000000 3.5583000000 1.4311000000
0.4999000000 2.5411000000 1.4747000000
0.4998000000 2.3332000000 1.3783000000
0.4998000000 4.9536000000 0.8042000000
0.4997000000 3.8863000000 1.2832000000
0.4994000000 1.1091000000 0.8307000000
0.4993000000 4.6069000000 0.9612000000
0.5043000000 1.7709000000 1.1328000000
0.4992000000 2.2266000000 1.3299000000
0.4988000000 0.2614000000 0.1884000000
0.4988000000 0.3951000000 0.3077000000
0.4986000000 1.0028000000 0.7867000000
0.4984000000 3.6957000000 1.3678000000
0.4977000000 0.8726000000 0.7903000000
0.4953000000 1.6790000000 1.0779000000
0.2643000000 3.4656000000 1.2839000000
0.2638000000 5.8332000000 0.1059000000
0.2613000000 2.5667000000 1.2957000000
0.2613000000 1.2619000000 0.7200000000
0.2609000000 4.7427000000 0.7218000000
0.2601000000 3.1332000000 1.4275000000
0.2600000000 6.0198000000 0.0173000000
0.2596000000 2.6257000000 1.3237000000
0.2595000000 3.4618000000 1.2842000000
0.2593000000 3.0036000000 1.5418000000
0.2590000000 1.7273000000 0.9248000000
0.2587000000 2.1499000000 1.1164000000
0.2585000000 3.7531000000 1.1538000000
0.2583000000 4.1587000000 0.9739000000
0.2581000000 1.6648000000 0.8952000000
0.2570000000 4.9519000000 0.6264000000
0.2563000000 3.3516000000 1.3298000000
0.2560000000 3.3583000000 1.3235000000
0.2560000000 5.7632000000 0.1628000000
0.2560000000 4.3940000000 0.8658000000
0.2557000000 1.0037000000 0.5977000000
0.2556000000 4.0694000000 1.0121000000
0.2555000000 1.9000000000 0.9980000000
0.2554000000 2.4184000000 1.2300000000
0.2553000000 5.1665000000 0.5253000000
0.2550000000 3.6059000000 1.2212000000
0.2549000000 1.0531000000 0.6175000000
0.2546000000 2.1379000000 1.0972000000
0.2545000000 4.2211000000 0.9378000000
0.2544000000 5.6639000000 0.2516000000
0.2544000000 0.8223000000 0.5197000000
0.2541000000 1.6528000000 0.8780000000
0.2541000000 5.4578000000 0.3874000000
0.2540000000 1.0329000000 0.6128000000
0.2540000000 0.1772000000 0.1128000000
0.2539000000 5.3045000000 0.4656000000
0.2538000000 4.8699000000 0.6564000000
0.2537000000 0.5636000000 0.4019000000
0.2536000000 0.3674000000 0.3440000000
0.2535000000 4.9795000000 0.6084000000
0.2532000000 3.5631000000 1.2357000000
0.2531000000 5.1423000000 0.5323000000
0.2531000000 4.3069000000 0.9059000000
0.2529000000 5.4687000000 0.3780000000
0.2529000000 1.7604000000 0.9326000000
0.2528000000 5.3303000000 0.4527000000
0.2527000000 4.8259000000 0.6711000000
0.2527000000 0.2095000000 0.1410000000
0.2525000000 0.8515000000 0.5306000000
0.2525000000 3.6054000000 1.2107000000
0.2523000000 1.5834000000 0.8543000000
0.2521000000 2.4878000000 1.2568000000
0.2519000000 1.4392000000 0.7903000000
0.2519000000 5.0421000000 0.5765000000
0.2516000000 5.7382000000 0.1952000000
0.2515000000 5.5415000000 0.4174000000
0.2513000000 2.2096000000 1.1286000000
0.2509000000 2.7898000000 1.3853000000
0.2508000000 4.2100000000 0.9448000000
0.2508000000 1.9899000000 1.0269000000
0.2507000000 2.4975000000 1.2554000000
0.2501000000 4.5767000000 0.7805000000
0.2499000000 0.9542000000 0.5736000000
0.2498000000 0.8888000000 0.5470000000
0.2498000000 0.1413000000 0.0821000000
0.2497000000 0.7119000000 0.4605000000
0.2495000000 2.8601000000 1.4201000000
0.2490000000 5.8499000000 0.0889000000
0.2490000000 4.3408000000 0.8847000000
0.2488000000 0.0484000000 0.0747000000
0.2487000000 4.4120000000 0.8550000000
0.2486000000 0.7263000000 0.4661000000
0.2485000000 1.2341000000 0.6970000000
0.2485000000 0.9584000000 0.5748000000
0.2483000000 0.2519000000 0.1787000000
0.2482000000 1.0162000000 0.6031000000
0.2479000000 0.9419000000 0.5656000000
0.2478000000 4.7516000000 0.7012000000
0.2474000000 1.2262000000 0.6947000000
0.2473000000 1.5242000000 0.8210000000
0.2468000000 1.0224000000 0.6037000000
0.2460000000 2.4706000000 1.2350000000
0.2457000000 4.6214000000 0.7588000000
0.2447000000 1.0053000000 0.5925000000
0.2429000000 3.1766000000 1.3960000000
0.0104000000 1.3669000000 0.5747000000
0.0102000000 5.3348000000 0.2589000000
0.0088000000 5.0883000000 0.3669000000
0.0087000000 5.6840000000 0.1034000000
0.0085000000 4.2768000000 0.7274000000
0.0082000000 1.1503000000 0.4705000000
0.0081000000 2.3464000000 1.0031000000
0.0080000000 5.8921000000 0.0758000000
0.0078000000 2.8553000000 1.2285000000
0.0075000000 4.0935000000 0.8163000000
0.0074000000 1.5454000000 0.6486000000
0.0073000000 4.6331000000 0.5655000000
0.0072000000 5.0906000000 0.3682000000
0.0072000000 2.0802000000 0.8832000000
0.0070000000 5.0307000000 0.3925000000
0.0070000000 2.3882000000 1.0238000000
0.0065000000 5.0551000000 0.3828000000
0.0065000000 1.3646000000 0.5725000000
0.0063000000 3.1332000000 1.2365000000
0.0060000000 0.9628000000 0.3857000000
0.0059000000 0.9705000000 0.3926000000
0.0059000000 1.1993000000 0.4966000000
0.0058000000 1.7241000000 0.7230000000
0.0057000000 0.6042000000 0.2278000000
0.0055000000 4.0891000000 0.8121000000
0.0052000000 2.5310000000 1.0831000000
0.0050000000 4.4447000000 0.6518000000
0.0049000000 1.1773000000 0.4823000000
0.0048000000 3.0282000000 1.3378000000
0.0047000000 2.9769000000 1.3415000000
0.0042000000 5.0116000000 0.4005000000
0.0040000000 3.8452000000 0.9188000000
0.0040000000 3.9532000000 0.8718000000
0.0040000000 0.9402000000 0.3742000000
0.0035000000 5.4520000000 0.2085000000
0.0035000000 3.1019000000 1.2472000000
0.0032000000 4.6778000000 0.5489000000
0.0031000000 4.8363000000 0.4785000000
0.0029000000 0.9774000000 0.3928000000
0.0028000000 4.2233000000 0.7537000000
0.0028000000 4.4040000000 0.6660000000
0.0027000000 5.2284000000 0.2990000000
0.0025000000 4.7372000000 0.5201000000
0.0024000000 0.7814000000 0.3111000000
0.0023000000 0.6499000000 0.2453000000
0.0022000000 3.1813000000 1.2126000000
0.0021000000 0.4961000000 0.1781000000
0.0018000000 4.3077000000 0.7109000000
0.0016000000 3.0875000000 1.2555000000
0.0015000000 4.6594000000 0.5548000000
0.0015000000 5.2208000000 0.3078000000
0.0015000000 5.3433000000 0.2470000000
0.0014000000 3.3723000000 1.1255000000
0.0013000000 1.1295000000 0.4608000000
