5.2547000000 5.0177000000 0.0174000000
5.2540000000 3.6716000000 0.5531000000
5.2534000000 4.4659000000 0.1989000000
5.2532000000 4.2667000000 0.2874000000
5.2529000000 3.2300000000 0.4889000000
5.2517000000 5.0806000000 0.0658000000
5.2509000000 2.8664000000 0.3314000000
5.2499000000 3.6349000000 0.5723000000
5.2489000000 4.4693000000 0.1970000000
5.2483000000 4.4818000000 0.1889000000
5.2470000000 2.9509000000 0.3618000000
5.2456000000 4.4975000000 0.1901000000
5.0124000000 5.0672000000 0.1182000000
5.0111000000 5.4242000000 0.0310000000
5.0104000000 4.5716000000 0.3428000000
5.0094000000 5.1224000000 0.0872000000
5.0090000000 4.3293000000 0.4435000000
5.0087000000 5.5812000000 0.0250000000
5.0084000000 1.9935000000 0.1152000000
5.0082000000 5.5452000000 0.0475000000
5.0079000000 4.8711000000 0.1982000000
5.0078000000 5.1516000000 0.0811000000
5.0070000000 1.8326000000 0.1264000000
5.0063000000 3.8756000000 0.6466000000
5.0060000000 3.6713000000 0.7533000000
5.0056000000 4.7618000000 0.2540000000
5.0050000000 3.5473000000 0.8679000000
5.0049000000 1.6849000000 0.0650000000
5.0046000000 1.5968000000 0.0203000000
5.0043000000 5.0200000000 0.1400000000
5.0041000000 4.1128000000 0.5505000000
5.0040000000 3.9991000000 0.6059000000
5.0035000000 5.2379000000 0.1174000000
5.0034000000 5.4334000000 0.0340000000
5.0030000000 5.3586000000 0.0645000000
5.0029000000 5.0395000000 0.1313000000
5.0027000000 1.6643000000 0.0523000000
5.0026000000 3.1426000000 0.6442000000
5.0025000000 3.6442000000 0.7629000000
5.0023000000 1.7911000000 0.1107000000
5.0017000000 5.3843000000 0.0540000000
5.0015000000 2.2155000000 0.2275000000
5.0006000000 4.3459000000 0.4466000000
4.9996000000 3.7591000000 0.7170000000
4.9981000000 5.1194000000 0.1030000000
4.9979000000 4.8193000000 0.2381000000
4.7641000000 3.9609000000 0.8067000000
4.7629000000 5.6671000000 0.1087000000
4.7612000000 5.6405000000 0.1266000000
4.7596000000 5.9069000000 0.0816000000
4.7590000000 3.5519000000 1.0514000000
4.7585000000 3.4467000000 0.9751000000
4.7583000000 6.0229000000 0.0265000000
4.7579000000 4.7147000000 0.4756000000
4.7578000000 3.6583000000 0.9530000000
4.7575000000 4.6805000000 0.4891000000
4.7574000000 5.9763000000 0.0451000000
4.7568000000 3.7026000000 0.9304000000
4.7566000000 2.4905000000 0.5438000000
4.7563000000 3.1512000000 0.8448000000
4.7562000000 3.6869000000 0.9390000000
4.7559000000 3.6630000000 0.9525000000
4.7558000000 4.2313000000 0.6939000000
4.7555000000 4.7672000000 0.4507000000
4.7551000000 2.0667000000 0.3554000000
4.7549000000 4.1630000000 0.7249000000
4.7548000000 3.6832000000 0.9447000000
4.7547000000 3.1756000000 0.8553000000
4.7545000000 4.7486000000 0.4641000000
4.7543000000 1.8775000000 0.2656000000
4.7539000000 3.0405000000 0.7942000000
4.7533000000 1.8985000000 0.2807000000
4.7528000000 5.9739000000 0.0550000000
4.7525000000 5.0256000000 0.3300000000
4.7520000000 5.1710000000 0.2715000000
4.7518000000 2.5788000000 0.5931000000
4.7517000000 3.5037000000 1.0656000000
4.7511000000 1.0851000000 0.0593000000
4.7508000000 1.3309000000 0.1027000000
4.7506000000 4.8315000000 0.4235000000
4.7501000000 3.4058000000 0.9643000000
4.7494000000 3.3978000000 0.9639000000
4.7489000000 2.6689000000 0.6312000000
4.7485000000 3.0637000000 0.8094000000
4.7483000000 5.3165000000 0.2089000000
4.7462000000 1.7895000000 0.2326000000
4.5116000000 3.3066000000 1.1050000000
4.5095000000 2.9413000000 0.9424000000
4.5092000000 5.6391000000 0.2466000000
4.5083000000 4.9234000000 0.5821000000
4.5078000000 3.4937000000 1.2523000000
4.5076000000 4.4045000000 0.8077000000
4.5075000000 1.7242000000 0.3934000000
4.5073000000 5.9975000000 0.0890000000
4.5070000000 1.4578000000 0.2695000000
4.5067000000 2.1625000000 0.5866000000
4.5065000000 5.6975000000 0.2215000000
4.5062000000 5.0827000000 0.5034000000
4.5060000000 4.2888000000 0.8617000000
4.5059000000 3.6375000000 1.1549000000
4.5057000000 5.5250000000 0.3050000000
4.5055000000 6.2410000000 0.0539000000
4.5051000000 3.4228000000 1.1599000000
4.5050000000 2.9897000000 0.9660000000
4.5049000000 5.2730000000 0.4138000000
4.5045000000 2.6500000000 0.8165000000
4.5043000000 1.3013000000 0.2101000000
4.5040000000 3.5168000000 1.2706000000
4.5039000000 0.8085000000 0.0641000000
4.5038000000 6.4273000000 0.0412000000
4.5036000000 3.5294000000 1.2667000000
4.5033000000 2.7758000000 0.8687000000
4.5030000000 3.2898000000 1.1082000000
4.5029000000 2.9526000000 0.9571000000
4.5027000000 4.6998000000 0.6795000000
4.5025000000 1.6604000000 0.3663000000
4.5022000000 4.9741000000 0.5521000000
4.5020000000 2.9788000000 0.9621000000
4.5016000000 6.1157000000 0.1120000000
4.5014000000 1.9699000000 0.5065000000
4.5012000000 5.2741000000 0.4210000000
4.5009000000 2.9671000000 0.9588000000
4.5006000000 5.3253000000 0.3902000000
4.5002000000 2.4534000000 0.7314000000
4.4999000000 5.8632000000 0.1574000000
4.4993000000 0.6234000000 0.0495000000
4.4983000000 4.5951000000 0.7301000000
4.4971000000 1.3517000000 0.2302000000
4.4955000000 2.3703000000 0.6983000000
4.2642000000 6.3253000000 0.1286000000
4.2608000000 3.9112000000 1.2256000000
4.2603000000 3.4616000000 1.3748000000
4.2590000000 4.5010000000 0.9658000000
4.2584000000 0.4598000000 0.0910000000
4.2583000000 4.3536000000 1.0281000000
4.2580000000 5.9086000000 0.3292000000
4.2577000000 5.0996000000 0.6869000000
4.2575000000 3.6330000000 1.3506000000
4.2568000000 6.8445000000 0.0493000000
4.2567000000 2.0732000000 0.7490000000
4.2564000000 5.4796000000 0.5205000000
4.2560000000 5.3166000000 0.5945000000
4.2559000000 0.9563000000 0.2452000000
4.2556000000 2.8372000000 1.0922000000
4.2554000000 6.5622000000 0.1067000000
4.2553000000 0.4534000000 0.0894000000
4.2552000000 6.6272000000 0.0770000000
4.2550000000 6.4652000000 0.0699000000
4.2550000000 5.0336000000 0.7208000000
4.2548000000 5.2299000000 0.6309000000
4.2546000000 1.5482000000 0.5129000000
4.2543000000 1.9147000000 0.6787000000
4.2542000000 6.8208000000 0.0667000000
4.2541000000 6.0123000000 0.2799000000
4.2540000000 1.5373000000 0.5005000000
4.2538000000 2.3645000000 0.8764000000
4.2537000000 4.7846000000 0.8363000000
4.2536000000 3.9206000000 1.2232000000
4.2533000000 1.2907000000 0.3952000000
4.2530000000 4.2505000000 1.0732000000
4.2529000000 0.5576000000 0.1361000000
4.2528000000 0.1494000000 0.0274000000
4.2526000000 5.8071000000 0.3740000000
4.2524000000 1.8100000000 0.6370000000
4.2518000000 2.1796000000 0.8016000000
4.2516000000 0.5910000000 0.0800000000
4.2514000000 0.4071000000 0.0712000000
4.2513000000 2.7406000000 1.0565000000
4.2512000000 0.2476000000 0.0782000000
4.2511000000 2.4243000000 0.9077000000
4.2506000000 1.3072000000 0.4059000000
4.2502000000 2.0263000000 0.7288000000
4.2497000000 0.5219000000 0.1241000000
4.2495000000 2.0424000000 0.7417000000
4.2491000000 1.4743000000 0.4878000000
4.2484000000 0.3528000000 0.0493000000
4.2460000000 0.6802000000 0.1260000000
4.0118000000 4.6214000000 1.1018000000
4.0103000000 3.8760000000 1.4316000000
4.0097000000 3.2140000000 1.4565000000
4.0095000000 3.3228000000 1.5081000000
4.0090000000 5.7755000000 0.5749000000
4.0085000000 3.3718000000 1.5254000000
4.0083000000 5.5093000000 0.7002000000
4.0080000000 4.9772000000 0.9358000000
4.0075000000 1.0679000000 0.4903000000
4.0074000000 1.0175000000 0.4636000000
4.0071000000 6.8079000000 0.1150000000
4.0070000000 6.4937000000 0.2558000000
4.0069000000 3.3096000000 1.5027000000
4.0068000000 4.8985000000 0.9785000000
4.0067000000 0.7502000000 0.3455000000
4.0064000000 5.5336000000 0.6929000000
4.0062000000 0.4057000000 0.1873000000
4.0060000000 3.3694000000 1.5289000000
4.0058000000 0.6711000000 0.3151000000
4.0057000000 6.5602000000 0.2281000000
4.0055000000 6.6736000000 0.1746000000
4.0055000000 0.0159000000 0.0303000000
4.0053000000 5.4448000000 0.7260000000
4.0051000000 4.4892000000 1.1607000000
4.0049000000 4.7202000000 1.0572000000
4.0048000000 2.1539000000 0.9806000000
4.0047000000 0.6771000000 0.3150000000
4.0045000000 1.3074000000 0.5988000000
4.0044000000 6.7889000000 0.1260000000
4.0043000000 6.6125000000 0.2062000000
4.0040000000 5.7621000000 0.5895000000
4.0037000000 2.2454000000 1.0245000000
4.0033000000 1.4516000000 0.6699000000
4.0032000000 0.7392000000 0.3378000000
4.0031000000 4.0663000000 1.3584000000
4.0028000000 1.5673000000 0.7157000000
4.0028000000 2.3020000000 1.0508000000
4.0026000000 5.3609000000 0.7746000000
4.0024000000 3.8035000000 1.4739000000
4.0021000000 6.7297000000 0.1517000000
4.0020000000 0.0968000000 0.1051000000
4.0019000000 0.1883000000 0.1571000000
4.0016000000 4.1255000000 1.3339000000
4.0012000000 4.3118000000 1.2466000000
4.0010000000 0.2854000000 0.1418000000
4.0006000000 1.6936000000 0.7757000000
4.0003000000 5.5883000000 0.6679000000
4.0001000000 4.8237000000 1.0186000000
3.9995000000 5.7146000000 0.6110000000
3.9991000000 6.8678000000 0.0719000000
3.9957000000 4.1782000000 1.3146000000
3.7621000000 6.6877000000 0.2764000000
3.7610000000 7.0796000000 0.0769000000
3.7603000000 6.1776000000 0.5942000000
3.7601000000 5.1009000000 1.0842000000
3.7592000000 2.5058000000 1.3241000000
3.7585000000 2.7955000000 1.4631000000
3.7578000000 1.6137000000 0.9322000000
3.7572000000 0.5972000000 0.5362000000
3.7569000000 6.2854000000 0.5395000000
3.7568000000 5.0589000000 1.1006000000
3.7567000000 3.0060000000 1.5652000000
3.7563000000 3.4109000000 1.7414000000
3.7562000000 6.1185000000 0.6241000000
3.7560000000 4.7188000000 1.2561000000
3.7558000000 4.3678000000 1.4109000000
3.7556000000 2.9900000000 1.5565000000
3.7555000000 6.2946000000 0.5462000000
3.7553000000 5.9417000000 0.6959000000
3.7552000000 2.1899000000 1.1917000000
3.7549000000 5.1799000000 1.0472000000
3.7548000000 4.3016000000 1.4405000000
3.7547000000 6.3713000000 0.5083000000
3.7545000000 6.0047000000 0.6786000000
3.7544000000 1.2776000000 0.7841000000
3.7543000000 2.0518000000 1.1350000000
3.7542000000 0.8565000000 0.5931000000
3.7540000000 6.8332000000 0.1483000000
3.7537000000 4.7945000000 1.2255000000
3.7535000000 4.4539000000 1.3756000000
3.7533000000 2.2425000000 1.2225000000
3.7528000000 3.4054000000 1.7429000000
3.7527000000 3.6680000000 1.7346000000
3.7525000000 2.1739000000 1.1905000000
3.7523000000 5.2597000000 1.0156000000
3.7522000000 6.3407000000 0.5231000000
3.7521000000 0.7543000000 0.5469000000
3.7516000000 4.3920000000 1.4100000000
3.7514000000 5.1108000000 1.0718000000
3.7512000000 4.0211000000 1.5753000000
3.7509000000 5.3033000000 0.9927000000
3.7506000000 3.7216000000 1.7171000000
3.7504000000 0.7335000000 0.5339000000
3.7501000000 0.3298000000 0.2599000000
3.7498000000 5.0659000000 1.0991000000
3.7496000000 4.1823000000 1.5025000000
3.7492000000 3.0488000000 1.5851000000
3.7487000000 2.8304000000 1.4837000000
3.7484000000 5.3971000000 0.9551000000
3.7478000000 2.1903000000 1.1960000000
3.7469000000 1.0675000000 0.6925000000
3.7449000000 2.0057000000 1.1187000000
3.5140000000 4.2514000000 1.6547000000
3.5112000000 1.5215000000 1.0834000000
3.5106000000 5.9360000000 0.8942000000
3.5101000000 6.1521000000 0.7512000000
3.5098000000 6.8822000000 0.1114000000
3.5093000000 1.5962000000 1.1197000000
3.5087000000 1.6350000000 1.1306000000
3.5083000000 1.5645000000 1.1042000000
3.5083000000 3.5369000000 2.0400000000
3.5078000000 1.9492000000 1.2786000000
3.5075000000 6.7847000000 0.1949000000
3.5071000000 4.5885000000 1.5127000000
3.5066000000 6.6241000000 0.3396000000
3.5064000000 3.3061000000 1.8961000000
3.5060000000 4.7323000000 1.4435000000
3.5058000000 0.0306000000 0.0579000000
3.5055000000 4.9683000000 1.3347000000
3.5054000000 5.6785000000 1.0185000000
3.5050000000 4.7612000000 1.4314000000
3.5049000000 1.4253000000 1.0401000000
3.5048000000 3.5013000000 2.0425000000
3.5045000000 5.6805000000 1.0185000000
3.5043000000 4.5760000000 1.5167000000
3.5041000000 6.1883000000 0.7369000000
3.5040000000 2.3664000000 1.4688000000
3.5038000000 2.4671000000 1.5146000000
3.5034000000 4.1409000000 1.7173000000
3.5033000000 6.4818000000 0.4717000000
3.5032000000 4.7912000000 1.4247000000
3.5029000000 4.6339000000 1.4941000000
3.5027000000 6.1878000000 0.7363000000
3.5024000000 1.9174000000 1.2676000000
3.5022000000 3.7119000000 1.9105000000
3.5018000000 2.8075000000 1.6683000000
3.5017000000 3.1086000000 1.8047000000
3.5014000000 0.3446000000 0.2714000000
3.5011000000 4.4216000000 1.5905000000
3.5004000000 3.0419000000 1.7761000000
3.5000000000 2.2956000000 1.4398000000
3.4999000000 1.8148000000 1.2263000000
3.4997000000 0.1764000000 0.1215000000
3.4992000000 0.3917000000 0.3112000000
3.4990000000 3.8390000000 1.8546000000
3.4989000000 0.6518000000 0.5414000000
3.4985000000 5.1572000000 1.2650000000
3.4979000000 1.2575000000 0.9749000000
3.4944000000 2.5901000000 1.5830000000
3.4922000000 1.9430000000 1.2870000000
3.2628000000 6.5800000000 0.3759000000
3.2625000000 5.0954000000 1.4695000000
3.2608000000 1.7409000000 1.3810000000
3.2603000000 0.0790000000 0.1055000000
3.2600000000 6.8990000000 0.0944000000
3.2590000000 4.2431000000 1.8626000000
3.2590000000 1.8169000000 1.4136000000
3.2587000000 3.8331000000 2.0466000000
3.2583000000 4.4854000000 1.7535000000
3.2582000000 1.5984000000 1.3132000000
3.2577000000 3.2016000000 2.0464000000
3.2572000000 1.9749000000 1.4900000000
3.2569000000 6.7369000000 0.2365000000
3.2568000000 4.0765000000 1.9323000000
3.2565000000 5.7993000000 1.0900000000
3.2563000000 5.6303000000 1.2246000000
3.2560000000 6.3540000000 0.5920000000
3.2559000000 2.7824000000 1.8557000000
3.2558000000 6.9998000000 0.0731000000
3.2556000000 3.8811000000 2.0282000000
3.2555000000 2.2914000000 1.6278000000
3.2553000000 6.7563000000 0.2249000000
3.2551000000 2.6534000000 1.7893000000
3.2549000000 6.3495000000 0.5888000000
3.2545000000 2.2397000000 1.6117000000
3.2546000000 1.3070000000 1.1290000000
3.2543000000 6.4375000000 0.5099000000
3.2542000000 2.1222000000 1.5533000000
3.2539000000 6.8098000000 0.1756000000
3.2537000000 0.2334000000 0.1715000000
3.2535000000 5.0881000000 1.4818000000
3.2534000000 3.7602000000 2.0830000000
3.2532000000 3.0068000000 1.9590000000
3.2530000000 5.7358000000 1.1372000000
3.2529000000 7.0228000000 0.0581000000
3.2528000000 4.2051000000 1.8811000000
3.2525000000 0.3274000000 0.2614000000
3.2524000000 2.1808000000 1.5791000000
3.2521000000 5.1973000000 1.4323000000
3.2520000000 4.0498000000 1.9541000000
3.2519000000 5.6366000000 1.2206000000
3.2518000000 2.5983000000 1.7776000000
3.2518000000 4.9171000000 1.5610000000
3.2515000000 1.7442000000 1.3883000000
3.2513000000 0.3622000000 0.2818000000
3.2513000000 4.1654000000 1.9005000000
3.2512000000 4.1526000000 1.9057000000
3.2508000000 3.0615000000 1.9820000000
3.2507000000 6.0562000000 0.8557000000
3.2503000000 4.2128000000 1.8777000000
3.2498000000 3.4443000000 2.1533000000
3.2493000000 5.8660000000 1.0261000000
3.2489000000 2.4652000000 1.7114000000
3.2472000000 1.3499000000 1.2420000000
3.2463000000 2.4048000000 1.6901000000
3.0127000000 6.4991000000 0.4542000000
3.0117000000 2.9510000000 2.1155000000
3.0110000000 4.8033000000 1.8045000000
3.0104000000 6.6451000000 0.3178000000
3.0102000000 5.9678000000 0.9353000000
3.0100000000 4.7804000000 1.8113000000
3.0091000000 1.5645000000 1.3735000000
3.0088000000 2.5386000000 1.9352000000
3.0085000000 2.7450000000 2.0298000000
3.0082000000 6.1681000000 0.7531000000
3.0073000000 4.6163000000 1.8867000000
3.0071000000 0.2329000000 0.1734000000
3.0070000000 5.3454000000 1.4989000000
3.0068000000 2.4407000000 1.8927000000
3.0066000000 6.6123000000 0.3560000000
3.0063000000 5.0956000000 1.6654000000
3.0062000000 6.3263000000 0.6098000000
3.0060000000 2.5473000000 1.9417000000
3.0058000000 6.2643000000 0.6682000000
3.0057000000 4.3557000000 2.0086000000
3.0054000000 0.7114000000 0.6031000000
3.0051000000 3.0699000000 2.1828000000
3.0050000000 5.4536000000 1.4038000000
3.0048000000 5.2516000000 1.6425000000
3.0046000000 3.6817000000 2.3119000000
3.0044000000 3.1936000000 2.2395000000
3.0043000000 3.8993000000 2.2102000000
3.0041000000 3.4713000000 2.4234000000
3.0040000000 2.7315000000 2.0324000000
3.0039000000 4.9038000000 1.7624000000
3.0037000000 3.9289000000 2.1999000000
3.0035000000 4.8195000000 1.7988000000
3.0034000000 2.5252000000 1.9377000000
3.0033000000 6.4791000000 0.4757000000
3.0032000000 3.6662000000 2.3194000000
3.0028000000 2.9762000000 2.1377000000
3.0027000000 5.0948000000 1.6734000000
3.0025000000 0.2065000000 0.1412000000
3.0023000000 3.7514000000 2.2807000000
3.0022000000 6.4040000000 0.5411000000
3.0018000000 3.7958000000 2.2651000000
3.0017000000 3.2412000000 2.2578000000
3.0015000000 4.2925000000 2.0356000000
3.0014000000 0.5035000000 0.4139000000
3.0011000000 0.2152000000 0.1528000000
3.0010000000 1.8168000000 1.6658000000
3.0008000000 1.2666000000 1.1069000000
3.0007000000 0.5821000000 0.4808000000
3.0005000000 0.2814000000 0.2141000000
3.0002000000 4.1957000000 2.0858000000
2.9999000000 0.7727000000 0.6592000000
2.9998000000 1.9161000000 1.7193000000
2.9990000000 6.8684000000 0.1243000000
2.9983000000 2.1890000000 1.7867000000
2.9950000000 4.1076000000 2.1252000000
2.7651000000 5.8570000000 1.0340000000
2.7623000000 6.5505000000 0.4071000000
2.7605000000 5.6464000000 1.2272000000
2.7602000000 5.5562000000 1.3085000000
2.7599000000 1.5017000000 1.3158000000
2.7598000000 4.5662000000 2.1034000000
2.7593000000 5.4873000000 1.3678000000
2.7585000000 0.5799000000 0.4840000000
2.7579000000 2.2483000000 2.0467000000
2.7573000000 1.9610000000 1.7281000000
2.7569000000 2.6185000000 2.1648000000
2.7566000000 1.1997000000 1.0374000000
2.7564000000 2.6126000000 2.1700000000
2.7561000000 3.6361000000 2.5256000000
2.7560000000 0.3138000000 0.2387000000
2.7553000000 4.8970000000 1.9020000000
2.7552000000 2.3300000000 2.0997000000
2.7550000000 2.3741000000 2.0492000000
2.7547000000 5.3484000000 1.4946000000
2.7546000000 2.9723000000 2.3315000000
2.7544000000 4.4893000000 2.1409000000
2.7543000000 5.2745000000 1.5624000000
2.7542000000 0.5348000000 0.4424000000
2.7539000000 2.6414000000 2.1827000000
2.7538000000 1.2030000000 1.0497000000
2.7535000000 1.5095000000 1.3251000000
2.7533000000 1.8024000000 1.5839000000
2.7532000000 4.1712000000 2.2884000000
2.7531000000 0.1403000000 0.0876000000
2.7526000000 3.5783000000 2.5519000000
2.7525000000 4.8530000000 1.9261000000
2.7523000000 5.4312000000 1.4134000000
2.7521000000 0.6718000000 0.5723000000
2.7520000000 5.1757000000 1.6468000000
2.7514000000 0.1130000000 0.1371000000
2.7513000000 2.9627000000 2.3274000000
2.7508000000 6.7111000000 0.2572000000
2.7504000000 1.6096000000 1.4160000000
2.7503000000 2.5103000000 2.1311000000
2.7499000000 2.6497000000 2.1853000000
2.7494000000 1.8954000000 1.6739000000
2.7488000000 2.2869000000 2.0849000000
2.7487000000 0.1000000000 0.1248000000
2.7480000000 5.2922000000 1.5475000000
2.7457000000 0.3871000000 0.3141000000
2.5139000000 3.7091000000 2.6841000000
2.5112000000 6.5213000000 0.4359000000
2.5097000000 6.8032000000 0.1790000000
2.5087000000 0.0987000000 0.1263000000
2.5084000000 3.2289000000 2.6401000000
2.5080000000 3.1108000000 2.5829000000
2.5077000000 0.7885000000 0.6751000000
2.5073000000 3.0660000000 2.5689000000
2.5070000000 3.4191000000 2.7228000000
2.5069000000 3.3937000000 2.7130000000
2.5068000000 6.3944000000 0.5445000000
2.5065000000 0.5672000000 0.4709000000
2.5062000000 1.7641000000 1.5538000000
2.5060000000 3.0769000000 2.5763000000
2.5056000000 6.0442000000 0.8668000000
2.5053000000 3.2720000000 2.6623000000
2.5051000000 6.5158000000 0.4419000000
2.5049000000 0.5727000000 0.4843000000
2.5047000000 5.9865000000 0.9151000000
2.5047000000 5.0235000000 1.7868000000
2.5045000000 5.5486000000 1.3108000000
2.5043000000 6.4374000000 0.5134000000
2.5040000000 3.3417000000 2.6987000000
2.5039000000 2.5507000000 2.2657000000
2.5035000000 5.8412000000 1.0458000000
2.5034000000 4.3638000000 2.4379000000
2.5033000000 6.8276000000 0.1561000000
2.5032000000 3.3806000000 2.7157000000
2.5031000000 5.2546000000 1.5718000000
2.5029000000 3.1327000000 2.5992000000
2.5028000000 3.1679000000 2.6139000000
2.5027000000 6.6584000000 0.3079000000
2.5025000000 2.8446000000 2.4688000000
2.5021000000 0.4569000000 0.3706000000
2.5018000000 6.7010000000 0.2705000000
2.5017000000 1.7291000000 1.5205000000
2.5013000000 0.1738000000 0.1125000000
2.5011000000 4.3177000000 2.4060000000
2.5008000000 1.7428000000 1.5281000000
2.5005000000 0.7241000000 0.6131000000
2.5003000000 5.1342000000 1.6886000000
2.4997000000 5.4416000000 1.4091000000
2.4996000000 0.9066000000 0.7744000000
2.4992000000 1.1602000000 1.0101000000
2.4986000000 0.3446000000 0.2710000000
2.4978000000 0.8144000000 0.6948000000
2.4972000000 1.0367000000 0.9000000000
2.4956000000 0.0820000000 0.1077000000
2.2631000000 6.5278000000 0.4324000000
2.2609000000 2.3663000000 2.0948000000
2.2595000000 5.2137000000 1.6171000000
2.2589000000 3.0509000000 2.7787000000
2.2584000000 3.5452000000 3.0179000000
2.2582000000 5.9591000000 0.9416000000
2.2578000000 3.4091000000 2.9147000000
2.2568000000 6.7959000000 0.1836000000
2.2564000000 6.3191000000 0.6169000000
2.2563000000 1.0732000000 0.9258000000
2.2561000000 0.9291000000 0.8014000000
2.2559000000 3.6034000000 2.9310000000
2.2558000000 6.6723000000 0.3015000000
2.2557000000 3.4301000000 2.9248000000
2.2555000000 4.5824000000 2.1854000000
2.2553000000 4.8596000000 1.9399000000
2.2551000000 2.1118000000 1.8685000000
2.2549000000 6.7432000000 0.2284000000
2.2548000000 2.5638000000 2.2738000000
2.2547000000 1.5546000000 1.3661000000
2.2546000000 4.8950000000 1.8980000000
2.2543000000 1.1832000000 1.0247000000
2.2539000000 3.0247000000 2.6930000000
2.2537000000 6.8076000000 0.1760000000
2.2535000000 0.7043000000 0.6009000000
2.2534000000 3.5200000000 3.0354000000
2.2531000000 6.0382000000 0.8714000000
2.2530000000 3.6593000000 2.9112000000
2.2528000000 3.0681000000 2.8002000000
2.2527000000 6.9856000000 0.0886000000
2.2524000000 1.1680000000 1.0198000000
2.2522000000 3.3111000000 2.8784000000
2.2520000000 2.4520000000 2.1787000000
2.2519000000 7.0144000000 0.0635000000
2.2518000000 0.9737000000 0.8341000000
2.2515000000 0.6552000000 0.5555000000
2.2510000000 3.0665000000 2.7973000000
2.2508000000 5.9948000000 0.9106000000
2.2506000000 1.8275000000 1.6143000000
2.2505000000 5.9237000000 0.9687000000
2.2504000000 5.3120000000 1.5256000000
2.2503000000 6.4328000000 0.5171000000
2.2501000000 1.5318000000 1.3493000000
2.2500000000 0.8245000000 0.7078000000
2.2499000000 5.4861000000 1.3687000000
2.2497000000 3.6634000000 2.9077000000
2.2495000000 2.0972000000 1.8543000000
2.2480000000 1.9405000000 1.7174000000
2.2476000000 3.6999000000 2.8982000000
2.2472000000 0.2089000000 0.1457000000
2.2458000000 1.1704000000 1.0183000000
2.0105000000 7.0251000000 0.0556000000
2.0101000000 2.3389000000 2.0726000000
2.0098000000 6.3713000000 0.5711000000
2.0095000000 3.5989000000 3.0862000000
2.0092000000 6.2026000000 0.7223000000
2.0087000000 2.7100000000 2.4109000000
2.0083000000 1.2859000000 1.1244000000
2.0077000000 1.1842000000 1.0254000000
2.0075000000 6.4780000000 0.4724000000
2.0073000000 6.3397000000 0.5955000000
2.0069000000 6.7844000000 0.1930000000
2.0067000000 6.9328000000 0.1342000000
2.0065000000 6.4729000000 0.4805000000
2.0060000000 6.3820000000 0.5557000000
2.0058000000 5.0651000000 1.7488000000
2.0056000000 4.9486000000 1.8495000000
2.0053000000 1.2299000000 1.0688000000
2.0051000000 6.1932000000 0.7301000000
2.0049000000 1.1669000000 1.0173000000
2.0048000000 3.7524000000 2.9400000000
2.0045000000 0.9703000000 0.8322000000
2.0043000000 5.6057000000 1.2632000000
2.0041000000 4.6979000000 2.0888000000
2.0039000000 0.5127000000 0.4193000000
2.0037000000 0.7168000000 0.6047000000
2.0034000000 3.6947000000 2.9878000000
2.0033000000 1.8627000000 1.6474000000
2.0031000000 5.8925000000 1.0087000000
2.0028000000 6.3955000000 0.5458000000
2.0026000000 2.6314000000 2.3353000000
2.0023000000 0.3593000000 0.2885000000
2.0022000000 1.7334000000 1.5263000000
2.0019000000 4.8572000000 1.9374000000
2.0017000000 5.3437000000 1.5006000000
2.0015000000 0.3437000000 0.2690000000
2.0012000000 3.8073000000 2.8863000000
2.0008000000 5.8399000000 1.0485000000
2.0006000000 0.0204000000 0.0532000000
2.0005000000 2.8710000000 2.5583000000
2.0000000000 5.3843000000 1.4610000000
1.9997000000 0.8115000000 0.6854000000
1.9995000000 4.4841000000 2.2744000000
1.9985000000 0.0952000000 0.1196000000
1.9975000000 0.0100000000 0.0423000000
1.9970000000 1.0832000000 0.9399000000
1.7627000000 3.9684000000 2.7922000000
1.7622000000 4.3301000000 2.4183000000
1.7614000000 2.5488000000 2.2603000000
1.7601000000 1.5961000000 1.4051000000
1.7593000000 4.3282000000 2.4184000000
1.7587000000 5.5203000000 1.3403000000
1.7585000000 6.0159000000 0.8927000000
1.7584000000 4.2862000000 2.4562000000
1.7580000000 5.8222000000 1.0680000000
1.7578000000 4.3337000000 2.4098000000
1.7577000000 5.7822000000 1.1020000000
1.7573000000 2.7926000000 2.4805000000
1.7572000000 4.0053000000 2.7690000000
1.7569000000 6.7897000000 0.1901000000
1.7565000000 5.4873000000 1.3683000000
1.7564000000 6.8332000000 0.1506000000
1.7563000000 5.2496000000 1.5881000000
1.7562000000 0.8576000000 0.7346000000
1.7560000000 1.8735000000 1.6546000000
1.7558000000 5.2764000000 1.5540000000
1.7558000000 1.2388000000 1.0798000000
1.7553000000 6.3229000000 0.6106000000
1.7549000000 0.3594000000 0.2885000000
1.7548000000 5.8509000000 1.0441000000
1.7546000000 6.7089000000 0.2665000000
1.7545000000 1.4333000000 1.2580000000
1.7543000000 3.1612000000 2.7637000000
1.7543000000 6.0019000000 0.9032000000
1.7537000000 3.5666000000 2.9686000000
1.7534000000 6.4026000000 0.5448000000
1.7533000000 6.1370000000 0.7778000000
1.7529000000 0.0833000000 0.1080000000
1.7528000000 1.9743000000 1.7431000000
1.7526000000 1.8694000000 1.6540000000
1.7523000000 1.3260000000 1.1625000000
1.7521000000 5.0689000000 1.7470000000
1.7519000000 5.5180000000 1.3425000000
1.7517000000 2.2752000000 2.0182000000
1.7514000000 1.0886000000 0.9467000000
1.7513000000 1.7086000000 1.5029000000
1.7512000000 2.5625000000 2.2719000000
1.7506000000 0.5503000000 0.4560000000
1.7505000000 2.1438000000 1.8985000000
1.7501000000 5.8766000000 1.0193000000
1.7499000000 1.5925000000 1.4039000000
1.7493000000 0.9996000000 0.8622000000
1.7490000000 1.1852000000 1.0316000000
1.7485000000 5.7698000000 1.1144000000
1.7481000000 1.8383000000 1.6232000000
1.7470000000 2.7597000000 2.4539000000
1.7455000000 2.8443000000 2.5361000000
1.5113000000 6.8006000000 0.1810000000
1.5104000000 7.0108000000 0.0630000000
1.5095000000 5.9193000000 0.9790000000
1.5093000000 1.3172000000 1.1550000000
1.5090000000 4.0044000000 2.5182000000
1.5088000000 7.0678000000 0.0152000000
1.5085000000 6.9769000000 0.0918000000
1.5083000000 6.8190000000 0.1680000000
1.5080000000 5.3294000000 1.5086000000
1.5075000000 0.1772000000 0.1187000000
1.5073000000 4.4050000000 2.3909000000
1.5070000000 5.3217000000 1.5136000000
1.5067000000 1.3703000000 1.1953000000
1.5065000000 3.4561000000 2.7033000000
1.5062000000 5.5720000000 1.2926000000
1.5063000000 1.0964000000 0.9493000000
1.5061000000 1.4839000000 1.2958000000
1.5060000000 2.2790000000 2.0203000000
1.5059000000 2.9381000000 2.4674000000
1.5059000000 0.3011000000 0.2309000000
1.5057000000 1.6174000000 1.4253000000
1.5055000000 4.3343000000 2.3562000000
1.5053000000 5.0217000000 1.7860000000
1.5050000000 0.1772000000 0.1235000000
1.5046000000 4.2214000000 2.4206000000
1.5045000000 3.3974000000 2.6775000000
1.5045000000 0.1002000000 0.1230000000
1.5044000000 5.7136000000 1.1642000000
1.5043000000 5.2368000000 1.5931000000
1.5043000000 4.3919000000 2.3952000000
1.5041000000 4.1635000000 2.4401000000
1.5039000000 1.4406000000 1.2621000000
1.5038000000 2.4997000000 2.2111000000
1.5037000000 1.6446000000 1.4422000000
1.5036000000 1.3321000000 1.1660000000
1.5035000000 2.6902000000 2.4156000000
1.5032000000 4.2082000000 2.4174000000
1.5033000000 2.7767000000 2.3917000000
1.5031000000 6.4440000000 0.4985000000
1.5030000000 0.6184000000 0.5233000000
1.5029000000 3.0011000000 2.4915000000
1.5027000000 0.4837000000 0.3928000000
1.5026000000 1.6218000000 1.4234000000
1.5024000000 0.0267000000 0.0543000000
1.5023000000 2.3747000000 2.0983000000
1.5022000000 2.7264000000 2.3667000000
1.5020000000 4.1145000000 2.4626000000
1.5019000000 2.7985000000 2.4008000000
1.5015000000 0.7554000000 0.6422000000
1.5010000000 2.7327000000 2.3675000000
1.5009000000 3.6508000000 2.6705000000
1.5005000000 3.5003000000 2.7764000000
1.5004000000 1.7969000000 1.5904000000
1.5001000000 0.0292000000 0.0633000000
1.5000000000 1.0188000000 0.8811000000
1.4999000000 5.5183000000 1.3397000000
1.4995000000 1.0723000000 0.9256000000
1.4993000000 3.1019000000 2.5392000000
1.4989000000 2.1052000000 1.8640000000
1.4972000000 0.3696000000 0.2916000000
1.4970000000 5.8477000000 1.0411000000
1.4956000000 5.3258000000 1.5135000000
1.4952000000 0.6182000000 0.5136000000
1.4931000000 1.4292000000 1.2542000000
1.2605000000 4.6047000000 2.0497000000
1.2592000000 1.9145000000 1.6888000000
1.2582000000 1.1956000000 1.0402000000
1.2578000000 5.3936000000 1.4542000000
1.2576000000 5.6034000000 1.2665000000
1.2569000000 5.6553000000 1.2166000000
1.2565000000 5.3381000000 1.5089000000
1.2564000000 2.9784000000 2.2897000000
1.2563000000 6.5708000000 0.3904000000
1.2562000000 0.5450000000 0.4518000000
1.2560000000 2.3798000000 2.0196000000
1.2559000000 4.5865000000 2.0600000000
1.2558000000 4.2505000000 2.2018000000
1.2556000000 0.0458000000 0.0788000000
1.2554000000 2.2449000000 2.0211000000
1.2552000000 5.8377000000 1.0540000000
1.2549000000 5.6219000000 1.2447000000
1.2548000000 1.5592000000 1.3736000000
1.2546000000 6.8632000000 0.1199000000
1.2545000000 5.4370000000 1.4185000000
1.2543000000 0.6988000000 0.5940000000
1.2542000000 2.4099000000 2.0288000000
1.2540000000 4.3469000000 2.1611000000
1.2538000000 3.2805000000 2.4253000000
1.2533000000 6.7264000000 0.2473000000
1.2532000000 2.8770000000 2.2393000000
1.2528000000 4.6551000000 2.0226000000
1.2526000000 5.9933000000 0.9074000000
1.2525000000 3.5475000000 2.5837000000
1.2524000000 4.4785000000 2.1040000000
1.2522000000 3.2881000000 2.4241000000
1.2519000000 4.0180000000 2.3128000000
1.2518000000 5.1843000000 1.6432000000
1.2515000000 4.9384000000 1.8484000000
1.2511000000 4.4076000000 2.1310000000
1.2508000000 4.8430000000 1.9978000000
1.2505000000 3.8975000000 2.3578000000
1.2503000000 1.0539000000 0.9166000000
1.2502000000 2.7219000000 2.1690000000
1.2500000000 2.5752000000 2.1040000000
1.2496000000 1.5336000000 1.3433000000
1.2486000000 1.7588000000 1.5469000000
1.2483000000 1.2644000000 1.1017000000
1.2478000000 4.9317000000 1.9302000000
1.2471000000 1.2341000000 1.0670000000
1.2449000000 1.3278000000 1.1648000000
1.2443000000 5.2571000000 1.5729000000
1.0117000000 1.8038000000 1.6266000000
1.0112000000 4.2775000000 2.0019000000
1.0109000000 4.7943000000 1.7644000000
1.0105000000 4.3580000000 1.9681000000
1.0099000000 3.4885000000 2.3926000000
1.0091000000 5.3709000000 1.4571000000
1.0088000000 6.0580000000 0.8549000000
1.0082000000 5.5884000000 1.2775000000
1.0080000000 2.3620000000 1.8187000000
1.0078000000 2.2629000000 1.7711000000
1.0077000000 6.4397000000 0.5082000000
1.0075000000 4.3532000000 1.9715000000
1.0074000000 6.8479000000 0.1387000000
1.0072000000 4.2268000000 2.0258000000
1.0068000000 2.9299000000 2.0665000000
1.0066000000 5.3376000000 1.4951000000
1.0064000000 5.0166000000 1.6594000000
1.0059000000 4.9234000000 1.7081000000
1.0058000000 4.6147000000 1.8531000000
1.0057000000 5.6682000000 1.2064000000
1.0055000000 6.9819000000 0.0881000000
1.0053000000 1.6143000000 1.4210000000
1.0051000000 1.9304000000 1.6184000000
1.0049000000 2.5312000000 1.8866000000
1.0048000000 3.8428000000 2.1903000000
1.0045000000 6.5881000000 0.3745000000
1.0045000000 4.5788000000 1.8608000000
1.0044000000 2.0814000000 1.6838000000
1.0043000000 2.1083000000 1.6994000000
1.0040000000 3.0002000000 2.0971000000
1.0039000000 4.3707000000 1.9553000000
1.0038000000 0.2511000000 0.1874000000
1.0035000000 6.6561000000 0.3136000000
1.0033000000 0.8408000000 0.7168000000
1.0031000000 3.4908000000 2.3836000000
1.0030000000 1.9027000000 1.6069000000
1.0028000000 3.2609000000 2.2150000000
1.0025000000 1.5203000000 1.3311000000
1.0023000000 0.4197000000 0.3421000000
1.0022000000 1.7093000000 1.5704000000
1.0019000000 1.4370000000 1.2552000000
1.0017000000 2.3945000000 1.8232000000
1.0010000000 3.1501000000 2.1670000000
1.0006000000 3.5088000000 2.3829000000
1.0002000000 3.2574000000 2.2159000000
0.9998000000 4.2648000000 2.0005000000
0.9997000000 0.9060000000 0.7754000000
0.9996000000 1.6038000000 1.4050000000
0.9995000000 1.2656000000 1.1000000000
0.9993000000 1.8781000000 1.5915000000
0.9988000000 1.9387000000 1.6159000000
0.9980000000 0.3486000000 0.2730000000
0.9975000000 3.7263000000 2.2402000000
0.9971000000 1.1932000000 1.0371000000
0.9958000000 1.5468000000 1.3562000000
0.7640000000 7.0655000000 0.0147000000
0.7619000000 6.4668000000 0.4785000000
0.7608000000 5.7390000000 1.1259000000
0.7600000000 3.1975000000 1.9929000000
0.7593000000 6.2172000000 0.7109000000
0.7589000000 0.1530000000 0.0959000000
0.7587000000 7.0072000000 0.0689000000
0.7585000000 5.7824000000 1.0821000000
0.7582000000 1.8774000000 1.4012000000
0.7577000000 4.7460000000 1.5915000000
0.7575000000 1.3850000000 1.2399000000
0.7573000000 3.0126000000 1.9203000000
0.7573000000 6.6425000000 0.3288000000
0.7568000000 4.9913000000 1.4788000000
0.7566000000 7.0368000000 0.0385000000
0.7564000000 4.6658000000 1.6287000000
0.7558000000 5.3115000000 1.3340000000
0.7553000000 1.6277000000 1.2864000000
0.7553000000 5.4407000000 1.2779000000
0.7552000000 0.3149000000 0.2443000000
0.7549000000 6.0346000000 0.8738000000
0.7545000000 5.6602000000 1.2393000000
0.7543000000 6.0869000000 0.8276000000
0.7540000000 3.2344000000 2.0095000000
0.7538000000 4.2550000000 1.8184000000
0.7537000000 2.4378000000 1.6545000000
0.7534000000 5.7867000000 1.0824000000
0.7533000000 6.5784000000 0.3820000000
0.7532000000 5.0598000000 1.4474000000
0.7529000000 5.7658000000 1.1084000000
0.7526000000 6.3863000000 0.5627000000
0.7525000000 1.8550000000 1.3870000000
0.7523000000 4.4107000000 1.7441000000
0.7521000000 3.2967000000 2.0387000000
0.7515000000 4.8004000000 1.5623000000
0.7513000000 0.6431000000 0.5413000000
0.7510000000 1.4346000000 1.1965000000
0.7505000000 6.1958000000 0.7311000000
0.7503000000 2.9681000000 1.8965000000
0.7500000000 4.7832000000 1.5700000000
0.7495000000 3.2951000000 2.0321000000
0.7495000000 2.4870000000 1.6711000000
0.7493000000 6.1626000000 0.7607000000
0.7489000000 2.2850000000 1.5763000000
0.7487000000 2.1026000000 1.4998000000
0.7485000000 3.7827000000 2.0229000000
0.7481000000 6.6007000000 0.3664000000
0.7474000000 1.4647000000 1.2079000000
0.7453000000 2.2741000000 1.5726000000
0.5120000000 5.7844000000 0.9295000000
0.5109000000 5.3263000000 1.1291000000
0.5105000000 4.9478000000 1.3068000000
0.5096000000 2.0363000000 1.2804000000
0.5090000000 6.6016000000 0.3663000000
0.5090000000 4.0482000000 1.7150000000
0.5086000000 1.1511000000 0.8803000000
0.5082000000 6.5647000000 0.3913000000
0.5080000000 1.9757000000 1.2532000000
0.5078000000 1.4071000000 0.9956000000
0.5075000000 3.4292000000 1.9054000000
0.5073000000 3.2593000000 1.8334000000
0.5072000000 1.0460000000 0.8272000000
0.5071000000 1.6339000000 1.0990000000
0.5068000000 5.6519000000 0.9859000000
0.5062000000 4.5400000000 1.4885000000
0.5059000000 2.2425000000 1.3702000000
0.5055000000 3.7296000000 1.8581000000
0.5054000000 3.9062000000 1.7750000000
0.5052000000 0.0050000000 0.0368000000
0.5051000000 4.6462000000 1.4407000000
0.5049000000 3.8553000000 1.7934000000
0.5046000000 1.7769000000 1.1554000000
0.5043000000 5.9943000000 0.8314000000
0.5043000000 5.7736000000 0.9287000000
0.5041000000 5.0014000000 1.2745000000
0.5038000000 5.2631000000 1.1625000000
0.5037000000 6.1004000000 0.8411000000
0.5034000000 2.9190000000 1.6703000000
0.5032000000 6.1581000000 0.7412000000
0.5029000000 2.2318000000 1.3637000000
0.5028000000 0.0593000000 0.0886000000
0.5026000000 1.2505000000 0.9162000000
0.5025000000 6.7900000000 0.1834000000
0.5023000000 4.5438000000 1.4904000000
0.5022000000 5.0339000000 1.2624000000
0.5021000000 2.1325000000 1.3121000000
0.5019000000 0.7104000000 0.6017000000
0.5016000000 4.6772000000 1.4202000000
0.5015000000 3.8048000000 1.8202000000
0.5010000000 0.0442000000 0.0749000000
0.5010000000 4.7809000000 1.3762000000
0.5005000000 4.8814000000 1.3346000000
0.5003000000 3.1660000000 1.7825000000
0.5000000000 0.0211000000 0.0500000000
0.4995000000 2.7926000000 1.6162000000
0.4986000000 2.6221000000 1.5378000000
0.4981000000 0.2980000000 0.2281000000
0.4975000000 4.3575000000 1.5662000000
0.4972000000 1.2770000000 0.9261000000
0.4951000000 3.5180000000 2.0015000000
0.2623000000 6.4467000000 0.4306000000
0.2614000000 6.9457000000 0.1322000000
0.2601000000 6.8156000000 0.1691000000
0.2598000000 6.6161000000 0.3320000000
0.2593000000 6.7100000000 0.2575000000
0.2589000000 0.6739000000 0.4656000000
0.2585000000 3.7634000000 1.6402000000
0.2583000000 4.4529000000 1.3316000000
0.2581000000 2.1629000000 1.1391000000
0.2577000000 0.0013000000 0.0366000000
0.2572000000 6.8153000000 0.1672000000
0.2568000000 1.3869000000 0.7842000000
0.2567000000 3.4373000000 1.7159000000
0.2561000000 3.7782000000 1.6346000000
0.2559000000 1.8932000000 1.0230000000
0.2556000000 6.7078000000 0.2600000000
0.2554000000 0.2520000000 0.1817000000
0.2551000000 2.8221000000 1.4336000000
0.2549000000 5.4826000000 0.8690000000
0.2546000000 2.3152000000 1.2035000000
0.2544000000 5.1612000000 1.0136000000
0.2543000000 2.9556000000 1.4936000000
0.2540000000 0.3905000000 0.3724000000
0.2540000000 4.6003000000 1.2675000000
0.2538000000 6.5861000000 0.3518000000
0.2538000000 6.6359000000 0.3184000000
0.2536000000 2.3597000000 1.2323000000
0.2535000000 1.6800000000 0.9150000000
0.2534000000 4.9361000000 1.1105000000
0.2533000000 6.2431000000 0.5201000000
0.2532000000 4.7442000000 1.1972000000
0.2530000000 0.5488000000 0.3989000000
0.2523000000 4.2232000000 1.4285000000
0.2521000000 0.8201000000 0.5256000000
0.2519000000 2.7793000000 1.4093000000
0.2515000000 3.9033000000 1.5792000000
0.2512000000 5.2700000000 0.9571000000
0.2511000000 2.0284000000 1.0733000000
0.2508000000 2.4621000000 1.2677000000
0.2505000000 0.3232000000 0.2491000000
0.2502000000 0.2665000000 0.1979000000
0.2498000000 1.5642000000 0.8599000000
0.2497000000 0.0988000000 0.1263000000
0.2492000000 6.3471000000 0.4695000000
0.2490000000 0.7435000000 0.4936000000
0.2489000000 0.6332000000 0.4432000000
0.2482000000 0.6625000000 0.4503000000
0.2476000000 0.2830000000 0.2125000000
0.2465000000 3.7709000000 1.6230000000
0.2424000000 0.6479000000 0.4430000000
0.0105000000 3.5781000000 1.5323000000
0.0098000000 3.4783000000 1.6020000000
0.0093000000 5.5260000000 0.6504000000
0.0090000000 5.4015000000 0.7107000000
0.0083000000 6.5615000000 0.1856000000
0.0073000000 3.9077000000 1.3879000000
0.0070000000 1.5745000000 0.6793000000
0.0068000000 7.0623000000 0.0747000000
0.0068000000 5.5818000000 0.6257000000
0.0061000000 5.9126000000 0.4740000000
0.0057000000 5.2615000000 0.7742000000
0.0056000000 4.8018000000 0.9772000000
0.0053000000 3.2901000000 1.4520000000
0.0050000000 2.8821000000 1.2629000000
0.0049000000 2.2769000000 0.9963000000
0.0048000000 6.2215000000 0.3344000000
0.0047000000 2.2069000000 0.9599000000
0.0045000000 4.5231000000 1.0991000000
0.0044000000 5.9741000000 0.4465000000
0.0043000000 0.1414000000 0.1073000000
0.0040000000 6.1606000000 0.3651000000
0.0037000000 1.4425000000 0.6072000000
0.0035000000 1.4478000000 0.6088000000
0.0031000000 0.9062000000 0.3707000000
0.0029000000 3.9484000000 1.3599000000
0.0028000000 2.0597000000 0.8892000000
0.0026000000 5.8513000000 0.5042000000
0.0023000000 1.1261000000 0.4689000000
0.0022000000 1.7721000000 0.7602000000
0.0020000000 4.7786000000 0.9851000000
0.0020000000 0.1516000000 0.1013000000
0.0018000000 6.6497000000 0.1415000000
0.0015000000 0.7477000000 0.2880000000
0.0012000000 6.7251000000 0.1035000000
0.0008000000 1.1085000000 0.4621000000
0.0006000000 4.3863000000 1.1625000000
0.0003000000 5.6296000000 0.5980000000
0.0002000000 2.4968000000 1.0872000000
-0.0001000000 1.6401000000 0.6987000000
-0.0003000000 5.4060000000 0.6994000000
-0.0010000000 5.6628000000 0.5807000000
-0.0012000000 6.4537000000 0.2260000000
-0.0041000000 2.2221000000 0.9557000000
-0.2375000000 0.7678000000 0.1244000000
-0.2396000000 6.7138000000 0.0687000000
-0.2406000000 3.3208000000 1.2756000000
-0.2413000000 4.2828000000 1.0212000000
-0.2417000000 1.5711000000 0.4758000000
-0.2420000000 1.6582000000 0.5169000000
-0.2423000000 4.4009000000 0.9676000000
-0.2426000000 5.9677000000 0.2650000000
-0.2428000000 5.2291000000 0.5960000000
-0.2430000000 0.5883000000 0.1084000000
-0.2438000000 5.7087000000 0.3686000000
-0.2439000000 2.3164000000 0.8119000000
-0.2441000000 2.2654000000 0.7948000000
-0.2443000000 4.9539000000 0.7171000000
-0.2445000000 1.0946000000 0.2641000000
-0.2449000000 3.9019000000 1.1938000000
-0.2451000000 4.9365000000 0.7189000000
-0.2452000000 2.7116000000 0.9903000000
-0.2453000000 6.5464000000 0.0735000000
-0.2455000000 4.8062000000 0.7753000000
-0.2457000000 6.1909000000 0.1487000000
-0.2461000000 5.1952000000 0.6033000000
-0.2463000000 0.3635000000 0.0761000000
-0.2466000000 2.2564000000 0.7870000000
-0.2467000000 0.7895000000 0.1205000000
-0.2468000000 3.1069000000 1.1732000000
-0.2470000000 4.7550000000 0.8028000000
-0.2471000000 2.5383000000 0.9169000000
-0.2472000000 4.1633000000 1.0692000000
-0.2475000000 0.7190000000 0.0901000000
-0.2478000000 6.3893000000 0.1346000000
-0.2480000000 1.5365000000 0.4588000000
-0.2482000000 0.3877000000 0.0162000000
-0.2485000000 0.8966000000 0.1702000000
-0.2486000000 1.5728000000 0.4827000000
-0.2487000000 2.4299000000 0.8679000000
-0.2491000000 3.1422000000 1.1813000000
-0.2493000000 5.7046000000 0.3690000000
-0.2497000000 6.0415000000 0.2142000000
-0.2500000000 4.0935000000 1.0970000000
-0.2501000000 4.7895000000 0.7843000000
-0.2504000000 2.6359000000 0.9557000000
-0.2507000000 1.2680000000 0.3391000000
-0.2507000000 0.2771000000 0.0425000000
-0.2512000000 0.8692000000 0.1541000000
-0.2518000000 4.5353000000 0.8906000000
-0.2520000000 0.7705000000 0.1092000000
-0.2538000000 4.1660000000 1.0654000000
-0.2544000000 5.4932000000 0.4596000000
-0.4894000000 3.1066000000 0.9876000000
-0.4901000000 3.4566000000 1.1387000000
-0.4903000000 5.3067000000 0.3589000000
-0.4908000000 1.3966000000 0.1983000000
-0.4909000000 4.7222000000 0.6212000000
-0.4912000000 5.8714000000 0.1108000000
-0.4916000000 0.7203000000 0.0452000000
-0.4918000000 4.3262000000 0.7992000000
-0.4921000000 2.3569000000 0.6334000000
-0.4928000000 4.0633000000 0.9220000000
-0.4930000000 5.5550000000 0.2478000000
-0.4934000000 6.1105000000 0.0695000000
-0.4936000000 2.2857000000 0.6054000000
-0.4939000000 5.4607000000 0.2856000000
-0.4941000000 6.0786000000 0.0885000000
-0.4942000000 4.9129000000 0.5353000000
-0.4944000000 4.1180000000 0.8953000000
-0.4945000000 5.6280000000 0.2120000000
-0.4948000000 5.0662000000 0.4638000000
-0.4950000000 4.5357000000 0.7082000000
-0.4950000000 1.2166000000 0.1160000000
-0.4952000000 5.2202000000 0.3991000000
-0.4955000000 5.1323000000 0.4347000000
-0.4957000000 1.5125000000 0.2553000000
-0.4961000000 4.9616000000 0.5142000000
-0.4962000000 1.3944000000 0.2008000000
-0.4965000000 5.2822000000 0.3684000000
-0.4970000000 3.5370000000 1.2191000000
-0.4975000000 1.7768000000 0.3691000000
-0.4982000000 5.0242000000 0.4807000000
-0.4986000000 2.5741000000 0.7294000000
-0.4987000000 4.9140000000 0.5289000000
-0.4993000000 2.7018000000 0.7864000000
-0.4995000000 2.4720000000 0.6811000000
-0.4997000000 0.7863000000 0.0795000000
-0.5005000000 1.2344000000 0.1209000000
-0.5012000000 6.2442000000 0.0778000000
-0.5016000000 1.5828000000 0.2827000000
-0.5035000000 2.0977000000 0.5123000000
-0.5039000000 5.0808000000 0.4526000000
-0.7394000000 5.2951000000 0.1716000000
-0.7412000000 4.0396000000 0.7382000000
-0.7422000000 2.7625000000 0.6230000000
-0.7425000000 3.9418000000 0.7796000000
-0.7430000000 4.3430000000 0.5987000000
-0.7432000000 1.5463000000 0.0756000000
-0.7437000000 5.2580000000 0.1799000000
-0.7439000000 5.4995000000 0.0745000000
-0.7442000000 1.7882000000 0.1897000000
-0.7447000000 5.6001000000 0.1017000000
-0.7448000000 5.6197000000 0.0921000000
-0.7450000000 1.6558000000 0.1225000000
-0.7452000000 5.5976000000 0.1089000000
-0.7457000000 4.6945000000 0.4385000000
-0.7460000000 5.0093000000 0.2998000000
-0.7462000000 4.9133000000 0.3390000000
-0.7462000000 1.2671000000 0.0221000000
-0.7466000000 1.1447000000 0.0477000000
-0.7467000000 2.6061000000 0.5441000000
-0.7470000000 3.7049000000 0.8832000000
-0.7477000000 4.1210000000 0.7001000000
-0.7478000000 5.4645000000 0.0855000000
-0.7482000000 1.2464000000 0.0150000000
-0.7487000000 1.5379000000 0.0641000000
-0.7490000000 4.7815000000 0.3959000000
-0.7495000000 5.4165000000 0.1096000000
-0.7497000000 1.1734000000 0.0480000000
-0.7498000000 3.8706000000 0.8093000000
-0.7503000000 5.9045000000 0.0308000000
-0.7506000000 1.9179000000 0.2365000000
-0.7512000000 4.6545000000 0.4499000000
-0.7525000000 4.5028000000 0.5218000000
-0.7551000000 1.6484000000 0.1083000000
-0.9890000000 1.9987000000 0.0854000000
-0.9905000000 1.4901000000 0.0035000000
-0.9935000000 4.8415000000 0.1810000000
-0.9939000000 2.8866000000 0.4859000000
-0.9945000000 3.0492000000 0.5575000000
-0.9952000000 1.9829000000 0.0757000000
-0.9958000000 5.0377000000 0.0839000000
-0.9961000000 3.8779000000 0.6079000000
-0.9967000000 2.2757000000 0.2100000000
-0.9969000000 4.3598000000 0.3979000000
-0.9972000000 4.2018000000 0.4636000000
-0.9978000000 4.2568000000 0.4390000000
-0.9982000000 4.0911000000 0.5133000000
-0.9983000000 2.7051000000 0.3980000000
-0.9986000000 5.5159000000 0.0166000000
-0.9988000000 2.5922000000 0.3500000000
-0.9994000000 3.3284000000 0.6872000000
-0.9995000000 2.0284000000 0.0952000000
-1.0006000000 2.3180000000 0.2265000000
-1.0021000000 4.1825000000 0.4645000000
-1.0027000000 1.5858000000 0.0377000000
-1.0042000000 3.5082000000 0.8189000000
-1.2385000000 2.6805000000 0.2010000000
-1.2424000000 2.0594000000 0.0685000000
-1.2426000000 4.8816000000 0.0403000000
-1.2442000000 2.7898000000 0.2411000000
-1.2445000000 4.4593000000 0.1519000000
-1.2449000000 4.5061000000 0.1305000000
-1.2454000000 2.6225000000 0.1642000000
-1.2457000000 4.3315000000 0.2117000000
-1.2459000000 2.5389000000 0.1317000000
-1.2462000000 2.0187000000 0.0403000000
-1.2469000000 4.3521000000 0.2014000000
-1.2471000000 1.9227000000 0.0042000000
-1.2475000000 3.7979000000 0.4525000000
-1.2477000000 4.6802000000 0.1222000000
-1.2479000000 3.8042000000 0.4468000000
-1.2485000000 3.5725000000 0.5398000000
-1.2490000000 3.3795000000 0.5073000000
-1.2500000000 4.2963000000 0.2248000000
-1.2511000000 4.8037000000 0.0687000000
-1.2519000000 3.4406000000 0.5383000000
-1.4911000000 3.5329000000 0.4394000000
-1.4925000000 2.7352000000 0.1046000000
-1.4934000000 3.8917000000 0.2147000000
-1.4935000000 3.0735000000 0.1777000000
-1.4952000000 3.4115000000 0.3299000000
-1.4955000000 4.5960000000 0.0423000000
-1.4957000000 4.6794000000 0.0108000000
-1.4960000000 4.5325000000 0.0736000000
-1.4972000000 2.6554000000 0.0621000000
-1.4981000000 3.4236000000 0.3296000000
-1.4982000000 4.3505000000 0.0805000000
-1.4984000000 3.3872000000 0.3147000000
-1.4988000000 2.4904000000 0.0642000000
-1.5007000000 3.6133000000 0.3335000000
-1.5019000000 2.9082000000 0.0952000000
-1.5102000000 2.6648000000 0.0525000000
-1.7406000000 3.5174000000 0.2450000000
-1.7429000000 2.8575000000 0.0363000000
-1.7437000000 3.3294000000 0.0955000000
-1.7455000000 3.4679000000 0.1535000000
-1.7463000000 3.0784000000 0.0569000000
-1.7475000000 2.9969000000 0.0215000000
-1.7478000000 3.9942000000 0.0448000000
-1.7515000000 3.1480000000 0.0843000000
-1.9938000000 3.7030000000 0.0568000000
