5.5041000000 4.1011000000 0.4977000000
5.5034000000 2.0299000000 0.0097000000
5.5025000000 1.9296000000 0.0391000000
5.5023000000 2.2903000000 0.1155000000
5.5021000000 1.9657000000 0.0536000000
5.5018000000 4.1235000000 0.4846000000
5.5015000000 3.3590000000 0.5038000000
5.5013000000 4.9964000000 0.1101000000
5.5005000000 4.0953000000 0.5053000000
5.4993000000 3.8310000000 0.6155000000
5.4989000000 3.4547000000 0.5399000000
5.4983000000 4.9471000000 0.1324000000
5.4979000000 4.8490000000 0.1787000000
5.4954000000 2.4230000000 0.1059000000
5.2627000000 5.7006000000 0.0589000000
5.2612000000 4.6608000000 0.4307000000
5.2608000000 4.9118000000 0.3286000000
5.2596000000 4.2930000000 0.5925000000
5.2592000000 5.6774000000 0.0756000000
5.2583000000 5.7164000000 0.0576000000
5.2580000000 2.9650000000 0.5118000000
5.2578000000 5.5437000000 0.0636000000
5.2577000000 3.9511000000 0.7349000000
5.2573000000 3.8670000000 0.7769000000
5.2570000000 3.2024000000 0.6135000000
5.2565000000 3.8790000000 0.7734000000
5.2561000000 2.9282000000 0.4989000000
5.2559000000 5.3781000000 0.1369000000
5.2556000000 2.5719000000 0.3423000000
5.2555000000 2.4253000000 0.2845000000
5.2552000000 5.6680000000 0.0878000000
5.2547000000 3.9795000000 0.7384000000
5.2545000000 5.5930000000 0.1146000000
5.2543000000 3.6627000000 0.8107000000
5.2540000000 3.5561000000 0.7674000000
5.2538000000 3.7380000000 0.8957000000
5.2536000000 4.4030000000 0.5521000000
5.2533000000 2.0661000000 0.1308000000
5.2528000000 3.3009000000 0.6603000000
5.2525000000 4.6129000000 0.4628000000
5.2524000000 4.6481000000 0.4487000000
5.2522000000 2.0386000000 0.1179000000
5.2518000000 3.1706000000 0.6016000000
5.2516000000 3.5994000000 0.7877000000
5.2506000000 2.6522000000 0.3866000000
5.2498000000 5.8476000000 0.0119000000
5.2478000000 2.6130000000 0.3726000000
5.0121000000 4.8478000000 0.5396000000
5.0110000000 6.2652000000 0.0080000000
5.0105000000 3.1747000000 0.7810000000
5.0098000000 5.4424000000 0.2843000000
5.0098000000 5.8543000000 0.1097000000
5.0095000000 5.8817000000 0.0949000000
5.0090000000 5.3539000000 0.3264000000
5.0085000000 1.4892000000 0.0615000000
5.0080000000 6.3713000000 0.0367000000
5.0079000000 4.5355000000 0.6729000000
5.0078000000 1.1670000000 0.0010000000
5.0073000000 4.1485000000 0.8451000000
5.0070000000 6.4614000000 0.0007000000
5.0070000000 1.7163000000 0.1658000000
5.0067000000 3.3657000000 0.8682000000
5.0063000000 5.9979000000 0.1292000000
5.0058000000 4.3666000000 0.7491000000
5.0055000000 5.3881000000 0.3162000000
5.0053000000 5.5266000000 0.2548000000
5.0049000000 2.6276000000 0.5570000000
5.0048000000 5.3820000000 0.3178000000
5.0048000000 1.7704000000 0.1865000000
5.0045000000 6.2621000000 0.0136000000
5.0044000000 2.4051000000 0.4617000000
5.0043000000 2.2329000000 0.3885000000
5.0041000000 4.1083000000 0.8664000000
5.0040000000 2.7418000000 0.6005000000
5.0038000000 5.5302000000 0.2564000000
5.0036000000 1.8193000000 0.2131000000
5.0031000000 4.9854000000 0.4850000000
5.0030000000 1.1930000000 0.0141000000
5.0028000000 1.9642000000 0.2698000000
5.0026000000 1.2125000000 0.0252000000
5.0021000000 2.1663000000 0.3605000000
5.0019000000 2.8551000000 0.6521000000
5.0012000000 6.4506000000 0.0134000000
5.0011000000 3.2579000000 0.8278000000
5.0010000000 6.4756000000 0.0023000000
5.0006000000 3.5429000000 0.9446000000
5.0005000000 4.7378000000 0.5913000000
4.9999000000 1.0086000000 0.0223000000
4.9995000000 2.0422000000 0.3077000000
4.9990000000 4.3864000000 0.7436000000
4.9978000000 2.7745000000 0.6265000000
4.9973000000 1.1856000000 0.0172000000
4.9962000000 5.3836000000 0.3240000000
4.9946000000 1.8737000000 0.2449000000
4.7601000000 1.8416000000 0.3988000000
4.7596000000 3.1241000000 1.0262000000
4.7594000000 1.9761000000 0.4574000000
4.7592000000 6.5683000000 0.0679000000
4.7590000000 4.2645000000 0.9802000000
4.7587000000 6.6768000000 0.0193000000
4.7585000000 3.1334000000 0.9548000000
4.7584000000 5.8173000000 0.3172000000
4.7583000000 6.1329000000 0.1775000000
4.7581000000 6.3695000000 0.0769000000
4.7577000000 3.0001000000 0.8956000000
4.7571000000 6.6566000000 0.0295000000
4.7568000000 6.2830000000 0.1180000000
4.7566000000 4.6926000000 0.7988000000
4.7562000000 2.9248000000 0.8646000000
4.7560000000 2.0527000000 0.4944000000
4.7555000000 1.6767000000 0.3351000000
4.7553000000 3.9725000000 1.1102000000
4.7549000000 3.5391000000 1.1357000000
4.7548000000 5.2879000000 0.5444000000
4.7545000000 2.4334000000 0.6610000000
4.7544000000 6.2614000000 0.1298000000
4.7543000000 4.4300000000 0.9092000000
4.7542000000 4.9146000000 0.7038000000
4.7540000000 4.6536000000 0.8108000000
4.7539000000 0.8746000000 0.0682000000
4.7537000000 6.8704000000 0.0196000000
4.7532000000 1.0974000000 0.0891000000
4.7530000000 5.3688000000 0.5120000000
4.7529000000 4.1663000000 1.0253000000
4.7527000000 3.0434000000 0.9252000000
4.7525000000 1.8512000000 0.4066000000
4.7524000000 5.9276000000 0.2675000000
4.7523000000 4.5028000000 0.8781000000
4.7521000000 5.3887000000 0.5020000000
4.7521000000 0.9936000000 0.1183000000
4.7520000000 5.1220000000 0.6154000000
4.7517000000 2.1367000000 0.5320000000
4.7516000000 3.8297000000 1.1672000000
4.7513000000 3.0104000000 0.9042000000
4.7511000000 6.7545000000 0.0709000000
4.7509000000 4.3986000000 0.9330000000
4.7504000000 3.0178000000 0.9094000000
4.7500000000 1.4592000000 0.2350000000
4.7498000000 2.8904000000 0.8557000000
4.7490000000 1.6817000000 0.3422000000
4.7483000000 6.1829000000 0.1685000000
4.7480000000 3.3143000000 1.0322000000
4.7456000000 1.7504000000 0.3719000000
4.5163000000 7.1489000000 0.0699000000
4.5119000000 4.4314000000 1.0906000000
4.5113000000 5.7877000000 0.5083000000
4.5108000000 6.1615000000 0.3495000000
4.5100000000 5.8789000000 0.4743000000
4.5098000000 4.5166000000 1.0555000000
4.5092000000 3.4963000000 1.2970000000
4.5084000000 2.5549000000 0.8928000000
4.5082000000 3.4316000000 1.2690000000
4.5076000000 0.2740000000 0.0666000000
4.5075000000 6.1705000000 0.3506000000
4.5074000000 5.8522000000 0.4851000000
4.5072000000 5.7894000000 0.5077000000
4.5070000000 0.7997000000 0.1450000000
4.5068000000 3.7940000000 1.3673000000
4.5066000000 3.4739000000 1.2912000000
4.5063000000 1.8558000000 0.5910000000
4.5057000000 0.7302000000 0.1117000000
4.5056000000 1.0787000000 0.2628000000
4.5055000000 6.9193000000 0.1032000000
4.5053000000 5.6757000000 0.5647000000
4.5051000000 3.5970000000 1.3384000000
4.5050000000 4.4920000000 1.0702000000
4.5049000000 1.0124000000 0.2318000000
4.5047000000 2.1519000000 0.7212000000
4.5046000000 6.1266000000 0.3739000000
4.5045000000 4.0530000000 1.2627000000
4.5043000000 3.6357000000 1.3601000000
4.5040000000 2.3298000000 0.8027000000
4.5038000000 3.4633000000 1.2833000000
4.5036000000 2.3804000000 0.8187000000
4.5035000000 2.7783000000 0.9881000000
4.5032000000 5.2833000000 0.7309000000
4.5030000000 5.2044000000 0.7639000000
4.5026000000 4.2919000000 1.1602000000
4.5024000000 5.7372000000 0.5335000000
4.5023000000 1.7576000000 0.5540000000
4.5020000000 0.6007000000 0.0598000000
4.5016000000 2.2079000000 0.7485000000
4.5009000000 0.1839000000 0.0310000000
4.5005000000 1.1040000000 0.2796000000
4.5003000000 5.7918000000 0.5170000000
4.4998000000 2.6409000000 0.9319000000
4.4995000000 4.3044000000 1.1561000000
4.4988000000 0.3598000000 0.0342000000
4.4984000000 3.2252000000 1.1859000000
4.4969000000 0.1728000000 0.0334000000
4.4955000000 2.3142000000 0.7983000000
4.2623000000 6.2185000000 0.5164000000
4.2608000000 4.3851000000 1.2953000000
4.2601000000 3.2420000000 1.3722000000
4.2593000000 7.0478000000 0.1600000000
4.2588000000 5.6184000000 0.7707000000
4.2585000000 3.7560000000 1.6271000000
4.2581000000 7.3457000000 0.0897000000
4.2575000000 0.2859000000 0.1066000000
4.2573000000 1.5057000000 0.6297000000
4.2572000000 3.2310000000 1.3712000000
4.2570000000 3.2147000000 1.3636000000
4.2569000000 1.5981000000 0.6724000000
4.2568000000 0.9880000000 0.4139000000
4.2567000000 4.4820000000 1.2564000000
4.2565000000 0.7178000000 0.2958000000
4.2561000000 2.4788000000 1.0460000000
4.2560000000 6.5783000000 0.3580000000
4.2559000000 2.5692000000 1.0827000000
4.2557000000 5.9543000000 0.6235000000
4.2555000000 4.3651000000 1.3094000000
4.2552000000 5.6027000000 0.7760000000
4.2550000000 6.9849000000 0.1883000000
4.2549000000 5.1941000000 0.9496000000
4.2546000000 6.8302000000 0.2607000000
4.2545000000 6.3755000000 0.4476000000
4.2544000000 3.8541000000 1.5278000000
4.2543000000 7.4223000000 0.0351000000
4.2541000000 2.2339000000 0.9483000000
4.2539000000 4.2415000000 1.3665000000
4.2537000000 4.0486000000 1.4433000000
4.2537000000 3.6866000000 1.6310000000
4.2534000000 4.3532000000 1.3116000000
4.2532000000 0.6245000000 0.2609000000
4.2528000000 6.6082000000 0.3489000000
4.2527000000 1.0539000000 0.4376000000
4.2524000000 0.6484000000 0.2617000000
4.2520000000 6.0541000000 0.5883000000
4.2518000000 0.9995000000 0.4130000000
4.2516000000 2.6430000000 1.1194000000
4.2515000000 0.0096000000 0.0197000000
4.2513000000 2.1273000000 0.9043000000
4.2510000000 1.3760000000 0.5731000000
4.2508000000 1.7815000000 0.7556000000
4.2507000000 1.2906000000 0.5401000000
4.2503000000 1.3202000000 0.5537000000
4.2500000000 4.5453000000 1.2317000000
4.2494000000 3.4937000000 1.4884000000
4.2492000000 1.7517000000 0.7439000000
4.2490000000 0.9223000000 0.3821000000
4.2487000000 0.4575000000 0.1888000000
4.2485000000 2.9030000000 1.2296000000
4.2476000000 1.2859000000 0.5393000000
4.2468000000 0.9767000000 0.4134000000
4.2435000000 0.0741000000 0.0704000000
4.0132000000 5.5281000000 0.9862000000
4.0118000000 4.8321000000 1.2876000000
4.0106000000 4.2723000000 1.5292000000
4.0102000000 3.3872000000 1.6166000000
4.0099000000 3.4980000000 1.6680000000
4.0095000000 5.9886000000 0.7999000000
4.0092000000 7.4786000000 0.0119000000
4.0087000000 2.8551000000 1.3883000000
4.0080000000 4.1030000000 1.6048000000
4.0076000000 4.8753000000 1.2721000000
4.0075000000 0.2699000000 0.1864000000
4.0074000000 1.1952000000 0.6833000000
4.0072000000 3.3415000000 1.5995000000
4.0069000000 4.2362000000 1.5449000000
4.0067000000 4.2859000000 1.5241000000
4.0064000000 3.5227000000 1.6801000000
4.0063000000 0.9111000000 0.5583000000
4.0063000000 6.4665000000 0.5936000000
4.0060000000 4.5205000000 1.4287000000
4.0057000000 5.4757000000 1.0143000000
4.0056000000 0.1108000000 0.1268000000
4.0052000000 1.3587000000 0.7532000000
4.0051000000 0.4947000000 0.4386000000
4.0049000000 3.5461000000 1.6928000000
4.0046000000 6.7559000000 0.4742000000
4.0044000000 0.0155000000 0.0407000000
4.0042000000 1.8924000000 0.9796000000
4.0040000000 5.8058000000 0.8718000000
4.0037000000 1.3672000000 0.7624000000
4.0035000000 0.0496000000 0.0685000000
4.0034000000 4.6090000000 1.3909000000
4.0032000000 0.7513000000 0.4938000000
4.0030000000 0.5896000000 0.4935000000
4.0029000000 1.9282000000 1.0004000000
4.0027000000 2.2370000000 1.1274000000
4.0025000000 0.3149000000 0.2236000000
4.0023000000 4.2224000000 1.5589000000
4.0022000000 5.1382000000 1.1727000000
4.0020000000 2.5423000000 1.2587000000
4.0018000000 3.8085000000 1.7379000000
4.0016000000 4.8509000000 1.2856000000
4.0014000000 0.9252000000 0.5697000000
4.0011000000 3.5766000000 1.7044000000
4.0009000000 0.7674000000 0.4999000000
4.0008000000 1.5951000000 0.8630000000
4.0003000000 4.9638000000 1.2353000000
4.0000000000 1.2541000000 0.7118000000
3.9995000000 1.6432000000 0.8781000000
3.9991000000 0.0987000000 0.1113000000
3.9988000000 1.9414000000 1.0069000000
3.9986000000 5.5021000000 1.0153000000
3.9977000000 2.2359000000 1.1352000000
3.9968000000 1.7771000000 0.9388000000
3.9963000000 2.6057000000 1.2943000000
3.7627000000 6.8373000000 0.4827000000
3.7616000000 1.2564000000 0.8882000000
3.7610000000 4.4885000000 1.6226000000
3.7598000000 5.6506000000 1.1241000000
3.7596000000 4.3608000000 1.6702000000
3.7593000000 5.2322000000 1.3032000000
3.7590000000 5.8680000000 1.0323000000
3.7590000000 6.6683000000 0.6234000000
3.7588000000 1.1662000000 0.8537000000
3.7585000000 7.2547000000 0.1246000000
3.7583000000 7.0240000000 0.3174000000
3.7578000000 7.1328000000 0.2291000000
3.7573000000 2.4730000000 1.4139000000
3.7570000000 4.8258000000 1.4827000000
3.7568000000 3.3497000000 1.7901000000
3.7566000000 6.4413000000 0.8519000000
3.7563000000 2.3171000000 1.3499000000
3.7561000000 1.5256000000 1.0035000000
3.7560000000 3.2756000000 1.7569000000
3.7558000000 7.0349000000 0.3129000000
3.7554000000 1.1942000000 0.8664000000
3.7552000000 6.4365000000 0.8539000000
3.7549000000 2.4893000000 1.4258000000
3.7546000000 1.1047000000 0.8262000000
3.7548000000 0.2106000000 0.1318000000
3.7543000000 5.6227000000 1.1432000000
3.7543000000 4.0941000000 1.7971000000
3.7540000000 1.3844000000 0.9540000000
3.7539000000 6.5447000000 0.7940000000
3.7535000000 0.5981000000 0.4663000000
3.7533000000 6.1218000000 0.9258000000
3.7532000000 2.0493000000 1.2343000000
3.7528000000 0.2109000000 0.1365000000
3.7526000000 5.4495000000 1.2161000000
3.7524000000 6.9616000000 0.3781000000
3.7522000000 4.3854000000 1.6765000000
3.7520000000 5.4656000000 1.2059000000
3.7518000000 2.2794000000 1.3321000000
3.7514000000 2.6253000000 1.4835000000
3.7513000000 2.4845000000 1.4242000000
3.7512000000 4.6130000000 1.5709000000
3.7510000000 0.0363000000 0.0614000000
3.7509000000 6.6700000000 0.6200000000
3.7508000000 1.1863000000 0.8668000000
3.7505000000 6.7839000000 0.5260000000
3.7501000000 4.9863000000 1.4180000000
3.7494000000 4.8084000000 1.4936000000
3.7492000000 7.4870000000 0.0698000000
3.7491000000 3.4544000000 1.8407000000
3.7416000000 5.6630000000 1.1318000000
3.5140000000 5.5649000000 1.3410000000
3.5113000000 6.5641000000 0.7127000000
3.5097000000 6.6050000000 0.6768000000
3.5089000000 2.4261000000 1.5842000000
3.5085000000 7.3696000000 0.0967000000
3.5084000000 5.7612000000 1.2642000000
3.5081000000 4.1822000000 1.9393000000
3.5078000000 2.6432000000 1.6748000000
3.5077000000 4.1232000000 1.9665000000
3.5073000000 7.1268000000 0.2267000000
3.5073000000 1.7565000000 1.2905000000
3.5071000000 6.0441000000 1.2085000000
3.5070000000 2.5259000000 1.6229000000
3.5067000000 0.8790000000 0.7058000000
3.5065000000 6.8068000000 0.5059000000
3.5063000000 1.4761000000 1.2436000000
3.5060000000 7.3108000000 0.0746000000
3.5059000000 5.3524000000 1.4419000000
3.5058000000 5.7257000000 1.2855000000
3.5058000000 7.3507000000 0.1199000000
3.5055000000 5.5299000000 1.3594000000
3.5054000000 6.4432000000 0.8148000000
3.5052000000 4.7963000000 1.6827000000
3.5050000000 6.6991000000 0.5959000000
3.5047000000 3.6752000000 2.1829000000
3.5045000000 4.7236000000 1.7153000000
3.5041000000 2.8899000000 1.7825000000
3.5039000000 5.0583000000 1.5682000000
3.5038000000 2.1731000000 1.4752000000
3.5036000000 4.9314000000 1.6251000000
3.5034000000 3.7424000000 2.1957000000
3.5030000000 5.7437000000 1.2744000000
3.5029000000 3.4519000000 2.0212000000
3.5026000000 3.3526000000 1.9807000000
3.5023000000 3.4880000000 2.0347000000
3.5019000000 0.9115000000 0.7297000000
3.5017000000 0.9187000000 0.7387000000
3.5012000000 1.8388000000 1.3286000000
3.5006000000 0.1880000000 0.1139000000
3.5002000000 0.5956000000 0.4608000000
3.4999000000 0.8697000000 0.6976000000
3.4993000000 4.7862000000 1.6906000000
3.4987000000 1.0253000000 0.8330000000
3.4973000000 3.5425000000 2.0671000000
3.4969000000 3.5888000000 2.0863000000
3.4941000000 1.4751000000 1.2461000000
3.4935000000 2.8452000000 1.8465000000
3.2623000000 7.3931000000 0.0789000000
3.2611000000 3.9507000000 2.2249000000
3.2605000000 0.5828000000 0.4449000000
3.2602000000 7.2006000000 0.1655000000
3.2599000000 6.5823000000 0.6986000000
3.2597000000 2.4316000000 1.7666000000
3.2591000000 4.1537000000 2.1369000000
3.2589000000 1.6315000000 1.3510000000
3.2586000000 5.7582000000 1.4010000000
3.2581000000 5.0101000000 1.7722000000
3.2579000000 6.3899000000 0.8664000000
3.2576000000 6.1860000000 1.0367000000
3.2575000000 4.5581000000 1.9682000000
3.2573000000 3.1056000000 2.0555000000
3.2568000000 3.0114000000 2.0207000000
3.2567000000 4.4745000000 2.0036000000
3.2566000000 0.9760000000 0.7893000000
3.2564000000 1.9369000000 1.5514000000
3.2562000000 2.9590000000 1.9910000000
3.2561000000 6.8927000000 0.4282000000
3.2559000000 4.2078000000 2.1180000000
3.2557000000 3.5672000000 2.2537000000
3.2556000000 6.1635000000 1.0584000000
3.2553000000 6.7492000000 0.5530000000
3.2551000000 5.4250000000 1.6014000000
3.2548000000 4.9111000000 1.8151000000
3.2547000000 2.7271000000 1.8958000000
3.2546000000 5.0323000000 1.7696000000
3.2545000000 5.1816000000 1.7003000000
3.2543000000 5.1621000000 1.7110000000
3.2541000000 6.8481000000 0.4702000000
3.2539000000 6.5842000000 0.6955000000
3.2538000000 1.3702000000 1.1275000000
3.2536000000 3.7322000000 2.3813000000
3.2534000000 1.8022000000 1.5615000000
3.2529000000 1.6975000000 1.4775000000
3.2527000000 4.2042000000 2.1263000000
3.2525000000 1.6026000000 1.3243000000
3.2524000000 2.3977000000 1.7589000000
3.2521000000 0.1305000000 0.0681000000
3.2520000000 4.7175000000 1.8972000000
3.2518000000 3.4013000000 2.1863000000
3.2516000000 3.5734000000 2.2601000000
3.2513000000 2.1533000000 1.6508000000
3.2512000000 4.6657000000 1.9197000000
3.2508000000 2.0140000000 1.5955000000
3.2507000000 2.9215000000 1.9819000000
3.2499000000 2.3888000000 1.7552000000
3.2488000000 0.4382000000 0.3265000000
3.2478000000 0.9982000000 0.8031000000
3.2474000000 3.1311000000 2.0724000000
3.2463000000 2.1182000000 1.6398000000
3.2458000000 0.1224000000 0.0510000000
3.2420000000 3.2183000000 2.1152000000
3.0118000000 6.9835000000 0.3501000000
3.0108000000 6.2747000000 0.9639000000
3.0095000000 2.0806000000 1.7326000000
3.0093000000 5.8163000000 1.3484000000
3.0092000000 6.4436000000 0.8174000000
3.0088000000 6.1122000000 1.0931000000
3.0085000000 4.6020000000 2.1312000000
3.0084000000 3.4938000000 2.4106000000
3.0083000000 4.8050000000 2.0460000000
3.0081000000 6.2599000000 0.9740000000
3.0079000000 7.1973000000 0.1778000000
3.0078000000 6.4747000000 0.7907000000
3.0075000000 4.8564000000 2.0206000000
3.0073000000 4.7492000000 2.0693000000
3.0071000000 3.2409000000 2.2977000000
3.0070000000 0.5182000000 0.3989000000
3.0067000000 0.3512000000 0.2520000000
3.0065000000 6.6496000000 0.6399000000
3.0061000000 0.4201000000 0.3153000000
3.0059000000 3.4080000000 2.3662000000
3.0058000000 2.2676000000 1.9501000000
3.0057000000 4.1587000000 2.3236000000
3.0057000000 5.7379000000 1.4219000000
3.0055000000 3.8252000000 2.4643000000
3.0055000000 2.3939000000 1.9400000000
3.0053000000 0.2694000000 0.1876000000
3.0050000000 0.3447000000 0.2563000000
3.0048000000 2.3046000000 1.9618000000
3.0046000000 6.4759000000 0.7844000000
3.0043000000 1.4515000000 1.2001000000
3.0041000000 3.9123000000 2.4300000000
3.0040000000 1.5857000000 1.3101000000
3.0038000000 5.2365000000 1.9041000000
3.0038000000 4.5957000000 2.1385000000
3.0035000000 3.7245000000 2.5699000000
3.0034000000 3.1258000000 2.2515000000
3.0033000000 2.9040000000 2.1574000000
3.0031000000 3.5068000000 2.4197000000
3.0030000000 6.6044000000 0.6755000000
3.0029000000 4.9820000000 1.9700000000
3.0028000000 1.4221000000 1.1689000000
3.0026000000 5.9697000000 1.2202000000
3.0023000000 1.9807000000 1.6481000000
3.0021000000 1.5084000000 1.2491000000
3.0019000000 6.7976000000 0.5148000000
3.0015000000 5.8390000000 1.3352000000
3.0014000000 0.4258000000 0.3166000000
3.0010000000 3.1217000000 2.2483000000
3.0009000000 0.7964000000 0.6333000000
3.0006000000 6.0291000000 1.1730000000
3.0000000000 1.0009000000 0.8083000000
2.9999000000 1.7579000000 1.4604000000
2.9990000000 0.4533000000 0.3384000000
2.9982000000 0.6291000000 0.4884000000
2.9970000000 0.0970000000 0.1097000000
2.7638000000 6.9374000000 0.3945000000
2.7622000000 5.5457000000 1.5825000000
2.7608000000 7.0225000000 0.3221000000
2.7601000000 6.2016000000 1.0255000000
2.7594000000 6.8229000000 0.4969000000
2.7591000000 2.6446000000 2.2804000000
2.7589000000 5.2088000000 1.8732000000
2.7585000000 1.8898000000 1.5749000000
2.7583000000 5.1980000000 1.8855000000
2.7582000000 3.8615000000 2.6365000000
2.7580000000 1.9944000000 1.6591000000
2.7574000000 6.7630000000 0.5382000000
2.7571000000 3.0553000000 2.4012000000
2.7570000000 6.8367000000 0.4789000000
2.7567000000 6.9455000000 0.3828000000
2.7564000000 0.7600000000 0.5997000000
2.7561000000 3.6066000000 2.6454000000
2.7559000000 1.4625000000 1.2061000000
2.7557000000 4.6933000000 2.3375000000
2.7555000000 2.0005000000 1.6649000000
2.7553000000 5.2254000000 1.8604000000
2.7552000000 5.4483000000 1.6726000000
2.7551000000 2.2178000000 1.8554000000
2.7548000000 3.0896000000 2.4228000000
2.7547000000 0.0584000000 0.0825000000
2.7545000000 2.1834000000 1.8944000000
2.7543000000 4.2930000000 2.4553000000
2.7541000000 5.2729000000 1.8198000000
2.7538000000 5.4516000000 1.6632000000
2.7537000000 2.5312000000 2.1165000000
2.7535000000 2.6343000000 2.2655000000
2.7535000000 6.3045000000 0.9327000000
2.7534000000 3.3862000000 2.5524000000
2.7532000000 2.7537000000 2.3371000000
2.7529000000 1.0569000000 0.8551000000
2.7528000000 4.6859000000 2.3510000000
2.7526000000 1.5206000000 1.2557000000
2.7524000000 4.1761000000 2.4980000000
2.7522000000 4.7501000000 2.3160000000
2.7519000000 1.3766000000 1.1329000000
2.7518000000 2.5313000000 2.1174000000
2.7516000000 5.5370000000 1.5924000000
2.7514000000 3.9531000000 2.6013000000
2.7511000000 1.8352000000 1.5266000000
2.7509000000 3.4987000000 2.5938000000
2.7508000000 1.5489000000 1.2819000000
2.7504000000 4.6265000000 2.3119000000
2.7497000000 0.9805000000 0.7943000000
2.7493000000 1.9090000000 1.5859000000
2.7490000000 5.4425000000 1.6719000000
2.7484000000 0.6294000000 0.4963000000
2.7483000000 0.7519000000 0.6010000000
2.7481000000 0.7281000000 0.5774000000
2.7472000000 1.0254000000 0.8276000000
2.5146000000 7.4721000000 0.0138000000
2.5120000000 7.0412000000 0.3067000000
2.5113000000 2.8237000000 2.3732000000
2.5110000000 5.4683000000 1.6528000000
2.5109000000 7.2975000000 0.0904000000
2.5102000000 6.8072000000 0.5062000000
2.5092000000 2.6986000000 2.2549000000
2.5083000000 7.2904000000 0.0916000000
2.5081000000 4.8170000000 2.2108000000
2.5080000000 5.4132000000 1.6977000000
2.5077000000 1.3084000000 1.0720000000
2.5074000000 5.2062000000 1.8731000000
2.5072000000 3.9409000000 2.7884000000
2.5070000000 1.9178000000 1.5989000000
2.5066000000 5.4224000000 1.6928000000
2.5060000000 2.9448000000 2.4686000000
2.5059000000 5.0708000000 1.9889000000
2.5058000000 3.1530000000 2.6982000000
2.5053000000 3.2084000000 2.7251000000
2.5049000000 2.2847000000 1.9119000000
2.5047000000 6.3159000000 0.9207000000
2.5046000000 2.8937000000 2.4276000000
2.5045000000 7.0927000000 0.2593000000
2.5043000000 5.2513000000 1.8350000000
2.5039000000 1.2912000000 1.0649000000
2.5038000000 1.4186000000 1.1675000000
2.5037000000 3.7420000000 2.9383000000
2.5034000000 4.7156000000 2.2960000000
2.5033000000 1.8031000000 1.4976000000
2.5031000000 4.9960000000 2.0512000000
2.5030000000 0.0649000000 0.0735000000
2.5028000000 6.1045000000 1.1119000000
2.5026000000 6.9365000000 0.3943000000
2.5024000000 3.0164000000 2.5970000000
2.5024000000 2.6608000000 2.2311000000
2.5018000000 0.0938000000 0.1067000000
2.5013000000 0.7770000000 0.6172000000
2.5005000000 5.6257000000 1.5191000000
2.5001000000 0.7367000000 0.5846000000
2.4998000000 5.5874000000 1.5464000000
2.4986000000 0.8459000000 0.6789000000
2.4983000000 3.8368000000 2.8321000000
2.4975000000 0.7375000000 0.5827000000
2.4958000000 4.7380000000 2.2840000000
2.4956000000 0.3526000000 0.2526000000
2.2635000000 6.7481000000 0.5557000000
2.2620000000 7.0515000000 0.2944000000
2.2610000000 5.6591000000 1.4880000000
2.2605000000 5.1478000000 1.9276000000
2.2597000000 5.9040000000 1.2769000000
2.2594000000 6.9810000000 0.3623000000
2.2589000000 7.2569000000 0.1200000000
2.2585000000 5.7345000000 1.4240000000
2.2583000000 5.0172000000 2.0370000000
2.2580000000 4.2784000000 2.6643000000
2.2575000000 3.5721000000 3.0559000000
2.2573000000 5.9437000000 1.2457000000
2.2569000000 7.4539000000 0.0245000000
2.2566000000 6.4443000000 0.8203000000
2.2565000000 7.1432000000 0.2150000000
2.2557000000 5.5729000000 1.5602000000
2.2555000000 6.6903000000 0.6043000000
2.2554000000 6.9500000000 0.3823000000
2.2553000000 4.1824000000 2.7552000000
2.2552000000 3.3271000000 2.8732000000
2.2551000000 5.7206000000 1.4315000000
2.2548000000 4.7896000000 2.2278000000
2.2547000000 0.9846000000 0.7928000000
2.2544000000 1.7924000000 1.4816000000
2.2543000000 0.7060000000 0.5554000000
2.2542000000 1.5736000000 1.3009000000
2.2540000000 0.5637000000 0.4401000000
2.2538000000 5.5468000000 1.5826000000
2.2538000000 6.9178000000 0.4104000000
2.2536000000 6.8097000000 0.5064000000
2.2535000000 6.9466000000 0.3874000000
2.2534000000 6.4442000000 0.8187000000
2.2530000000 1.1569000000 0.9427000000
2.2529000000 6.8885000000 0.4352000000
2.2528000000 1.0866000000 0.8850000000
2.2527000000 5.8387000000 1.3356000000
2.2526000000 7.1183000000 0.2438000000
2.2524000000 6.8396000000 0.4768000000
2.2521000000 0.8097000000 0.6486000000
2.2520000000 6.2761000000 0.9556000000
2.2516000000 0.1697000000 0.0980000000
2.2508000000 0.3888000000 0.2796000000
2.2507000000 5.2345000000 1.8442000000
2.2506000000 2.8127000000 2.3597000000
2.2503000000 1.5232000000 1.2558000000
2.2501000000 3.8449000000 3.0862000000
2.2498000000 2.8546000000 2.3965000000
2.2497000000 5.0722000000 1.9911000000
2.2482000000 1.4984000000 1.2407000000
2.2474000000 4.1068000000 2.8142000000
2.2465000000 1.1373000000 0.9278000000
2.0131000000 6.9993000000 0.3441000000
2.0105000000 6.9046000000 0.4213000000
2.0099000000 5.1138000000 1.9557000000
2.0097000000 2.7601000000 2.3130000000
2.0094000000 4.2174000000 2.7196000000
2.0085000000 3.0768000000 2.5865000000
2.0081000000 3.9368000000 3.0103000000
2.0079000000 2.4350000000 2.0342000000
2.0075000000 4.3180000000 2.6343000000
2.0071000000 3.6487000000 3.0012000000
2.0064000000 4.7565000000 2.2612000000
2.0061000000 6.6893000000 0.6044000000
2.0059000000 5.6774000000 1.4697000000
2.0058000000 1.8933000000 1.5745000000
2.0057000000 6.4825000000 0.7773000000
2.0054000000 6.5681000000 0.7133000000
2.0053000000 0.2346000000 0.1550000000
2.0050000000 6.0335000000 1.1681000000
2.0049000000 4.0662000000 2.9151000000
2.0046000000 2.9576000000 2.4819000000
2.0043000000 7.1800000000 0.1839000000
2.0040000000 6.0576000000 1.1464000000
2.0036000000 1.6467000000 1.3632000000
2.0031000000 1.7695000000 1.4659000000
2.0028000000 3.2981000000 2.7762000000
2.0025000000 3.5213000000 3.0050000000
2.0023000000 1.5174000000 1.2517000000
2.0021000000 1.0591000000 0.8619000000
2.0019000000 7.3586000000 0.0999000000
2.0017000000 6.1496000000 1.0696000000
2.0015000000 2.5060000000 2.0952000000
2.0013000000 1.7568000000 1.4553000000
2.0011000000 2.1451000000 1.7929000000
2.0011000000 0.4346000000 0.3257000000
2.0004000000 2.5788000000 2.1596000000
2.0002000000 0.2614000000 0.1749000000
2.0000000000 0.0441000000 0.0653000000
1.9999000000 4.3116000000 2.6457000000
1.9992000000 2.2166000000 1.8499000000
1.9990000000 2.4396000000 2.0413000000
1.9987000000 1.9211000000 1.5941000000
1.9986000000 0.5597000000 0.4320000000
1.9983000000 0.2711000000 0.1846000000
1.9976000000 1.3155000000 1.0763000000
1.9965000000 0.0623000000 0.0782000000
1.9956000000 2.0603000000 1.7138000000
1.9945000000 2.6679000000 2.2385000000
1.7647000000 3.1862000000 2.6248000000
1.7616000000 5.2012000000 1.8764000000
1.7604000000 2.7005000000 2.2617000000
1.7597000000 4.2489000000 2.6315000000
1.7594000000 6.3045000000 0.9361000000
1.7592000000 3.9203000000 2.7668000000
1.7590000000 0.2327000000 0.1553000000
1.7588000000 0.8043000000 0.6432000000
1.7585000000 6.5711000000 0.7131000000
1.7580000000 3.5059000000 2.7581000000
1.7578000000 6.3285000000 0.9110000000
1.7578000000 2.1312000000 1.7724000000
1.7575000000 0.1962000000 0.1220000000
1.7570000000 1.4190000000 1.1646000000
1.7569000000 4.8062000000 2.2194000000
1.7565000000 1.6614000000 1.3781000000
1.7564000000 3.5124000000 2.7593000000
1.7563000000 6.0194000000 1.1822000000
1.7561000000 3.9664000000 2.7521000000
1.7557000000 3.5455000000 2.7743000000
1.7555000000 0.3351000000 0.2381000000
1.7553000000 6.6483000000 0.6402000000
1.7550000000 7.4090000000 0.0623000000
1.7547000000 6.1303000000 1.0860000000
1.7545000000 1.5403000000 1.2731000000
1.7542000000 0.8033000000 0.6459000000
1.7541000000 0.0172000000 0.0424000000
1.7538000000 4.3512000000 2.6415000000
1.7537000000 1.2928000000 1.0604000000
1.7535000000 2.1549000000 1.7892000000
1.7533000000 6.4278000000 0.8296000000
1.7532000000 2.0181000000 1.6737000000
1.7530000000 7.4019000000 0.0702000000
1.7528000000 7.1073000000 0.2450000000
1.7527000000 4.4387000000 2.5915000000
1.7525000000 4.9858000000 2.0583000000
1.7523000000 4.7335000000 2.2797000000
1.7522000000 6.3279000000 0.9186000000
1.7520000000 1.4491000000 1.1962000000
1.7520000000 3.8193000000 2.8076000000
1.7518000000 3.1549000000 2.6048000000
1.7515000000 2.4756000000 2.0742000000
1.7516000000 0.3148000000 0.2195000000
1.7514000000 5.0153000000 2.0435000000
1.7513000000 4.7446000000 2.2711000000
1.7509000000 5.5632000000 1.5744000000
1.7506000000 3.4215000000 2.7149000000
1.7497000000 5.1144000000 1.9543000000
1.7493000000 3.1083000000 2.6444000000
1.7483000000 1.1102000000 0.8982000000
1.7481000000 4.3059000000 2.5993000000
1.7472000000 1.0937000000 0.8908000000
1.5115000000 4.8757000000 2.2199000000
1.5110000000 0.3595000000 0.2651000000
1.5108000000 5.8421000000 1.3269000000
1.5098000000 5.5662000000 1.5685000000
1.5093000000 1.0549000000 0.8548000000
1.5091000000 4.9668000000 2.0830000000
1.5088000000 4.2090000000 2.4612000000
1.5086000000 4.7918000000 2.2731000000
1.5083000000 5.5319000000 1.5968000000
1.5082000000 5.6121000000 1.5275000000
1.5079000000 7.3407000000 0.1233000000
1.5075000000 0.4533000000 0.3396000000
1.5071000000 3.5342000000 2.5784000000
1.5069000000 2.0037000000 1.6661000000
1.5067000000 1.1600000000 0.9459000000
1.5065000000 2.2636000000 1.8927000000
1.5063000000 6.5912000000 0.6902000000
1.5060000000 1.4129000000 1.1671000000
1.5059000000 7.4831000000 0.0778000000
1.5058000000 3.5862000000 2.6107000000
1.5055000000 2.3090000000 1.9269000000
1.5053000000 6.8833000000 0.4417000000
1.5052000000 2.5077000000 2.1658000000
1.5050000000 0.3175000000 0.2261000000
1.5049000000 6.3587000000 0.8883000000
1.5046000000 4.0795000000 2.5148000000
1.5043000000 0.7981000000 0.6364000000
1.5042000000 5.1363000000 1.9348000000
1.5040000000 6.7571000000 0.5491000000
1.5039000000 0.8791000000 0.7028000000
1.5038000000 0.9726000000 0.7843000000
1.5035000000 6.0172000000 1.1883000000
1.5034000000 1.1261000000 0.9135000000
1.5033000000 3.6581000000 2.6270000000
1.5029000000 0.0733000000 0.0960000000
1.5029000000 1.0412000000 0.8473000000
1.5025000000 5.4647000000 1.6546000000
1.5022000000 2.6078000000 2.2457000000
1.5021000000 4.7967000000 2.2585000000
1.5018000000 0.6077000000 0.4729000000
1.5018000000 5.5006000000 1.6215000000
1.5016000000 6.1550000000 1.0629000000
1.5013000000 0.8085000000 0.6503000000
1.5010000000 0.0745000000 0.0920000000
1.5010000000 0.2169000000 0.1404000000
1.5008000000 6.0024000000 1.1894000000
1.5006000000 6.8952000000 0.4261000000
1.5005000000 5.8492000000 1.3242000000
1.5003000000 3.7761000000 2.7002000000
1.5001000000 3.3160000000 2.4858000000
1.4998000000 5.2771000000 1.8152000000
1.4996000000 0.2431000000 0.1590000000
1.4994000000 2.7340000000 2.2389000000
1.4989000000 4.5753000000 2.2960000000
1.4987000000 6.9706000000 0.3687000000
1.4985000000 1.3498000000 1.1072000000
1.4983000000 2.3431000000 1.9559000000
1.4977000000 1.4747000000 1.2189000000
1.4959000000 0.5302000000 0.4075000000
1.2636000000 6.4058000000 0.8443000000
1.2612000000 6.7650000000 0.5376000000
1.2607000000 6.0621000000 1.1384000000
1.2601000000 5.1008000000 1.8988000000
1.2593000000 5.9897000000 1.2047000000
1.2586000000 4.3709000000 2.2003000000
1.2585000000 7.0960000000 0.2534000000
1.2579000000 5.2338000000 1.8952000000
1.2575000000 4.6765000000 2.0730000000
1.2573000000 7.1266000000 0.2288000000
1.2572000000 6.4518000000 0.8095000000
1.2571000000 3.5056000000 2.3852000000
1.2568000000 7.2942000000 0.0864000000
1.2566000000 4.8032000000 2.0187000000
1.2565000000 7.0295000000 0.3101000000
1.2564000000 2.9715000000 2.1551000000
1.2563000000 4.4820000000 2.1587000000
1.2561000000 4.7888000000 2.0295000000
1.2560000000 4.9495000000 1.9574000000
1.2556000000 2.9801000000 2.1585000000
1.2555000000 7.0186000000 0.3280000000
1.2554000000 2.2150000000 1.8914000000
1.2551000000 5.5062000000 1.6155000000
1.2549000000 6.0984000000 1.1155000000
1.2548000000 5.4719000000 1.6503000000
1.2545000000 7.3471000000 0.1173000000
1.2544000000 0.8276000000 0.6583000000
1.2541000000 4.4437000000 2.1730000000
1.2538000000 4.8857000000 1.9807000000
1.2537000000 1.1732000000 0.9536000000
1.2535000000 7.0629000000 0.2837000000
1.2534000000 3.0976000000 2.2059000000
1.2531000000 4.6675000000 2.0800000000
1.2527000000 0.8666000000 0.6943000000
1.2523000000 0.4752000000 0.3619000000
1.2521000000 1.7644000000 1.4615000000
1.2517000000 4.1821000000 2.2771000000
1.2513000000 0.4650000000 0.3454000000
1.2509000000 2.9974000000 2.1622000000
1.2508000000 0.9426000000 0.7633000000
1.2505000000 6.7959000000 0.5151000000
1.2501000000 2.6234000000 2.0070000000
1.2499000000 1.8235000000 1.5141000000
1.2496000000 4.9354000000 1.9558000000
1.2488000000 0.3562000000 0.2568000000
1.2474000000 2.4057000000 1.9109000000
1.2440000000 1.7046000000 1.4123000000
1.0108000000 6.3556000000 0.8970000000
1.0104000000 6.8262000000 0.4897000000
1.0096000000 3.2779000000 2.1044000000
1.0091000000 3.4386000000 2.1740000000
1.0090000000 7.2482000000 0.1294000000
1.0089000000 6.4745000000 0.7855000000
1.0088000000 1.4723000000 1.2112000000
1.0082000000 7.2371000000 0.1367000000
1.0079000000 5.7080000000 1.5051000000
1.0080000000 5.8764000000 1.2951000000
1.0076000000 2.0326000000 1.5714000000
1.0072000000 1.7123000000 1.4730000000
1.0067000000 6.3157000000 0.9277000000
1.0065000000 4.0108000000 2.1713000000
1.0064000000 3.9202000000 2.2147000000
1.0063000000 1.2341000000 1.0123000000
1.0062000000 6.5778000000 0.6948000000
1.0059000000 1.6521000000 1.4301000000
1.0058000000 6.3389000000 0.9071000000
1.0055000000 0.0969000000 0.1122000000
1.0054000000 7.1563000000 0.2094000000
1.0052000000 3.2289000000 2.0823000000
1.0051000000 5.8182000000 1.4193000000
1.0049000000 1.0129000000 0.8190000000
1.0047000000 7.2743000000 0.1049000000
1.0045000000 5.2313000000 1.6449000000
1.0044000000 7.2214000000 0.1568000000
1.0042000000 1.9389000000 1.5290000000
1.0041000000 6.1666000000 1.0508000000
1.0040000000 5.4980000000 1.5351000000
1.0037000000 7.3237000000 0.0635000000
1.0036000000 2.8528000000 1.9171000000
1.0035000000 4.1173000000 2.1250000000
1.0033000000 0.6702000000 0.5274000000
1.0030000000 0.8700000000 0.6979000000
1.0028000000 4.0085000000 2.1723000000
1.0025000000 6.7677000000 0.5379000000
1.0022000000 5.2113000000 1.6537000000
1.0020000000 7.1152000000 0.2379000000
1.0019000000 4.3796000000 2.0140000000
1.0017000000 1.1804000000 0.9626000000
1.0014000000 0.9608000000 0.7772000000
1.0010000000 7.2638000000 0.1124000000
1.0007000000 1.5642000000 1.2969000000
1.0005000000 7.4606000000 0.0175000000
1.0001000000 0.0817000000 0.0994000000
0.9985000000 1.3212000000 1.0810000000
0.9980000000 7.1608000000 0.2055000000
0.9976000000 0.6169000000 0.4833000000
0.9967000000 0.0459000000 0.0650000000
0.9955000000 1.2186000000 0.9942000000
0.7655000000 6.8412000000 0.4749000000
0.7626000000 5.2049000000 1.4821000000
0.7614000000 4.1319000000 1.9385000000
0.7602000000 7.4024000000 0.0701000000
0.7599000000 6.3606000000 0.8932000000
0.7598000000 6.8581000000 0.4626000000
0.7595000000 1.4122000000 1.1847000000
0.7592000000 0.3502000000 0.2465000000
0.7588000000 2.8068000000 1.7171000000
0.7585000000 3.6905000000 2.1561000000
0.7583000000 7.2668000000 0.1145000000
0.7581000000 3.9195000000 2.0300000000
0.7580000000 0.1340000000 0.0752000000
0.7579000000 7.0433000000 0.3092000000
0.7573000000 4.1033000000 1.9476000000
0.7569000000 4.1319000000 1.9365000000
0.7567000000 2.7888000000 1.7071000000
0.7565000000 6.8135000000 0.4961000000
0.7563000000 5.7583000000 1.2381000000
0.7562000000 3.1933000000 1.8824000000
0.7560000000 2.5821000000 1.6183000000
0.7559000000 1.4575000000 1.1358000000
0.7558000000 2.3485000000 1.5142000000
0.7556000000 6.6650000000 0.6288000000
0.7554000000 0.0011000000 0.0324000000
0.7554000000 4.4514000000 1.7980000000
0.7553000000 1.4995000000 1.1494000000
0.7552000000 4.7316000000 1.6744000000
0.7550000000 2.7828000000 1.7052000000
0.7548000000 0.2490000000 0.1661000000
0.7547000000 4.2959000000 1.8664000000
0.7545000000 1.4167000000 1.1932000000
0.7543000000 5.0997000000 1.5214000000
0.7542000000 5.9197000000 1.1668000000
0.7540000000 0.6101000000 0.4708000000
0.7539000000 7.3599000000 0.1018000000
0.7538000000 4.2825000000 1.8651000000
0.7536000000 2.7884000000 1.7046000000
0.7533000000 5.3802000000 1.3973000000
0.7530000000 4.2191000000 1.8951000000
0.7529000000 2.5758000000 1.6090000000
0.7527000000 2.3979000000 1.5401000000
0.7525000000 1.3600000000 1.1511000000
0.7522000000 0.1432000000 0.0737000000
0.7521000000 1.2584000000 1.0885000000
0.7520000000 4.1215000000 1.9378000000
0.7516000000 1.7719000000 1.2700000000
0.7513000000 0.3038000000 0.2164000000
0.7512000000 4.6864000000 1.6986000000
0.7508000000 0.3742000000 0.2718000000
0.7507000000 4.3320000000 1.8437000000
0.7506000000 2.0133000000 1.3702000000
0.7505000000 0.5505000000 0.4250000000
0.7500000000 1.1828000000 0.9700000000
0.7495000000 4.7245000000 1.6771000000
0.7493000000 2.3943000000 1.5325000000
0.7486000000 1.1159000000 0.9144000000
0.7480000000 0.0937000000 0.1116000000
0.7473000000 0.4171000000 0.3103000000
0.7472000000 3.3348000000 1.9378000000
0.5125000000 5.6604000000 1.1029000000
0.5121000000 6.6022000000 0.7405000000
0.5121000000 6.6938000000 0.6021000000
0.5111000000 6.0802000000 0.9229000000
0.5100000000 6.9158000000 0.4084000000
0.5095000000 3.0294000000 1.6257000000
0.5085000000 3.0885000000 1.6494000000
0.5083000000 6.0754000000 0.9209000000
0.5083000000 4.6349000000 1.5380000000
0.5077000000 4.8297000000 1.4515000000
0.5076000000 3.5687000000 1.8585000000
0.5072000000 4.3643000000 1.6548000000
0.5070000000 1.3210000000 0.8904000000
0.5069000000 4.0877000000 1.7673000000
0.5063000000 5.0681000000 1.3456000000
0.5063000000 3.0615000000 1.6420000000
0.5062000000 0.9118000000 0.7806000000
0.5060000000 0.3975000000 0.2955000000
0.5059000000 5.8554000000 1.0130000000
0.5055000000 0.7695000000 0.6843000000
0.5053000000 4.0661000000 1.7781000000
0.5052000000 1.3472000000 0.9041000000
0.5050000000 1.3581000000 0.9077000000
0.5049000000 0.0912000000 0.1062000000
0.5047000000 6.5699000000 0.7689000000
0.5046000000 6.3248000000 0.8118000000
0.5043000000 6.5716000000 0.7656000000
0.5042000000 0.1251000000 0.0572000000
0.5040000000 5.4730000000 1.1770000000
0.5039000000 3.7183000000 1.9821000000
0.5037000000 1.7673000000 1.0830000000
0.5036000000 3.5353000000 1.8437000000
0.5035000000 5.4258000000 1.1912000000
0.5033000000 5.1525000000 1.3099000000
0.5032000000 3.3367000000 1.7536000000
0.5030000000 3.4692000000 1.8101000000
0.5029000000 0.8971000000 0.7720000000
0.5029000000 2.2549000000 1.2929000000
0.5028000000 2.2658000000 1.3026000000
0.5026000000 5.3728000000 1.2162000000
0.5023000000 3.9734000000 1.8168000000
0.5021000000 2.1049000000 1.2277000000
0.5018000000 6.8224000000 0.4953000000
0.5017000000 2.7747000000 1.5150000000
0.5016000000 0.8215000000 0.7141000000
0.5013000000 0.4954000000 0.3751000000
0.5011000000 1.6591000000 1.0326000000
0.5010000000 0.1420000000 0.0738000000
0.5008000000 6.9770000000 0.3600000000
0.5006000000 3.9338000000 1.8250000000
0.5003000000 3.3563000000 1.7647000000
0.5000000000 7.4038000000 0.0702000000
0.4996000000 7.0632000000 0.2863000000
0.4991000000 3.5109000000 1.8279000000
0.4988000000 1.0681000000 0.7790000000
0.4985000000 1.3935000000 0.9187000000
0.4980000000 4.0101000000 1.7959000000
0.4979000000 1.7874000000 1.0915000000
0.4963000000 6.5506000000 0.7701000000
0.4930000000 3.4785000000 1.8049000000
0.2616000000 4.9542000000 1.2207000000
0.2601000000 4.7639000000 1.2943000000
0.2593000000 4.8333000000 1.2653000000
0.2588000000 4.8460000000 1.2612000000
0.2584000000 4.6370000000 1.3433000000
0.2583000000 6.9921000000 0.4025000000
0.2578000000 1.2447000000 0.6766000000
0.2575000000 5.1766000000 1.1192000000
0.2574000000 7.2060000000 0.1675000000
0.2571000000 7.0554000000 0.3516000000
0.2567000000 2.8748000000 1.3715000000
0.2564000000 3.2695000000 1.5428000000
0.2561000000 3.0680000000 1.4578000000
0.2560000000 6.9248000000 0.4319000000
0.2557000000 4.4365000000 1.4313000000
0.2554000000 1.6318000000 0.8419000000
0.2553000000 5.1061000000 1.1401000000
0.2552000000 5.9366000000 0.7909000000
0.2550000000 5.6488000000 0.9166000000
0.2548000000 0.7456000000 0.4581000000
0.2545000000 2.8921000000 1.3746000000
0.2545000000 3.8454000000 1.6816000000
0.2543000000 2.4752000000 1.1968000000
0.2544000000 5.3859000000 1.0216000000
0.2541000000 4.1884000000 1.5410000000
0.2540000000 0.4141000000 0.3661000000
0.2538000000 1.3310000000 0.7128000000
0.2538000000 3.1977000000 1.5133000000
0.2535000000 0.6063000000 0.3990000000
0.2533000000 0.8493000000 0.5028000000
0.2531000000 2.0395000000 1.0139000000
0.2530000000 5.9937000000 0.7648000000
0.2528000000 6.7813000000 0.4240000000
0.2526000000 5.4969000000 0.9745000000
0.2523000000 5.8634000000 0.8210000000
0.2523000000 0.7284000000 0.4485000000
0.2521000000 1.0234000000 0.5803000000
0.2521000000 5.8471000000 0.8278000000
0.2518000000 1.7018000000 0.8665000000
0.2517000000 2.7300000000 1.3081000000
0.2514000000 6.7505000000 0.4341000000
0.2513000000 2.4487000000 1.1890000000
0.2512000000 3.2381000000 1.5242000000
0.2508000000 2.3773000000 1.1597000000
0.2506000000 2.5423000000 1.2250000000
0.2501000000 0.8645000000 0.5081000000
0.2499000000 1.5354000000 0.7921000000
0.2495000000 0.8581000000 0.5025000000
0.2494000000 3.9783000000 1.6248000000
0.2490000000 4.9155000000 1.2244000000
0.2480000000 0.1903000000 0.1131000000
0.2468000000 0.6889000000 0.4245000000
0.0126000000 5.8204000000 0.6647000000
0.0108000000 6.5301000000 0.3574000000
0.0100000000 6.9672000000 0.1676000000
0.0096000000 3.8212000000 1.5143000000
0.0094000000 1.9565000000 0.7974000000
0.0089000000 5.8731000000 0.6374000000
0.0086000000 5.8182000000 0.6590000000
0.0082000000 2.0223000000 0.8262000000
0.0080000000 2.2486000000 0.9235000000
0.0070000000 4.8408000000 1.0729000000
0.0068000000 6.2498000000 0.4772000000
0.0065000000 6.9218000000 0.1855000000
0.0061000000 4.2264000000 1.3377000000
0.0059000000 5.0182000000 1.0001000000
0.0056000000 1.1814000000 0.4668000000
0.0053000000 3.2576000000 1.3477000000
0.0048000000 0.6434000000 0.2332000000
0.0046000000 1.3491000000 0.5383000000
0.0046000000 2.3057000000 0.9396000000
0.0043000000 0.9989000000 0.3827000000
0.0040000000 3.6635000000 1.5231000000
0.0037000000 0.5919000000 0.2115000000
0.0038000000 5.8373000000 0.6473000000
0.0035000000 6.1603000000 0.5114000000
0.0034000000 1.6669000000 0.6697000000
0.0032000000 0.9895000000 0.3754000000
0.0030000000 7.0962000000 0.1048000000
0.0029000000 0.9293000000 0.3539000000
0.0026000000 5.6941000000 0.7062000000
0.0025000000 2.8716000000 1.1873000000
0.0022000000 2.4238000000 0.9923000000
0.0021000000 5.1316000000 0.9435000000
0.0020000000 3.6325000000 1.5085000000
0.0012000000 1.4833000000 0.5912000000
0.0008000000 4.5324000000 1.2038000000
0.0007000000 1.2323000000 0.4793000000
0.0005000000 5.2059000000 0.9181000000
0.0001000000 3.8445000000 1.4942000000
-0.0001000000 1.8373000000 0.7457000000
-0.0003000000 0.2324000000 0.1314000000
-0.0008000000 2.9497000000 1.2187000000
-0.0011000000 0.4533000000 0.1394000000
-0.0016000000 0.8214000000 0.3039000000
-0.0017000000 2.3737000000 0.9649000000
-0.0018000000 1.7104000000 0.6837000000
-0.0022000000 1.4051000000 0.5564000000
-0.0040000000 0.2408000000 0.1256000000
-0.0054000000 6.6088000000 0.3090000000
-0.2387000000 2.7793000000 0.9631000000
-0.2398000000 0.7055000000 0.0766000000
-0.2402000000 7.1501000000 0.0521000000
-0.2409000000 6.5558000000 0.1630000000
-0.2415000000 3.8159000000 1.3338000000
-0.2419000000 6.7161000000 0.0881000000
-0.2420000000 5.2764000000 0.7091000000
-0.2426000000 4.0714000000 1.2213000000
-0.2431000000 5.4148000000 0.6383000000
-0.2434000000 5.2946000000 0.6991000000
-0.2435000000 6.0129000000 0.3880000000
-0.2437000000 4.0553000000 1.2295000000
-0.2439000000 4.3030000000 1.1246000000
-0.2439000000 3.8584000000 1.3096000000
-0.2440000000 7.1635000000 0.0481000000
-0.2441000000 5.0555000000 0.7981000000
-0.2443000000 6.7423000000 0.0774000000
-0.2446000000 2.4302000000 0.8111000000
-0.2450000000 5.1894000000 0.7372000000
-0.2452000000 6.3667000000 0.2409000000
-0.2452000000 5.9680000000 0.4068000000
-0.2455000000 5.9529000000 0.4114000000
-0.2460000000 6.9417000000 0.0676000000
-0.2461000000 1.5216000000 0.4230000000
-0.2462000000 2.8153000000 0.9772000000
-0.2465000000 5.6830000000 0.5310000000
-0.2465000000 2.9512000000 1.0262000000
-0.2466000000 2.1516000000 0.6902000000
-0.2469000000 7.1771000000 0.0342000000
-0.2470000000 5.0759000000 0.7844000000
-0.2472000000 1.7720000000 0.5307000000
-0.2474000000 7.1030000000 0.0678000000
-0.2475000000 4.4612000000 1.0486000000
-0.2477000000 5.3316000000 0.6814000000
-0.2485000000 3.2972000000 1.1826000000
-0.2490000000 3.1578000000 1.1209000000
-0.2491000000 3.0111000000 1.0547000000
-0.2492000000 3.8717000000 1.3008000000
-0.2494000000 6.2012000000 0.3067000000
-0.2495000000 6.3804000000 0.2266000000
-0.2496000000 0.3222000000 0.0546000000
-0.2497000000 2.0587000000 0.6455000000
-0.2500000000 1.8978000000 0.5800000000
-0.2501000000 6.4630000000 0.1918000000
-0.2510000000 3.8200000000 1.3165000000
-0.2517000000 1.6537000000 0.4767000000
-0.2520000000 1.4166000000 0.3693000000
-0.2528000000 4.9014000000 0.8586000000
-0.2547000000 7.0711000000 0.0760000000
-0.2553000000 3.2451000000 1.1532000000
-0.2562000000 0.4642000000 0.0413000000
-0.4874000000 6.7624000000 0.0392000000
-0.4878000000 6.2041000000 0.1334000000
-0.4890000000 2.9633000000 0.8626000000
-0.4894000000 3.3733000000 1.0339000000
-0.4896000000 5.8199000000 0.2893000000
-0.4910000000 6.4964000000 0.0695000000
-0.4911000000 3.3713000000 1.0345000000
-0.4914000000 6.2771000000 0.0932000000
-0.4917000000 5.8303000000 0.2887000000
-0.4922000000 0.8986000000 0.0436000000
-0.4925000000 5.7380000000 0.3258000000
-0.4927000000 4.7949000000 0.7270000000
-0.4932000000 2.9195000000 0.8345000000
-0.4935000000 2.6154000000 0.7048000000
-0.4939000000 3.3169000000 0.9992000000
-0.4941000000 0.6897000000 0.0341000000
-0.4942000000 1.5975000000 0.2716000000
-0.4943000000 2.8155000000 0.7944000000
-0.4945000000 6.6259000000 0.0131000000
-0.4949000000 4.7585000000 0.7386000000
-0.4951000000 5.8253000000 0.2833000000
-0.4953000000 2.8930000000 0.8214000000
-0.4955000000 1.2913000000 0.1380000000
-0.4959000000 1.0095000000 0.0954000000
-0.4961000000 6.3930000000 0.1127000000
-0.4964000000 3.6411000000 1.1507000000
-0.4966000000 6.7003000000 0.0591000000
-0.4967000000 6.0081000000 0.2041000000
-0.4969000000 0.9250000000 0.0541000000
-0.4970000000 5.0509000000 0.6089000000
-0.4971000000 4.1845000000 0.9869000000
-0.4973000000 0.8324000000 0.0137000000
-0.4975000000 3.6922000000 1.2229000000
-0.4977000000 0.6228000000 -0.0006000000
-0.4978000000 2.3625000000 0.5937000000
-0.4979000000 2.1166000000 0.4887000000
-0.4980000000 4.5631000000 0.8179000000
-0.4984000000 4.4166000000 0.8801000000
-0.4986000000 5.9641000000 0.2213000000
-0.4988000000 1.6148000000 0.2737000000
-0.4992000000 4.4031000000 0.8892000000
-0.4994000000 5.6252000000 0.3642000000
-0.4997000000 1.5935000000 0.2613000000
-0.5000000000 4.6598000000 0.7794000000
-0.5002000000 2.5688000000 0.6798000000
-0.5005000000 3.5802000000 1.1164000000
