4.7470000000 2.8394000000 0.1145000000
4.5139000000 3.2146000000 0.0727000000
4.5081000000 2.4324000000 0.0686000000
4.5075000000 2.1336000000 0.0161000000
4.5073000000 2.5052000000 0.0997000000
4.5071000000 2.3900000000 0.1293000000
4.5066000000 2.6173000000 0.2217000000
4.5063000000 2.9000000000 0.2074000000
4.5058000000 3.4248000000 0.0619000000
4.5058000000 3.3566000000 0.0872000000
4.5052000000 2.3348000000 0.1009000000
4.5050000000 2.8002000000 0.2872000000
4.5050000000 2.9382000000 0.1928000000
4.5048000000 2.2973000000 0.0902000000
4.5044000000 2.7329000000 0.2759000000
4.5042000000 2.4031000000 0.0587000000
4.5032000000 2.4436000000 0.0726000000
4.5032000000 2.7156000000 0.1906000000
4.5029000000 2.6251000000 0.2340000000
4.5028000000 3.0600000000 0.1388000000
4.5027000000 3.6536000000 0.0416000000
4.5022000000 2.5619000000 0.1298000000
4.5021000000 3.2177000000 0.0690000000
4.5006000000 2.9410000000 0.2000000000
4.5004000000 2.8034000000 0.2965000000
4.4962000000 3.2457000000 0.0665000000
4.2608000000 4.0630000000 0.0420000000
4.2600000000 3.4647000000 0.1487000000
4.2599000000 3.9173000000 0.0288000000
4.2577000000 2.1778000000 0.1498000000
4.2575000000 2.9869000000 0.3557000000
4.2573000000 1.8451000000 0.0799000000
4.2570000000 4.1337000000 0.0151000000
4.2569000000 3.1979000000 0.2677000000
4.2566000000 2.8699000000 0.4676000000
4.2561000000 3.8532000000 0.0544000000
4.2559000000 3.9644000000 0.0130000000
4.2555000000 2.7319000000 0.4529000000
4.2548000000 1.6063000000 0.0569000000
4.2548000000 4.0386000000 0.0577000000
4.2547000000 2.8937000000 0.3937000000
4.2546000000 3.0564000000 0.3259000000
4.2540000000 2.2988000000 0.1973000000
4.2539000000 4.1069000000 0.0297000000
4.2538000000 3.9263000000 0.0289000000
4.2533000000 3.3548000000 0.1972000000
4.2533000000 2.6732000000 0.3590000000
4.2532000000 3.9373000000 0.0310000000
4.2530000000 2.9129000000 0.3899000000
4.2525000000 1.4877000000 0.0045000000
4.2523000000 2.7198000000 0.4507000000
4.2523000000 1.8246000000 0.0725000000
4.2518000000 1.7772000000 0.0570000000
4.2517000000 1.9065000000 0.1094000000
4.2515000000 4.1789000000 0.0000000000
4.2513000000 3.9088000000 0.0384000000
4.2512000000 3.8849000000 0.0503000000
4.2500000000 4.1616000000 0.0097000000
4.2499000000 3.9092000000 0.0431000000
4.2471000000 2.5734000000 0.3221000000
4.2454000000 2.6303000000 0.4145000000
4.2449000000 1.9046000000 0.1122000000
4.0096000000 4.4115000000 0.0068000000
4.0087000000 2.1628000000 0.3944000000
4.0085000000 2.4892000000 0.5330000000
4.0083000000 4.2765000000 0.0615000000
4.0077000000 3.6842000000 0.2347000000
4.0075000000 4.2492000000 0.0759000000
4.0067000000 3.2334000000 0.4311000000
4.0060000000 4.3092000000 0.0565000000
4.0060000000 2.4588000000 0.4439000000
4.0059000000 2.9187000000 0.5656000000
4.0058000000 1.4874000000 0.1058000000
4.0057000000 4.1377000000 0.1248000000
4.0055000000 1.8104000000 0.1760000000
4.0054000000 1.8731000000 0.1993000000
4.0053000000 3.4092000000 0.3527000000
4.0051000000 4.0961000000 0.0641000000
4.0050000000 3.9149000000 0.1419000000
4.0050000000 2.3351000000 0.3967000000
4.0048000000 2.2887000000 0.3750000000
4.0045000000 1.9709000000 0.2456000000
4.0041000000 3.4405000000 0.3440000000
4.0038000000 1.7053000000 0.1314000000
4.0037000000 3.3823000000 0.3720000000
4.0036000000 2.1429000000 0.3207000000
4.0035000000 2.2675000000 0.3671000000
4.0028000000 2.6211000000 0.5911000000
4.0027000000 1.4576000000 0.1034000000
4.0025000000 1.5619000000 0.0705000000
4.0024000000 1.5348000000 0.0586000000
4.0020000000 3.2266000000 0.4356000000
4.0015000000 1.4408000000 0.0962000000
4.0013000000 1.6771000000 0.1223000000
4.0005000000 1.7033000000 0.2081000000
4.0003000000 1.0866000000 0.0201000000
3.9996000000 4.5529000000 0.0307000000
3.9991000000 2.0980000000 0.3731000000
3.9984000000 1.3697000000 0.0638000000
3.9983000000 2.4471000000 0.5201000000
3.9980000000 1.4780000000 0.1141000000
3.9978000000 3.7924000000 0.1958000000
3.9948000000 2.8024000000 0.6617000000
3.7628000000 2.1705000000 0.5077000000
3.7625000000 1.6541000000 0.2793000000
3.7621000000 4.4999000000 0.0692000000
3.7617000000 3.7854000000 0.3776000000
3.7599000000 2.8511000000 0.8349000000
3.7595000000 3.5186000000 0.4909000000
3.7588000000 2.7899000000 0.8351000000
3.7587000000 4.7630000000 0.0422000000
3.7584000000 0.6493000000 0.0163000000
3.7583000000 4.5737000000 0.1213000000
3.7583000000 1.3800000000 0.1699000000
3.7577000000 4.0680000000 0.2586000000
3.7575000000 2.2926000000 0.5557000000
3.7574000000 0.7061000000 0.0369000000
3.7571000000 4.7538000000 0.0467000000
3.7569000000 4.1576000000 0.2238000000
3.7563000000 4.4268000000 0.1105000000
3.7562000000 1.0436000000 0.1061000000
3.7560000000 2.8601000000 0.8357000000
3.7558000000 1.1715000000 0.0858000000
3.7556000000 4.3237000000 0.1482000000
3.7553000000 2.3680000000 0.5927000000
3.7550000000 1.2231000000 0.1058000000
3.7547000000 3.5397000000 0.4818000000
3.7546000000 1.1867000000 0.0876000000
3.7545000000 1.3569000000 0.2390000000
3.7544000000 2.6193000000 0.7814000000
3.7543000000 3.6871000000 0.4238000000
3.7538000000 3.3755000000 0.5575000000
3.7532000000 1.3794000000 0.2497000000
3.7531000000 4.4679000000 0.0939000000
3.7530000000 2.0995000000 0.4834000000
3.7528000000 1.8525000000 0.3696000000
3.7528000000 4.7672000000 0.0446000000
3.7526000000 3.0593000000 0.6942000000
3.7524000000 3.2436000000 0.6183000000
3.7523000000 1.4410000000 0.2036000000
3.7521000000 1.7241000000 0.3279000000
3.7521000000 2.6003000000 0.7669000000
3.7520000000 1.8074000000 0.4361000000
3.7520000000 1.1380000000 0.0736000000
3.7519000000 3.3701000000 0.5537000000
3.7517000000 1.3397000000 0.1601000000
3.7514000000 2.3235000000 0.5770000000
3.7507000000 0.7510000000 0.0636000000
3.7504000000 2.7764000000 0.8404000000
3.7500000000 2.7051000000 0.8088000000
3.7500000000 2.0600000000 0.4697000000
3.7499000000 3.6648000000 0.4395000000
3.7499000000 1.0310000000 0.1076000000
3.7497000000 1.0230000000 0.1013000000
3.7496000000 2.1798000000 0.5179000000
3.7492000000 1.8492000000 0.3801000000
3.7485000000 2.2390000000 0.5459000000
3.7483000000 4.2473000000 0.1927000000
3.7482000000 3.8486000000 0.3617000000
3.7475000000 2.1784000000 0.5932000000
3.5103000000 3.3169000000 0.7576000000
3.5101000000 3.9089000000 0.5127000000
3.5098000000 4.0173000000 0.4654000000
3.5083000000 4.8378000000 0.1149000000
3.5081000000 3.6693000000 0.6144000000
3.5079000000 3.2603000000 0.7853000000
3.5078000000 3.7531000000 0.5711000000
3.5076000000 1.1423000000 0.2567000000
3.5074000000 0.7144000000 0.0721000000
3.5074000000 4.0878000000 0.4346000000
3.5073000000 3.9720000000 0.4855000000
3.5072000000 4.2805000000 0.3590000000
3.5063000000 0.4912000000 0.0529000000
3.5062000000 2.7904000000 1.0166000000
3.5061000000 4.8350000000 0.1222000000
3.5058000000 0.2360000000 0.0218000000
3.5057000000 3.6304000000 0.6311000000
3.5055000000 3.8509000000 0.5363000000
3.5053000000 1.4700000000 0.3953000000
3.5052000000 4.4532000000 0.2819000000
3.5050000000 1.8127000000 0.5366000000
3.5047000000 4.2801000000 0.3528000000
3.5045000000 2.7090000000 0.9160000000
3.5044000000 1.4005000000 0.3699000000
3.5042000000 1.0006000000 0.2764000000
3.5041000000 4.6874000000 0.1849000000
3.5038000000 3.2555000000 0.7911000000
3.5038000000 2.6695000000 0.9800000000
3.5037000000 5.4283000000 0.0209000000
3.5035000000 3.4219000000 0.7181000000
3.5035000000 5.0927000000 0.0818000000
3.5034000000 0.5483000000 0.0821000000
3.5032000000 3.1341000000 0.8411000000
3.5030000000 3.6149000000 0.6359000000
3.5029000000 3.6368000000 0.6293000000
3.5028000000 2.7910000000 1.0239000000
3.5027000000 2.6248000000 0.8821000000
3.5026000000 2.6743000000 0.9059000000
3.5025000000 1.5538000000 0.4431000000
3.5023000000 4.0682000000 0.4391000000
3.5022000000 3.0092000000 0.8918000000
3.5022000000 4.7352000000 0.1693000000
3.5020000000 3.5172000000 0.6819000000
3.5019000000 3.2334000000 0.8024000000
3.5015000000 0.9056000000 0.2338000000
3.5014000000 2.0923000000 0.7345000000
3.5011000000 0.3460000000 0.0711000000
3.5010000000 2.5186000000 0.9189000000
3.5010000000 2.9629000000 0.9878000000
3.5008000000 2.0763000000 0.6552000000
3.5005000000 3.3584000000 0.7516000000
3.5004000000 1.0112000000 0.2068000000
3.5001000000 0.4014000000 0.0233000000
3.4998000000 0.4806000000 0.0594000000
3.4995000000 4.8358000000 0.1264000000
3.4995000000 4.3158000000 0.3431000000
3.4993000000 4.8742000000 0.1101000000
3.4992000000 0.8154000000 0.1237000000
3.4990000000 3.8491000000 0.5399000000
3.4987000000 0.1840000000 0.0074000000
3.4984000000 0.9596000000 0.1894000000
3.4983000000 0.5239000000 0.0734000000
3.4974000000 2.5772000000 0.8673000000
3.4971000000 2.9923000000 0.9021000000
3.4970000000 0.4542000000 0.0447000000
3.4958000000 2.2744000000 0.7401000000
3.4950000000 0.4906000000 0.0572000000
3.4942000000 1.4764000000 0.4059000000
3.2625000000 3.0925000000 1.0360000000
3.2613000000 5.3582000000 0.0808000000
3.2605000000 4.2486000000 0.5458000000
3.2600000000 5.4616000000 0.1152000000
3.2598000000 1.8734000000 0.8209000000
3.2595000000 4.5643000000 0.4104000000
3.2591000000 4.1674000000 0.5858000000
3.2587000000 2.6757000000 1.0816000000
3.2588000000 4.4900000000 0.4476000000
3.2586000000 2.9470000000 1.1032000000
3.2580000000 1.0623000000 0.4003000000
3.2580000000 4.0058000000 0.6498000000
3.2577000000 4.9773000000 0.2421000000
3.2573000000 4.4196000000 0.4812000000
3.2572000000 0.7897000000 0.2867000000
3.2570000000 0.1279000000 0.0814000000
3.2570000000 1.8786000000 0.8221000000
3.2566000000 2.7795000000 1.1941000000
3.2565000000 4.0802000000 0.6228000000
3.2563000000 3.6428000000 0.8057000000
3.2562000000 3.3675000000 0.9257000000
3.2562000000 5.1445000000 0.1693000000
3.2559000000 3.3343000000 0.9354000000
3.2555000000 5.3239000000 0.1000000000
3.2554000000 4.1501000000 0.5887000000
3.2553000000 0.2345000000 0.0613000000
3.2552000000 1.6052000000 0.6390000000
3.2552000000 4.5477000000 0.4261000000
3.2550000000 2.1498000000 0.8609000000
3.2551000000 4.8909000000 0.2764000000
3.2550000000 5.0427000000 0.2138000000
3.2550000000 1.3959000000 0.5478000000
3.2549000000 4.5446000000 0.4290000000
3.2548000000 0.3175000000 0.0909000000
3.2545000000 2.4201000000 0.9785000000
3.2542000000 4.7160000000 0.3542000000
3.2541000000 4.3846000000 0.4951000000
3.2538000000 4.8794000000 0.2860000000
3.2538000000 2.5807000000 1.0486000000
3.2537000000 1.9302000000 0.7755000000
3.2537000000 0.7172000000 0.2606000000
3.2535000000 0.7416000000 0.2727000000
3.2535000000 2.3249000000 0.9413000000
3.2534000000 3.0422000000 1.0613000000
3.2532000000 3.0196000000 1.0703000000
3.2531000000 0.2971000000 0.0809000000
3.2530000000 3.8005000000 0.7404000000
3.2529000000 2.2995000000 1.0043000000
3.2529000000 0.6538000000 0.2306000000
3.2528000000 1.5186000000 0.5984000000
3.2525000000 3.2806000000 0.9629000000
3.2523000000 0.2212000000 0.1271000000
3.2523000000 2.0098000000 0.8903000000
3.2523000000 2.6155000000 1.0667000000
3.2522000000 2.3891000000 0.9725000000
3.2520000000 2.6895000000 1.1688000000
3.2520000000 1.8777000000 0.7526000000
3.2519000000 1.7824000000 0.7154000000
3.2518000000 1.0330000000 0.3955000000
3.2516000000 3.4224000000 0.9806000000
3.2515000000 2.6027000000 1.1368000000
3.2513000000 4.0546000000 0.6371000000
3.2513000000 1.2199000000 0.4716000000
3.2512000000 0.1302000000 0.0886000000
3.2508000000 4.3899000000 0.4965000000
3.2508000000 2.8286000000 1.2145000000
3.2504000000 4.5348000000 0.4343000000
3.2500000000 0.5145000000 0.1795000000
3.2499000000 2.4968000000 1.0236000000
3.2499000000 3.2751000000 0.9676000000
3.2498000000 4.5204000000 0.4442000000
3.2493000000 0.4808000000 0.1673000000
3.2492000000 1.6712000000 0.6776000000
3.2487000000 0.8379000000 0.3150000000
3.2486000000 3.5391000000 0.8577000000
3.2483000000 0.6006000000 0.2191000000
3.2478000000 4.8491000000 0.3028000000
3.2478000000 2.2631000000 0.9185000000
3.2462000000 3.4198000000 0.9082000000
3.2444000000 0.3623000000 0.1158000000
3.0134000000 4.1438000000 0.7760000000
3.0120000000 5.5421000000 0.1230000000
3.0115000000 2.9690000000 1.2724000000
3.0097000000 0.5227000000 0.4122000000
3.0089000000 5.5861000000 0.0820000000
3.0087000000 5.2190000000 0.3801000000
3.0087000000 0.7952000000 0.4722000000
3.0078000000 0.0168000000 0.0358000000
3.0076000000 1.5186000000 0.7828000000
3.0074000000 1.1477000000 0.6290000000
3.0069000000 4.6202000000 0.5754000000
3.0065000000 5.4514000000 0.1223000000
3.0065000000 5.1248000000 0.4241000000
3.0062000000 5.5779000000 0.0899000000
3.0061000000 5.1156000000 0.4254000000
3.0061000000 4.6884000000 0.5514000000
3.0060000000 5.3522000000 0.2126000000
3.0056000000 3.2506000000 1.1564000000
3.0055000000 0.2090000000 0.1238000000
3.0053000000 4.5698000000 0.5985000000
3.0053000000 0.7066000000 0.4386000000
3.0051000000 2.2665000000 1.0936000000
3.0050000000 4.4447000000 0.6542000000
3.0050000000 4.2546000000 0.7304000000
3.0049000000 4.7253000000 0.5354000000
3.0049000000 4.2649000000 0.7288000000
3.0048000000 2.8985000000 1.3098000000
3.0048000000 4.0872000000 0.8055000000
3.0047000000 1.2896000000 0.6798000000
3.0046000000 5.2875000000 0.3190000000
3.0046000000 1.8179000000 0.9083000000
3.0045000000 3.2544000000 1.1482000000
3.0045000000 0.5187000000 0.4196000000
3.0044000000 1.7550000000 0.9580000000
3.0044000000 2.8000000000 1.3911000000
3.0043000000 2.7153000000 1.2893000000
3.0040000000 2.5797000000 1.2248000000
3.0040000000 2.7886000000 1.3881000000
3.0039000000 5.6101000000 0.0628000000
3.0040000000 3.0159000000 1.2522000000
3.0036000000 5.2219000000 0.3812000000
3.0034000000 5.1165000000 0.4248000000
3.0034000000 3.1711000000 1.1917000000
3.0032000000 2.9421000000 1.2854000000
3.0032000000 0.8655000000 0.5809000000
3.0031000000 4.6083000000 0.5819000000
3.0031000000 1.3698000000 0.7228000000
3.0029000000 2.5250000000 1.2104000000
3.0028000000 4.1308000000 0.7856000000
3.0027000000 0.0818000000 0.0954000000
3.0027000000 1.6308000000 0.9080000000
3.0026000000 1.9144000000 0.9509000000
3.0025000000 4.1192000000 0.7914000000
3.0024000000 0.8051000000 0.4805000000
3.0023000000 5.5879000000 0.0791000000
3.0021000000 1.9255000000 0.9565000000
3.0013000000 1.2137000000 0.7300000000
3.0012000000 1.3213000000 0.7754000000
3.0012000000 3.2711000000 1.1557000000
3.0010000000 2.9658000000 1.2826000000
3.0010000000 4.3727000000 0.6875000000
3.0007000000 2.0672000000 1.0185000000
3.0006000000 3.1410000000 1.2115000000
3.0005000000 3.2803000000 1.1499000000
3.0005000000 2.5250000000 1.2100000000
3.0004000000 3.9218000000 0.8791000000
3.0004000000 1.1368000000 0.6183000000
3.0003000000 0.2923000000 0.2017000000
3.0002000000 2.1988000000 1.0764000000
3.0001000000 4.5737000000 0.5997000000
3.0000000000 0.3205000000 0.2262000000
2.9996000000 5.1465000000 0.4190000000
2.9996000000 0.8570000000 0.5060000000
2.9995000000 1.0990000000 0.6080000000
2.9984000000 1.5990000000 0.8940000000
2.9980000000 0.0423000000 0.0629000000
2.9975000000 0.7971000000 0.4847000000
2.9974000000 1.2064000000 0.6536000000
2.9973000000 2.1819000000 1.0717000000
2.9972000000 0.6869000000 0.4413000000
2.9971000000 2.0285000000 1.0020000000
2.9965000000 5.3808000000 0.1841000000
2.7618000000 1.1729000000 0.8953000000
2.7613000000 1.7758000000 1.1439000000
2.7611000000 2.9261000000 1.4742000000
2.7607000000 5.4639000000 0.1142000000
2.7598000000 3.7423000000 1.1290000000
2.7593000000 1.6119000000 1.0014000000
2.7590000000 2.0392000000 1.1841000000
2.7586000000 3.7208000000 1.1311000000
2.7585000000 1.9854000000 1.1581000000
2.7579000000 4.8891000000 0.5921000000
2.7577000000 1.4775000000 0.9420000000
2.7576000000 1.0731000000 0.7840000000
2.7574000000 4.7775000000 0.7560000000
2.7574000000 2.2625000000 1.2829000000
2.7570000000 4.6969000000 0.7920000000
2.7569000000 0.9330000000 0.7785000000
2.7564000000 2.6233000000 1.5057000000
2.7563000000 3.5459000000 1.2120000000
2.7561000000 3.1961000000 1.3582000000
2.7556000000 5.0363000000 0.4745000000
2.7553000000 2.0508000000 1.1890000000
2.7552000000 4.8923000000 0.5992000000
2.7551000000 2.1960000000 1.3285000000
2.7550000000 3.8383000000 1.0921000000
2.7550000000 1.8939000000 1.2000000000
2.7548000000 2.2491000000 1.3537000000
2.7547000000 0.5558000000 0.4244000000
2.7546000000 2.5053000000 1.3800000000
2.7544000000 0.6303000000 0.4891000000
2.7544000000 4.7228000000 0.7788000000
2.7542000000 1.7182000000 1.1275000000
2.7541000000 4.4562000000 0.8325000000
2.7540000000 0.0701000000 0.0922000000
2.7538000000 5.2687000000 0.2860000000
2.7536000000 5.2356000000 0.3075000000
2.7535000000 2.3556000000 1.3156000000
2.7534000000 3.1535000000 1.3822000000
2.7534000000 2.7351000000 1.4834000000
2.7533000000 2.4162000000 1.4177000000
2.7532000000 4.2967000000 0.9042000000
2.7531000000 2.2913000000 1.3685000000
2.7530000000 1.2308000000 0.8403000000
2.7528000000 0.7027000000 0.5460000000
2.7527000000 3.0194000000 1.4378000000
2.7526000000 1.1367000000 0.8071000000
2.7526000000 5.4961000000 0.0881000000
2.7525000000 2.8747000000 1.5682000000
2.7525000000 0.7976000000 0.6924000000
2.7525000000 1.9885000000 1.1711000000
2.7523000000 4.5216000000 0.8056000000
2.7522000000 3.8721000000 1.0803000000
2.7520000000 0.6903000000 0.6130000000
2.7518000000 2.0831000000 1.2066000000
2.7518000000 5.5225000000 0.0612000000
2.7517000000 4.1755000000 0.9519000000
2.7516000000 3.2320000000 1.3498000000
2.7512000000 4.1267000000 0.9694000000
2.7510000000 0.8463000000 0.7309000000
2.7509000000 1.2854000000 0.8689000000
2.7508000000 5.5030000000 0.0834000000
2.7507000000 0.7857000000 0.6793000000
2.7508000000 3.1611000000 1.3836000000
2.7505000000 1.7094000000 1.1255000000
2.7505000000 0.2272000000 0.1431000000
2.7503000000 5.1369000000 0.3898000000
2.7498000000 3.4119000000 1.2767000000
2.7497000000 1.6066000000 1.0039000000
2.7495000000 1.5225000000 0.9732000000
2.7480000000 4.1441000000 0.9686000000
2.7479000000 1.6762000000 1.0395000000
2.7473000000 2.5178000000 1.3967000000
2.7473000000 2.8083000000 1.5774000000
2.7465000000 0.7575000000 0.5912000000
2.7453000000 1.3149000000 0.8912000000
2.5113000000 2.5459000000 1.5755000000
2.5113000000 3.1098000000 1.5767000000
2.5111000000 1.8282000000 1.3513000000
2.5108000000 5.0740000000 0.4451000000
2.5101000000 5.4541000000 0.1205000000
2.5100000000 4.5859000000 0.8538000000
2.5093000000 3.1871000000 1.5508000000
2.5093000000 0.8661000000 0.6899000000
2.5087000000 2.3661000000 1.5085000000
2.5086000000 1.3194000000 1.1237000000
2.5085000000 1.5890000000 1.1700000000
2.5084000000 3.1614000000 1.5549000000
2.5083000000 1.5265000000 1.1511000000
2.5083000000 4.6648000000 0.7861000000
2.5083000000 2.8105000000 1.7551000000
2.5077000000 4.9258000000 0.5690000000
2.5077000000 3.2541000000 1.5223000000
2.5075000000 4.7666000000 0.7031000000
2.5073000000 1.6932000000 1.2145000000
2.5074000000 0.7718000000 0.6009000000
2.5072000000 5.3482000000 0.2111000000
2.5071000000 0.7434000000 0.5773000000
2.5068000000 2.6099000000 1.6069000000
2.5065000000 3.3052000000 1.4964000000
2.5063000000 2.2080000000 1.5163000000
2.5059000000 3.4170000000 1.5242000000
2.5058000000 1.9559000000 1.3341000000
2.5058000000 5.0627000000 0.4535000000
2.5056000000 1.0704000000 0.8567000000
2.5053000000 0.6746000000 0.5227000000
2.5051000000 4.5931000000 0.8483000000
2.5050000000 0.0327000000 0.0590000000
2.5049000000 3.1105000000 1.5799000000
2.5048000000 2.1269000000 1.3963000000
2.5047000000 3.5113000000 1.4087000000
2.5047000000 4.7446000000 0.7213000000
2.5046000000 5.4804000000 0.1001000000
2.5043000000 1.5742000000 1.1688000000
2.5043000000 3.5290000000 1.4069000000
2.5042000000 4.3599000000 1.1034000000
2.5042000000 2.4665000000 1.5500000000
2.5040000000 5.0690000000 0.4463000000
2.5040000000 1.3821000000 1.1500000000
2.5039000000 1.5112000000 1.1425000000
2.5038000000 4.9735000000 0.5295000000
2.5038000000 3.2624000000 1.5193000000
2.5036000000 2.1320000000 1.4120000000
2.5034000000 0.1758000000 0.0994000000
2.5034000000 2.5728000000 1.5889000000
2.5032000000 5.5721000000 0.0980000000
2.5031000000 1.8091000000 1.2708000000
2.5031000000 3.1124000000 1.5804000000
2.5030000000 1.8973000000 1.3853000000
2.5027000000 0.7745000000 0.6076000000
2.5025000000 3.0419000000 1.6138000000
2.5025000000 0.4602000000 0.3405000000
2.5021000000 3.1861000000 1.5532000000
2.5020000000 2.2956000000 1.4779000000
2.5019000000 4.9743000000 0.5304000000
2.5018000000 2.2587000000 1.5404000000
2.5014000000 1.8657000000 1.2977000000
2.5013000000 2.0255000000 1.3608000000
2.5013000000 5.5164000000 0.0706000000
2.5012000000 1.8487000000 1.3696000000
2.5011000000 4.0933000000 1.1709000000
2.5009000000 1.0624000000 0.8527000000
2.5008000000 3.2612000000 1.5206000000
2.5008000000 3.6449000000 1.3626000000
2.5008000000 5.6240000000 0.0444000000
2.5005000000 0.9526000000 0.7592000000
2.5004000000 0.7557000000 0.5902000000
2.5004000000 3.3669000000 1.4800000000
2.5002000000 0.4062000000 0.2982000000
2.5001000000 1.8149000000 1.2817000000
2.5000000000 2.4560000000 1.5481000000
2.4996000000 2.3548000000 1.5081000000
2.4990000000 2.0200000000 1.3708000000
2.4988000000 3.3918000000 1.4679000000
2.4983000000 2.7362000000 1.7400000000
2.4980000000 5.5073000000 0.0728000000
2.4972000000 2.8222000000 1.7660000000
2.4970000000 0.2882000000 0.1962000000
2.4964000000 3.3590000000 1.4881000000
2.4964000000 3.5528000000 1.4074000000
2.2618000000 3.5444000000 1.5789000000
2.2603000000 5.5813000000 0.0867000000
2.2597000000 2.2828000000 1.6563000000
2.2586000000 5.6109000000 0.0637000000
2.2584000000 4.0480000000 1.3106000000
2.2583000000 3.8897000000 1.4949000000
2.2581000000 3.4613000000 1.6213000000
2.2580000000 5.5845000000 0.0821000000
2.2578000000 3.7415000000 1.4955000000
2.2577000000 5.3984000000 0.1653000000
2.2575000000 2.9179000000 1.8460000000
2.2574000000 4.6120000000 0.8292000000
2.2573000000 4.6299000000 0.8164000000
2.2571000000 4.1642000000 1.2107000000
2.2571000000 4.4572000000 0.9625000000
2.2569000000 5.4303000000 0.1422000000
2.2568000000 2.6349000000 1.8759000000
2.2568000000 1.1765000000 0.9467000000
2.2566000000 2.9594000000 1.8277000000
2.2566000000 2.4330000000 1.7159000000
2.2565000000 2.7309000000 1.8404000000
2.2565000000 3.6845000000 1.5212000000
2.2564000000 3.9666000000 1.4437000000
2.2563000000 4.5550000000 0.8844000000
2.2561000000 2.5295000000 1.8365000000
2.2560000000 4.3673000000 1.0344000000
2.2559000000 4.1412000000 1.2295000000
2.2558000000 5.5284000000 0.0522000000
2.2557000000 3.0574000000 1.7840000000
2.2556000000 3.4058000000 1.6410000000
2.2555000000 2.3431000000 1.7584000000
2.2555000000 3.2189000000 1.7225000000
2.2553000000 1.1143000000 0.8929000000
2.2551000000 0.1762000000 0.1043000000
2.2549000000 5.3049000000 0.2430000000
2.2548000000 3.8724000000 1.5079000000
2.2547000000 3.4742000000 1.6121000000
2.2546000000 4.1380000000 1.2341000000
2.2543000000 3.8243000000 1.5219000000
2.2542000000 4.4361000000 0.9783000000
2.2541000000 1.9882000000 1.6069000000
2.2539000000 0.9083000000 0.7176000000
2.2539000000 0.8463000000 0.6653000000
2.2538000000 3.8044000000 1.5406000000
2.2536000000 5.4148000000 0.1558000000
2.2535000000 2.0141000000 1.6181000000
2.2535000000 5.2214000000 0.3163000000
2.2533000000 2.9006000000 1.9297000000
2.2532000000 5.4284000000 0.1447000000
2.2530000000 2.4219000000 1.7922000000
2.2529000000 0.2594000000 0.1672000000
2.2528000000 3.2888000000 1.6899000000
2.2527000000 5.2728000000 0.2739000000
2.2527000000 2.2608000000 1.6475000000
2.2524000000 1.1096000000 0.8898000000
2.2522000000 5.3335000000 0.2185000000
2.2521000000 3.3440000000 1.6684000000
2.2519000000 2.9115000000 1.8522000000
2.2518000000 5.3071000000 0.2494000000
2.2518000000 1.2635000000 1.0225000000
2.2516000000 4.7147000000 0.7503000000
2.2515000000 0.5233000000 0.3926000000
2.2514000000 3.2090000000 1.7284000000
2.2513000000 0.0035000000 0.0282000000
2.2511000000 4.7470000000 0.7120000000
2.2510000000 1.4827000000 1.2043000000
2.2507000000 0.3413000000 0.2353000000
2.2506000000 0.4793000000 0.3623000000
2.2499000000 4.7520000000 0.7127000000
2.2498000000 2.5794000000 1.7904000000
2.2498000000 0.9332000000 0.7378000000
2.2497000000 0.4977000000 0.3763000000
2.2496000000 1.4502000000 1.2504000000
2.2493000000 1.0469000000 0.8316000000
2.2491000000 1.6263000000 1.3272000000
2.2489000000 3.8329000000 1.5288000000
2.2486000000 3.0230000000 1.8818000000
2.2485000000 2.9345000000 1.9218000000
2.2483000000 4.9421000000 0.5529000000
2.2471000000 0.2636000000 0.1726000000
2.2470000000 1.1773000000 0.9453000000
2.2465000000 1.0808000000 0.8655000000
2.0135000000 3.3599000000 1.8370000000
2.0128000000 3.2805000000 1.8673000000
2.0114000000 4.4083000000 1.0068000000
2.0101000000 4.5710000000 0.8732000000
2.0100000000 4.9096000000 0.5815000000
2.0089000000 3.0607000000 1.9684000000
2.0085000000 0.3146000000 0.2210000000
2.0083000000 5.1222000000 0.4000000000
2.0083000000 2.8498000000 2.1176000000
2.0080000000 2.7518000000 2.1083000000
2.0078000000 2.6591000000 1.9945000000
2.0075000000 0.1473000000 0.0750000000
2.0074000000 4.5766000000 0.8570000000
2.0069000000 5.6517000000 0.0331000000
2.0069000000 5.0159000000 0.4924000000
2.0068000000 3.9637000000 1.3772000000
2.0067000000 3.0161000000 1.9889000000
2.0066000000 3.2518000000 1.8913000000
2.0066000000 1.0447000000 0.8376000000
2.0065000000 1.3726000000 1.1823000000
2.0063000000 5.4380000000 0.1331000000
2.0062000000 3.7026000000 1.5988000000
2.0060000000 5.5231000000 0.0634000000
2.0057000000 2.0314000000 1.6650000000
2.0056000000 2.5240000000 2.0145000000
2.0054000000 5.1472000000 0.3845000000
2.0054000000 2.6805000000 2.0804000000
2.0051000000 3.3079000000 1.8654000000
2.0049000000 3.6659000000 1.6268000000
2.0048000000 0.1281000000 0.0617000000
2.0048000000 1.8807000000 1.5387000000
2.0045000000 4.2980000000 1.0997000000
2.0041000000 3.0544000000 1.9714000000
2.0040000000 1.6500000000 1.4219000000
2.0039000000 3.2512000000 1.8898000000
2.0038000000 2.6089000000 2.0555000000
2.0037000000 3.5096000000 1.8263000000
2.0035000000 0.5795000000 0.4373000000
2.0033000000 3.4523000000 1.8658000000
2.0032000000 2.4320000000 1.9822000000
2.0031000000 2.4796000000 1.9202000000
2.0030000000 4.3955000000 1.0199000000
2.0030000000 1.7503000000 1.4288000000
2.0029000000 0.8790000000 0.7012000000
2.0028000000 2.8715000000 2.1149000000
2.0025000000 1.4194000000 1.1535000000
2.0024000000 3.8813000000 1.4554000000
2.0021000000 0.6421000000 0.4961000000
2.0023000000 0.6605000000 0.5870000000
2.0023000000 3.9455000000 1.3992000000
2.0021000000 0.9113000000 0.7253000000
2.0020000000 1.3311000000 1.0835000000
2.0019000000 2.5246000000 2.0194000000
2.0018000000 0.8872000000 0.6979000000
2.0015000000 1.7980000000 1.4719000000
2.0015000000 1.9927000000 1.6405000000
2.0015000000 4.1047000000 1.2596000000
2.0014000000 3.6729000000 1.6302000000
2.0012000000 0.3468000000 0.2414000000
2.0011000000 3.2606000000 1.8866000000
2.0006000000 3.2161000000 1.9071000000
2.0006000000 0.8815000000 0.6965000000
2.0002000000 0.9439000000 0.7460000000
2.0000000000 1.4138000000 1.1478000000
2.0000000000 0.4161000000 0.3064000000
2.0000000000 0.3870000000 0.2778000000
1.9997000000 1.0278000000 0.8191000000
1.9995000000 0.4066000000 0.2968000000
1.9995000000 0.1371000000 0.0662000000
1.9995000000 5.4021000000 0.1688000000
1.9994000000 2.8654000000 2.1081000000
1.9993000000 1.1124000000 0.8863000000
1.9991000000 3.6817000000 1.6203000000
1.9975000000 5.3237000000 0.2298000000
1.9910000000 1.1894000000 0.9573000000
1.7630000000 0.7060000000 0.5496000000
1.7616000000 4.9326000000 0.5584000000
1.7613000000 4.2368000000 1.1495000000
1.7610000000 1.0494000000 0.8374000000
1.7608000000 3.9718000000 1.3719000000
1.7606000000 5.1344000000 0.3884000000
1.7595000000 2.6160000000 2.2187000000
1.7586000000 4.4461000000 0.9709000000
1.7585000000 4.7502000000 0.7154000000
1.7583000000 5.3411000000 0.2165000000
1.7582000000 3.5227000000 1.7525000000
1.7581000000 4.6331000000 0.8216000000
1.7580000000 4.9183000000 0.5724000000
1.7580000000 2.6358000000 2.2302000000
1.7578000000 5.4104000000 0.1619000000
1.7577000000 2.1475000000 1.8441000000
1.7575000000 2.3658000000 2.0262000000
1.7572000000 2.7481000000 2.2926000000
1.7571000000 0.8526000000 0.6700000000
1.7569000000 3.4580000000 1.8058000000
1.7568000000 4.8211000000 0.6621000000
1.7566000000 3.5172000000 1.7590000000
1.7563000000 0.3403000000 0.2406000000
1.7562000000 5.0454000000 0.4661000000
1.7562000000 4.0322000000 1.3236000000
1.7561000000 3.3850000000 1.8641000000
1.7559000000 4.0986000000 1.2657000000
1.7559000000 2.7407000000 2.2151000000
1.7558000000 3.0781000000 2.1859000000
1.7558000000 1.2198000000 0.9846000000
1.7556000000 0.2085000000 0.1298000000
1.7554000000 3.7283000000 1.5784000000
1.7553000000 5.1586000000 0.3737000000
1.7551000000 1.9294000000 1.6559000000
1.7548000000 4.1260000000 1.2438000000
1.7547000000 3.8613000000 1.4657000000
1.7547000000 2.0833000000 1.7138000000
1.7546000000 1.1150000000 0.8944000000
1.7545000000 3.1264000000 2.1532000000
1.7545000000 2.1472000000 1.8412000000
1.7543000000 5.6714000000 0.0136000000
1.7544000000 1.6731000000 1.4409000000
1.7542000000 4.7453000000 0.7272000000
1.7539000000 3.0495000000 2.2098000000
1.7538000000 1.8892000000 1.6237000000
1.7536000000 0.8575000000 0.6788000000
1.7535000000 1.3055000000 1.0546000000
1.7535000000 4.9218000000 0.5703000000
1.7535000000 0.1774000000 0.1020000000
1.7531000000 4.6427000000 0.8090000000
1.7531000000 2.3855000000 2.0425000000
1.7530000000 3.6129000000 1.6760000000
1.7527000000 1.3677000000 1.1057000000
1.7526000000 2.2079000000 1.8149000000
1.7523000000 5.3588000000 0.1976000000
1.7522000000 1.7817000000 1.4595000000
1.7521000000 0.5460000000 0.4163000000
1.7518000000 4.0628000000 1.2967000000
1.7516000000 2.0913000000 1.7168000000
1.7515000000 0.3831000000 0.2716000000
1.7515000000 2.0892000000 1.7951000000
1.7514000000 0.8577000000 0.6724000000
1.7510000000 5.6551000000 0.0296000000
1.7509000000 0.2737000000 0.1810000000
1.7507000000 0.7474000000 0.5899000000
1.7505000000 1.0344000000 0.8269000000
1.7503000000 1.4998000000 1.2202000000
1.7503000000 3.1738000000 2.0460000000
1.7502000000 0.9307000000 0.7417000000
1.7502000000 4.2966000000 1.0950000000
1.7500000000 2.7349000000 2.2877000000
1.7499000000 2.0717000000 1.7002000000
1.7498000000 1.7647000000 1.5207000000
1.7497000000 1.6749000000 1.3727000000
1.7496000000 5.0192000000 0.4882000000
1.7495000000 1.9998000000 1.6433000000
1.7494000000 2.5056000000 2.1479000000
1.7490000000 4.7749000000 0.6998000000
1.7486000000 3.6980000000 1.6034000000
1.7484000000 3.6197000000 1.6650000000
1.7484000000 1.1884000000 0.9562000000
1.7478000000 0.6718000000 0.5221000000
1.7468000000 1.2740000000 1.0314000000
1.7462000000 1.0140000000 0.8868000000
1.7455000000 0.7786000000 0.6079000000
1.7451000000 1.3852000000 1.1189000000
1.7386000000 0.0221000000 0.0470000000
1.5155000000 5.6362000000 0.0424000000
1.5097000000 4.4096000000 1.0008000000
1.5092000000 4.1696000000 1.2089000000
1.5090000000 0.4005000000 0.3666000000
1.5084000000 1.5010000000 1.2960000000
1.5083000000 5.6122000000 0.0609000000
1.5083000000 3.8801000000 1.4497000000
1.5080000000 2.0310000000 1.6711000000
1.5079000000 4.5782000000 0.8587000000
1.5076000000 2.1980000000 1.8101000000
1.5073000000 2.2194000000 1.8285000000
1.5073000000 0.6058000000 0.4617000000
1.5071000000 1.8329000000 1.5700000000
1.5069000000 1.7757000000 1.4515000000
1.5068000000 2.8673000000 2.2947000000
1.5068000000 1.2491000000 1.0108000000
1.5067000000 2.3760000000 2.0359000000
1.5067000000 0.7748000000 0.6070000000
1.5066000000 2.8533000000 2.2923000000
1.5062000000 5.1518000000 0.3772000000
1.5058000000 2.8581000000 2.2870000000
1.5057000000 1.1754000000 0.9443000000
1.5054000000 3.9652000000 1.3783000000
1.5054000000 4.1779000000 1.2017000000
1.5051000000 2.6981000000 2.2549000000
1.5050000000 1.2824000000 1.0387000000
1.5050000000 2.6430000000 2.2329000000
1.5048000000 2.3580000000 2.0241000000
1.5049000000 3.2976000000 1.9443000000
1.5047000000 5.0702000000 0.4449000000
1.5046000000 5.6240000000 0.0543000000
1.5046000000 1.2833000000 1.0398000000
1.5044000000 2.0455000000 1.6792000000
1.5044000000 1.2686000000 1.0980000000
1.5043000000 0.5243000000 0.3917000000
1.5042000000 5.3580000000 0.2006000000
1.5042000000 3.2052000000 2.0232000000
1.5041000000 2.7018000000 2.2560000000
1.5040000000 3.0514000000 2.2120000000
1.5040000000 2.0645000000 1.6983000000
1.5039000000 4.9714000000 0.5269000000
1.5039000000 4.4489000000 0.9742000000
1.5037000000 1.5816000000 1.3596000000
1.5035000000 2.2820000000 1.8833000000
1.5033000000 0.5145000000 0.3875000000
1.5029000000 2.0334000000 1.7445000000
1.5028000000 3.1335000000 2.1454000000
1.5026000000 2.5257000000 2.1499000000
1.5026000000 0.4588000000 0.3361000000
1.5023000000 2.6011000000 2.2158000000
1.5022000000 5.5505000000 0.1113000000
1.5021000000 3.1936000000 2.0373000000
1.5020000000 2.1650000000 1.7794000000
1.5020000000 0.1266000000 0.0557000000
1.5019000000 1.8515000000 1.5162000000
1.5018000000 1.3463000000 1.0843000000
1.5011000000 5.0868000000 0.4306000000
1.5009000000 2.8769000000 2.2915000000
1.5009000000 2.7327000000 2.2054000000
1.5003000000 4.7586000000 0.7106000000
1.4998000000 0.8346000000 0.6583000000
1.4995000000 0.7032000000 0.5458000000
1.4993000000 0.2449000000 0.1604000000
1.4991000000 4.5445000000 0.8886000000
1.4990000000 3.9741000000 1.3730000000
1.4987000000 0.2622000000 0.1680000000
1.4985000000 0.8013000000 0.6257000000
1.4986000000 1.4020000000 1.1332000000
1.4985000000 2.7159000000 2.1963000000
1.4982000000 4.9443000000 0.5513000000
1.4973000000 4.1461000000 1.2250000000
1.4965000000 2.7227000000 2.2693000000
1.4951000000 5.4109000000 0.1593000000
1.4945000000 1.7589000000 1.4365000000
1.4936000000 3.9063000000 1.4364000000
1.2626000000 5.1953000000 0.3436000000
1.2625000000 4.1163000000 1.2490000000
1.2608000000 4.7683000000 0.7056000000
1.2604000000 4.1589000000 1.2148000000
1.2603000000 4.4066000000 1.0066000000
1.2600000000 2.5846000000 1.9664000000
1.2593000000 5.4862000000 0.0896000000
1.2588000000 3.1433000000 1.9322000000
1.2588000000 4.6195000000 0.8324000000
1.2586000000 5.4867000000 0.0906000000
1.2580000000 3.7914000000 1.5254000000
1.2577000000 3.7550000000 1.5626000000
1.2577000000 1.6033000000 1.3070000000
1.2576000000 2.8982000000 2.0390000000
1.2575000000 2.2017000000 1.8648000000
1.2572000000 0.6863000000 0.5273000000
1.2570000000 4.1495000000 1.2208000000
1.2568000000 2.7717000000 2.1127000000
1.2567000000 4.2135000000 1.1718000000
1.2566000000 1.4026000000 1.1400000000
1.2565000000 3.1017000000 1.9488000000
1.2562000000 5.3729000000 0.1855000000
1.2561000000 3.8559000000 1.4721000000
1.2560000000 0.1184000000 0.1246000000
1.2560000000 4.0409000000 1.3167000000
1.2558000000 2.8534000000 2.1174000000
1.2554000000 2.5040000000 2.0036000000
1.2550000000 0.4146000000 0.3055000000
1.2549000000 0.5966000000 0.4582000000
1.2548000000 1.2712000000 1.0228000000
1.2547000000 3.0865000000 1.9625000000
1.2544000000 5.6435000000 0.0326000000
1.2544000000 1.2304000000 1.0640000000
1.2543000000 5.3453000000 0.2150000000
1.2540000000 3.4229000000 1.8725000000
1.2539000000 3.8098000000 1.5068000000
1.2538000000 3.7151000000 1.5902000000
1.2537000000 5.0556000000 0.4584000000
1.2535000000 0.4355000000 0.3174000000
1.2534000000 0.5848000000 0.4465000000
1.2533000000 5.0255000000 0.4791000000
1.2533000000 2.3112000000 1.8488000000
1.2530000000 2.7755000000 2.1157000000
1.2529000000 2.9702000000 2.0077000000
1.2528000000 5.0330000000 0.4780000000
1.2526000000 3.5299000000 1.8117000000
1.2525000000 0.9086000000 0.7233000000
1.2524000000 2.5133000000 1.9294000000
1.2523000000 4.2196000000 1.1612000000
1.2521000000 3.8311000000 1.4925000000
1.2520000000 1.2523000000 1.0819000000
1.2518000000 1.2633000000 1.0970000000
1.2515000000 3.5372000000 1.8039000000
1.2515000000 2.7224000000 2.0935000000
1.2514000000 4.2709000000 1.1194000000
1.2513000000 2.2279000000 1.8797000000
1.2510000000 0.1431000000 0.0700000000
1.2508000000 2.4182000000 1.8893000000
1.2502000000 1.9849000000 1.7038000000
1.2502000000 1.3029000000 1.1280000000
1.2501000000 3.3643000000 1.8351000000
1.2499000000 1.9414000000 1.6740000000
1.2499000000 0.1449000000 0.0772000000
1.2497000000 3.9659000000 1.3797000000
1.2495000000 1.6980000000 1.3880000000
1.2495000000 1.8492000000 1.5872000000
1.2492000000 1.6601000000 1.4316000000
1.2487000000 2.0224000000 1.6521000000
1.2487000000 0.0000000000 0.0287000000
1.2484000000 0.3984000000 0.2862000000
1.2481000000 0.5644000000 0.4321000000
1.2480000000 0.3584000000 0.2586000000
1.2479000000 1.9301000000 1.5798000000
1.2464000000 2.0651000000 1.7556000000
1.2460000000 5.5563000000 0.1085000000
1.0111000000 3.0867000000 1.7766000000
1.0098000000 2.9917000000 1.8178000000
1.0098000000 2.8267000000 1.9478000000
1.0097000000 3.5460000000 1.5790000000
1.0091000000 4.0609000000 1.3028000000
1.0089000000 4.9301000000 0.5605000000
1.0081000000 1.7738000000 1.4988000000
1.0080000000 1.8178000000 1.5161000000
1.0078000000 2.5089000000 1.7467000000
1.0076000000 2.8531000000 1.9395000000
1.0076000000 0.9525000000 0.7615000000
1.0077000000 3.8672000000 1.5082000000
1.0068000000 4.5853000000 0.8558000000
1.0067000000 5.0993000000 0.4222000000
1.0064000000 2.3509000000 1.7577000000
1.0061000000 0.9643000000 0.7640000000
1.0055000000 5.1813000000 0.3540000000
1.0054000000 2.3927000000 1.6984000000
1.0053000000 3.4530000000 1.6189000000
1.0052000000 1.6487000000 1.4085000000
1.0052000000 4.6412000000 0.8059000000
1.0050000000 5.2371000000 0.3059000000
1.0050000000 3.7475000000 1.4956000000
1.0049000000 5.1275000000 0.4012000000
1.0048000000 2.0276000000 1.6200000000
1.0048000000 3.0144000000 1.8099000000
1.0047000000 2.8913000000 1.8524000000
1.0045000000 3.7945000000 1.4725000000
1.0044000000 2.0864000000 1.5681000000
1.0043000000 2.3134000000 1.6662000000
1.0040000000 4.8832000000 0.6071000000
1.0038000000 4.0617000000 1.2972000000
1.0038000000 5.5013000000 0.0759000000
1.0037000000 0.5268000000 0.4006000000
1.0035000000 5.4170000000 0.1620000000
1.0035000000 4.3169000000 1.0821000000
1.0034000000 2.1750000000 1.6109000000
1.0032000000 5.4450000000 0.1250000000
1.0031000000 1.5610000000 1.3435000000
1.0030000000 3.8011000000 1.4661000000
1.0030000000 2.5624000000 1.7678000000
1.0028000000 5.6619000000 0.0172000000
1.0028000000 0.3122000000 0.2921000000
1.0027000000 4.9037000000 0.5899000000
1.0027000000 2.8833000000 1.9230000000
1.0026000000 0.9695000000 0.7756000000
1.0023000000 4.8878000000 0.6010000000
1.0023000000 1.5688000000 1.3526000000
1.0022000000 2.9373000000 1.8329000000
1.0020000000 1.7379000000 1.4843000000
1.0020000000 4.8248000000 0.6505000000
1.0019000000 2.7651000000 1.8534000000
1.0018000000 3.1954000000 1.7272000000
1.0018000000 0.1162000000 0.1274000000
1.0011000000 2.5894000000 1.7745000000
1.0010000000 2.0471000000 1.5491000000
1.0009000000 2.5750000000 1.7764000000
1.0009000000 2.9325000000 1.8303000000
1.0007000000 0.0545000000 0.0744000000
1.0008000000 4.2551000000 1.1315000000
1.0007000000 1.6225000000 1.3931000000
1.0005000000 0.6016000000 0.5343000000
1.0005000000 0.4518000000 0.3379000000
1.0004000000 1.1110000000 0.8945000000
1.0003000000 1.8568000000 1.4667000000
1.0000000000 0.5474000000 0.4895000000
1.0000000000 3.3841000000 1.6429000000
0.9999000000 4.5606000000 0.8739000000
0.9999000000 0.9894000000 0.7855000000
0.9997000000 3.5099000000 1.5901000000
0.9989000000 0.5502000000 0.4159000000
0.9988000000 4.0165000000 1.3981000000
0.9986000000 4.2108000000 1.1767000000
0.9985000000 0.1409000000 0.0677000000
0.9983000000 4.1686000000 1.2024000000
0.9983000000 1.7444000000 1.4816000000
0.9976000000 4.8748000000 0.6115000000
0.9973000000 1.6709000000 1.4289000000
0.9971000000 2.3654000000 1.6813000000
0.9970000000 3.1633000000 1.7288000000
0.9968000000 1.6413000000 1.4013000000
0.7616000000 1.2867000000 1.1020000000
0.7615000000 3.8753000000 1.2606000000
0.7604000000 3.9768000000 1.2182000000
0.7590000000 3.5597000000 1.3869000000
0.7590000000 4.8536000000 0.6285000000
0.7587000000 0.2491000000 0.1665000000
0.7587000000 3.2454000000 1.5251000000
0.7585000000 5.1281000000 0.3968000000
0.7582000000 5.5641000000 0.1076000000
0.7580000000 0.7695000000 0.5985000000
0.7578000000 4.8354000000 0.6415000000
0.7577000000 4.9416000000 0.5543000000
0.7573000000 5.5404000000 0.1275000000
0.7571000000 2.3734000000 1.5061000000
0.7571000000 5.5778000000 0.0915000000
0.7565000000 3.6718000000 1.3405000000
0.7564000000 2.0594000000 1.3780000000
0.7564000000 0.1025000000 0.1126000000
0.7563000000 1.6371000000 1.1981000000
0.7560000000 3.4413000000 1.4390000000
0.7560000000 3.0548000000 1.6052000000
0.7556000000 3.8256000000 1.2796000000
0.7555000000 0.1696000000 0.0989000000
0.7555000000 4.3338000000 1.1290000000
0.7555000000 2.9602000000 1.6484000000
0.7554000000 3.1167000000 1.5728000000
0.7554000000 2.1882000000 1.4328000000
0.7552000000 3.6803000000 1.3394000000
0.7551000000 5.4121000000 0.1535000000
0.7551000000 0.1029000000 0.1105000000
0.7550000000 4.6381000000 0.8104000000
0.7550000000 2.9237000000 1.6575000000
0.7548000000 4.8022000000 0.6712000000
0.7545000000 1.1026000000 0.8853000000
0.7544000000 2.4244000000 1.5256000000
0.7543000000 0.4756000000 0.3530000000
0.7543000000 5.3019000000 0.2455000000
0.7540000000 2.2994000000 1.4773000000
0.7540000000 0.4894000000 0.3660000000
0.7539000000 0.5451000000 0.4143000000
0.7537000000 1.3441000000 1.1299000000
0.7536000000 0.1935000000 0.1120000000
0.7535000000 2.1185000000 1.3971000000
0.7535000000 2.5196000000 1.5655000000
0.7532000000 3.9330000000 1.2328000000
0.7532000000 4.9173000000 0.5802000000
0.7531000000 3.1686000000 1.5601000000
0.7530000000 3.1584000000 1.5548000000
0.7530000000 4.6801000000 0.7760000000
0.7529000000 0.9714000000 0.7742000000
0.7528000000 2.8323000000 1.7623000000
0.7528000000 0.8007000000 0.6271000000
0.7527000000 2.6681000000 1.6329000000
0.7525000000 2.3925000000 1.5146000000
0.7525000000 0.0792000000 0.0955000000
0.7523000000 1.4746000000 1.1274000000
0.7522000000 4.8190000000 0.6560000000
0.7520000000 4.8840000000 0.5987000000
0.7521000000 0.2158000000 0.1301000000
0.7520000000 0.2843000000 0.1901000000
0.7519000000 0.6703000000 0.5207000000
0.7518000000 2.2716000000 1.4610000000
0.7516000000 1.4425000000 1.1055000000
0.7515000000 3.5701000000 1.3823000000
0.7515000000 4.1801000000 1.1201000000
0.7513000000 4.4888000000 0.9351000000
0.7512000000 0.7235000000 0.5653000000
0.7510000000 4.2871000000 1.1433000000
0.7508000000 2.0338000000 1.4310000000
0.7506000000 1.1910000000 1.0361000000
0.7505000000 1.6045000000 1.1813000000
0.7503000000 4.4743000000 0.9461000000
0.7498000000 2.9184000000 1.6552000000
0.7495000000 1.0897000000 0.8738000000
0.7493000000 0.9896000000 0.7891000000
0.7490000000 3.9536000000 1.2186000000
0.7489000000 4.6876000000 0.7718000000
0.7487000000 0.8528000000 0.6717000000
0.7484000000 3.7757000000 1.2901000000
0.7483000000 0.6683000000 0.5132000000
0.7483000000 1.7819000000 1.2508000000
0.7481000000 0.1061000000 0.1214000000
0.7462000000 0.3266000000 0.2241000000
0.5129000000 2.9683000000 1.4595000000
0.5115000000 5.4323000000 0.1404000000
0.5105000000 5.5520000000 0.1123000000
0.5100000000 4.3731000000 0.8710000000
0.5092000000 4.4138000000 0.8475000000
0.5090000000 3.8513000000 1.0914000000
0.5085000000 3.7307000000 1.1371000000
0.5085000000 1.9566000000 1.2271000000
0.5084000000 5.3857000000 0.1801000000
0.5083000000 2.9931000000 1.4499000000
0.5083000000 2.4072000000 1.3462000000
0.5078000000 0.5320000000 0.3992000000
0.5078000000 3.9295000000 1.0510000000
0.5077000000 2.6999000000 1.5404000000
0.5074000000 3.6149000000 1.1821000000
0.5073000000 4.8276000000 0.7131000000
0.5072000000 2.0857000000 1.2035000000
0.5071000000 5.1174000000 0.4052000000
0.5068000000 4.5924000000 0.7715000000
0.5064000000 5.3197000000 0.2328000000
0.5059000000 5.4093000000 0.1583000000
0.5058000000 2.6999000000 1.4679000000
0.5056000000 2.2686000000 1.2805000000
0.5055000000 0.7545000000 0.5850000000
0.5054000000 2.6539000000 1.4433000000
0.5050000000 0.4757000000 0.3519000000
0.5050000000 5.2850000000 0.2653000000
0.5048000000 1.0081000000 0.7472000000
0.5045000000 1.7385000000 1.0599000000
0.5044000000 4.3473000000 0.8711000000
0.5044000000 0.9263000000 0.7751000000
0.5043000000 3.6442000000 1.1733000000
0.5043000000 0.0999000000 0.1142000000
0.5040000000 5.5882000000 0.0861000000
0.5040000000 2.2431000000 1.2683000000
0.5038000000 0.8098000000 0.6970000000
0.5038000000 1.6810000000 1.0287000000
0.5038000000 0.4969000000 0.3665000000
0.5037000000 1.5379000000 0.9729000000
0.5035000000 1.3022000000 0.8750000000
0.5035000000 0.3371000000 0.2358000000
0.5035000000 3.2910000000 1.3265000000
0.5034000000 4.5702000000 0.7798000000
0.5033000000 4.2828000000 0.8926000000
0.5033000000 4.8303000000 0.7134000000
0.5033000000 1.0870000000 0.7764000000
0.5030000000 2.1268000000 1.2141000000
0.5029000000 2.6269000000 1.4342000000
0.5029000000 1.5537000000 0.9771000000
0.5027000000 3.2532000000 1.3377000000
0.5027000000 1.9798000000 1.1567000000
0.5023000000 3.0220000000 1.4324000000
0.5022000000 1.3276000000 0.8804000000
0.5021000000 3.3730000000 1.2841000000
0.5020000000 1.4546000000 0.9372000000
0.5021000000 3.2924000000 1.3201000000
0.5019000000 1.4321000000 0.9236000000
0.5019000000 3.2623000000 1.3246000000
0.5018000000 0.3410000000 0.2385000000
0.5017000000 0.1037000000 0.1120000000
0.5017000000 0.4724000000 0.3476000000
0.5015000000 2.1603000000 1.2294000000
0.5015000000 4.2004000000 0.9340000000
0.5014000000 0.0909000000 0.0946000000
0.5013000000 2.0715000000 1.1939000000
0.5013000000 3.4125000000 1.2651000000
0.5011000000 5.1109000000 0.4128000000
0.5010000000 0.3493000000 0.2492000000
0.5008000000 0.8841000000 0.7530000000
0.5005000000 1.4912000000 0.9475000000
0.4999000000 3.7985000000 1.1076000000
0.4999000000 5.3553000000 0.2106000000
0.4998000000 1.0181000000 0.7501000000
0.4995000000 2.7417000000 1.4806000000
0.4993000000 3.1740000000 1.3661000000
0.4991000000 2.1721000000 1.2353000000
0.4990000000 3.0035000000 1.4408000000
0.4990000000 3.1217000000 1.3844000000
0.4990000000 1.0660000000 0.7724000000
0.4989000000 3.6216000000 1.1728000000
0.4980000000 1.3360000000 0.8835000000
0.4974000000 1.1609000000 0.7978000000
0.4959000000 0.3955000000 0.2860000000
0.4931000000 0.6210000000 0.4768000000
0.2638000000 5.6395000000 0.0398000000
0.2614000000 4.8724000000 0.4740000000
0.2602000000 4.8295000000 0.4930000000
0.2601000000 3.8330000000 0.9154000000
0.2594000000 2.4229000000 1.1667000000
0.2593000000 5.2283000000 0.3764000000
0.2592000000 4.1917000000 0.7600000000
0.2592000000 4.3352000000 0.6951000000
0.2586000000 3.4113000000 1.0920000000
0.2583000000 3.9558000000 0.8638000000
0.2575000000 2.7164000000 1.2855000000
0.2573000000 1.8920000000 0.9365000000
0.2571000000 5.2983000000 0.3145000000
0.2570000000 4.0252000000 0.8289000000
0.2569000000 0.0733000000 0.0933000000
0.2569000000 2.7786000000 1.3803000000
0.2568000000 0.8240000000 0.4847000000
0.2567000000 3.3088000000 1.1314000000
0.2562000000 1.4483000000 0.7538000000
0.2561000000 2.1127000000 1.0315000000
0.2559000000 5.3254000000 0.2223000000
0.2556000000 4.0113000000 0.8335000000
0.2555000000 5.2110000000 0.3855000000
0.2554000000 4.7225000000 0.5294000000
0.2552000000 0.8299000000 0.4914000000
0.2551000000 4.4495000000 0.6460000000
0.2550000000 2.4392000000 1.1714000000
0.2550000000 4.9978000000 0.4163000000
0.2549000000 2.9741000000 1.2723000000
0.2548000000 3.2174000000 1.1676000000
0.2547000000 5.4079000000 0.1582000000
0.2544000000 0.3478000000 0.3110000000
0.2543000000 4.6699000000 0.5562000000
0.2540000000 1.3674000000 0.7119000000
0.2537000000 4.2104000000 0.7503000000
0.2537000000 1.7757000000 0.8827000000
0.2535000000 4.1600000000 0.7693000000
0.2533000000 4.6444000000 0.5707000000
0.2533000000 2.0102000000 0.9884000000
0.2530000000 4.9480000000 0.4346000000
