4.7514000000 0.5925000000 0.0351000000
4.7512000000 3.1711000000 1.0473000000
4.7510000000 1.7322000000 0.3903000000
4.7507000000 2.9260000000 0.9314000000
4.7505000000 2.0635000000 0.5461000000
4.7500000000 1.6416000000 0.3490000000
4.7498000000 3.8785000000 1.2327000000
4.7478000000 3.0702000000 0.9997000000
4.5132000000 6.7159000000 0.1424000000
4.5128000000 6.9222000000 0.1261000000
4.5119000000 7.3027000000 0.0232000000
4.5108000000 6.2255000000 0.3613000000
4.5098000000 5.8436000000 0.5392000000
4.5094000000 6.1836000000 0.3853000000
4.5092000000 3.9232000000 1.4093000000
4.5088000000 2.3541000000 0.8623000000
4.5086000000 1.9224000000 0.6730000000
4.5083000000 6.2722000000 0.3475000000
4.5075000000 5.9280000000 0.5016000000
4.5074000000 0.9177000000 0.2135000000
4.5073000000 6.1461000000 0.4001000000
4.5072000000 3.4468000000 1.3601000000
4.5069000000 2.4135000000 0.8897000000
4.5068000000 4.4375000000 1.1740000000
4.5066000000 3.2980000000 1.2947000000
4.5065000000 0.2661000000 0.0751000000
4.5064000000 6.6797000000 0.1637000000
4.5063000000 5.3909000000 0.7480000000
4.5062000000 7.2571000000 0.0521000000
4.5056000000 3.6572000000 1.4544000000
4.5054000000 5.2676000000 0.8013000000
4.5053000000 0.4877000000 0.0993000000
4.5051000000 2.0901000000 0.7512000000
4.5050000000 5.2046000000 0.8252000000
4.5048000000 3.7030000000 1.5409000000
4.5046000000 1.7993000000 0.6166000000
4.5044000000 4.2781000000 1.2518000000
4.5044000000 2.9579000000 1.1378000000
4.5041000000 6.6582000000 0.1741000000
4.5039000000 2.7444000000 1.0394000000
4.5038000000 2.2581000000 0.8231000000
4.5034000000 0.9674000000 0.2413000000
4.5033000000 3.9462000000 1.3956000000
4.5032000000 5.9732000000 0.4783000000
4.5030000000 2.1911000000 0.7901000000
4.5028000000 3.1872000000 1.2514000000
4.5026000000 2.5133000000 0.9392000000
4.5025000000 1.4018000000 0.4417000000
4.5023000000 1.0717000000 0.2950000000
4.5023000000 0.5766000000 0.0715000000
4.5021000000 2.1698000000 0.7842000000
4.5020000000 0.2473000000 0.0726000000
4.5015000000 4.3542000000 1.2082000000
4.5014000000 2.4071000000 0.8936000000
4.5012000000 0.3106000000 0.0237000000
4.5010000000 0.0999000000 0.0051000000
4.5005000000 2.0332000000 0.7288000000
4.5000000000 7.1406000000 0.0349000000
4.4993000000 2.6464000000 1.0039000000
4.4988000000 4.6120000000 1.0958000000
4.4985000000 4.1106000000 1.3226000000
4.4981000000 5.2346000000 0.8267000000
4.4967000000 5.4486000000 0.7225000000
4.4950000000 1.0770000000 0.3019000000
4.2618000000 3.3925000000 1.5281000000
4.2615000000 7.5008000000 0.0814000000
4.2610000000 5.0579000000 1.0896000000
4.2605000000 4.6737000000 1.2557000000
4.2601000000 0.0072000000 0.0260000000
4.2597000000 7.3505000000 0.1116000000
4.2585000000 0.1618000000 0.1305000000
4.2584000000 6.0496000000 0.6422000000
4.2580000000 7.0970000000 0.1679000000
4.2573000000 4.4968000000 1.3393000000
4.2572000000 6.0492000000 0.6373000000
4.2571000000 4.4841000000 1.3448000000
4.2569000000 2.7687000000 1.2510000000
4.2567000000 2.0556000000 0.9252000000
4.2563000000 6.1018000000 0.6189000000
4.2562000000 5.5522000000 0.8617000000
4.2559000000 6.4286000000 0.4706000000
4.2557000000 7.3223000000 0.0547000000
4.2556000000 1.7265000000 0.7822000000
4.2551000000 7.0006000000 0.2117000000
4.2550000000 6.1811000000 0.5839000000
4.2548000000 3.8822000000 1.6242000000
4.2546000000 2.5198000000 1.1369000000
4.2545000000 0.0977000000 0.1084000000
4.2544000000 3.6642000000 1.6516000000
4.2543000000 2.6513000000 1.1931000000
4.2540000000 3.5201000000 1.5917000000
4.2537000000 3.7100000000 1.7428000000
4.2536000000 3.7246000000 1.7409000000
4.2534000000 1.5133000000 0.6817000000
4.2533000000 5.3021000000 0.9785000000
4.2530000000 2.8483000000 1.2910000000
4.2528000000 2.1501000000 0.9745000000
4.2527000000 0.7926000000 0.3630000000
4.2525000000 2.9377000000 1.3280000000
4.2521000000 3.9930000000 1.5702000000
4.2520000000 1.0892000000 0.5014000000
4.2516000000 4.7004000000 1.2514000000
4.2510000000 3.3727000000 1.5248000000
4.2507000000 1.6558000000 0.7524000000
4.2502000000 3.5724000000 1.6212000000
4.2501000000 4.2028000000 1.4754000000
4.2496000000 5.1218000000 1.0641000000
4.2494000000 2.7632000000 1.2529000000
4.2488000000 0.9722000000 0.4480000000
4.2480000000 4.7415000000 1.2370000000
4.2478000000 0.1934000000 0.1604000000
4.2471000000 3.4179000000 1.5478000000
4.2434000000 0.6314000000 0.2936000000
4.0115000000 4.8374000000 1.3836000000
4.0102000000 5.1452000000 1.2484000000
4.0095000000 7.1565000000 0.2385000000
4.0093000000 0.4363000000 0.4137000000
4.0087000000 3.5678000000 1.8035000000
4.0084000000 4.7587000000 1.4143000000
4.0083000000 5.3998000000 1.1362000000
4.0081000000 4.4951000000 1.5389000000
4.0079000000 3.3439000000 1.7050000000
4.0076000000 1.1466000000 0.7062000000
4.0074000000 2.7913000000 1.4527000000
4.0072000000 2.2815000000 1.2230000000
4.0071000000 4.7030000000 1.4402000000
4.0069000000 5.9347000000 0.8880000000
4.0064000000 5.4463000000 1.1106000000
4.0062000000 1.5076000000 0.8798000000
4.0061000000 3.2143000000 1.6410000000
4.0059000000 6.8505000000 0.4695000000
4.0058000000 3.2935000000 1.6812000000
4.0056000000 2.6179000000 1.3769000000
4.0060000000 3.4771000000 1.7648000000
4.0050000000 5.7126000000 0.9941000000
4.0049000000 5.9018000000 0.9055000000
4.0046000000 2.7278000000 1.4243000000
4.0045000000 5.1681000000 1.2328000000
4.0043000000 2.9411000000 1.5218000000
4.0040000000 5.4247000000 1.1201000000
4.0040000000 2.1836000000 1.1814000000
4.0039000000 2.3233000000 1.2486000000
4.0038000000 2.0878000000 1.1400000000
4.0033000000 0.9592000000 0.6294000000
4.0031000000 5.1123000000 1.2670000000
4.0029000000 3.8308000000 1.8397000000
4.0028000000 2.3043000000 1.2390000000
4.0028000000 3.5263000000 1.7863000000
4.0027000000 2.5883000000 1.3646000000
4.0025000000 6.1676000000 0.7859000000
4.0023000000 4.1326000000 1.7068000000
4.0022000000 4.7052000000 1.4479000000
4.0020000000 4.5027000000 1.5341000000
4.0019000000 6.0608000000 0.8336000000
4.0015000000 2.4843000000 1.3206000000
4.0012000000 0.4355000000 0.3456000000
4.0009000000 0.9715000000 0.6362000000
4.0006000000 3.2440000000 1.6575000000
4.0005000000 0.2138000000 0.1528000000
4.0003000000 4.2386000000 1.6565000000
4.0001000000 5.0859000000 1.2753000000
3.9995000000 0.5589000000 0.5076000000
3.9989000000 4.7407000000 1.4318000000
3.9983000000 7.1289000000 0.2704000000
3.9968000000 3.1769000000 1.6374000000
3.7655000000 5.3139000000 1.3625000000
3.7638000000 7.2659000000 0.1445000000
3.7629000000 1.9997000000 1.2920000000
3.7621000000 6.2310000000 0.9472000000
3.7616000000 6.8899000000 0.4850000000
3.7613000000 4.2195000000 1.8582000000
3.7601000000 6.5987000000 0.7267000000
3.7600000000 1.5138000000 1.0737000000
3.7600000000 5.5336000000 1.2645000000
3.7598000000 6.8472000000 0.5246000000
3.7592000000 4.2959000000 1.8163000000
3.7588000000 6.3016000000 0.9198000000
3.7587000000 4.5625000000 1.7029000000
3.7583000000 6.3340000000 0.9093000000
3.7580000000 2.9225000000 1.7041000000
3.7578000000 1.3687000000 1.0136000000
3.7578000000 2.2171000000 1.3924000000
3.7577000000 3.4398000000 1.9382000000
3.7575000000 1.1265000000 0.8994000000
3.7573000000 5.9829000000 1.0590000000
3.7569000000 6.9108000000 0.4568000000
3.7565000000 0.2492000000 0.1835000000
3.7561000000 4.0804000000 1.9237000000
3.7559000000 5.0770000000 1.4734000000
3.7556000000 5.6216000000 1.2216000000
3.7553000000 7.0581000000 0.3291000000
3.7553000000 0.7122000000 0.5970000000
3.7552000000 5.5772000000 1.2477000000
3.7550000000 3.4474000000 1.9515000000
3.7548000000 4.8069000000 1.5961000000
3.7548000000 2.8911000000 1.6969000000
3.7546000000 5.2250000000 1.4086000000
3.7543000000 6.2985000000 0.9218000000
3.7542000000 3.6440000000 2.0317000000
3.7541000000 0.1124000000 0.1329000000
3.7540000000 6.5652000000 0.7582000000
3.7538000000 3.3197000000 1.8929000000
3.7535000000 3.2114000000 1.8417000000
3.7534000000 5.0518000000 1.4833000000
3.7531000000 5.0612000000 1.4770000000
3.7530000000 2.2247000000 1.4011000000
3.7527000000 4.2182000000 1.8640000000
3.7528000000 4.2637000000 1.8455000000
3.7526000000 3.6785000000 2.0465000000
3.7523000000 0.5059000000 0.4134000000
3.7521000000 1.2244000000 0.9484000000
3.7520000000 0.1604000000 0.1041000000
3.7518000000 0.9810000000 0.8916000000
3.7517000000 4.8849000000 1.5601000000
3.7515000000 5.1940000000 1.4207000000
3.7514000000 0.1155000000 0.1368000000
3.7512000000 7.5058000000 0.0793000000
3.7510000000 0.3576000000 0.2812000000
3.7506000000 0.6550000000 0.5489000000
3.7504000000 1.4317000000 1.0421000000
3.7503000000 7.2072000000 0.1978000000
3.7502000000 5.9946000000 1.0596000000
3.7496000000 0.1134000000 0.1359000000
3.7492000000 2.0223000000 1.3041000000
3.7489000000 0.4963000000 0.4048000000
3.7486000000 0.8594000000 0.7367000000
3.7483000000 3.3490000000 1.9106000000
3.7479000000 1.7674000000 1.1925000000
3.5159000000 4.1652000000 2.0669000000
3.5123000000 6.8207000000 0.5445000000
3.5115000000 7.1495000000 0.2422000000
3.5113000000 5.1066000000 1.6483000000
3.5108000000 6.0876000000 1.1882000000
3.5098000000 6.1632000000 1.1198000000
3.5091000000 5.1968000000 1.6070000000
3.5087000000 7.1006000000 0.2891000000
3.5083000000 2.9290000000 1.9035000000
3.5080000000 6.2611000000 1.0474000000
3.5079000000 5.2168000000 1.6013000000
3.5078000000 7.1746000000 0.2257000000
3.5076000000 2.3858000000 1.6583000000
3.5071000000 1.8139000000 1.4055000000
3.5069000000 6.6063000000 0.7373000000
3.5068000000 7.4352000000 0.0657000000
3.5064000000 1.6315000000 1.3202000000
3.5063000000 6.5187000000 0.8127000000
3.5061000000 1.7071000000 1.3556000000
3.5060000000 5.2624000000 1.5811000000
3.5059000000 4.3299000000 1.9969000000
3.5057000000 0.9962000000 0.8518000000
3.5055000000 0.1173000000 0.1425000000
3.5053000000 7.2544000000 0.1598000000
3.5050000000 0.1266000000 0.0719000000
3.5049000000 3.3103000000 2.0847000000
3.5048000000 4.0288000000 2.1355000000
3.5046000000 6.8578000000 0.5129000000
3.5045000000 3.5698000000 2.1957000000
3.5043000000 7.4766000000 0.0275000000
3.5043000000 0.6072000000 0.5140000000
3.5041000000 7.2698000000 0.1406000000
3.5039000000 2.3187000000 1.6307000000
3.5036000000 5.8072000000 1.3397000000
3.5035000000 3.0177000000 1.9480000000
3.5032000000 5.2632000000 1.5940000000
3.5029000000 2.1694000000 1.5723000000
3.5027000000 6.8984000000 0.4787000000
3.5025000000 2.1889000000 1.5753000000
3.5023000000 7.3229000000 0.0919000000
3.5021000000 1.5063000000 1.2601000000
3.5015000000 2.8709000000 1.8819000000
3.5013000000 4.6571000000 1.8552000000
3.5011000000 3.7368000000 2.3369000000
3.5010000000 0.9489000000 0.8125000000
3.5008000000 0.2071000000 0.1519000000
3.5006000000 2.8943000000 1.8968000000
3.5005000000 0.4852000000 0.3993000000
3.5002000000 0.3533000000 0.2726000000
3.4998000000 6.0318000000 1.3027000000
3.4993000000 2.2377000000 1.6007000000
3.4990000000 0.9138000000 0.7797000000
3.4988000000 1.4378000000 1.2966000000
3.4978000000 1.9032000000 1.4524000000
3.4952000000 3.3694000000 2.1134000000
3.2620000000 5.4590000000 1.6807000000
3.2609000000 2.7472000000 2.0160000000
3.2608000000 1.7553000000 1.6021000000
3.2599000000 3.6627000000 2.4254000000
3.2597000000 6.8617000000 0.5074000000
3.2593000000 6.3874000000 0.9368000000
3.2588000000 4.2323000000 2.2459000000
3.2587000000 1.5807000000 1.3800000000
3.2585000000 7.2636000000 0.1452000000
3.2582000000 2.9727000000 2.1214000000
3.2579000000 1.4862000000 1.3009000000
3.2578000000 4.0116000000 2.3337000000
3.2573000000 5.4884000000 1.6753000000
3.2573000000 5.4628000000 1.6935000000
3.2571000000 3.2138000000 2.2275000000
3.2569000000 6.5615000000 0.7773000000
3.2565000000 6.5792000000 0.7618000000
3.2563000000 5.7976000000 1.4593000000
3.2560000000 4.7880000000 1.9939000000
3.2558000000 0.0306000000 0.0638000000
3.2556000000 2.5337000000 1.9290000000
3.2554000000 1.5672000000 1.3755000000
3.2553000000 6.3008000000 1.0147000000
3.2550000000 2.8492000000 2.0654000000
3.2549000000 3.8150000000 2.4312000000
3.2548000000 0.4633000000 0.3809000000
3.2546000000 0.9857000000 0.8452000000
3.2545000000 4.7907000000 1.9974000000
3.2542000000 6.1696000000 1.1363000000
3.2540000000 2.7757000000 2.0379000000
3.2539000000 3.4179000000 2.3277000000
3.2536000000 5.1554000000 1.8251000000
3.2534000000 3.4593000000 2.3446000000
3.2531000000 6.0332000000 1.2543000000
3.2530000000 2.1706000000 1.7636000000
3.2528000000 5.5706000000 1.6271000000
3.2526000000 3.9126000000 2.3915000000
3.2525000000 3.7292000000 2.5312000000
3.2524000000 5.9098000000 1.3658000000
3.2521000000 6.5429000000 0.7972000000
3.2520000000 2.8833000000 2.0883000000
3.2519000000 7.2490000000 0.1604000000
3.2517000000 5.8367000000 1.4295000000
3.2516000000 1.1973000000 1.0401000000
3.2515000000 1.7776000000 1.6262000000
3.2513000000 5.6133000000 1.6065000000
3.2509000000 1.1305000000 0.9779000000
3.2507000000 6.0199000000 1.2636000000
3.2505000000 6.6194000000 0.7255000000
3.2503000000 1.5755000000 1.3802000000
3.2500000000 4.9411000000 1.9210000000
3.2496000000 2.7318000000 2.0180000000
3.2477000000 3.8768000000 2.4083000000
3.2465000000 1.0548000000 0.9085000000
3.2463000000 0.2618000000 0.1936000000
3.2427000000 0.6644000000 0.5572000000
3.0133000000 6.0174000000 1.2653000000
3.0122000000 6.7572000000 0.6002000000
3.0113000000 6.9041000000 0.4751000000
3.0109000000 6.1445000000 1.1556000000
3.0103000000 7.2150000000 0.1950000000
3.0101000000 6.5883000000 0.7548000000
3.0096000000 4.9052000000 2.1338000000
3.0093000000 5.1338000000 2.0954000000
3.0091000000 2.5738000000 2.1348000000
3.0085000000 5.0647000000 2.0589000000
3.0085000000 4.7127000000 2.2183000000
3.0084000000 2.0766000000 1.8256000000
3.0083000000 5.1301000000 2.0924000000
3.0079000000 0.1426000000 0.0844000000
3.0075000000 1.1949000000 1.0399000000
3.0073000000 7.3798000000 0.1125000000
3.0071000000 4.3320000000 2.3937000000
3.0070000000 7.3251000000 0.0930000000
3.0068000000 6.6108000000 0.7317000000
3.0067000000 3.7726000000 2.7010000000
3.0066000000 3.4504000000 2.5354000000
3.0065000000 0.3810000000 0.3031000000
3.0063000000 7.2884000000 0.1200000000
3.0062000000 6.3070000000 1.0098000000
3.0058000000 5.2030000000 1.9873000000
3.0055000000 0.2030000000 0.1408000000
3.0053000000 1.2309000000 1.0684000000
3.0053000000 0.8450000000 0.7189000000
3.0051000000 6.8681000000 0.5042000000
3.0049000000 7.4086000000 0.0900000000
3.0048000000 5.9905000000 1.2938000000
3.0046000000 3.9285000000 2.5753000000
3.0044000000 6.0413000000 1.2471000000
3.0043000000 2.4135000000 2.0661000000
3.0041000000 2.6969000000 2.1944000000
3.0040000000 1.0208000000 0.8755000000
3.0038000000 3.8720000000 2.6072000000
3.0037000000 0.9236000000 0.7895000000
3.0034000000 4.6278000000 2.2629000000
3.0033000000 6.0593000000 1.2282000000
3.0033000000 6.0248000000 1.2611000000
3.0031000000 2.9466000000 2.3088000000
3.0028000000 2.4114000000 2.0659000000
3.0027000000 1.7639000000 1.5527000000
3.0024000000 6.0497000000 1.2374000000
3.0022000000 0.1123000000 0.1367000000
3.0021000000 6.6625000000 0.6892000000
3.0018000000 7.1245000000 0.2749000000
3.0017000000 0.9424000000 0.8051000000
3.0016000000 2.3429000000 2.0957000000
3.0010000000 4.7990000000 2.1839000000
3.0008000000 0.5755000000 0.4787000000
3.0008000000 4.9559000000 2.1096000000
3.0003000000 1.8826000000 1.6565000000
3.0000000000 1.0861000000 0.9355000000
2.9990000000 4.1425000000 2.4827000000
2.9980000000 1.5727000000 1.3694000000
2.9973000000 1.1248000000 0.9788000000
2.9964000000 0.2566000000 0.1902000000
2.9950000000 1.2321000000 1.0665000000
2.7618000000 5.2093000000 1.9939000000
2.7601000000 5.2684000000 1.9503000000
2.7593000000 4.2633000000 2.6073000000
2.7591000000 0.8343000000 0.7135000000
2.7584000000 0.9271000000 0.7961000000
2.7581000000 2.5461000000 2.2544000000
2.7579000000 6.7212000000 0.6356000000
2.7578000000 6.7849000000 0.5787000000
2.7576000000 7.2442000000 0.1626000000
2.7574000000 5.2726000000 1.9393000000
2.7573000000 4.2305000000 2.6305000000
2.7569000000 2.4201000000 2.1411000000
2.7566000000 6.6899000000 0.6627000000
2.7565000000 6.7394000000 0.6191000000
2.7563000000 5.8664000000 1.4043000000
2.7562000000 7.4993000000 0.0763000000
2.7559000000 5.7394000000 1.5193000000
2.7556000000 3.6042000000 2.7963000000
2.7554000000 0.1859000000 0.1260000000
2.7553000000 6.4082000000 0.9192000000
2.7550000000 4.1594000000 2.6677000000
2.7548000000 7.1995000000 0.2074000000
2.7546000000 3.2110000000 2.6270000000
2.7545000000 2.1951000000 1.9366000000
2.7542000000 5.4848000000 1.7445000000
2.7539000000 6.3939000000 0.9305000000
2.7537000000 2.9513000000 2.5058000000
2.7536000000 1.5268000000 1.3330000000
2.7535000000 6.3975000000 0.9266000000
2.7534000000 1.9600000000 1.7265000000
2.7532000000 1.6794000000 1.4710000000
2.7530000000 4.9667000000 2.2175000000
2.7528000000 4.3770000000 2.5689000000
2.7521000000 1.2851000000 1.1191000000
2.7518000000 0.2234000000 0.1566000000
2.7516000000 3.7790000000 2.8253000000
2.7513000000 4.3340000000 2.5916000000
2.7510000000 3.3024000000 2.6667000000
2.7510000000 0.4558000000 0.3746000000
2.7507000000 1.1687000000 1.0103000000
2.7505000000 2.9818000000 2.5234000000
2.7503000000 2.2735000000 2.0075000000
2.7501000000 2.9721000000 2.5200000000
2.7498000000 3.8249000000 2.8193000000
2.7497000000 2.3187000000 2.0525000000
2.7494000000 0.7504000000 0.6350000000
2.7492000000 0.8529000000 0.7252000000
2.7483000000 3.7161000000 2.9183000000
2.7475000000 0.8935000000 0.7639000000
2.7451000000 4.0662000000 2.7149000000
2.5144000000 2.4196000000 2.1367000000
2.5116000000 0.7666000000 0.6498000000
2.5110000000 2.3124000000 2.0353000000
2.5102000000 6.8830000000 0.4904000000
2.5093000000 7.0614000000 0.3246000000
2.5088000000 5.1123000000 2.0830000000
2.5080000000 6.1723000000 1.1312000000
2.5076000000 3.0403000000 2.7585000000
2.5075000000 5.6070000000 1.6364000000
2.5072000000 4.3288000000 2.8446000000
2.5071000000 3.3920000000 2.8961000000
2.5069000000 6.7611000000 0.5981000000
2.5065000000 1.7168000000 1.5049000000
2.5063000000 5.4341000000 1.7936000000
2.5060000000 4.2009000000 2.8447000000
2.5058000000 6.2933000000 1.0264000000
2.5055000000 4.2777000000 2.8636000000
2.5053000000 7.3981000000 0.0989000000
2.5052000000 6.3155000000 1.0077000000
2.5050000000 6.9373000000 0.4390000000
2.5049000000 5.8216000000 1.4473000000
2.5048000000 4.8271000000 2.3430000000
2.5047000000 7.2670000000 0.1432000000
2.5046000000 0.2005000000 0.1379000000
2.5044000000 1.0764000000 0.9289000000
2.5042000000 3.2186000000 2.8851000000
2.5039000000 4.9165000000 2.2604000000
2.5038000000 6.4512000000 0.8730000000
2.5036000000 4.2239000000 2.8276000000
2.5035000000 5.0012000000 2.1847000000
2.5032000000 4.5554000000 2.5895000000
2.5030000000 6.3792000000 0.9450000000
2.5030000000 0.3829000000 0.3036000000
2.5028000000 5.5698000000 1.6741000000
2.5027000000 0.5624000000 0.4689000000
2.5024000000 3.1073000000 2.8222000000
2.5023000000 4.2051000000 2.8422000000
2.5020000000 1.1438000000 0.9921000000
2.5020000000 3.0100000000 2.6718000000
2.5018000000 6.1416000000 1.1678000000
2.5017000000 2.1849000000 1.9290000000
2.5014000000 3.6126000000 2.9998000000
2.5013000000 3.4917000000 2.9403000000
2.5012000000 0.8855000000 0.7526000000
2.5010000000 5.2977000000 1.9165000000
2.5008000000 4.4967000000 2.6392000000
2.5005000000 6.8819000000 0.4943000000
2.5004000000 6.8977000000 0.4760000000
2.5003000000 0.1218000000 0.0685000000
2.4998000000 0.1291000000 0.0742000000
2.4993000000 3.9151000000 2.9746000000
2.4990000000 2.9338000000 2.6050000000
2.4987000000 4.0978000000 2.8902000000
2.4980000000 0.8612000000 0.7334000000
2.4970000000 1.4769000000 1.2947000000
2.4943000000 0.7529000000 0.6353000000
2.2627000000 7.3883000000 0.1039000000
2.2615000000 6.1980000000 1.1016000000
2.2613000000 6.2597000000 1.0464000000
2.2610000000 3.5863000000 3.2381000000
2.2606000000 2.9057000000 2.5787000000
2.2602000000 5.4498000000 1.7781000000
2.2595000000 2.6626000000 2.3607000000
2.2588000000 3.6555000000 3.1999000000
2.2585000000 5.5609000000 1.6806000000
2.2582000000 2.6945000000 2.3868000000
2.2579000000 5.2745000000 1.9365000000
2.2576000000 5.2168000000 1.9869000000
2.2574000000 3.4647000000 3.1438000000
2.2568000000 1.0782000000 0.9271000000
2.2565000000 4.5915000000 2.5520000000
2.2562000000 5.9164000000 1.3600000000
2.2560000000 5.8902000000 1.3827000000
2.2559000000 2.8015000000 2.4840000000
2.2558000000 4.9250000000 2.2480000000
2.2555000000 4.1239000000 2.9774000000
2.2552000000 0.7636000000 0.6427000000
2.2551000000 4.7321000000 2.4313000000
2.2550000000 1.3625000000 1.1876000000
2.2548000000 2.3800000000 2.1081000000
2.2547000000 3.6127000000 3.2575000000
2.2544000000 0.7338000000 0.6158000000
2.2542000000 0.4867000000 0.3987000000
2.2541000000 4.4425000000 2.6914000000
2.2539000000 6.9616000000 0.4172000000
2.2538000000 3.0505000000 2.7026000000
2.2537000000 3.4496000000 3.0652000000
2.2536000000 0.7547000000 0.6320000000
2.2533000000 3.1117000000 2.7623000000
2.2531000000 3.2972000000 2.9366000000
2.2529000000 1.4224000000 1.2421000000
2.2526000000 2.2496000000 1.9844000000
2.2525000000 2.9229000000 2.5883000000
2.2520000000 6.4922000000 0.8437000000
2.2520000000 5.2453000000 1.9681000000
2.2517000000 2.7933000000 2.4716000000
2.2516000000 3.6440000000 3.2646000000
2.2514000000 6.0172000000 1.2676000000
2.2511000000 0.0157000000 0.0476000000
2.2510000000 2.3740000000 2.0986000000
2.2507000000 1.0364000000 0.8895000000
2.2505000000 0.6712000000 0.5640000000
2.2503000000 3.6647000000 3.2093000000
2.2501000000 2.0365000000 1.7979000000
2.2498000000 0.7096000000 0.5919000000
2.2496000000 2.0226000000 1.7835000000
2.2495000000 2.1364000000 1.8904000000
2.2489000000 0.6456000000 0.5402000000
2.2484000000 0.8663000000 0.7366000000
2.2476000000 4.7002000000 2.4567000000
2.2471000000 4.5370000000 2.5999000000
2.2461000000 2.9503000000 2.6121000000
2.2448000000 5.2625000000 1.9535000000
2.0105000000 5.6063000000 1.6435000000
2.0098000000 6.6817000000 0.6697000000
2.0095000000 7.2260000000 0.1758000000
2.0093000000 7.4938000000 0.0109000000
2.0088000000 3.4257000000 3.1045000000
2.0082000000 5.1483000000 2.0451000000
2.0078000000 6.2391000000 1.0677000000
2.0077000000 5.5848000000 1.6604000000
2.0073000000 6.6809000000 0.6707000000
2.0071000000 6.3027000000 1.0067000000
2.0070000000 1.0258000000 0.8872000000
2.0069000000 4.7709000000 2.3974000000
2.0068000000 3.2758000000 2.9101000000
2.0066000000 5.6926000000 1.5612000000
2.0065000000 1.8864000000 1.6594000000
2.0060000000 6.5993000000 0.7484000000
2.0060000000 2.2886000000 2.0190000000
2.0059000000 4.0366000000 3.1166000000
2.0058000000 4.3334000000 2.7874000000
2.0053000000 1.3929000000 1.2089000000
2.0053000000 1.3485000000 1.1711000000
2.0050000000 5.2093000000 1.9960000000
2.0048000000 5.5733000000 1.6664000000
2.0046000000 3.7194000000 3.2576000000
2.0045000000 1.0159000000 0.8692000000
2.0043000000 7.2217000000 0.1851000000
2.0040000000 2.1064000000 1.8559000000
2.0037000000 2.6536000000 2.3518000000
2.0036000000 2.2954000000 2.0260000000
2.0035000000 6.8161000000 0.5509000000
2.0033000000 4.1330000000 2.9721000000
2.0029000000 6.0834000000 1.2076000000
2.0027000000 6.8362000000 0.5288000000
2.0027000000 2.9083000000 2.5770000000
2.0025000000 1.0887000000 0.9368000000
2.0023000000 0.4668000000 0.3756000000
2.0022000000 4.2228000000 2.8885000000
2.0020000000 5.1532000000 2.0500000000
2.0016000000 2.4789000000 2.1913000000
2.0015000000 7.5056000000 0.0750000000
2.0013000000 2.9203000000 2.5947000000
2.0012000000 1.1569000000 1.0027000000
2.0011000000 0.9565000000 0.8186000000
2.0010000000 4.8839000000 2.2887000000
2.0009000000 2.1722000000 1.9160000000
2.0007000000 2.5617000000 2.2640000000
2.0005000000 1.1300000000 0.9756000000
1.9998000000 3.4641000000 3.1417000000
1.9996000000 6.3570000000 0.9617000000
1.9994000000 0.8184000000 0.6978000000
1.9992000000 3.1279000000 2.7780000000
1.9988000000 1.0928000000 0.9457000000
1.9984000000 5.5470000000 1.6939000000
1.9973000000 3.5432000000 3.1767000000
1.9957000000 0.7185000000 0.6072000000
1.7653000000 5.9409000000 1.3372000000
1.7636000000 5.8861000000 1.3868000000
1.7623000000 7.2109000000 0.1905000000
1.7614000000 7.0465000000 0.3389000000
1.7600000000 6.7423000000 0.6164000000
1.7594000000 4.1145000000 2.8443000000
1.7593000000 7.0640000000 0.3245000000
1.7592000000 5.6415000000 1.6097000000
1.7590000000 2.2558000000 1.9919000000
1.7588000000 3.3243000000 2.8343000000
1.7584000000 0.6582000000 0.5494000000
1.7580000000 2.7351000000 2.4170000000
1.7582000000 2.5250000000 2.2316000000
1.7578000000 6.5978000000 0.7412000000
1.7575000000 4.5275000000 2.6050000000
1.7573000000 2.3322000000 2.0657000000
1.7571000000 2.9108000000 2.5783000000
1.7567000000 6.1100000000 1.1896000000
1.7566000000 6.6919000000 0.6622000000
1.7565000000 6.6133000000 0.7334000000
1.7563000000 4.9527000000 2.2279000000
1.7562000000 5.5773000000 1.6610000000
1.7560000000 4.6983000000 2.4547000000
1.7559000000 2.0843000000 1.8402000000
1.7558000000 2.0304000000 1.7914000000
1.7556000000 6.4310000000 0.8961000000
1.7553000000 6.2320000000 1.0742000000
1.7549000000 3.6435000000 2.9733000000
1.7545000000 5.3305000000 1.8908000000
1.7545000000 4.6210000000 2.5247000000
1.7543000000 5.8093000000 1.4480000000
1.7540000000 1.6098000000 1.4047000000
1.7538000000 4.9686000000 2.2123000000
1.7537000000 1.8120000000 1.5941000000
1.7535000000 0.1452000000 0.0885000000
1.7533000000 6.6066000000 0.7348000000
1.7533000000 3.6119000000 2.9557000000
1.7531000000 0.3280000000 0.2602000000
1.7530000000 6.2936000000 1.0251000000
1.7525000000 0.7337000000 0.6209000000
1.7524000000 6.4418000000 0.8917000000
1.7520000000 3.6960000000 3.0573000000
1.7518000000 4.2492000000 2.7826000000
1.7515000000 2.5048000000 2.2179000000
1.7513000000 0.2459000000 0.1815000000
1.7511000000 0.4630000000 0.3750000000
1.7510000000 6.4911000000 0.8424000000
1.7509000000 2.3412000000 2.0692000000
1.7508000000 0.8693000000 0.7377000000
1.7505000000 3.7613000000 3.0571000000
1.7504000000 0.7760000000 0.6554000000
1.7498000000 1.5343000000 1.3441000000
1.7495000000 3.9593000000 2.9091000000
1.7490000000 3.7401000000 3.0717000000
1.7488000000 4.5106000000 2.6838000000
1.7483000000 5.5555000000 1.6845000000
1.7477000000 0.2582000000 0.1944000000
1.7471000000 2.5484000000 2.2511000000
1.7467000000 4.8056000000 2.3604000000
1.7453000000 0.0978000000 0.1218000000
1.7416000000 2.5556000000 2.2599000000
1.5120000000 6.2107000000 1.0948000000
1.5095000000 0.0356000000 0.0649000000
1.5093000000 6.5197000000 0.8154000000
1.5092000000 3.2349000000 2.6000000000
1.5086000000 4.5563000000 2.4571000000
1.5083000000 4.8130000000 2.3964000000
1.5078000000 6.2228000000 1.0854000000
1.5075000000 7.0557000000 0.3359000000
1.5073000000 3.1789000000 2.5621000000
1.5069000000 1.5630000000 1.3708000000
1.5068000000 6.4794000000 0.8479000000
1.5063000000 6.2908000000 1.0276000000
1.5061000000 7.0683000000 0.3187000000
1.5059000000 1.3755000000 1.1951000000
1.5058000000 4.2452000000 2.5839000000
1.5056000000 4.8557000000 2.3753000000
1.5055000000 1.8650000000 1.6365000000
1.5054000000 6.2582000000 1.0479000000
1.5052000000 7.2509000000 0.1568000000
1.5050000000 1.3172000000 1.1490000000
1.5049000000 2.4870000000 2.2058000000
1.5048000000 5.6663000000 1.5818000000
1.5045000000 5.0936000000 2.1012000000
1.5044000000 3.9459000000 2.7152000000
1.5043000000 2.9477000000 2.4637000000
1.5042000000 6.8344000000 0.5320000000
1.5040000000 3.5996000000 2.7635000000
1.5039000000 0.0098000000 0.0424000000
1.5036000000 4.6343000000 2.4149000000
1.5034000000 4.3059000000 2.5623000000
1.5028000000 1.8544000000 1.6327000000
1.5027000000 1.6392000000 1.4340000000
1.5025000000 2.0092000000 1.7685000000
1.5020000000 6.8750000000 0.5001000000
1.5018000000 3.5895000000 2.7535000000
1.5017000000 0.1127000000 0.1303000000
1.5014000000 2.4166000000 2.1359000000
1.5013000000 0.8340000000 0.7078000000
1.5013000000 1.2921000000 1.1186000000
1.5011000000 4.8212000000 2.3866000000
1.5008000000 2.9098000000 2.4388000000
1.5003000000 6.8748000000 0.4958000000
1.5002000000 1.3128000000 1.1433000000
1.4998000000 0.4566000000 0.3746000000
1.4993000000 3.3225000000 2.6280000000
1.4990000000 3.7903000000 2.7828000000
1.4986000000 0.8217000000 0.7009000000
1.4980000000 0.1976000000 0.1380000000
1.4967000000 0.7488000000 0.6374000000
1.2629000000 6.0683000000 1.2263000000
1.2597000000 3.5890000000 2.5613000000
1.2589000000 4.9362000000 2.0820000000
1.2585000000 4.5091000000 2.2789000000
1.2577000000 6.4156000000 0.9093000000
1.2579000000 3.3716000000 2.4584000000
1.2567000000 0.3973000000 0.3207000000
1.2566000000 1.5304000000 1.3370000000
1.2563000000 2.5159000000 2.0710000000
1.2562000000 7.2623000000 0.1453000000
1.2560000000 1.1950000000 1.0351000000
1.2558000000 6.0553000000 1.2394000000
1.2554000000 1.4530000000 1.2666000000
1.2551000000 3.4207000000 2.4770000000
1.2549000000 4.6321000000 2.2253000000
1.2548000000 1.1579000000 1.0021000000
1.2546000000 5.9232000000 1.3501000000
1.2545000000 4.0116000000 2.4922000000
1.2543000000 0.6847000000 0.5770000000
1.2541000000 3.6847000000 2.5985000000
1.2540000000 6.5738000000 0.7718000000
1.2539000000 1.3845000000 1.2086000000
1.2537000000 4.6360000000 2.2141000000
1.2536000000 3.6000000000 2.5598000000
1.2534000000 3.8257000000 2.5782000000
1.2530000000 3.5979000000 2.5627000000
1.2528000000 5.3055000000 1.8940000000
1.2526000000 6.8812000000 0.4918000000
1.2525000000 0.6437000000 0.5415000000
1.2523000000 0.5204000000 0.4270000000
1.2523000000 7.4362000000 0.0648000000
1.2522000000 4.5328000000 2.2572000000
1.2520000000 2.3353000000 1.9899000000
1.2516000000 0.1543000000 0.0995000000
1.2514000000 4.6717000000 2.1953000000
1.2513000000 5.4596000000 1.7747000000
1.2510000000 2.8306000000 2.2137000000
1.2505000000 0.3859000000 0.3094000000
1.2500000000 3.9473000000 2.5231000000
1.2498000000 1.4543000000 1.2703000000
1.2493000000 6.1969000000 1.1045000000
1.2489000000 3.3791000000 2.4616000000
1.2488000000 3.0595000000 2.3130000000
1.2481000000 0.2675000000 0.1975000000
1.2480000000 1.7336000000 1.5237000000
1.2457000000 0.9457000000 0.8108000000
1.2444000000 1.0498000000 0.9021000000
1.0113000000 7.3962000000 0.0956000000
1.0103000000 5.2112000000 1.7720000000
1.0096000000 3.5625000000 2.3528000000
1.0095000000 7.3796000000 0.1210000000
1.0094000000 3.0649000000 2.1266000000
1.0089000000 3.0007000000 2.1005000000
1.0084000000 5.1516000000 1.7918000000
1.0082000000 4.6672000000 2.0094000000
1.0077000000 0.3829000000 0.3059000000
1.0076000000 5.4046000000 1.6787000000
1.0073000000 1.7223000000 1.5675000000
1.0070000000 1.9932000000 1.6430000000
1.0067000000 5.0871000000 1.8180000000
1.0068000000 4.5601000000 2.0550000000
1.0062000000 1.4931000000 1.3027000000
1.0061000000 3.5061000000 2.3180000000
1.0060000000 1.6098000000 1.4067000000
1.0057000000 5.9833000000 1.2992000000
1.0056000000 2.6954000000 1.9598000000
1.0055000000 6.1285000000 1.1640000000
1.0053000000 2.8616000000 2.0370000000
1.0048000000 3.0047000000 2.1027000000
1.0045000000 5.3273000000 1.7101000000
1.0042000000 2.8940000000 2.0524000000
1.0040000000 7.2521000000 0.1539000000
1.0039000000 2.9219000000 2.0578000000
1.0038000000 7.4157000000 0.0803000000
1.0037000000 4.5427000000 2.0628000000
1.0035000000 5.7261000000 1.5826000000
1.0034000000 3.8352000000 2.3820000000
1.0032000000 2.7250000000 1.9712000000
1.0031000000 4.0343000000 2.2957000000
1.0030000000 1.0355000000 0.8846000000
1.0029000000 4.7741000000 1.9626000000
1.0027000000 1.4277000000 1.2440000000
1.0028000000 3.1911000000 2.1826000000
1.0025000000 5.3164000000 1.7133000000
1.0023000000 5.1233000000 1.8003000000
1.0022000000 1.5395000000 1.3469000000
1.0020000000 3.4768000000 2.3082000000
1.0018000000 4.3967000000 2.1201000000
1.0015000000 3.6609000000 2.3923000000
1.0010000000 4.4460000000 2.1059000000
1.0008000000 0.2627000000 0.1905000000
1.0005000000 2.2557000000 1.7540000000
1.0003000000 7.3146000000 0.0988000000
1.0000000000 1.1515000000 0.9928000000
0.9999000000 4.9145000000 1.8918000000
0.9997000000 0.4284000000 0.3440000000
0.9995000000 5.2193000000 1.7485000000
0.9992000000 6.1007000000 1.1947000000
0.9989000000 5.3952000000 1.6725000000
0.9986000000 3.2048000000 2.1774000000
0.9978000000 7.4565000000 0.0438000000
0.9968000000 3.4548000000 2.2940000000
0.9965000000 2.3010000000 1.7770000000
0.7655000000 7.2654000000 0.1417000000
0.7626000000 7.1442000000 0.2561000000
0.7607000000 2.9102000000 1.8644000000
0.7603000000 3.0365000000 1.9200000000
0.7597000000 1.4836000000 1.2277000000
0.7593000000 1.6398000000 1.2865000000
0.7585000000 6.2113000000 1.0757000000
0.7583000000 2.6271000000 1.7354000000
0.7580000000 2.4309000000 1.6466000000
0.7575000000 2.1256000000 1.5085000000
0.7572000000 6.4158000000 0.9119000000
0.7570000000 0.6641000000 0.5585000000
0.7567000000 1.7353000000 1.3322000000
0.7565000000 2.6308000000 1.7366000000
0.7563000000 3.4481000000 2.1021000000
0.7562000000 6.3291000000 0.9944000000
0.7557000000 7.4567000000 0.0416000000
0.7555000000 2.9001000000 1.8517000000
0.7550000000 2.6761000000 1.7525000000
0.7550000000 5.9936000000 1.2174000000
0.7547000000 3.5563000000 2.1538000000
0.7545000000 5.1164000000 1.6117000000
0.7543000000 0.4358000000 0.3523000000
0.7541000000 4.9609000000 1.6777000000
0.7540000000 5.3867000000 1.4861000000
0.7539000000 3.2631000000 2.0222000000
0.7538000000 2.2114000000 1.5425000000
0.7537000000 1.2119000000 1.0427000000
0.7536000000 1.4458000000 1.2042000000
0.7535000000 1.6904000000 1.3052000000
0.7534000000 3.8149000000 2.2000000000
0.7533000000 3.3530000000 2.0576000000
0.7532000000 0.8527000000 0.7272000000
0.7527000000 5.2016000000 1.5724000000
0.7526000000 0.0960000000 0.1222000000
0.7524000000 1.5382000000 1.2407000000
0.7522000000 1.5399000000 1.2459000000
0.7519000000 3.3958000000 2.0795000000
0.7517000000 3.4085000000 2.0781000000
0.7516000000 6.8458000000 0.5290000000
0.7515000000 0.7028000000 0.5922000000
0.7514000000 0.4846000000 0.3956000000
0.7511000000 6.6252000000 0.7265000000
0.7506000000 2.2322000000 1.5487000000
0.7505000000 0.9465000000 0.8092000000
0.7504000000 0.7535000000 0.6376000000
0.7502000000 1.3821000000 1.2292000000
0.7500000000 3.0530000000 1.9240000000
0.7481000000 5.9771000000 1.2160000000
0.7477000000 3.7662000000 2.2683000000
0.7459000000 4.6153000000 1.8328000000
0.7443000000 0.0007000000 0.0392000000
0.5148000000 6.4471000000 0.8240000000
0.5115000000 6.1445000000 0.9636000000
0.5094000000 6.8155000000 0.5506000000
0.5089000000 6.3335000000 0.8661000000
0.5087000000 2.7974000000 1.6217000000
0.5079000000 4.8755000000 1.5242000000
0.5077000000 5.9460000000 1.0389000000
0.5074000000 4.4597000000 1.7162000000
0.5073000000 5.1012000000 1.4192000000
0.5070000000 6.1939000000 0.9308000000
0.5066000000 2.8062000000 1.6183000000
0.5065000000 7.5055000000 0.0772000000
0.5062000000 6.2178000000 0.9232000000
0.5056000000 0.6684000000 0.5615000000
0.5055000000 4.3108000000 1.7789000000
0.5053000000 5.3620000000 1.3068000000
0.5052000000 1.7057000000 1.1191000000
0.5051000000 3.2977000000 1.8381000000
0.5050000000 2.7102000000 1.5755000000
0.5050000000 1.7981000000 1.1624000000
0.5048000000 4.6096000000 1.6378000000
0.5046000000 4.8195000000 1.5477000000
0.5045000000 2.2009000000 1.3450000000
0.5043000000 3.1686000000 1.7815000000
0.5042000000 6.1672000000 0.9423000000
0.5040000000 5.4580000000 1.2632000000
0.5039000000 6.0178000000 1.0095000000
0.5036000000 5.7159000000 1.1446000000
0.5035000000 2.0869000000 1.2971000000
0.5032000000 7.4098000000 0.0889000000
0.5030000000 6.7191000000 0.6371000000
0.5029000000 6.6419000000 0.6961000000
0.5028000000 0.1391000000 0.0803000000
0.5026000000 6.9297000000 0.4454000000
0.5024000000 2.6626000000 1.5439000000
0.5019000000 5.2468000000 1.3463000000
0.5018000000 4.5634000000 1.6571000000
0.5017000000 3.2696000000 1.8274000000
0.5011000000 0.7433000000 0.6269000000
0.5007000000 1.9608000000 1.2305000000
0.5005000000 6.5519000000 0.8162000000
0.5001000000 0.7387000000 0.6247000000
0.4997000000 0.8964000000 0.8092000000
0.4994000000 1.9986000000 1.2491000000
0.4989000000 4.6831000000 1.6051000000
0.4983000000 4.7726000000 1.5630000000
0.4950000000 1.0829000000 0.8311000000
0.2618000000 3.0327000000 1.5313000000
0.2598000000 7.1672000000 0.2331000000
0.2595000000 3.9119000000 1.7673000000
0.2591000000 6.3919000000 0.6479000000
0.2584000000 6.7092000000 0.5056000000
0.2579000000 4.5742000000 1.4693000000
0.2577000000 5.0995000000 1.2319000000
0.2575000000 5.5166000000 1.0345000000
0.2573000000 6.7090000000 0.5001000000
0.2569000000 2.3151000000 1.2007000000
0.2568000000 4.2920000000 1.5901000000
0.2567000000 6.1776000000 0.7411000000
0.2562000000 6.7768000000 0.4730000000
0.2559000000 3.7062000000 1.8920000000
0.2556000000 1.5284000000 0.8505000000
0.2554000000 1.0608000000 0.6355000000
0.2553000000 3.9176000000 1.7586000000
0.2552000000 5.4640000000 1.0594000000
0.2549000000 1.1723000000 0.6811000000
0.2546000000 2.8272000000 1.4244000000
0.2545000000 1.8188000000 0.9755000000
0.2544000000 4.0574000000 1.7005000000
0.2541000000 6.2752000000 0.6986000000
0.2540000000 4.9767000000 1.2817000000
0.2539000000 5.7311000000 0.9398000000
0.2537000000 0.3298000000 0.2514000000
0.2536000000 5.5917000000 0.9985000000
0.2534000000 0.0517000000 0.0766000000
0.2533000000 4.5501000000 1.4724000000
0.2532000000 4.2395000000 1.6095000000
0.2530000000 3.1807000000 1.5859000000
0.2529000000 3.4305000000 1.7047000000
0.2527000000 2.8782000000 1.4579000000
0.2525000000 0.5469000000 0.3963000000
0.2523000000 3.9992000000 1.7134000000
0.2522000000 2.9257000000 1.4779000000
0.2521000000 5.1693000000 1.1906000000
0.2520000000 7.1644000000 0.2316000000
0.2518000000 1.5431000000 0.8554000000
0.2516000000 2.5373000000 1.2956000000
0.2515000000 2.1369000000 1.1175000000
0.2514000000 1.6358000000 0.8922000000
0.2513000000 1.8318000000 0.9822000000
0.2511000000 2.4304000000 1.2495000000
0.2509000000 7.1874000000 0.2101000000
0.2508000000 0.7322000000 0.4829000000
0.2505000000 7.0815000000 0.2916000000
0.2503000000 0.4853000000 0.4407000000
0.2501000000 3.6007000000 1.7810000000
0.2498000000 3.3337000000 1.6545000000
0.2497000000 1.3794000000 0.7736000000
0.2496000000 3.3663000000 1.6685000000
0.2493000000 2.1484000000 1.1267000000
0.2491000000 2.8721000000 1.4445000000
0.2490000000 5.5469000000 1.0172000000
0.2485000000 3.7611000000 1.8865000000
0.2480000000 1.9057000000 1.0173000000
0.2477000000 5.8300000000 0.8925000000
0.2467000000 1.9937000000 1.0538000000
0.2455000000 1.9844000000 1.0486000000
0.2448000000 2.6253000000 1.3323000000
0.0154000000 5.7949000000 0.7227000000
0.0143000000 7.1191000000 0.1326000000
0.0133000000 2.5473000000 1.1178000000
0.0123000000 0.7246000000 0.2963000000
0.0112000000 7.2477000000 0.1478000000
0.0094000000 2.4780000000 1.0929000000
0.0089000000 4.9355000000 1.1081000000
0.0085000000 3.9520000000 1.5558000000
0.0078000000 0.8610000000 0.3566000000
0.0075000000 6.1677000000 0.5548000000
0.0073000000 6.3315000000 0.4746000000
0.0071000000 7.3831000000 0.0650000000
0.0067000000 2.4534000000 1.0712000000
0.0066000000 5.6657000000 0.7796000000
0.0065000000 4.0320000000 1.5168000000
0.0063000000 5.8618000000 0.6937000000
0.0062000000 6.8729000000 0.2320000000
0.0061000000 4.0513000000 1.5045000000
0.0059000000 1.8334000000 0.7892000000
0.0058000000 1.7412000000 0.7499000000
0.0056000000 2.9279000000 1.2858000000
0.0055000000 5.2378000000 0.9703000000
0.0048000000 0.4707000000 0.1786000000
0.0046000000 0.6579000000 0.2548000000
0.0045000000 5.9485000000 0.6517000000
0.0043000000 5.2722000000 0.9539000000
0.0040000000 2.2228000000 0.9620000000
0.0039000000 1.0025000000 0.4130000000
0.0036000000 2.5488000000 1.1105000000
0.0033000000 1.5236000000 0.6480000000
0.0030000000 0.1266000000 0.0968000000
0.0029000000 0.4110000000 0.1496000000
0.0028000000 3.3848000000 1.4854000000
0.0027000000 5.5584000000 0.8197000000
0.0025000000 4.1691000000 1.4529000000
0.0024000000 2.5429000000 1.1039000000
0.0022000000 2.3038000000 0.9922000000
0.0021000000 0.5863000000 0.2274000000
0.0017000000 3.5744000000 1.5796000000
0.0016000000 3.5171000000 1.5482000000
0.0015000000 0.5071000000 0.1861000000
0.0013000000 0.9264000000 0.3739000000
0.0011000000 1.1648000000 0.4812000000
0.0006000000 4.0473000000 1.4985000000
0.0001000000 6.1368000000 0.5587000000
0.0000000000 2.9555000000 1.2898000000
-0.0001000000 6.8987000000 0.2154000000
-0.0005000000 7.0024000000 0.1705000000
-0.0007000000 5.0212000000 1.0603000000
-0.0008000000 0.4821000000 0.1782000000
-0.0017000000 1.2204000000 0.5096000000
-0.0022000000 0.1284000000 0.0875000000
-0.0023000000 4.9976000000 1.0747000000
-0.0025000000 2.5533000000 1.1110000000
-0.0080000000 0.8150000000 0.3215000000
-0.2393000000 5.2720000000 0.7642000000
-0.2400000000 5.9834000000 0.4425000000
-0.2404000000 4.5768000000 1.0743000000
-0.2411000000 0.6233000000 0.1289000000
-0.2413000000 2.2183000000 0.7698000000
-0.2416000000 5.7368000000 0.5535000000
-0.2425000000 3.3876000000 1.2912000000
-0.2429000000 2.6746000000 0.9730000000
-0.2434000000 5.1908000000 0.7947000000
-0.2435000000 6.5716000000 0.1744000000
-0.2437000000 7.1288000000 0.0717000000
-0.2437000000 5.7426000000 0.5484000000
-0.2439000000 4.4518000000 1.1277000000
-0.2441000000 3.4213000000 1.3112000000
-0.2443000000 6.8744000000 0.1047000000
-0.2444000000 4.1613000000 1.2591000000
-0.2447000000 6.1836000000 0.3471000000
-0.2450000000 6.9613000000 0.0717000000
-0.2451000000 7.0546000000 0.0262000000
-0.2452000000 0.2513000000 0.0318000000
-0.2452000000 1.7261000000 0.5387000000
-0.2454000000 1.7241000000 0.5479000000
-0.2457000000 0.9727000000 0.2046000000
-0.2458000000 2.8736000000 1.0646000000
-0.2459000000 4.6912000000 1.0212000000
-0.2462000000 1.2722000000 0.3431000000
-0.2464000000 5.2826000000 0.7527000000
-0.2465000000 2.1529000000 0.7384000000
-0.2466000000 6.5608000000 0.1735000000
-0.2467000000 4.5156000000 1.0980000000
-0.2469000000 4.1933000000 1.2488000000
-0.2472000000 3.8683000000 1.3865000000
-0.2473000000 2.4332000000 0.8618000000
-0.2475000000 7.0305000000 0.0375000000
-0.2477000000 1.7672000000 0.5602000000
-0.2480000000 6.4720000000 0.2103000000
-0.2481000000 6.2312000000 0.3247000000
-0.2482000000 7.2465000000 0.0166000000
-0.2492000000 3.2370000000 1.2237000000
-0.2493000000 2.5034000000 0.8979000000
-0.2496000000 2.2914000000 0.7942000000
-0.2502000000 0.7251000000 0.0944000000
-0.2505000000 3.9168000000 1.3654000000
-0.2506000000 1.3207000000 0.3569000000
-0.2507000000 3.5927000000 1.3845000000
-0.2509000000 1.0560000000 0.2371000000
-0.2520000000 0.3290000000 0.0630000000
-0.2526000000 6.4195000000 0.2352000000
-0.2536000000 2.8998000000 1.0734000000
-0.4871000000 6.5168000000 0.0858000000
-0.4885000000 6.7390000000 0.0562000000
-0.4913000000 6.8259000000 0.0172000000
-0.4916000000 6.4946000000 0.0901000000
-0.4925000000 2.3594000000 0.6374000000
-0.4930000000 4.8809000000 0.7394000000
-0.4932000000 3.3603000000 1.0841000000
-0.4934000000 5.3004000000 0.5546000000
-0.4936000000 4.6927000000 0.8279000000
-0.4938000000 6.1623000000 0.1634000000
-0.4941000000 1.1128000000 0.0709000000
-0.4942000000 2.1829000000 0.5645000000
-0.4946000000 4.1538000000 1.0624000000
-0.4947000000 4.5514000000 0.8841000000
-0.4948000000 4.3238000000 0.9937000000
-0.4952000000 2.6204000000 0.7583000000
-0.4953000000 1.4806000000 0.2380000000
-0.4955000000 4.5722000000 0.8789000000
-0.4958000000 6.3001000000 0.1029000000
-0.4959000000 6.6485000000 0.0137000000
-0.4960000000 5.9922000000 0.2372000000
-0.4962000000 4.6004000000 0.8648000000
-0.4964000000 0.6924000000 0.0343000000
-0.4965000000 5.8586000000 0.3012000000
-0.4971000000 1.7382000000 0.3516000000
-0.4973000000 3.8768000000 1.1904000000
-0.4975000000 4.0827000000 1.1005000000
-0.4976000000 1.0232000000 0.1082000000
-0.4980000000 0.8347000000 0.0159000000
-0.4982000000 1.2558000000 0.1377000000
-0.4985000000 2.7457000000 0.8051000000
-0.4989000000 3.0795000000 0.9546000000
-0.4993000000 3.2631000000 1.0393000000
-0.4994000000 1.5977000000 0.2907000000
-0.4995000000 3.1496000000 0.9890000000
-0.4998000000 3.1236000000 0.9791000000
-0.5003000000 5.3101000000 0.5371000000
-0.5005000000 3.4936000000 1.1440000000
-0.5018000000 1.3242000000 0.1628000000
-0.5028000000 1.7371000000 0.3456000000
-0.5036000000 5.3624000000 0.5115000000
-0.7355000000 4.1732000000 0.8725000000
-0.7395000000 1.7900000000 0.1891000000
-0.7404000000 1.7201000000 0.1546000000
-0.7412000000 5.0613000000 0.4706000000
-0.7423000000 1.5926000000 0.0968000000
-0.7428000000 4.6115000000 0.6658000000
-0.7432000000 1.2819000000 0.0257000000
-0.7435000000 5.7153000000 0.1692000000
-0.7438000000 4.3752000000 0.7750000000
-0.7443000000 4.9708000000 0.5090000000
-0.7445000000 3.5385000000 0.9740000000
-0.7448000000 2.3326000000 0.4271000000
-0.7452000000 4.6715000000 0.6380000000
-0.7455000000 6.2267000000 0.0101000000
-0.7457000000 3.2373000000 0.8361000000
-0.7460000000 4.1018000000 0.8965000000
-0.7461000000 4.5944000000 0.6696000000
-0.7467000000 3.5907000000 0.9916000000
-0.7470000000 5.4538000000 0.2817000000
-0.7470000000 5.1940000000 0.4004000000
-0.7472000000 4.5376000000 0.6943000000
-0.7473000000 3.6547000000 1.0194000000
-0.7477000000 1.4176000000 0.0904000000
-0.7479000000 4.0752000000 0.9096000000
-0.7484000000 3.0773000000 0.7590000000
-0.7486000000 1.6064000000 0.1026000000
-0.7490000000 1.5877000000 0.0822000000
-0.7493000000 3.9159000000 0.9753000000
-0.7495000000 2.1717000000 0.3460000000
-0.7497000000 4.9385000000 0.5132000000
-0.7500000000 1.9153000000 0.2358000000
-0.7507000000 1.6230000000 0.1058000000
-0.7545000000 1.6357000000 0.1112000000
-0.9896000000 4.7336000000 0.4206000000
-0.9905000000 5.6513000000 0.0840000000
-0.9907000000 3.9532000000 0.7794000000
-0.9909000000 3.4474000000 0.7385000000
-0.9914000000 5.8746000000 0.0541000000
-0.9915000000 5.3477000000 0.1378000000
-0.9933000000 3.9761000000 0.7590000000
-0.9942000000 4.6094000000 0.4721000000
-0.9946000000 5.3324000000 0.1467000000
-0.9947000000 3.5142000000 0.7661000000
-0.9950000000 1.6217000000 0.0570000000
-0.9954000000 4.1746000000 0.6642000000
-0.9955000000 1.6849000000 0.0149000000
-0.9957000000 3.7138000000 0.9153000000
-0.9958000000 4.9640000000 0.3100000000
-0.9961000000 4.7404000000 0.4110000000
-0.9963000000 1.5498000000 0.0265000000
-0.9969000000 3.8007000000 0.8354000000
-0.9971000000 3.2412000000 0.6410000000
-0.9972000000 3.9743000000 0.7607000000
-0.9975000000 3.9416000000 0.7714000000
-0.9978000000 5.8016000000 0.0846000000
-0.9978000000 4.7207000000 0.4226000000
-0.9980000000 5.8138000000 0.0781000000
-0.9982000000 4.8331000000 0.3647000000
-0.9985000000 4.1424000000 0.6790000000
-0.9986000000 2.5301000000 0.3176000000
-0.9987000000 5.6011000000 0.0967000000
-0.9990000000 2.4390000000 0.2776000000
-0.9991000000 2.8509000000 0.4661000000
-0.9997000000 2.6378000000 0.3671000000
-1.0001000000 1.7710000000 0.0479000000
-1.0005000000 2.6823000000 0.3888000000
-1.0007000000 1.6969000000 0.0200000000
-1.0015000000 2.6717000000 0.3822000000
-1.0018000000 4.1845000000 0.6618000000
-1.0047000000 1.6921000000 0.0145000000
-1.2402000000 5.2529000000 0.0678000000
-1.2415000000 5.2583000000 0.0595000000
-1.2427000000 5.1709000000 0.1076000000
-1.2442000000 2.3406000000 0.1199000000
-1.2450000000 2.7205000000 0.2051000000
-1.2452000000 4.0358000000 0.5300000000
-1.2455000000 3.6943000000 0.7143000000
-1.2457000000 2.4321000000 0.0779000000
-1.2462000000 5.1755000000 0.0907000000
-1.2465000000 3.3333000000 0.4896000000
-1.2467000000 3.5934000000 0.6037000000
-1.2469000000 3.5816000000 0.5998000000
-1.2471000000 3.5433000000 0.5776000000
-1.2472000000 2.5567000000 0.1317000000
-1.2478000000 3.9079000000 0.5887000000
-1.2481000000 3.6621000000 0.6318000000
-1.2483000000 3.9451000000 0.5714000000
-1.2485000000 2.6168000000 0.1602000000
-1.2487000000 4.2693000000 0.4251000000
-1.2487000000 4.9155000000 0.1331000000
