4.2561000000 3.6490000000 0.5310000000
4.2560000000 2.9427000000 0.7108000000
4.2559000000 3.2166000000 0.7185000000
4.2558000000 0.9775000000 0.0052000000
4.2556000000 3.8536000000 0.4375000000
4.2554000000 1.9358000000 0.2759000000
4.2554000000 3.5487000000 0.5731000000
4.2552000000 2.2810000000 0.4200000000
4.2551000000 4.7971000000 0.1109000000
4.2549000000 3.1682000000 0.7432000000
4.2548000000 4.8267000000 0.0922000000
4.2547000000 1.5007000000 0.0798000000
4.2545000000 3.6292000000 0.5426000000
4.2546000000 1.6523000000 0.1530000000
4.2545000000 1.3567000000 0.0950000000
4.2544000000 1.1968000000 0.0293000000
4.2543000000 3.6814000000 0.5173000000
4.2542000000 2.3597000000 0.4578000000
4.2540000000 1.8816000000 0.2490000000
4.2540000000 2.2610000000 0.4156000000
4.2539000000 3.0605000000 0.8208000000
4.2535000000 3.0338000000 0.8146000000
4.2535000000 2.1665000000 0.3737000000
4.2533000000 1.3731000000 0.0998000000
4.2532000000 2.0841000000 0.3334000000
4.2530000000 2.9961000000 0.7395000000
4.2529000000 2.2016000000 0.3899000000
4.2527000000 5.0840000000 0.0557000000
4.2525000000 3.1213000000 0.8201000000
4.2524000000 2.9603000000 0.7154000000
4.2521000000 4.8545000000 0.0877000000
4.2519000000 4.8496000000 0.0848000000
4.2518000000 2.7131000000 0.6095000000
4.2510000000 1.4278000000 0.1355000000
4.2507000000 3.0550000000 0.8174000000
4.2504000000 1.8881000000 0.2554000000
4.2503000000 2.5593000000 0.5483000000
4.2500000000 1.9075000000 0.2670000000
4.2499000000 4.6636000000 0.0943000000
4.2498000000 2.6916000000 0.6046000000
4.2495000000 1.3763000000 0.1099000000
4.2494000000 1.3037000000 0.0801000000
4.2492000000 3.3600000000 0.6568000000
4.2492000000 2.3912000000 0.4786000000
4.2490000000 2.9779000000 0.7293000000
4.2488000000 4.9329000000 0.0628000000
4.2488000000 4.4861000000 0.1768000000
4.2486000000 1.0890000000 0.0672000000
4.0128000000 5.0957000000 0.0849000000
4.0114000000 2.6145000000 0.7532000000
4.0113000000 5.5304000000 0.0485000000
4.0108000000 3.1724000000 0.9165000000
4.0098000000 5.3109000000 0.0668000000
4.0097000000 5.4655000000 0.0825000000
4.0094000000 2.9626000000 0.9056000000
4.0092000000 3.3297000000 0.8563000000
4.0084000000 2.4263000000 0.6702000000
4.0080000000 2.4192000000 0.6752000000
4.0080000000 5.6291000000 0.0068000000
4.0073000000 2.5703000000 0.7316000000
4.0071000000 2.2740000000 0.6070000000
4.0071000000 3.2818000000 0.8721000000
4.0069000000 3.9742000000 0.5741000000
4.0068000000 5.0111000000 0.1291000000
4.0065000000 3.8700000000 0.6224000000
4.0064000000 1.0658000000 0.0823000000
4.0063000000 4.2571000000 0.4479000000
4.0062000000 3.1914000000 0.9149000000
4.0061000000 2.0279000000 0.5009000000
4.0058000000 0.6280000000 0.0473000000
4.0058000000 4.8036000000 0.2197000000
4.0057000000 4.4427000000 0.3698000000
4.0055000000 1.6489000000 0.3392000000
4.0055000000 3.9320000000 0.5942000000
4.0054000000 1.6865000000 0.3575000000
4.0048000000 4.1426000000 0.5053000000
4.0045000000 5.2649000000 0.0946000000
4.0045000000 4.8699000000 0.1863000000
4.0041000000 1.2163000000 0.1531000000
4.0040000000 4.1499000000 0.5072000000
4.0040000000 4.1578000000 0.4950000000
4.0037000000 5.1650000000 0.0627000000
4.0031000000 3.6844000000 0.7072000000
4.0028000000 1.5900000000 0.3188000000
4.0028000000 2.3270000000 0.6319000000
4.0028000000 3.2744000000 0.8861000000
4.0023000000 1.6158000000 0.3277000000
4.0022000000 3.6846000000 0.7053000000
4.0022000000 4.5871000000 0.3144000000
4.0021000000 0.6180000000 0.0468000000
4.0018000000 3.1281000000 1.0054000000
4.0017000000 1.7223000000 0.3707000000
4.0016000000 0.9628000000 0.1143000000
4.0015000000 3.2786000000 0.8817000000
4.0014000000 4.4557000000 0.3695000000
4.0012000000 2.1489000000 0.5544000000
4.0010000000 5.3771000000 0.0475000000
4.0007000000 1.2216000000 0.1564000000
4.0003000000 1.2941000000 0.1866000000
4.0003000000 5.3852000000 0.0420000000
3.9998000000 3.8168000000 0.6495000000
3.9995000000 0.9393000000 0.1095000000
3.9995000000 2.1679000000 0.5707000000
3.9990000000 2.4993000000 0.7125000000
3.9988000000 5.2018000000 0.1226000000
3.9987000000 1.2184000000 0.1615000000
3.9986000000 1.0493000000 0.0845000000
3.9974000000 2.1876000000 0.5747000000
3.9970000000 4.1052000000 0.5280000000
3.9960000000 3.4392000000 0.8149000000
3.9957000000 1.7194000000 0.3769000000
3.7647000000 3.8377000000 0.8156000000
3.7616000000 5.8310000000 0.0326000000
3.7615000000 5.1835000000 0.2344000000
3.7614000000 5.1316000000 0.2573000000
3.7596000000 5.8114000000 0.0420000000
3.7592000000 2.6654000000 0.9571000000
3.7591000000 5.2968000000 0.1911000000
3.7588000000 3.6893000000 0.8845000000
3.7586000000 5.3281000000 0.1729000000
3.7586000000 4.1949000000 0.6648000000
3.7584000000 0.6760000000 0.0940000000
3.7584000000 2.2774000000 0.7972000000
3.7583000000 4.1581000000 0.6797000000
3.7581000000 3.4240000000 0.9997000000
3.7580000000 4.2042000000 0.6598000000
3.7575000000 2.2665000000 0.7908000000
3.7573000000 2.8660000000 1.0558000000
3.7572000000 4.5410000000 0.5198000000
3.7570000000 0.9325000000 0.2120000000
3.7570000000 4.9150000000 0.3558000000
3.7568000000 0.5406000000 0.1202000000
3.7568000000 0.9589000000 0.2281000000
3.7567000000 4.1101000000 0.7062000000
3.7565000000 2.3976000000 0.8503000000
3.7565000000 0.4395000000 0.0725000000
3.7562000000 5.3989000000 0.1571000000
3.7561000000 2.6932000000 0.9751000000
3.7559000000 0.9789000000 0.2306000000
3.7558000000 3.3242000000 1.0429000000
3.7557000000 3.1961000000 1.0979000000
3.7554000000 5.7977000000 0.0441000000
3.7553000000 5.7132000000 0.0833000000
3.7551000000 0.4557000000 0.0885000000
3.7550000000 5.1672000000 0.2486000000
3.7548000000 1.1419000000 0.3068000000
3.7547000000 5.0461000000 0.3009000000
3.7547000000 3.5345000000 0.9580000000
3.7546000000 2.5834000000 0.9283000000
3.7545000000 2.0355000000 0.6917000000
3.7543000000 2.1098000000 0.7266000000
3.7540000000 4.8021000000 0.4040000000
3.7538000000 3.7116000000 0.8774000000
3.7538000000 4.2490000000 0.6385000000
3.7537000000 2.4285000000 0.8641000000
3.7535000000 2.3377000000 0.8225000000
3.7535000000 5.3424000000 0.1734000000
3.7535000000 4.9343000000 0.3506000000
3.7530000000 1.3822000000 0.4050000000
3.7527000000 2.6898000000 0.9769000000
3.7527000000 3.6966000000 0.8851000000
3.7528000000 4.1199000000 0.7018000000
3.7526000000 2.4584000000 0.8695000000
3.7525000000 1.6346000000 0.5119000000
3.7524000000 0.7893000000 0.1524000000
3.7522000000 0.4031000000 0.0605000000
3.7523000000 1.4041000000 0.4179000000
3.7521000000 5.5960000000 0.0726000000
3.7520000000 2.0022000000 0.6851000000
3.7519000000 2.7200000000 0.9920000000
3.7518000000 2.6275000000 0.9505000000
3.7517000000 2.7645000000 1.0110000000
3.7513000000 4.6409000000 0.4789000000
3.7510000000 5.6924000000 0.0975000000
3.7508000000 5.2259000000 0.2272000000
3.7506000000 3.4365000000 0.9987000000
3.7505000000 2.7501000000 1.0011000000
3.7503000000 1.6316000000 0.5224000000
3.7503000000 4.5886000000 0.5035000000
3.7499000000 5.3927000000 0.1545000000
3.7498000000 4.3188000000 0.6221000000
3.7498000000 1.7537000000 0.5738000000
3.7496000000 2.1331000000 0.7395000000
3.7495000000 2.4396000000 0.8688000000
3.7495000000 1.9878000000 0.6727000000
3.7490000000 3.5789000000 0.9358000000
3.7489000000 0.8919000000 0.2022000000
3.7488000000 2.1374000000 0.7410000000
3.7488000000 2.5599000000 0.9222000000
3.7475000000 4.6662000000 0.4709000000
3.7474000000 3.5170000000 0.9667000000
3.7474000000 1.7836000000 0.5925000000
3.7457000000 2.1711000000 0.7532000000
3.7413000000 1.8267000000 0.6093000000
3.5116000000 5.1044000000 0.4573000000
3.5115000000 1.1679000000 0.5008000000
3.5112000000 4.6951000000 0.6374000000
3.5107000000 3.6392000000 1.0919000000
3.5104000000 3.1130000000 1.3794000000
3.5104000000 5.5092000000 0.2823000000
3.5098000000 4.8636000000 0.5624000000
3.5096000000 3.8480000000 1.0027000000
3.5094000000 0.1410000000 0.1166000000
3.5093000000 4.2977000000 0.8014000000
3.5092000000 4.5778000000 0.6873000000
3.5086000000 1.3997000000 0.6028000000
3.5085000000 1.6196000000 0.6938000000
3.5085000000 5.7632000000 0.1752000000
3.5080000000 4.1164000000 0.8882000000
3.5076000000 2.8908000000 1.2519000000
3.5075000000 3.4967000000 1.1593000000
3.5074000000 4.1379000000 0.8800000000
3.5074000000 3.3510000000 1.2221000000
3.5068000000 2.1548000000 0.9308000000
3.5063000000 0.5664000000 0.2401000000
3.5062000000 5.9092000000 0.1133000000
3.5060000000 5.0552000000 0.4853000000
3.5060000000 0.6649000000 0.2871000000
3.5058000000 4.9699000000 0.5162000000
3.5056000000 2.8084000000 1.2160000000
3.5055000000 3.4447000000 1.1782000000
3.5055000000 5.1045000000 0.4601000000
3.5054000000 4.4951000000 0.7225000000
3.5054000000 5.0193000000 0.4952000000
3.5052000000 4.3529000000 0.7905000000
3.5052000000 2.8550000000 1.2324000000
3.5051000000 2.0508000000 0.8852000000
3.5051000000 2.6174000000 1.1368000000
3.5050000000 1.6367000000 0.7022000000
3.5049000000 4.5359000000 0.7117000000
3.5048000000 1.4918000000 0.6494000000
3.5048000000 1.6394000000 0.7074000000
3.5047000000 4.3634000000 0.7861000000
3.5045000000 3.6308000000 1.1032000000
3.5045000000 0.0205000000 0.0323000000
3.5043000000 1.8615000000 0.8017000000
3.5043000000 3.0538000000 1.3822000000
3.5042000000 4.0371000000 0.9277000000
3.5039000000 0.3241000000 0.1435000000
3.5039000000 0.6983000000 0.3060000000
3.5036000000 2.1848000000 0.9456000000
3.5035000000 0.7120000000 0.3057000000
3.5035000000 0.7754000000 0.3377000000
3.5033000000 2.2668000000 0.9822000000
3.5030000000 2.1836000000 0.9490000000
3.5028000000 3.6369000000 1.0999000000
3.5028000000 6.0121000000 0.1373000000
3.5027000000 5.0372000000 0.4925000000
3.5023000000 4.6787000000 0.6503000000
3.5022000000 1.7595000000 0.7612000000
3.5021000000 0.2108000000 0.1632000000
3.5019000000 5.7248000000 0.1972000000
3.5019000000 3.4830000000 1.1634000000
3.5018000000 4.5526000000 0.7088000000
3.5015000000 5.1555000000 0.4396000000
3.5015000000 5.1053000000 0.4694000000
3.5013000000 4.4748000000 0.7396000000
3.5012000000 1.9373000000 0.8398000000
3.5010000000 0.2518000000 0.1091000000
3.5010000000 0.8787000000 0.3834000000
3.5009000000 1.8765000000 0.8118000000
3.5008000000 1.0607000000 0.4593000000
3.5003000000 1.2418000000 0.5447000000
3.5000000000 0.2298000000 0.1043000000
3.4999000000 0.9059000000 0.3927000000
3.4998000000 4.8640000000 0.5770000000
3.4996000000 2.0067000000 0.8730000000
3.4994000000 3.6484000000 1.0966000000
3.4993000000 1.5366000000 0.6624000000
3.4988000000 4.8331000000 0.5817000000
3.4981000000 3.0630000000 1.3900000000
3.4979000000 1.0940000000 0.4783000000
3.4972000000 5.4072000000 0.3303000000
3.4969000000 0.3750000000 0.1691000000
3.4968000000 2.9219000000 1.2676000000
3.4956000000 6.0046000000 0.1438000000
3.4953000000 0.7125000000 0.3133000000
3.2633000000 4.6701000000 0.8278000000
3.2618000000 4.7139000000 0.8170000000
3.2610000000 5.4250000000 0.5075000000
3.2609000000 1.7942000000 0.9577000000
3.2607000000 3.1950000000 1.4735000000
3.2600000000 6.1669000000 0.0375000000
3.2600000000 1.2802000000 0.7346000000
3.2599000000 3.8481000000 1.1953000000
3.2599000000 5.1696000000 0.6187000000
3.2595000000 5.7683000000 0.3106000000
3.2588000000 4.0686000000 1.0935000000
3.2584000000 4.6225000000 0.8532000000
3.2584000000 6.1331000000 0.0622000000
3.2582000000 3.6781000000 1.2632000000
3.2580000000 5.2795000000 0.5715000000
3.2580000000 2.7964000000 1.3897000000
3.2579000000 5.1836000000 0.6122000000
3.2578000000 4.0570000000 1.1002000000
3.2576000000 4.8810000000 0.7448000000
3.2575000000 1.0816000000 0.6522000000
3.2574000000 6.1942000000 0.0116000000
3.2573000000 1.6926000000 0.9166000000
3.2573000000 3.7309000000 1.2429000000
3.2571000000 3.5424000000 1.3237000000
3.2570000000 4.3296000000 0.9845000000
3.2570000000 5.8890000000 0.2008000000
3.2568000000 5.5143000000 0.4705000000
3.2566000000 3.0924000000 1.5814000000
3.2566000000 3.5203000000 1.3256000000
3.2565000000 2.1944000000 1.1303000000
3.2561000000 0.0458000000 0.0752000000
3.2560000000 3.8715000000 1.1788000000
3.2555000000 2.4296000000 1.2340000000
3.2554000000 2.5515000000 1.2924000000
3.2553000000 5.4868000000 0.4836000000
3.2553000000 3.2326000000 1.4656000000
3.2552000000 4.9123000000 0.7352000000
3.2551000000 1.3098000000 0.7512000000
3.2551000000 2.6049000000 1.3131000000
3.2550000000 5.5431000000 0.5249000000
3.2550000000 1.5348000000 0.8489000000
3.2548000000 0.4197000000 0.3117000000
3.2547000000 5.2340000000 0.5929000000
3.2546000000 4.3559000000 0.9759000000
3.2543000000 3.0876000000 1.5807000000
3.2540000000 0.7220000000 0.4982000000
3.2540000000 2.3566000000 1.2041000000
3.2539000000 3.8106000000 1.2092000000
3.2539000000 5.1434000000 0.6362000000
3.2538000000 2.4460000000 1.2443000000
3.2538000000 1.8449000000 0.9853000000
3.2538000000 3.9120000000 1.1665000000
3.2537000000 4.4716000000 0.9254000000
3.2536000000 1.2291000000 0.7210000000
3.2536000000 2.3156000000 1.1829000000
3.2535000000 1.4868000000 0.8294000000
3.2535000000 1.9997000000 1.0524000000
3.2535000000 1.7847000000 0.9558000000
3.2530000000 5.0280000000 0.6865000000
3.2530000000 0.8208000000 0.5448000000
3.2529000000 1.4188000000 0.7993000000
3.2527000000 3.8281000000 1.2061000000
3.2526000000 1.7740000000 0.9555000000
3.2526000000 3.3886000000 1.3940000000
3.2524000000 0.9549000000 0.6006000000
3.2523000000 1.8884000000 1.0053000000
3.2523000000 0.7211000000 0.4966000000
3.2522000000 1.0242000000 0.6332000000
3.2521000000 0.2917000000 0.2050000000
3.2519000000 1.6197000000 0.8863000000
3.2519000000 1.3088000000 0.7558000000
3.2515000000 5.4236000000 0.5103000000
3.2514000000 0.0181000000 0.0414000000
3.2513000000 0.6080000000 0.5171000000
3.2513000000 5.0329000000 0.6800000000
3.2509000000 3.5962000000 1.3054000000
3.2502000000 1.0074000000 0.6225000000
3.2497000000 1.6196000000 0.8948000000
3.2495000000 0.6717000000 0.4832000000
3.2492000000 0.2167000000 0.1426000000
3.2489000000 5.3162000000 0.5604000000
3.2483000000 1.7835000000 0.9656000000
3.2482000000 0.1335000000 0.0741000000
3.2480000000 0.2335000000 0.1498000000
3.2465000000 0.4856000000 0.4324000000
3.2453000000 2.0807000000 1.0904000000
3.2417000000 4.8123000000 0.7915000000
3.0110000000 3.0856000000 1.7630000000
3.0107000000 5.7951000000 0.2802000000
3.0105000000 3.9744000000 1.3224000000
3.0105000000 4.9729000000 0.8875000000
3.0103000000 5.0956000000 0.8340000000
3.0099000000 5.1134000000 0.8983000000
3.0096000000 3.2690000000 1.6288000000
3.0094000000 4.5579000000 1.0702000000
3.0094000000 2.5628000000 1.4793000000
3.0090000000 0.6197000000 0.4913000000
3.0086000000 1.5568000000 1.0407000000
3.0085000000 3.7976000000 1.3991000000
3.0084000000 2.3519000000 1.3879000000
3.0082000000 0.5990000000 0.4717000000
3.0081000000 4.4058000000 1.1356000000
3.0080000000 1.0513000000 0.8873000000
3.0080000000 3.8756000000 1.3699000000
3.0079000000 4.5160000000 1.0874000000
3.0077000000 1.0286000000 0.8737000000
3.0068000000 6.1934000000 0.0167000000
3.0065000000 2.3653000000 1.3958000000
3.0062000000 3.8629000000 1.3761000000
3.0060000000 4.5862000000 1.0658000000
3.0060000000 1.1681000000 0.8765000000
3.0059000000 2.4072000000 1.4124000000
3.0058000000 3.0862000000 1.7671000000
3.0058000000 4.1478000000 1.2552000000
3.0058000000 0.5197000000 0.4068000000
3.0055000000 2.6118000000 1.5037000000
3.0053000000 2.2452000000 1.3446000000
3.0053000000 4.6288000000 1.0433000000
3.0052000000 1.9018000000 1.1957000000
3.0052000000 4.3715000000 1.1513000000
3.0051000000 0.7758000000 0.6261000000
3.0046000000 2.0419000000 1.2584000000
3.0047000000 5.4334000000 0.6017000000
3.0044000000 3.7852000000 1.4026000000
3.0039000000 1.6975000000 1.1103000000
3.0038000000 5.0715000000 0.8515000000
3.0038000000 5.0380000000 0.8731000000
3.0037000000 1.4822000000 1.0184000000
3.0037000000 2.8232000000 1.5981000000
3.0036000000 3.4968000000 1.5321000000
3.0036000000 2.3536000000 1.3927000000
3.0035000000 5.0813000000 0.8518000000
3.0034000000 2.7301000000 1.5517000000
3.0031000000 1.1552000000 0.8726000000
3.0031000000 0.7860000000 0.6295000000
3.0030000000 4.1988000000 1.2377000000
3.0030000000 0.5860000000 0.4624000000
3.0026000000 3.9593000000 1.3347000000
3.0025000000 5.7299000000 0.3429000000
3.0024000000 1.7376000000 1.1322000000
3.0023000000 0.9353000000 0.8267000000
3.0022000000 4.8818000000 0.9314000000
3.0021000000 2.7520000000 1.5638000000
3.0019000000 5.8461000000 0.2387000000
3.0018000000 1.7010000000 1.1137000000
3.0014000000 4.8344000000 0.9621000000
3.0010000000 5.7495000000 0.3213000000
3.0010000000 3.0939000000 1.7719000000
3.0005000000 0.0158000000 0.0422000000
3.0003000000 2.9066000000 1.6396000000
3.0003000000 2.1919000000 1.3224000000
3.0002000000 4.3010000000 1.1850000000
2.9999000000 0.6194000000 0.4928000000
2.9998000000 1.0715000000 0.9054000000
2.9995000000 0.0162000000 0.0459000000
2.9994000000 4.5327000000 1.0865000000
2.9991000000 3.2708000000 1.6305000000
2.9990000000 2.8547000000 1.6092000000
2.9988000000 3.3579000000 1.5973000000
2.9985000000 1.5117000000 1.0260000000
2.9981000000 5.9900000000 0.1136000000
2.9975000000 0.3842000000 0.2827000000
2.9968000000 0.0607000000 0.0827000000
2.9956000000 0.5391000000 0.4152000000
2.9954000000 0.9897000000 0.8688000000
2.9918000000 0.4811000000 0.3694000000
2.7647000000 1.7653000000 1.3166000000
2.7633000000 5.8690000000 0.2209000000
2.7629000000 4.6947000000 1.2538000000
2.7627000000 6.0223000000 0.0871000000
2.7613000000 5.7800000000 0.2901000000
2.7606000000 6.0589000000 0.1289000000
2.7598000000 3.0775000000 1.9462000000
2.7595000000 4.3130000000 1.3676000000
2.7591000000 0.4687000000 0.3571000000
2.7589000000 3.0585000000 1.9370000000
2.7585000000 2.0994000000 1.4694000000
2.7578000000 4.9384000000 1.0237000000
2.7576000000 0.4775000000 0.3678000000
2.7575000000 1.6851000000 1.2914000000
2.7575000000 1.4183000000 1.2345000000
2.7571000000 2.9222000000 1.8198000000
2.7570000000 5.6426000000 0.4163000000
2.7570000000 3.6573000000 1.6488000000
2.7570000000 2.6235000000 1.7010000000
2.7568000000 4.4017000000 1.3323000000
2.7566000000 5.2611000000 0.7420000000
2.7565000000 5.8256000000 0.2628000000
2.7563000000 1.3808000000 1.2101000000
2.7562000000 3.4196000000 1.7599000000
2.7561000000 6.1262000000 0.0704000000
2.7560000000 3.2264000000 1.8469000000
2.7560000000 4.0177000000 1.4966000000
2.7560000000 2.8415000000 1.7912000000
2.7559000000 3.8728000000 1.5601000000
2.7558000000 5.1664000000 0.8240000000
2.7558000000 5.0075000000 0.9673000000
2.7557000000 5.2816000000 0.7307000000
2.7555000000 4.1211000000 1.4516000000
2.7553000000 5.3024000000 0.7120000000
2.7553000000 3.8311000000 1.5781000000
2.7550000000 5.6374000000 0.4198000000
2.7550000000 3.3729000000 1.7737000000
2.7548000000 4.1394000000 1.4389000000
2.7547000000 4.3690000000 1.3473000000
2.7544000000 0.5146000000 0.3984000000
2.7543000000 1.3491000000 1.1838000000
2.7543000000 1.6255000000 1.2682000000
2.7543000000 0.6489000000 0.5141000000
2.7542000000 4.9921000000 0.9797000000
2.7542000000 2.3915000000 1.5942000000
2.7540000000 1.8907000000 1.3792000000
2.7541000000 1.4438000000 1.2498000000
2.7538000000 1.6629000000 1.2800000000
2.7536000000 0.0617000000 0.0810000000
2.7535000000 4.1559000000 1.4348000000
2.7534000000 2.2074000000 1.5186000000
2.7534000000 0.0622000000 0.0750000000
2.7532000000 0.1502000000 0.0781000000
2.7531000000 4.8814000000 1.0679000000
2.7528000000 2.2043000000 1.5192000000
2.7528000000 2.0355000000 1.4386000000
2.7527000000 4.3319000000 1.3623000000
2.7526000000 4.5750000000 1.2607000000
2.7526000000 1.4789000000 1.2673000000
2.7525000000 2.6436000000 1.7057000000
2.7525000000 5.1261000000 0.8654000000
2.7522000000 5.1634000000 0.8348000000
2.7521000000 0.9065000000 0.7396000000
2.7518000000 5.1640000000 0.8335000000
2.7518000000 2.5725000000 1.6767000000
2.7517000000 1.8843000000 1.3800000000
2.7517000000 3.1018000000 1.9530000000
2.7515000000 4.3959000000 1.3277000000
2.7515000000 1.0301000000 0.8466000000
2.7514000000 0.6795000000 0.5437000000
2.7513000000 4.8920000000 1.0683000000
2.7513000000 4.6364000000 1.2315000000
2.7512000000 0.2680000000 0.1912000000
2.7511000000 1.4531000000 1.2590000000
2.7510000000 1.4228000000 1.2399000000
2.7509000000 3.7644000000 1.6063000000
2.7505000000 5.0563000000 0.9283000000
2.7503000000 0.1826000000 0.1118000000
2.7502000000 4.0428000000 1.4889000000
2.7501000000 3.0267000000 1.8751000000
2.7498000000 1.6177000000 1.2609000000
2.7497000000 4.7942000000 1.2092000000
2.7496000000 4.2263000000 1.4073000000
2.7493000000 1.2460000000 1.0313000000
2.7487000000 0.9786000000 0.8024000000
2.7483000000 0.2542000000 0.1795000000
2.7482000000 0.6420000000 0.5112000000
2.7480000000 1.5273000000 1.2205000000
2.7478000000 4.8443000000 1.1652000000
2.7477000000 1.7250000000 1.3177000000
2.7471000000 0.5365000000 0.4181000000
2.7468000000 2.9199000000 1.8286000000
2.7462000000 1.3877000000 1.2179000000
2.7444000000 1.7850000000 1.3448000000
2.7440000000 2.5095000000 1.6579000000
2.5121000000 4.9937000000 0.9786000000
2.5119000000 5.9089000000 0.1840000000
2.5118000000 6.0890000000 0.1049000000
2.5115000000 5.9160000000 0.1798000000
2.5112000000 5.7490000000 0.3222000000
2.5104000000 4.4809000000 1.4193000000
2.5104000000 4.0305000000 1.6745000000
2.5103000000 5.7818000000 0.2913000000
2.5099000000 5.4602000000 0.5731000000
2.5097000000 5.0354000000 0.9438000000
2.5091000000 6.1868000000 0.0171000000
2.5091000000 4.8258000000 1.1228000000
2.5090000000 3.5341000000 1.8913000000
2.5087000000 1.6764000000 1.3995000000
2.5083000000 3.9536000000 1.7071000000
2.5083000000 2.3955000000 1.7849000000
2.5080000000 5.4479000000 0.5846000000
2.5080000000 5.0419000000 0.9348000000
2.5076000000 4.0876000000 1.6460000000
2.5073000000 3.0821000000 2.1408000000
2.5070000000 6.0721000000 0.1209000000
2.5068000000 1.9740000000 1.6004000000
2.5066000000 5.3117000000 0.7031000000
2.5067000000 5.0365000000 0.9389000000
2.5065000000 0.7224000000 0.5839000000
2.5064000000 3.3071000000 1.9931000000
2.5064000000 3.8037000000 1.7776000000
2.5063000000 3.3780000000 1.9595000000
2.5062000000 4.1448000000 1.6274000000
2.5061000000 6.1276000000 0.0699000000
2.5057000000 3.8522000000 1.7565000000
2.5056000000 2.5002000000 1.8333000000
2.5057000000 3.8547000000 1.7489000000
2.5055000000 4.2087000000 1.5937000000
2.5054000000 5.6991000000 0.3701000000
2.5052000000 2.4816000000 1.8155000000
2.5051000000 5.5152000000 0.5217000000
2.5051000000 5.1251000000 0.8625000000
2.5050000000 0.2021000000 0.1276000000
2.5047000000 5.7927000000 0.2833000000
2.5047000000 5.7115000000 0.3545000000
2.5046000000 1.0401000000 0.8560000000
2.5046000000 4.1560000000 1.6201000000
2.5044000000 6.0524000000 0.1380000000
2.5043000000 2.0080000000 1.6227000000
2.5042000000 4.3908000000 1.5613000000
2.5041000000 1.4395000000 1.2021000000
2.5038000000 4.3038000000 1.6190000000
2.5037000000 1.5435000000 1.2936000000
2.5037000000 1.8786000000 1.6229000000
2.5036000000 2.1902000000 1.6993000000
2.5035000000 2.7732000000 1.9538000000
2.5033000000 2.1154000000 1.6669000000
2.5033000000 3.5173000000 1.9019000000
2.5032000000 5.7971000000 0.2845000000
2.5031000000 1.9393000000 1.6551000000
2.5029000000 2.2063000000 1.7071000000
2.5028000000 2.5124000000 1.8375000000
2.5027000000 2.2098000000 1.7042000000
2.5026000000 5.2535000000 0.7545000000
2.5025000000 3.0621000000 2.1346000000
2.5025000000 0.8364000000 0.6794000000
2.5024000000 2.3462000000 1.7648000000
2.5024000000 1.2794000000 1.0593000000
2.5023000000 1.9138000000 1.6412000000
2.5021000000 4.0914000000 1.6520000000
2.5019000000 0.9175000000 0.7478000000
2.5019000000 1.9325000000 1.6509000000
2.5018000000 4.6748000000 1.2504000000
2.5018000000 3.5104000000 1.9089000000
2.5017000000 5.6465000000 0.4126000000
2.5016000000 0.9625000000 0.7840000000
2.5015000000 4.0329000000 1.6797000000
2.5015000000 1.7986000000 1.5680000000
2.5014000000 1.7145000000 1.4345000000
2.5014000000 1.3122000000 1.0873000000
2.5012000000 0.8078000000 0.6510000000
2.5011000000 3.0121000000 2.0560000000
2.5010000000 4.4835000000 1.4189000000
2.5008000000 4.7316000000 1.2090000000
2.5008000000 0.1801000000 0.1122000000
2.5007000000 2.5665000000 1.8624000000
2.5006000000 6.1974000000 0.0087000000
2.5006000000 1.4691000000 1.2261000000
2.5005000000 2.9229000000 2.0129000000
2.5003000000 2.9948000000 2.0463000000
2.5001000000 2.9506000000 2.0268000000
2.5001000000 1.3532000000 1.1210000000
2.4998000000 0.7437000000 0.5977000000
2.4997000000 0.8727000000 0.7111000000
2.4996000000 0.1050000000 0.1231000000
2.4995000000 0.1162000000 0.1286000000
2.4994000000 4.8237000000 1.1206000000
2.4992000000 4.3658000000 1.5846000000
2.4987000000 2.2620000000 1.7294000000
2.4986000000 0.1066000000 0.1262000000
2.4978000000 1.4660000000 1.2255000000
2.4973000000 2.1622000000 1.6898000000
2.4970000000 2.6664000000 1.9082000000
2.4956000000 2.1262000000 1.6767000000
2.4947000000 4.4997000000 1.4020000000
2.2643000000 5.4654000000 0.5684000000
2.2620000000 3.8370000000 2.0081000000
2.2609000000 5.0763000000 0.9094000000
2.2608000000 6.1000000000 0.0957000000
2.2603000000 0.0931000000 0.1069000000
2.2590000000 0.9197000000 0.7545000000
2.2588000000 2.4470000000 1.9936000000
2.2588000000 2.9637000000 2.2183000000
2.2587000000 5.2788000000 0.7289000000
2.2582000000 6.1466000000 0.0598000000
2.2576000000 5.1334000000 0.8595000000
2.2575000000 1.3950000000 1.1668000000
2.2574000000 3.3910000000 2.1439000000
2.2570000000 5.5931000000 0.4564000000
2.2568000000 4.4786000000 1.4236000000
2.2565000000 4.7542000000 1.1891000000
2.2564000000 2.5895000000 2.0506000000
2.2563000000 4.7259000000 1.2094000000
2.2561000000 1.9699000000 1.6593000000
2.2560000000 5.1001000000 0.8811000000
2.2559000000 1.3424000000 1.1180000000
2.2559000000 5.5540000000 0.4938000000
2.2558000000 3.8131000000 2.0248000000
2.2555000000 4.4230000000 1.4755000000
2.2554000000 1.4122000000 1.1824000000
2.2553000000 0.0486000000 0.0689000000
2.2553000000 1.8668000000 1.5747000000
2.2552000000 4.5053000000 1.3982000000
2.2550000000 2.8139000000 2.1524000000
2.2550000000 2.2365000000 1.9561000000
2.2546000000 2.4597000000 2.0017000000
2.2545000000 0.7190000000 0.5752000000
2.2545000000 1.3859000000 1.1538000000
2.2542000000 4.3291000000 1.5544000000
2.2542000000 2.0250000000 1.7022000000
2.2541000000 5.0700000000 0.9082000000
2.2541000000 3.6489000000 2.0239000000
2.2540000000 0.4861000000 0.3723000000
2.2539000000 4.2554000000 1.6151000000
2.2537000000 5.3071000000 0.7093000000
2.2536000000 4.1190000000 1.7345000000
2.2536000000 6.0687000000 0.1231000000
2.2534000000 1.5818000000 1.3211000000
2.2531000000 6.1180000000 0.0826000000
2.2532000000 3.3596000000 2.1562000000
2.2527000000 5.0796000000 0.9014000000
2.2525000000 4.8928000000 1.0678000000
2.2525000000 3.7279000000 1.9963000000
2.2524000000 4.5557000000 1.3548000000
2.2520000000 2.7804000000 2.1413000000
2.2518000000 0.1179000000 0.1279000000
2.2516000000 1.4938000000 1.2430000000
2.2515000000 0.2888000000 0.2066000000
2.2500000000 2.4043000000 1.9815000000
2.2499000000 3.6814000000 2.0187000000
2.2498000000 0.9853000000 0.8075000000
2.2496000000 5.4831000000 0.5584000000
2.2495000000 1.7950000000 1.5059000000
2.2488000000 0.1075000000 0.1239000000
2.2488000000 2.4021000000 1.9811000000
2.2478000000 1.2804000000 1.0574000000
2.2476000000 3.0768000000 2.3377000000
2.2474000000 1.3950000000 1.1619000000
2.2473000000 0.4272000000 0.3245000000
2.2473000000 0.4733000000 0.3660000000
2.2466000000 3.0683000000 2.3315000000
2.0132000000 1.2005000000 0.9917000000
2.0128000000 6.1964000000 0.0136000000
2.0121000000 5.9241000000 0.1721000000
2.0103000000 5.0757000000 0.9038000000
2.0102000000 5.2294000000 0.7674000000
2.0100000000 2.8674000000 2.3619000000
2.0099000000 3.7324000000 2.0664000000
2.0096000000 2.9421000000 2.3999000000
2.0089000000 5.9394000000 0.1580000000
2.0081000000 6.0677000000 0.1281000000
2.0078000000 6.1831000000 0.0221000000
2.0078000000 1.5651000000 1.3083000000
2.0077000000 1.0534000000 0.8627000000
2.0076000000 5.7978000000 0.2811000000
2.0075000000 5.3786000000 0.6464000000
2.0074000000 5.3594000000 0.6606000000
2.0073000000 3.8849000000 1.9329000000
2.0073000000 4.4722000000 1.4262000000
2.0072000000 1.2146000000 1.0041000000
2.0070000000 0.3702000000 0.2724000000
2.0069000000 2.8067000000 2.3377000000
2.0067000000 2.9951000000 2.4171000000
2.0065000000 0.3687000000 0.2744000000
2.0066000000 5.0980000000 0.8824000000
2.0064000000 5.5917000000 0.4596000000
2.0056000000 0.4494000000 0.3387000000
2.0055000000 5.5499000000 0.5003000000
2.0054000000 4.7094000000 1.2271000000
2.0052000000 4.5968000000 1.3225000000
2.0048000000 0.2015000000 0.1310000000
2.0049000000 2.1008000000 1.7701000000
2.0047000000 5.1321000000 0.8569000000
2.0045000000 5.0150000000 0.9601000000
2.0043000000 1.2325000000 1.0235000000
2.0042000000 4.2421000000 1.6300000000
2.0041000000 3.9545000000 1.8747000000
2.0038000000 4.9287000000 1.0274000000
2.0036000000 2.2620000000 1.9109000000
2.0036000000 4.6270000000 1.2921000000
2.0030000000 1.4916000000 1.2489000000
2.0030000000 0.2569000000 0.1746000000
2.0028000000 0.3077000000 0.2203000000
2.0028000000 1.5629000000 1.3052000000
2.0027000000 4.8665000000 1.0864000000
2.0026000000 2.1904000000 1.8532000000
2.0024000000 0.7846000000 0.6322000000
2.0023000000 0.9279000000 0.7578000000
2.0022000000 0.7503000000 0.6082000000
2.0020000000 3.9808000000 1.8577000000
2.0019000000 3.3562000000 2.4163000000
2.0018000000 4.3284000000 1.5543000000
2.0015000000 4.7147000000 1.2177000000
2.0014000000 3.5787000000 2.2024000000
2.0012000000 3.2405000000 2.3995000000
2.0011000000 5.3555000000 0.6660000000
2.0011000000 4.1284000000 1.7259000000
2.0010000000 0.4553000000 0.3475000000
2.0010000000 3.2477000000 2.3953000000
2.0009000000 1.0809000000 0.8891000000
2.0006000000 0.8222000000 0.6654000000
2.0003000000 4.5602000000 1.3548000000
2.0002000000 3.6521000000 2.1376000000
2.0001000000 0.9243000000 0.7527000000
1.9999000000 2.3213000000 1.9632000000
1.9997000000 0.9115000000 0.7409000000
1.9996000000 1.0124000000 0.8242000000
1.9993000000 1.1378000000 0.9371000000
1.9993000000 2.8315000000 2.3540000000
1.9990000000 1.1278000000 0.9287000000
1.9985000000 5.2513000000 0.7546000000
1.9981000000 0.0791000000 0.1005000000
1.9980000000 2.5372000000 2.1541000000
1.9979000000 3.5365000000 2.3021000000
1.9979000000 5.4379000000 0.5979000000
1.9967000000 1.7590000000 1.4761000000
1.9964000000 3.9088000000 1.9155000000
1.9959000000 2.3232000000 1.9635000000
1.9952000000 6.1123000000 0.0808000000
1.7630000000 5.7382000000 0.3398000000
1.7616000000 4.2510000000 1.6201000000
1.7615000000 4.4249000000 1.4758000000
1.7610000000 5.8347000000 0.2512000000
1.7603000000 5.0912000000 0.8947000000
1.7603000000 5.9008000000 0.1921000000
1.7599000000 4.7974000000 1.1477000000
1.7598000000 5.0339000000 0.9420000000
1.7596000000 3.7200000000 2.0844000000
1.7590000000 3.7810000000 2.0360000000
1.7586000000 5.1482000000 0.8441000000
1.7585000000 6.1178000000 0.0801000000
1.7583000000 2.5640000000 2.1744000000
1.7583000000 0.4340000000 0.3324000000
1.7579000000 4.7815000000 1.1650000000
1.7578000000 6.0545000000 0.1395000000
1.7576000000 3.6138000000 2.1687000000
1.7573000000 4.5487000000 1.3667000000
1.7573000000 4.4538000000 1.4390000000
1.7573000000 3.5727000000 2.2053000000
1.7571000000 3.7721000000 2.0373000000
1.7570000000 2.4724000000 2.0897000000
1.7567000000 2.9866000000 2.5785000000
1.7560000000 1.4277000000 1.1855000000
1.7558000000 5.1166000000 0.8640000000
1.7557000000 5.6542000000 0.4074000000
1.7556000000 1.9558000000 1.6452000000
1.7555000000 3.0813000000 2.5780000000
1.7555000000 3.5927000000 2.1860000000
1.7554000000 5.0210000000 0.9530000000
1.7556000000 6.0176000000 0.0925000000
1.7553000000 5.1567000000 0.8322000000
1.7553000000 4.0162000000 1.8238000000
1.7552000000 3.1915000000 2.5746000000
1.7550000000 4.9157000000 1.0415000000
1.7549000000 3.8952000000 1.9306000000
1.7547000000 1.8628000000 1.5678000000
1.7545000000 5.5431000000 0.4971000000
1.7544000000 3.0003000000 2.5637000000
1.7543000000 5.3323000000 0.6786000000
1.7541000000 2.2955000000 1.9431000000
1.7541000000 1.4365000000 1.2008000000
1.7540000000 2.1306000000 1.7979000000
1.7540000000 3.5583000000 2.2237000000
1.7539000000 1.1996000000 0.9944000000
1.7538000000 5.1437000000 0.8488000000
1.7538000000 5.4506000000 0.5809000000
1.7537000000 3.9357000000 1.8929000000
1.7535000000 4.6973000000 1.2304000000
1.7534000000 5.5359000000 0.5075000000
1.7533000000 1.5133000000 1.2609000000
1.7533000000 0.3492000000 0.2598000000
1.7532000000 5.1039000000 0.8766000000
1.7530000000 5.3931000000 0.6360000000
1.7530000000 0.6283000000 0.4971000000
1.7528000000 5.9621000000 0.1393000000
1.7526000000 6.1945000000 0.0134000000
1.7526000000 2.1991000000 1.8604000000
1.7525000000 4.1690000000 1.6897000000
1.7524000000 1.4552000000 1.2167000000
1.7523000000 2.0227000000 1.7028000000
1.7523000000 1.4352000000 1.1969000000
1.7523000000 0.2603000000 0.1832000000
1.7520000000 3.6463000000 2.1451000000
1.7518000000 1.4904000000 1.2421000000
1.7515000000 0.6377000000 0.5044000000
1.7515000000 5.9460000000 0.1551000000
1.7513000000 3.2158000000 2.5744000000
1.7510000000 0.4770000000 0.3708000000
1.7508000000 1.3627000000 1.1299000000
1.7506000000 2.1294000000 1.7989000000
1.7505000000 0.6722000000 0.5308000000
1.7503000000 5.5812000000 0.4639000000
1.7501000000 3.3223000000 2.4299000000
1.7501000000 0.4248000000 0.3242000000
1.7498000000 0.2472000000 0.1680000000
1.7495000000 0.5215000000 0.4042000000
1.7494000000 3.7681000000 2.0366000000
1.7493000000 2.6870000000 2.2821000000
1.7492000000 0.0524000000 0.0794000000
1.7489000000 1.3995000000 1.1615000000
1.7488000000 1.3902000000 1.1531000000
1.7488000000 0.1460000000 0.0771000000
1.7485000000 4.5906000000 1.3263000000
1.7482000000 1.3630000000 1.1376000000
1.7476000000 4.1408000000 1.7130000000
1.7473000000 0.4132000000 0.3130000000
1.7468000000 1.0970000000 0.8978000000
1.7464000000 4.1143000000 1.7396000000
1.7463000000 0.3145000000 0.2231000000
1.5138000000 4.2865000000 1.5856000000
1.5137000000 4.4611000000 1.4431000000
1.5111000000 4.1787000000 1.6876000000
1.5105000000 5.0812000000 0.9006000000
1.5101000000 4.1283000000 1.7231000000
1.5101000000 4.2408000000 1.6331000000
1.5099000000 2.3866000000 2.0263000000
1.5090000000 0.4795000000 0.3720000000
1.5087000000 2.9661000000 2.3685000000
1.5083000000 3.1021000000 2.4776000000
1.5081000000 3.2614000000 2.3531000000
1.5080000000 3.7907000000 2.0217000000
1.5079000000 3.2407000000 2.3573000000
1.5078000000 5.0798000000 0.9036000000
1.5077000000 5.6357000000 0.4157000000
1.5076000000 4.3354000000 1.5493000000
1.5075000000 2.1113000000 1.7795000000
1.5075000000 5.3255000000 0.6885000000
1.5075000000 5.9332000000 0.1684000000
1.5074000000 4.9180000000 1.0459000000
1.5072000000 6.1292000000 0.0688000000
1.5070000000 6.0759000000 0.1145000000
1.5069000000 3.6236000000 2.2223000000
1.5068000000 5.2948000000 0.7213000000
1.5067000000 1.7695000000 1.4862000000
1.5066000000 1.9239000000 1.6180000000
1.5064000000 2.9152000000 2.3540000000
1.5060000000 3.5131000000 2.2929000000
1.5060000000 5.5634000000 0.4833000000
1.5058000000 5.7024000000 0.3698000000
1.5057000000 5.3403000000 0.6775000000
1.5055000000 4.0895000000 1.7608000000
1.5055000000 1.7523000000 1.4737000000
1.5054000000 0.1988000000 0.1235000000
1.5052000000 2.7908000000 2.2910000000
1.5051000000 5.6002000000 0.4549000000
1.5051000000 2.7576000000 2.2761000000
1.5050000000 0.3415000000 0.2440000000
1.5050000000 2.7929000000 2.2958000000
1.5050000000 5.1633000000 0.8294000000
1.5049000000 3.3371000000 2.3092000000
1.5048000000 2.5743000000 2.2419000000
1.5048000000 5.4667000000 0.5651000000
1.5046000000 4.8041000000 1.1425000000
1.5046000000 3.3013000000 2.3287000000
1.5044000000 2.9120000000 2.3414000000
1.5044000000 3.0592000000 2.4658000000
1.5043000000 3.4227000000 2.2687000000
1.5042000000 0.5747000000 0.4508000000
1.5041000000 1.6903000000 1.4164000000
1.5040000000 2.2660000000 1.9164000000
1.5040000000 1.6718000000 1.3983000000
1.5039000000 3.5281000000 2.2874000000
1.5037000000 2.8160000000 2.2995000000
1.5037000000 3.3886000000 2.2941000000
1.5036000000 4.9953000000 0.9728000000
1.5035000000 0.5524000000 0.4357000000
1.5035000000 0.2907000000 0.2055000000
1.5034000000 3.9376000000 1.8867000000
1.5032000000 4.1143000000 1.7398000000
1.5031000000 5.9373000000 0.1658000000
1.5031000000 1.0244000000 0.8440000000
1.5028000000 4.7092000000 1.2242000000
1.5026000000 0.5890000000 0.4664000000
1.5025000000 3.4243000000 2.2765000000
1.5024000000 4.3368000000 1.5468000000
1.5022000000 4.0533000000 1.7872000000
1.5018000000 4.9127000000 1.0512000000
1.5018000000 1.4279000000 1.1944000000
1.5017000000 1.3886000000 1.1519000000
1.5015000000 0.9242000000 0.7533000000
1.5015000000 5.8823000000 0.2075000000
1.5010000000 1.8102000000 1.5259000000
1.5010000000 2.5224000000 2.1963000000
1.5008000000 2.1475000000 1.8130000000
1.5007000000 5.1619000000 0.8305000000
1.5003000000 3.2621000000 2.3406000000
1.5002000000 4.4972000000 1.4048000000
1.5001000000 2.1495000000 1.8105000000
1.4999000000 0.7362000000 0.5900000000
1.4998000000 0.0542000000 0.0702000000
1.4995000000 5.1594000000 0.8383000000
1.4993000000 3.3407000000 2.3043000000
1.4992000000 0.8985000000 0.7343000000
1.4985000000 1.2981000000 1.0807000000
1.4985000000 1.8838000000 1.5857000000
1.4985000000 3.4997000000 2.2924000000
1.4980000000 0.6079000000 0.4822000000
1.4963000000 5.0471000000 0.9305000000
1.4954000000 0.1467000000 0.0830000000
1.4944000000 2.6152000000 2.2676000000
1.4896000000 0.6475000000 0.5118000000
1.2629000000 2.0822000000 1.7463000000
1.2616000000 3.9037000000 1.9424000000
1.2615000000 3.8184000000 1.9272000000
1.2608000000 5.4033000000 0.6195000000
1.2603000000 5.5601000000 0.4935000000
1.2591000000 4.0607000000 1.8446000000
1.2589000000 1.3850000000 1.1554000000
1.2588000000 5.1973000000 0.8061000000
1.2588000000 0.5220000000 0.4022000000
1.2581000000 1.5958000000 1.3357000000
1.2580000000 1.8592000000 1.5604000000
1.2578000000 6.0895000000 0.1099000000
1.2574000000 4.5340000000 1.3715000000
1.2573000000 6.1713000000 0.0295000000
1.2573000000 4.5155000000 1.3891000000
1.2572000000 5.9589000000 0.1427000000
1.2571000000 4.2616000000 1.6102000000
1.2569000000 3.7927000000 1.9254000000
1.2569000000 3.7290000000 1.9481000000
1.2567000000 4.7896000000 1.1493000000
1.2567000000 5.2946000000 0.7145000000
1.2566000000 2.5512000000 1.9960000000
1.2565000000 3.9681000000 1.9169000000
1.2564000000 4.1587000000 1.7048000000
1.2562000000 2.1072000000 1.8431000000
1.2561000000 1.4427000000 1.2001000000
1.2560000000 5.6385000000 0.4196000000
1.2560000000 2.5959000000 2.0174000000
1.2558000000 5.9275000000 0.1677000000
1.2556000000 0.9369000000 0.7664000000
1.2555000000 1.0808000000 0.8908000000
1.2551000000 1.2300000000 1.0161000000
1.2549000000 1.2285000000 1.0153000000
1.2548000000 0.0632000000 0.0854000000
1.2547000000 3.2326000000 2.1676000000
1.2547000000 5.1362000000 0.8571000000
1.2546000000 6.0907000000 0.1051000000
1.2545000000 4.1138000000 1.7371000000
1.2545000000 4.1415000000 1.7160000000
1.2544000000 2.8005000000 2.1069000000
1.2544000000 0.8976000000 0.7362000000
1.2543000000 5.5509000000 0.4931000000
1.2542000000 3.2065000000 2.1797000000
1.2541000000 0.4169000000 0.3184000000
1.2539000000 1.8130000000 1.5262000000
1.2537000000 5.6489000000 0.4091000000
1.2535000000 2.3981000000 1.9352000000
1.2534000000 4.3847000000 1.5018000000
1.2534000000 0.3208000000 0.2327000000
1.2533000000 3.0158000000 2.2055000000
1.2533000000 1.9193000000 1.6154000000
1.2530000000 1.1237000000 0.9223000000
1.2528000000 4.0299000000 1.8739000000
1.2528000000 1.8968000000 1.5954000000
1.2528000000 0.1062000000 0.1191000000
1.2526000000 0.1314000000 0.0663000000
1.2525000000 1.4308000000 1.1926000000
1.2524000000 2.6072000000 2.0235000000
1.2523000000 4.6465000000 1.2812000000
1.2521000000 2.3394000000 1.9035000000
1.2521000000 1.7469000000 1.4617000000
1.2520000000 5.5397000000 0.5062000000
1.2519000000 4.8660000000 1.0861000000
1.2518000000 0.0233000000 0.0504000000
1.2518000000 3.9202000000 1.9318000000
1.2517000000 1.9401000000 1.6353000000
1.2512000000 1.2825000000 1.0638000000
1.2510000000 2.0162000000 1.6996000000
1.2509000000 1.0024000000 0.8234000000
1.2506000000 3.7338000000 1.9456000000
1.2505000000 1.4854000000 1.2347000000
1.2503000000 4.3429000000 1.5400000000
1.2503000000 4.9529000000 1.0185000000
1.2502000000 4.9967000000 0.9772000000
1.2501000000 1.4399000000 1.2018000000
1.2499000000 4.6275000000 1.2904000000
1.2498000000 6.0807000000 0.1119000000
1.2496000000 0.8272000000 0.6694000000
1.2496000000 0.3736000000 0.2799000000
1.2494000000 4.8516000000 1.1029000000
1.2490000000 3.0432000000 2.2682000000
1.2488000000 0.3959000000 0.2995000000
1.2479000000 0.4604000000 0.3492000000
1.2468000000 1.0131000000 0.8298000000
1.2463000000 0.6660000000 0.5264000000
1.2447000000 2.3188000000 1.8886000000
1.0134000000 6.0150000000 0.0923000000
1.0121000000 4.3979000000 1.5448000000
1.0117000000 5.0869000000 0.9035000000
1.0115000000 2.8974000000 1.9680000000
1.0100000000 4.6198000000 1.3026000000
1.0095000000 5.2239000000 0.7784000000
1.0095000000 2.1432000000 1.6378000000
1.0094000000 5.8091000000 0.2764000000
1.0094000000 5.5912000000 0.4637000000
1.0091000000 0.9235000000 0.7536000000
1.0090000000 5.0026000000 0.9691000000
1.0089000000 5.7427000000 0.3268000000
1.0086000000 4.1196000000 1.6004000000
1.0080000000 4.0851000000 1.6191000000
1.0077000000 3.7496000000 1.7571000000
1.0077000000 3.0613000000 2.0940000000
1.0075000000 4.8596000000 1.0879000000
1.0073000000 4.8752000000 1.0817000000
1.0071000000 0.3541000000 0.2591000000
1.0069000000 1.1030000000 0.9114000000
1.0067000000 1.5270000000 1.2766000000
1.0063000000 2.8074000000 1.9243000000
1.0061000000 4.7479000000 1.1856000000
1.0060000000 3.2706000000 1.9680000000
1.0058000000 3.2764000000 1.9618000000
1.0058000000 3.1093000000 2.0968000000
1.0058000000 4.9349000000 1.0272000000
1.0057000000 3.3438000000 1.9313000000
1.0054000000 3.9443000000 1.6725000000
1.0052000000 3.3601000000 1.9216000000
1.0050000000 0.7731000000 0.6236000000
1.0048000000 3.7563000000 1.7525000000
1.0047000000 3.3451000000 1.9332000000
1.0046000000 3.5422000000 1.8549000000
1.0046000000 1.4501000000 1.2135000000
1.0045000000 1.5332000000 1.2785000000
1.0045000000 3.9865000000 1.6534000000
1.0043000000 2.2173000000 1.6619000000
1.0042000000 3.3734000000 1.9227000000
1.0041000000 5.7635000000 0.3157000000
1.0040000000 1.9257000000 1.5372000000
1.0038000000 5.4112000000 0.6131000000
1.0038000000 2.2507000000 1.6804000000
1.0037000000 5.2166000000 0.7847000000
1.0035000000 1.9626000000 1.5549000000
1.0034000000 5.4716000000 0.5621000000
1.0033000000 4.4108000000 1.5275000000
1.0032000000 0.4164000000 0.3085000000
1.0031000000 0.9183000000 0.7470000000
1.0030000000 3.2807000000 1.9591000000
1.0029000000 2.0372000000 1.5840000000
1.0028000000 4.6538000000 1.2722000000
1.0028000000 4.8941000000 1.0605000000
1.0026000000 0.2418000000 0.1640000000
1.0025000000 1.5291000000 1.2804000000
1.0025000000 3.5201000000 1.8573000000
1.0024000000 3.0422000000 2.0798000000
1.0023000000 4.3437000000 1.5668000000
1.0022000000 4.3087000000 1.5131000000
1.0020000000 3.9904000000 1.6527000000
1.0019000000 5.4588000000 0.5736000000
1.0018000000 1.9686000000 1.5571000000
1.0017000000 4.3470000000 1.5619000000
1.0013000000 0.3919000000 0.2915000000
1.0013000000 3.8502000000 1.7060000000
1.0012000000 4.6589000000 1.2664000000
1.0010000000 0.3066000000 0.2189000000
1.0009000000 2.8338000000 1.9252000000
1.0008000000 4.9197000000 1.0430000000
1.0007000000 1.7061000000 1.4874000000
1.0005000000 1.1513000000 0.9521000000
1.0004000000 3.2107000000 1.9873000000
1.0003000000 4.1564000000 1.5794000000
1.0001000000 4.2394000000 1.5443000000
1.0000000000 1.6417000000 1.4382000000
0.9997000000 0.3351000000 0.2470000000
0.9997000000 0.3297000000 0.2413000000
0.9993000000 0.5822000000 0.4608000000
0.9991000000 1.4900000000 1.2422000000
0.9990000000 2.1452000000 1.6331000000
0.9988000000 3.0089000000 2.0046000000
0.9987000000 3.0964000000 2.0960000000
0.9984000000 0.1021000000 0.1146000000
0.9983000000 3.1174000000 2.0882000000
0.9982000000 2.8579000000 1.9385000000
0.9981000000 5.6462000000 0.4118000000
0.9978000000 0.8717000000 0.7104000000
0.9973000000 0.2771000000 0.1941000000
0.9967000000 3.2147000000 1.9827000000
0.9964000000 0.5410000000 0.4247000000
0.9961000000 1.8977000000 1.5230000000
0.7620000000 3.3408000000 1.7481000000
0.7611000000 4.5415000000 1.2309000000
0.7608000000 3.8326000000 1.5382000000
0.7603000000 3.0255000000 1.8344000000
0.7599000000 4.7766000000 1.1900000000
0.7594000000 2.8166000000 1.7426000000
0.7590000000 2.0682000000 1.4212000000
0.7587000000 5.7349000000 0.3382000000
0.7585000000 5.4227000000 0.6036000000
0.7579000000 1.9676000000 1.3717000000
0.7577000000 1.4130000000 1.1941000000
0.7575000000 4.2407000000 1.3601000000
0.7572000000 5.3060000000 0.7067000000
0.7570000000 6.1040000000 0.0854000000
0.7567000000 1.9351000000 1.3603000000
0.7567000000 3.6868000000 1.5957000000
0.7566000000 4.6226000000 1.1906000000
0.7565000000 5.5813000000 0.4678000000
0.7564000000 1.2333000000 1.0814000000
0.7564000000 1.1654000000 0.9620000000
0.7563000000 0.9001000000 0.7344000000
0.7563000000 4.9172000000 1.1072000000
0.7563000000 3.3063000000 1.7638000000
0.7560000000 1.9862000000 1.3803000000
0.7557000000 4.9217000000 1.1047000000
0.7555000000 5.8908000000 0.2028000000
0.7555000000 3.1393000000 1.9025000000
0.7550000000 4.6538000000 1.1809000000
0.7549000000 2.0463000000 1.4053000000
0.7548000000 2.0810000000 1.4199000000
0.7548000000 2.5342000000 1.6180000000
0.7547000000 3.9096000000 1.4970000000
0.7547000000 4.9143000000 1.1076000000
0.7545000000 5.8070000000 0.2674000000
0.7543000000 1.3705000000 1.1661000000
0.7542000000 1.3841000000 1.1774000000
0.7541000000 0.8525000000 0.6958000000
0.7540000000 4.2000000000 1.3801000000
0.7539000000 5.8560000000 0.2335000000
0.7539000000 4.6746000000 1.1726000000
0.7537000000 1.2532000000 1.1001000000
0.7535000000 1.4909000000 1.1685000000
0.7535000000 4.1991000000 1.3782000000
0.7535000000 2.2995000000 1.5103000000
0.7534000000 5.2976000000 0.7137000000
0.7533000000 1.9607000000 1.3690000000
0.7533000000 3.1431000000 1.8257000000
0.7530000000 5.4696000000 0.5661000000
0.7530000000 3.5357000000 1.6645000000
0.7529000000 5.5417000000 0.5058000000
0.7526000000 1.2295000000 1.0795000000
0.7525000000 2.8926000000 1.7650000000
0.7525000000 4.1730000000 1.3848000000
0.7523000000 0.7560000000 0.6067000000
0.7521000000 5.7564000000 0.3167000000
0.7520000000 2.3252000000 1.5265000000
0.7519000000 6.0559000000 0.1346000000
0.7519000000 0.6405000000 0.5093000000
0.7518000000 5.3568000000 0.6685000000
0.7517000000 1.1736000000 0.9690000000
0.7513000000 2.8975000000 1.7726000000
0.7511000000 5.3792000000 0.6402000000
0.7511000000 4.4502000000 1.2666000000
0.7510000000 4.8603000000 1.1470000000
0.7509000000 4.1442000000 1.3901000000
0.7508000000 5.9338000000 0.1660000000
0.7508000000 3.8655000000 1.5212000000
0.7507000000 0.3255000000 0.2349000000
0.7505000000 3.1046000000 1.9093000000
0.7502000000 1.0812000000 0.8870000000
0.7499000000 2.3226000000 1.5213000000
0.7498000000 2.6970000000 1.6863000000
0.7496000000 0.3674000000 0.2762000000
0.7495000000 0.3530000000 0.2573000000
0.7494000000 5.0642000000 0.9177000000
0.7493000000 2.1047000000 1.4262000000
0.7487000000 3.0237000000 1.8239000000
0.7485000000 0.9223000000 0.7489000000
0.7484000000 5.5704000000 0.4765000000
0.7483000000 0.0675000000 0.0897000000
0.7482000000 0.1513000000 0.0830000000
0.7480000000 1.2022000000 1.0618000000
0.7478000000 3.8158000000 1.5339000000
0.7475000000 0.0888000000 0.1047000000
0.7468000000 5.2640000000 0.7469000000
0.7464000000 2.9356000000 1.7824000000
0.5119000000 5.9480000000 0.1547000000
0.5110000000 3.7577000000 1.3836000000
