6.2558000000 3.1909000000 0.6659000000
6.2555000000 3.1273000000 0.6231000000
6.2554000000 3.5812000000 0.9175000000
6.2550000000 3.0934000000 0.5994000000
6.2548000000 6.3435000000 0.0652000000
6.2544000000 5.2751000000 0.7731000000
6.2541000000 3.9870000000 1.1893000000
6.2538000000 4.3303000000 1.3808000000
6.2529000000 4.4512000000 1.3158000000
6.2525000000 5.3217000000 0.6721000000
6.2521000000 4.2260000000 1.3479000000
6.2506000000 3.4888000000 0.8659000000
6.2495000000 5.9466000000 0.3346000000
6.2490000000 2.2579000000 0.0521000000
6.2486000000 2.8619000000 0.4530000000
6.0134000000 5.8975000000 0.5600000000
6.0125000000 4.6516000000 1.4645000000
6.0101000000 6.4395000000 0.2138000000
6.0084000000 6.0063000000 0.5012000000
6.0078000000 3.3967000000 1.0810000000
6.0075000000 4.2418000000 1.6363000000
6.0072000000 5.7721000000 0.6576000000
6.0068000000 2.6989000000 0.6211000000
6.0065000000 2.1356000000 0.2500000000
6.0063000000 2.7275000000 0.6448000000
6.0058000000 6.4694000000 0.1991000000
6.0056000000 2.5396000000 0.5181000000
6.0052000000 5.3659000000 0.9264000000
6.0049000000 2.9486000000 0.7827000000
6.0047000000 4.6767000000 1.4556000000
6.0044000000 2.3437000000 0.3916000000
6.0042000000 5.4470000000 0.8743000000
6.0040000000 4.5929000000 1.4383000000
6.0038000000 3.0983000000 0.8908000000
6.0035000000 4.5665000000 1.5245000000
6.0029000000 4.9362000000 1.2897000000
6.0023000000 3.5686000000 1.2032000000
6.0021000000 2.4273000000 0.4430000000
6.0019000000 2.3075000000 0.3698000000
6.0015000000 5.3257000000 0.9561000000
6.0010000000 2.0719000000 0.2090000000
6.0005000000 4.4561000000 1.5327000000
6.0000000000 2.6167000000 0.5768000000
5.9995000000 4.3385000000 1.6601000000
5.9989000000 1.6977000000 0.0478000000
5.9975000000 2.2126000000 0.3129000000
5.9972000000 2.2345000000 0.3230000000
5.7643000000 2.8655000000 1.0112000000
5.7628000000 5.2362000000 1.3594000000
5.7620000000 5.0727000000 1.3981000000
5.7605000000 6.0624000000 0.8203000000
5.7591000000 7.0367000000 0.1019000000
5.7587000000 2.9693000000 1.0863000000
5.7585000000 7.5164000000 0.0148000000
5.7580000000 7.4285000000 0.0687000000
5.7574000000 2.3257000000 0.6614000000
5.7568000000 7.3259000000 0.0617000000
5.7566000000 7.4759000000 0.0446000000
5.7562000000 3.6621000000 1.5467000000
5.7558000000 2.3106000000 0.6518000000
5.7555000000 3.7501000000 1.6019000000
5.7550000000 3.5430000000 1.4657000000
5.7549000000 4.8152000000 1.5758000000
5.7545000000 2.5588000000 0.8184000000
5.7540000000 6.7597000000 0.2890000000
5.7537000000 1.6936000000 0.2427000000
5.7535000000 5.1634000000 1.4208000000
5.7531000000 3.7767000000 1.6233000000
5.7529000000 3.9850000000 1.7656000000
5.7528000000 6.2946000000 0.6031000000
5.7516000000 2.7580000000 0.9548000000
5.7510000000 5.3539000000 1.2249000000
5.7505000000 2.9138000000 1.0573000000
5.7500000000 5.6280000000 1.0389000000
5.7498000000 1.7123000000 0.2589000000
5.7495000000 5.9108000000 0.8604000000
5.7490000000 1.9683000000 0.4305000000
5.7482000000 3.3943000000 1.3758000000
5.7459000000 4.9268000000 1.5103000000
5.5133000000 7.6790000000 0.0355000000
5.5118000000 6.3492000000 0.9185000000
5.5113000000 5.7076000000 1.2644000000
5.5106000000 6.1942000000 0.9472000000
5.5100000000 4.2556000000 2.1406000000
5.5090000000 6.7886000000 0.5509000000
5.5083000000 6.7191000000 0.5995000000
5.5080000000 7.8999000000 0.0411000000
5.5078000000 3.2534000000 1.5568000000
5.5074000000 1.4471000000 0.3696000000
5.5071000000 1.6326000000 0.4885000000
5.5067000000 5.8124000000 1.2794000000
5.5065000000 6.2912000000 0.8915000000
5.5064000000 4.0034000000 2.0495000000
5.5062000000 7.8345000000 0.0108000000
5.5059000000 2.2793000000 0.9165000000
5.5057000000 6.1023000000 1.0141000000
5.5054000000 5.0348000000 1.7916000000
5.5053000000 2.4163000000 1.0064000000
5.5050000000 6.2235000000 0.9298000000
5.5049000000 0.8507000000 0.0458000000
5.5045000000 2.5506000000 1.0944000000
5.5044000000 2.9945000000 1.3933000000
5.5042000000 4.9357000000 1.8592000000
5.5038000000 7.4503000000 0.1243000000
5.5036000000 4.7238000000 1.9904000000
5.5035000000 2.5522000000 1.1020000000
5.5033000000 3.2350000000 1.5499000000
5.5028000000 7.1887000000 0.2964000000
5.5027000000 1.9913000000 0.7346000000
5.5022000000 0.7342000000 0.0473000000
5.5019000000 3.1113000000 1.4685000000
5.5016000000 2.7805000000 1.2519000000
5.5008000000 2.1862000000 0.8599000000
5.4999000000 7.8390000000 0.0215000000
5.4985000000 1.4266000000 0.3610000000
5.4971000000 2.9278000000 1.3561000000
5.2639000000 6.4037000000 1.1608000000
5.2616000000 6.0047000000 1.3531000000
5.2609000000 8.1130000000 0.0359000000
5.2600000000 3.8983000000 2.2664000000
5.2593000000 8.3048000000 0.0638000000
5.2588000000 5.0813000000 2.0408000000
5.2585000000 4.6884000000 2.2259000000
5.2582000000 6.8605000000 0.7905000000
5.2580000000 7.5475000000 0.3406000000
5.2577000000 7.3308000000 0.4851000000
5.2575000000 5.3515000000 1.8684000000
5.2573000000 4.0460000000 2.3682000000
5.2571000000 5.1515000000 1.9188000000
5.2569000000 4.6848000000 2.3094000000
5.2567000000 1.4793000000 0.6753000000
5.2564000000 5.4729000000 1.7159000000
5.2562000000 1.4685000000 0.6682000000
5.2558000000 0.7443000000 0.1846000000
5.2554000000 4.3195000000 2.5212000000
5.2552000000 1.3110000000 0.5640000000
5.2550000000 0.5505000000 0.0683000000
5.2548000000 6.2834000000 1.1786000000
5.2546000000 6.9359000000 0.7450000000
5.2545000000 1.3196000000 0.5710000000
5.2542000000 1.9985000000 1.0233000000
5.2540000000 7.2306000000 0.5523000000
5.2536000000 0.7524000000 0.1988000000
5.2533000000 2.8811000000 1.6065000000
5.2531000000 7.0603000000 0.6691000000
5.2528000000 2.2071000000 1.1558000000
5.2525000000 7.0504000000 0.6708000000
5.2523000000 4.1142000000 2.4191000000
5.2520000000 7.7741000000 0.1992000000
5.2516000000 6.2514000000 1.2817000000
5.2513000000 3.3651000000 1.9204000000
5.2510000000 1.9274000000 0.9764000000
5.2507000000 4.1298000000 2.4327000000
5.2502000000 5.6122000000 1.6215000000
5.2496000000 7.9037000000 0.1130000000
5.2491000000 1.6942000000 0.8281000000
5.2441000000 0.3355000000 0.0083000000
5.0152000000 5.8246000000 1.8326000000
5.0117000000 8.2804000000 0.1376000000
5.0110000000 0.5869000000 0.3704000000
5.0102000000 1.5243000000 0.9851000000
5.0097000000 5.3663000000 2.0649000000
5.0094000000 5.4544000000 2.0814000000
5.0088000000 3.9890000000 2.6135000000
5.0083000000 3.1215000000 2.0453000000
5.0081000000 1.0518000000 0.6804000000
5.0078000000 7.9842000000 0.3329000000
5.0074000000 7.6316000000 0.5697000000
5.0072000000 3.7077000000 2.4313000000
5.0068000000 8.4037000000 0.1372000000
5.0066000000 8.2333000000 0.1713000000
5.0065000000 6.2741000000 1.4724000000
5.0059000000 6.0220000000 1.7121000000
5.0057000000 0.6632000000 0.4217000000
5.0055000000 2.7444000000 1.7942000000
5.0052000000 7.3867000000 0.7365000000
5.0047000000 3.4934000000 2.2896000000
5.0046000000 3.6842000000 2.4231000000
5.0043000000 6.3553000000 1.4167000000
5.0042000000 1.9508000000 1.2726000000
5.0040000000 0.0491000000 0.0727000000
5.0036000000 1.7469000000 1.1431000000
5.0030000000 4.3097000000 2.8163000000
5.0028000000 1.0050000000 0.6491000000
5.0024000000 5.4328000000 2.0297000000
5.0021000000 5.4397000000 2.1032000000
5.0019000000 2.7811000000 1.8284000000
5.0016000000 5.3081000000 2.1153000000
5.0015000000 0.9482000000 0.6157000000
5.0013000000 1.9442000000 1.2732000000
5.0008000000 1.1277000000 0.7330000000
5.0004000000 1.5668000000 1.0222000000
4.9996000000 0.6919000000 0.4560000000
4.9985000000 3.2093000000 2.1145000000
4.9976000000 3.5915000000 2.3675000000
4.9967000000 1.6491000000 1.0826000000
4.9942000000 1.5184000000 0.9942000000
4.7623000000 7.5833000000 0.8867000000
4.7609000000 1.3015000000 1.1192000000
4.7604000000 7.3168000000 1.0622000000
4.7598000000 6.8653000000 1.3607000000
4.7596000000 8.0203000000 0.5990000000
4.7594000000 3.1449000000 2.3403000000
4.7591000000 7.1216000000 1.1906000000
4.7589000000 8.2001000000 0.5349000000
4.7587000000 1.7735000000 1.4396000000
4.7585000000 0.9859000000 0.9199000000
4.7582000000 8.1164000000 0.5406000000
4.7579000000 7.8307000000 0.7241000000
4.7578000000 4.2915000000 3.0810000000
4.7574000000 8.2272000000 0.5183000000
4.7570000000 7.4438000000 0.9826000000
4.7568000000 4.3214000000 3.0950000000
4.7566000000 5.5175000000 2.3309000000
4.7564000000 8.2275000000 0.5200000000
4.7562000000 4.9334000000 2.7190000000
4.7559000000 5.8231000000 2.1269000000
4.7557000000 4.1600000000 3.0195000000
4.7555000000 1.8229000000 1.4693000000
4.7553000000 2.4132000000 1.8695000000
4.7551000000 3.8580000000 2.8197000000
4.7549000000 6.2734000000 1.8342000000
4.7548000000 4.7180000000 2.8574000000
4.7545000000 3.6758000000 2.6986000000
4.7540000000 6.3155000000 1.7312000000
4.7539000000 2.0743000000 1.6438000000
4.7537000000 3.5905000000 2.6445000000
4.7536000000 1.1669000000 1.0389000000
4.7534000000 1.9312000000 1.5492000000
4.7532000000 6.5531000000 1.5723000000
4.7528000000 0.7504000000 0.7781000000
4.7523000000 6.2999000000 1.8197000000
4.7521000000 4.8567000000 2.7707000000
4.7518000000 2.6006000000 1.9917000000
4.7516000000 6.3709000000 1.6954000000
4.7513000000 2.5241000000 1.9486000000
4.7510000000 5.9603000000 2.0431000000
4.7506000000 1.5599000000 1.3078000000
4.7503000000 2.2153000000 1.7438000000
4.7496000000 1.4322000000 1.2245000000
4.7490000000 2.1346000000 1.6903000000
4.7482000000 2.3830000000 1.8558000000
4.7471000000 0.6632000000 0.7180000000
4.7459000000 0.9990000000 0.9442000000
4.5144000000 6.2321000000 2.0567000000
4.5120000000 7.6935000000 1.0918000000
4.5115000000 5.1621000000 2.8516000000
4.5111000000 8.4651000000 0.1587000000
4.5106000000 6.9699000000 1.5766000000
4.5103000000 7.1583000000 1.5275000000
4.5095000000 7.1314000000 1.4700000000
4.5089000000 6.8659000000 1.7250000000
4.5086000000 4.7012000000 3.1550000000
4.5084000000 4.3830000000 3.3622000000
4.5081000000 2.0970000000 1.9366000000
4.5077000000 3.3389000000 2.7666000000
4.5074000000 0.6436000000 0.8637000000
4.5073000000 2.5455000000 2.2404000000
4.5070000000 3.9724000000 3.1785000000
4.5067000000 2.9550000000 2.5085000000
4.5065000000 7.2849000000 1.4481000000
4.5063000000 8.1275000000 0.6091000000
4.5061000000 0.9218000000 1.1495000000
4.5060000000 1.7242000000 1.7008000000
4.5057000000 1.6931000000 1.6702000000
4.5054000000 3.0980000000 2.6048000000
4.5052000000 1.0875000000 1.2762000000
4.5048000000 3.8343000000 3.0914000000
4.5045000000 3.7746000000 3.0558000000
4.5043000000 6.1528000000 2.1245000000
4.5040000000 7.9085000000 0.9572000000
4.5038000000 0.0289000000 0.0450000000
4.5037000000 6.3874000000 1.9647000000
4.5035000000 5.0874000000 2.8264000000
4.5032000000 0.7711000000 1.0088000000
4.5029000000 3.7975000000 3.0659000000
4.5027000000 0.3600000000 0.4858000000
4.5025000000 1.5251000000 1.5647000000
4.5023000000 8.6560000000 0.0592000000
4.5018000000 1.4794000000 1.5380000000
4.5015000000 6.4283000000 2.0151000000
4.5013000000 3.0518000000 2.5735000000
4.5008000000 3.8191000000 3.0855000000
4.5000000000 3.1045000000 2.6173000000
4.4991000000 0.1842000000 0.2590000000
4.4978000000 2.0779000000 1.9396000000
4.4977000000 1.9161000000 1.8287000000
4.2632000000 2.6259000000 2.5710000000
4.2629000000 7.7056000000 1.1631000000
4.2610000000 5.2379000000 3.0827000000
4.2607000000 7.6040000000 1.2971000000
4.2603000000 2.4369000000 2.4487000000
4.2601000000 7.0944000000 1.7780000000
4.2597000000 4.3777000000 3.5693000000
4.2589000000 3.4303000000 3.1050000000
4.2587000000 7.8912000000 0.9217000000
4.2583000000 2.9889000000 2.8072000000
4.2579000000 8.3344000000 0.3302000000
4.2574000000 5.1681000000 3.1297000000
4.2571000000 8.1963000000 0.5159000000
4.2570000000 0.6943000000 0.9271000000
4.2568000000 6.4373000000 2.2210000000
4.2565000000 0.2923000000 0.3951000000
4.2564000000 6.4736000000 2.2713000000
4.2562000000 5.1720000000 3.1264000000
4.2560000000 0.2232000000 0.3023000000
4.2558000000 4.1440000000 3.5796000000
4.2554000000 7.0919000000 1.7900000000
4.2552000000 5.8452000000 2.6924000000
4.2549000000 4.9767000000 3.2608000000
4.2548000000 3.5878000000 3.2116000000
4.2546000000 6.4609000000 2.2080000000
4.2544000000 8.1166000000 0.6213000000
4.2542000000 4.9941000000 3.2516000000
4.2540000000 5.0409000000 3.2162000000
4.2538000000 5.0043000000 3.2432000000
4.2535000000 7.9253000000 0.8737000000
4.2532000000 4.9246000000 3.2946000000
4.2529000000 0.2789000000 0.3770000000
4.2528000000 2.3474000000 2.3996000000
4.2526000000 3.2573000000 3.0015000000
4.2524000000 3.3629000000 3.0685000000
4.2522000000 2.9514000000 2.7952000000
4.2519000000 2.1189000000 2.2439000000
4.2516000000 1.2132000000 1.5902000000
4.2513000000 1.1131000000 1.4800000000
4.2508000000 5.5636000000 2.8020000000
4.2506000000 5.7330000000 2.7620000000
4.2504000000 8.0851000000 0.6626000000
4.2493000000 3.7705000000 3.3394000000
4.2488000000 0.3117000000 0.4234000000
4.2479000000 2.5739000000 2.5557000000
4.0131000000 5.7470000000 3.0304000000
4.0115000000 7.8261000000 1.0051000000
4.0108000000 5.2766000000 3.3434000000
4.0100000000 3.5366000000 3.4623000000
4.0093000000 6.1570000000 2.7627000000
4.0090000000 0.7545000000 1.0101000000
4.0085000000 0.3366000000 0.4528000000
4.0082000000 8.0816000000 0.6645000000
4.0080000000 6.3483000000 2.6410000000
4.0078000000 7.7262000000 1.1338000000
4.0074000000 7.1666000000 1.8765000000
4.0072000000 8.0727000000 0.6824000000
4.0069000000 5.7795000000 3.0184000000
4.0066000000 7.7511000000 1.1048000000
4.0064000000 1.6832000000 2.2122000000
4.0061000000 6.2588000000 2.6987000000
4.0060000000 2.8288000000 2.9925000000
4.0059000000 1.9994000000 2.4488000000
4.0056000000 4.3273000000 3.9521000000
4.0054000000 5.0408000000 3.5022000000
4.0053000000 8.6082000000 0.0383000000
4.0050000000 0.6217000000 0.8272000000
4.0048000000 8.6315000000 0.0109000000
4.0047000000 7.1336000000 1.9132000000
4.0043000000 5.8983000000 2.8632000000
4.0039000000 1.4879000000 1.9726000000
4.0037000000 0.7651000000 1.0208000000
4.0033000000 2.8332000000 3.0044000000
4.0031000000 7.9288000000 0.8691000000
4.0027000000 4.7770000000 3.6868000000
4.0021000000 4.2407000000 3.9372000000
4.0019000000 3.5090000000 3.4489000000
4.0017000000 8.2986000000 0.3788000000
4.0014000000 1.4721000000 1.9534000000
4.0013000000 2.2695000000 2.6312000000
4.0009000000 3.4599000000 3.4177000000
4.0006000000 5.6509000000 3.1096000000
4.0002000000 2.6290000000 2.8703000000
3.9996000000 1.6707000000 2.2034000000
3.9992000000 0.3733000000 0.4984000000
3.9985000000 0.3722000000 0.4992000000
3.9968000000 8.2357000000 0.4635000000
3.7627000000 3.0176000000 3.4026000000
3.7612000000 5.0702000000 3.7655000000
3.7603000000 8.1104000000 0.6343000000
3.7596000000 5.6132000000 3.4078000000
3.7591000000 4.6795000000 4.0229000000
3.7586000000 3.6839000000 3.8493000000
3.7582000000 8.1196000000 0.6183000000
3.7579000000 8.6387000000 0.0786000000
3.7577000000 1.7996000000 2.3901000000
3.7572000000 6.4725000000 2.8241000000
3.7568000000 6.4028000000 2.8795000000
3.7566000000 0.2770000000 0.3724000000
3.7565000000 7.4650000000 1.4810000000
3.7563000000 1.1225000000 1.4902000000
3.7561000000 0.5756000000 0.7683000000
3.7560000000 6.1136000000 3.0831000000
3.7557000000 4.8706000000 3.9007000000
3.7553000000 3.1949000000 3.5262000000
3.7551000000 7.5047000000 1.4316000000
3.7550000000 1.9674000000 2.6090000000
3.7548000000 0.4039000000 0.5441000000
3.7547000000 7.2807000000 1.7234000000
3.7544000000 4.1500000000 4.1599000000
3.7541000000 0.4900000000 0.6594000000
3.7540000000 1.0517000000 1.3952000000
3.7538000000 0.7935000000 1.0528000000
3.7536000000 4.6687000000 4.0383000000
3.7535000000 6.0684000000 3.1120000000
3.7532000000 2.3502000000 2.9695000000
3.7530000000 4.0133000000 4.0686000000
3.7525000000 4.3714000000 4.2346000000
3.7523000000 2.8598000000 3.3145000000
3.7521000000 2.4056000000 3.0139000000
3.7517000000 5.1495000000 3.7237000000
3.7513000000 5.9354000000 3.2033000000
3.7507000000 4.9005000000 3.8913000000
3.7503000000 5.3479000000 3.6038000000
3.7496000000 0.8555000000 1.1396000000
3.7494000000 2.7846000000 3.2616000000
3.7490000000 0.4873000000 0.6505000000
3.7478000000 1.0849000000 1.4405000000
3.7456000000 2.3646000000 2.9899000000
3.5130000000 4.1701000000 4.4448000000
3.5112000000 5.0834000000 4.0433000000
3.5107000000 5.9298000000 3.4831000000
3.5103000000 6.9663000000 2.1420000000
3.5100000000 5.6919000000 3.6405000000
3.5093000000 1.4955000000 1.9805000000
3.5089000000 7.9563000000 0.8296000000
3.5084000000 0.4368000000 0.5833000000
3.5080000000 5.0465000000 4.0700000000
3.5077000000 5.8945000000 3.5123000000
3.5073000000 8.4346000000 0.2035000000
3.5070000000 7.9787000000 0.8063000000
3.5068000000 8.4865000000 0.1299000000
3.5066000000 3.0426000000 3.7065000000
3.5065000000 2.6320000000 3.4156000000
3.5062000000 5.7832000000 3.5841000000
3.5060000000 0.5350000000 0.7155000000
3.5057000000 6.9089000000 2.2108000000
3.5055000000 3.8683000000 4.2485000000
3.5054000000 7.2586000000 1.7555000000
3.5052000000 3.9806000000 4.3332000000
3.5051000000 6.9928000000 2.1079000000
3.5048000000 4.3674000000 4.5143000000
3.5046000000 1.0232000000 1.3576000000
3.5045000000 0.5123000000 0.6899000000
3.5042000000 4.4224000000 4.4863000000
3.5036000000 6.7903000000 2.3722000000
3.5034000000 8.6307000000 0.0193000000
3.5032000000 7.5850000000 1.3283000000
3.5030000000 5.1075000000 4.0359000000
3.5028000000 4.7108000000 4.3005000000
3.5027000000 6.2890000000 3.0314000000
3.5023000000 6.6481000000 2.5595000000
3.5020000000 2.2960000000 3.0412000000
3.5015000000 0.4867000000 0.6502000000
3.5012000000 3.6349000000 4.1031000000
3.5010000000 3.1273000000 3.7721000000
3.5004000000 5.9112000000 3.4345000000
3.4997000000 3.6144000000 4.0941000000
3.4988000000 4.4079000000 4.5021000000
3.4983000000 1.3813000000 1.8338000000
3.4965000000 7.5276000000 1.3967000000
3.2641000000 8.5175000000 0.1664000000
3.2625000000 3.5223000000 4.3024000000
3.2608000000 6.3176000000 2.9995000000
3.2603000000 0.3262000000 0.4431000000
3.2597000000 3.9703000000 4.6038000000
3.2593000000 6.1868000000 3.1690000000
3.2589000000 8.4156000000 0.2315000000
3.2585000000 8.1011000000 0.6420000000
3.2579000000 2.2489000000 2.9769000000
3.2578000000 7.3691000000 1.6053000000
3.2575000000 8.4993000000 0.1177000000
3.2573000000 3.4998000000 4.3043000000
3.2570000000 2.7130000000 3.5904000000
3.2568000000 1.1486000000 1.5278000000
3.2567000000 0.1666000000 0.2330000000
3.2564000000 3.5203000000 4.3097000000
3.2562000000 7.4528000000 1.4973000000
3.2560000000 6.8611000000 2.2802000000
3.2557000000 6.4475000000 2.8281000000
3.2554000000 0.5659000000 0.7571000000
3.2551000000 2.6485000000 3.5106000000
3.2550000000 4.4751000000 4.7332000000
3.2547000000 6.4368000000 2.8405000000
3.2545000000 0.8983000000 1.1968000000
3.2543000000 5.8427000000 3.6240000000
3.2540000000 7.1820000000 1.8585000000
3.2539000000 0.3334000000 0.4483000000
3.2537000000 3.3687000000 4.2155000000
3.2535000000 0.3880000000 0.5263000000
3.2533000000 3.3757000000 4.2220000000
3.2530000000 6.4084000000 2.8759000000
3.2529000000 1.4987000000 1.9849000000
3.2527000000 0.8762000000 1.1636000000
3.2525000000 3.2827000000 4.1581000000
3.2523000000 7.6312000000 1.2613000000
3.2521000000 2.7725000000 3.6750000000
3.2519000000 8.5064000000 0.1134000000
3.2517000000 3.6114000000 4.3780000000
3.2515000000 0.3801000000 0.5117000000
3.2513000000 1.2123000000 1.6091000000
3.2507000000 0.3709000000 0.4948000000
3.2505000000 3.0952000000 4.0214000000
3.2499000000 2.2754000000 3.0174000000
3.2454000000 0.5168000000 0.6889000000
3.0117000000 4.7537000000 4.8345000000
3.0110000000 8.3705000000 0.2879000000
3.0108000000 7.3330000000 1.6553000000
3.0106000000 6.1002000000 3.2831000000
3.0098000000 6.3684000000 2.9289000000
3.0095000000 7.0975000000 1.9681000000
3.0093000000 5.0963000000 4.5303000000
3.0089000000 7.6313000000 1.2632000000
3.0082000000 3.0445000000 4.0352000000
3.0079000000 0.1685000000 0.2352000000
3.0076000000 3.1819000000 4.2134000000
3.0072000000 1.3603000000 1.8064000000
3.0069000000 5.0109000000 4.6681000000
3.0066000000 6.3257000000 2.9893000000
3.0064000000 3.5909000000 4.6435000000
3.0063000000 6.2442000000 3.1000000000
3.0061000000 7.6096000000 1.2935000000
3.0059000000 5.0704000000 4.6291000000
3.0057000000 0.5372000000 0.7197000000
3.0055000000 2.4100000000 3.1973000000
3.0053000000 5.5627000000 3.9970000000
3.0051000000 2.9919000000 3.9622000000
3.0050000000 4.0058000000 4.9181000000
3.0048000000 6.6251000000 2.5918000000
3.0045000000 4.9601000000 4.7049000000
3.0044000000 5.9988000000 3.4197000000
3.0042000000 4.4875000000 5.0153000000
3.0041000000 4.3232000000 5.0966000000
3.0038000000 5.9932000000 3.4272000000
3.0036000000 4.9592000000 4.7040000000
3.0034000000 1.8374000000 2.4321000000
3.0030000000 2.7634000000 3.6626000000
3.0025000000 0.9600000000 1.2819000000
3.0021000000 5.6796000000 3.8392000000
3.0020000000 5.2498000000 4.4614000000
3.0016000000 4.6164000000 4.9409000000
3.0014000000 0.5575000000 0.7452000000
3.0010000000 2.3187000000 3.0741000000
3.0005000000 2.2634000000 2.9994000000
3.0001000000 2.5920000000 3.4343000000
2.9997000000 1.8226000000 2.4135000000
2.9994000000 4.6109000000 4.9379000000
2.9984000000 5.4683000000 4.1206000000
2.9979000000 0.3487000000 0.4647000000
2.9965000000 1.6254000000 2.1519000000
2.7631000000 7.8615000000 0.9629000000
2.7620000000 7.4548000000 1.4922000000
2.7611000000 2.4722000000 3.2709000000
2.7603000000 8.4057000000 0.2421000000
2.7598000000 6.5441000000 2.6984000000
2.7588000000 6.9264000000 2.1995000000
2.7585000000 7.5980000000 1.3054000000
2.7582000000 4.1298000000 5.2831000000
2.7578000000 5.7600000000 3.7336000000
2.7573000000 5.8405000000 3.6318000000
2.7570000000 5.2637000000 4.3970000000
2.7568000000 4.1452000000 5.2991000000
2.7566000000 2.6554000000 3.5141000000
2.7563000000 7.9163000000 0.8924000000
2.7561000000 8.5331000000 0.1396000000
2.7560000000 6.2175000000 3.1311000000
2.7558000000 4.0224000000 5.2184000000
2.7552000000 6.5270000000 2.7208000000
2.7550000000 4.9250000000 4.8330000000
2.7548000000 2.2602000000 2.9916000000
2.7546000000 5.1845000000 4.4930000000
2.7545000000 5.8263000000 3.6470000000
2.7543000000 3.1467000000 4.1671000000
2.7540000000 1.7137000000 2.2763000000
2.7539000000 0.7633000000 1.0220000000
2.7536000000 4.6738000000 5.1622000000
2.7534000000 4.9263000000 4.9076000000
2.7528000000 6.3735000000 2.9198000000
2.7526000000 6.9299000000 2.1862000000
2.7524000000 7.9254000000 0.8723000000
2.7519000000 1.9884000000 2.6341000000
2.7515000000 3.0179000000 3.9951000000
2.7513000000 3.3256000000 4.3999000000
2.7508000000 5.1761000000 4.5059000000
2.7506000000 5.4673000000 4.1223000000
2.7504000000 2.1506000000 2.8541000000
2.7502000000 4.5494000000 5.2636000000
2.7497000000 0.5382000000 0.7185000000
2.7487000000 5.1848000000 4.4946000000
2.7481000000 6.2079000000 3.1370000000
2.7454000000 4.2822000000 5.3748000000
2.5120000000 3.5608000000 4.7089000000
2.5096000000 6.3081000000 3.0101000000
2.5092000000 7.4942000000 1.4477000000
2.5090000000 7.9197000000 0.8804000000
2.5084000000 6.4520000000 2.8239000000
2.5080000000 2.2190000000 2.9430000000
2.5076000000 8.4297000000 0.2093000000
2.5074000000 7.4801000000 1.4640000000
2.5070000000 5.5223000000 4.0469000000
2.5069000000 5.8034000000 3.6795000000
2.5066000000 8.6305000000 0.0184000000
2.5065000000 1.7446000000 2.3161000000
2.5060000000 3.0881000000 4.0864000000
2.5056000000 8.1464000000 0.5877000000
2.5053000000 7.5792000000 1.3297000000
2.5051000000 5.6939000000 3.8226000000
2.5049000000 4.2497000000 5.6098000000
2.5047000000 3.6522000000 4.8327000000
2.5045000000 5.3078000000 4.3323000000
2.5043000000 4.9616000000 4.7901000000
2.5040000000 8.4449000000 0.1898000000
2.5038000000 4.0336000000 5.3407000000
2.5035000000 0.0671000000 0.1037000000
2.5035000000 6.3676000000 2.9332000000
2.5033000000 8.0817000000 0.6713000000
2.5030000000 6.4777000000 2.7861000000
2.5028000000 5.6382000000 3.9007000000
2.5025000000 0.8665000000 1.1540000000
2.5022000000 1.1072000000 1.4714000000
2.5019000000 0.9548000000 1.2704000000
2.5013000000 0.7889000000 1.0500000000
2.5008000000 0.0613000000 0.0860000000
2.5005000000 2.7818000000 3.6815000000
2.5004000000 5.5080000000 4.0664000000
2.5002000000 1.1706000000 1.5526000000
2.4993000000 3.9105000000 5.1774000000
2.4988000000 0.4137000000 0.5570000000
2.4978000000 2.4438000000 3.2376000000
2.4957000000 0.1616000000 0.2178000000
2.2650000000 7.9256000000 0.8711000000
2.2618000000 7.3299000000 1.6606000000
2.2598000000 0.3828000000 0.5114000000
2.2594000000 4.2138000000 5.3780000000
2.2590000000 5.8966000000 3.5533000000
2.2585000000 4.1195000000 5.3158000000
2.2581000000 8.5483000000 0.1256000000
2.2578000000 4.9038000000 4.9401000000
2.2575000000 6.6609000000 2.5456000000
2.2572000000 0.7601000000 1.0141000000
2.2565000000 1.6810000000 2.2296000000
2.2561000000 6.3491000000 2.9578000000
2.2560000000 4.5781000000 5.2651000000
2.2558000000 6.9367000000 2.1808000000
2.2555000000 6.5207000000 2.7303000000
2.2553000000 0.7133000000 0.9462000000
2.2552000000 2.8929000000 3.8317000000
2.2550000000 7.2378000000 1.7897000000
2.2548000000 0.8612000000 1.1460000000
2.2545000000 2.0554000000 2.7211000000
2.2543000000 5.1988000000 4.4732000000
2.2540000000 0.0149000000 0.0271000000
2.2538000000 5.1702000000 4.5150000000
2.2537000000 6.8513000000 2.2931000000
2.2534000000 6.3147000000 3.0085000000
2.2530000000 1.3812000000 1.8374000000
2.2528000000 4.8119000000 5.0448000000
2.2526000000 1.4760000000 1.9569000000
2.2523000000 0.8616000000 1.1477000000
2.2519000000 1.9960000000 2.6466000000
2.2518000000 3.8736000000 5.1066000000
2.2513000000 1.6101000000 2.1397000000
2.2508000000 3.8867000000 5.1246000000
2.2501000000 0.4575000000 0.6106000000
2.2498000000 1.7834000000 2.3637000000
2.2485000000 3.9145000000 5.1463000000
2.2483000000 2.1739000000 2.8809000000
2.2479000000 1.1645000000 1.5483000000
2.2460000000 0.1970000000 0.2749000000
2.0177000000 6.6205000000 2.5957000000
2.0127000000 6.9943000000 2.1058000000
2.0097000000 7.1457000000 1.9117000000
2.0084000000 5.6857000000 3.8343000000
2.0079000000 6.1587000000 3.2109000000
2.0076000000 7.6349000000 1.2541000000
2.0073000000 5.7731000000 3.7200000000
2.0072000000 2.3562000000 3.1232000000
2.0070000000 7.1756000000 1.8609000000
2.0067000000 2.4529000000 3.2509000000
2.0065000000 2.5558000000 3.3857000000
2.0064000000 3.2165000000 4.2558000000
2.0061000000 3.6855000000 4.7405000000
2.0059000000 6.4063000000 2.8827000000
2.0057000000 3.6200000000 4.7021000000
2.0055000000 8.5945000000 0.0648000000
2.0053000000 4.1092000000 5.0158000000
2.0050000000 3.5482000000 4.6324000000
2.0047000000 1.6853000000 2.2356000000
2.0043000000 1.7290000000 2.2960000000
2.0040000000 7.3760000000 1.6015000000
2.0038000000 2.2210000000 2.9349000000
2.0035000000 8.5644000000 0.1084000000
2.0033000000 0.0629000000 0.0957000000
2.0031000000 3.8705000000 4.8645000000
2.0028000000 8.0179000000 0.7559000000
2.0022000000 0.0818000000 0.1156000000
2.0019000000 5.1599000000 4.5793000000
2.0018000000 3.8152000000 4.8153000000
2.0014000000 3.8214000000 4.8241000000
2.0013000000 6.1040000000 3.2807000000
2.0009000000 3.2537000000 4.3092000000
2.0003000000 7.0102000000 2.0865000000
1.9995000000 5.7041000000 3.8125000000
1.9993000000 2.5491000000 3.3754000000
1.9985000000 3.4362000000 4.5243000000
1.9954000000 0.0031000000 0.0158000000
1.7642000000 7.5035000000 1.4306000000
1.7623000000 8.4673000000 0.1546000000
1.7605000000 3.0810000000 4.0332000000
1.7600000000 4.1753000000 4.7769000000
1.7591000000 4.4225000000 4.8104000000
1.7587000000 8.7136000000 0.0532000000
1.7585000000 3.3754000000 4.2542000000
1.7580000000 5.2983000000 4.2267000000
1.7578000000 6.7148000000 2.4712000000
1.7575000000 8.3668000000 0.2940000000
1.7573000000 6.8658000000 2.2690000000
1.7570000000 8.2094000000 0.4976000000
1.7566000000 4.5588000000 4.7138000000
1.7564000000 0.9566000000 1.2705000000
1.7561000000 7.2201000000 1.8000000000
1.7560000000 5.2410000000 4.2647000000
1.7556000000 7.9800000000 0.8075000000
1.7554000000 2.2068000000 2.9259000000
1.7553000000 0.8647000000 1.1522000000
1.7551000000 5.7140000000 3.7913000000
1.7548000000 5.6383000000 3.9449000000
1.7545000000 3.2758000000 4.1799000000
1.7544000000 6.1917000000 3.1666000000
1.7542000000 4.0070000000 4.6627000000
1.7540000000 8.5753000000 0.0913000000
1.7538000000 0.2101000000 0.2864000000
1.7537000000 7.0989000000 1.9703000000
1.7535000000 8.1935000000 0.5185000000
1.7533000000 8.6687000000 0.0406000000
1.7530000000 3.2204000000 4.1471000000
1.7528000000 2.7503000000 3.6436000000
1.7526000000 6.0933000000 3.2990000000
1.7525000000 2.2464000000 2.9768000000
1.7523000000 4.2760000000 4.8152000000
1.7518000000 4.1425000000 4.7476000000
1.7513000000 3.2149000000 4.1404000000
1.7512000000 3.7832000000 4.5159000000
1.7509000000 4.8023000000 4.5475000000
1.7503000000 2.3875000000 3.1617000000
1.7501000000 3.7875000000 4.5153000000
1.7500000000 0.1397000000 0.1953000000
1.7488000000 1.0662000000 1.4180000000
1.7484000000 6.8044000000 2.3545000000
1.7480000000 0.1408000000 0.1926000000
1.7474000000 1.4068000000 1.8708000000
1.7456000000 0.3972000000 0.5333000000
1.5138000000 4.7400000000 4.3155000000
1.5124000000 3.8463000000 4.2857000000
1.5111000000 8.1739000000 0.5453000000
1.5103000000 1.9890000000 2.6369000000
1.5097000000 5.0783000000 4.0856000000
1.5093000000 5.5022000000 3.8101000000
1.5090000000 5.3470000000 3.9136000000
1.5082000000 3.6467000000 4.1383000000
1.5078000000 5.6654000000 3.6965000000
1.5076000000 6.7803000000 2.3873000000
1.5074000000 7.5945000000 1.3141000000
1.5073000000 4.4730000000 4.4867000000
1.5069000000 3.5229000000 4.0631000000
1.5068000000 6.9946000000 2.1065000000
1.5066000000 7.1214000000 1.9303000000
1.5062000000 5.1965000000 4.0068000000
1.5061000000 1.5081000000 2.0020000000
1.5059000000 7.1989000000 1.8386000000
1.5057000000 4.0814000000 4.4297000000
1.5055000000 4.0420000000 4.3995000000
1.5052000000 3.4767000000 4.0317000000
1.5049000000 8.0034000000 0.7686000000
1.5048000000 5.2580000000 3.9681000000
1.5045000000 7.9638000000 0.8265000000
1.5043000000 5.4471000000 3.8368000000
1.5039000000 5.2006000000 3.9975000000
1.5037000000 5.2826000000 3.9434000000
1.5035000000 5.4520000000 3.8374000000
1.5033000000 0.1009000000 0.1452000000
1.5032000000 7.2222000000 1.8021000000
1.5030000000 4.4311000000 4.5019000000
1.5028000000 3.2890000000 3.9028000000
1.5025000000 1.7184000000 2.2814000000
1.5023000000 2.7699000000 3.5579000000
1.5020000000 8.5633000000 0.1078000000
1.5018000000 4.2483000000 4.5301000000
1.5017000000 2.5173000000 3.3155000000
1.5013000000 6.1998000000 3.1539000000
1.5011000000 2.4661000000 3.2626000000
1.5008000000 1.0595000000 1.4051000000
1.5004000000 0.0272000000 0.0459000000
1.5001000000 0.5247000000 0.7032000000
1.4993000000 1.6310000000 2.1647000000
1.4981000000 4.7984000000 4.2590000000
1.4975000000 0.7832000000 1.0414000000
1.4953000000 0.7814000000 1.0412000000
1.2617000000 8.0902000000 0.6556000000
1.2609000000 5.8713000000 3.2805000000
1.2600000000 7.8650000000 0.9516000000
1.2595000000 3.1490000000 3.5355000000
1.2590000000 0.2200000000 0.3012000000
1.2583000000 1.7241000000 2.2944000000
1.2580000000 5.3262000000 3.6308000000
1.2577000000 6.4998000000 2.8161000000
1.2575000000 5.0856000000 3.7939000000
1.2570000000 4.6574000000 4.0777000000
1.2568000000 5.6010000000 3.4513000000
1.2564000000 8.6527000000 0.0600000000
1.2562000000 4.0024000000 4.0943000000
1.2560000000 7.6382000000 1.2555000000
1.2558000000 6.6799000000 2.5198000000
1.2557000000 5.4090000000 3.5825000000
1.2555000000 4.6115000000 4.1049000000
1.2553000000 5.7685000000 3.3416000000
1.2551000000 4.2793000000 4.2550000000
1.2550000000 2.5254000000 3.1122000000
1.2548000000 3.8478000000 3.9906000000
1.2547000000 5.0058000000 3.8449000000
1.2545000000 6.6398000000 2.5705000000
1.2544000000 4.2036000000 4.2274000000
1.2542000000 3.6240000000 3.8371000000
1.2540000000 3.9241000000 4.0381000000
1.2539000000 4.2633000000 4.1775000000
1.2535000000 8.0760000000 0.6820000000
1.2534000000 3.3250000000 3.6402000000
1.2530000000 6.3525000000 2.8710000000
1.2527000000 1.7322000000 2.3013000000
1.2525000000 7.4458000000 1.5052000000
1.2519000000 1.8641000000 2.4682000000
1.2518000000 6.5987000000 2.6306000000
1.2514000000 7.0057000000 2.0915000000
1.2509000000 2.6817000000 3.2116000000
1.2504000000 0.4262000000 0.5677000000
1.2500000000 2.2322000000 2.8944000000
1.2489000000 5.9792000000 3.1926000000
1.2462000000 0.3035000000 0.4051000000
1.0115000000 6.2127000000 2.7704000000
1.0109000000 7.9055000000 0.8970000000
1.0100000000 3.9783000000 3.7941000000
1.0095000000 0.3287000000 0.4469000000
1.0093000000 5.8745000000 2.9904000000
1.0088000000 2.8207000000 3.0229000000
1.0085000000 1.9162000000 2.4276000000
1.0080000000 1.7698000000 2.3164000000
1.0076000000 3.0487000000 3.1765000000
1.0073000000 5.5704000000 3.1877000000
1.0068000000 3.9760000000 3.7928000000
1.0065000000 8.2938000000 0.3878000000
1.0063000000 2.6929000000 2.9429000000
1.0060000000 4.0959000000 3.8656000000
1.0055000000 5.0908000000 3.5006000000
1.0053000000 2.8583000000 3.0500000000
1.0049000000 3.7392000000 3.6302000000
1.0048000000 6.3151000000 2.6939000000
1.0046000000 4.7783000000 3.7085000000
1.0045000000 0.5054000000 0.6765000000
1.0043000000 4.8491000000 3.6629000000
1.0041000000 2.1539000000 2.5796000000
1.0038000000 2.3982000000 2.7439000000
1.0036000000 0.9136000000 1.2168000000
1.0034000000 7.0674000000 2.0040000000
1.0033000000 7.0230000000 2.0620000000
1.0029000000 2.5827000000 2.8623000000
1.0027000000 6.1217000000 2.8232000000
1.0023000000 2.2422000000 2.6361000000
1.0018000000 3.4585000000 3.4403000000
1.0015000000 2.8624000000 3.0527000000
1.0011000000 2.8310000000 3.0262000000
1.0010000000 4.4175000000 3.9438000000
1.0005000000 1.0481000000 1.3943000000
1.0003000000 1.6327000000 2.1510000000
0.9998000000 2.6610000000 2.9087000000
0.9996000000 0.8686000000 1.1531000000
0.9994000000 0.3059000000 0.4146000000
0.9989000000 2.0128000000 2.4788000000
0.9986000000 3.2148000000 3.2822000000
0.9984000000 2.6366000000 2.8963000000
0.9968000000 0.8902000000 1.1869000000
0.9938000000 2.9586000000 3.0972000000
0.7619000000 0.4641000000 0.6206000000
0.7612000000 8.0154000000 0.7524000000
0.7607000000 7.0040000000 1.8801000000
0.7602000000 7.5544000000 1.3609000000
0.7597000000 3.4706000000 3.1694000000
0.7593000000 7.8976000000 0.9096000000
0.7590000000 7.2006000000 1.7544000000
0.7584000000 3.8046000000 3.3913000000
0.7581000000 4.3947000000 3.6824000000
0.7579000000 1.5479000000 1.8977000000
0.7575000000 8.6245000000 0.0274000000
0.7575000000 5.6890000000 2.8242000000
0.7572000000 4.8578000000 3.3723000000
0.7567000000 8.0824000000 0.6625000000
0.7564000000 7.9253000000 0.8765000000
0.7560000000 6.9893000000 1.9617000000
0.7559000000 3.5831000000 3.2398000000
0.7558000000 3.0966000000 2.9159000000
0.7557000000 3.4882000000 3.1791000000
0.7554000000 1.3901000000 1.7774000000
0.7553000000 2.3613000000 2.4316000000
0.7548000000 4.4718000000 3.6258000000
0.7546000000 6.9450000000 1.9884000000
0.7545000000 2.0809000000 2.2491000000
0.7544000000 1.1806000000 1.4998000000
0.7542000000 4.5570000000 3.5700000000
0.7540000000 0.9841000000 1.3067000000
0.7538000000 4.9382000000 3.3067000000
0.7535000000 4.2634000000 3.6048000000
0.7533000000 2.2036000000 2.3272000000
0.7532000000 3.5136000000 3.1914000000
0.7530000000 4.8877000000 3.3498000000
0.7525000000 3.3234000000 3.0654000000
0.7523000000 3.4964000000 3.1783000000
0.7520000000 0.8425000000 1.1229000000
0.7518000000 1.4277000000 1.7343000000
0.7517000000 6.3931000000 2.3530000000
0.7511000000 1.1401000000 1.5134000000
0.7508000000 2.4035000000 2.4525000000
0.7504000000 4.6995000000 3.4644000000
0.7502000000 4.6872000000 3.4803000000
0.7493000000 0.2076000000 0.2820000000
0.7490000000 0.8950000000 1.1919000000
0.7485000000 1.2274000000 1.6053000000
0.7478000000 1.0464000000 1.3931000000
0.7473000000 2.1241000000 2.2682000000
0.7458000000 0.8164000000 1.0904000000
0.5161000000 6.0602000000 2.2977000000
0.5113000000 6.2719000000 2.1504000000
0.5109000000 7.9948000000 0.7776000000
0.5098000000 3.0705000000 2.6163000000
0.5094000000 8.0901000000 0.6595000000
0.5091000000 7.1421000000 1.5075000000
0.5089000000 6.8410000000 1.7816000000
0.5085000000 8.6645000000 0.0484000000
0.5083000000 6.3832000000 2.0044000000
0.5078000000 8.6382000000 0.0790000000
0.5077000000 2.7508000000 2.4061000000
0.5074000000 6.9077000000 1.6564000000
0.5072000000 7.2570000000 1.5008000000
0.5070000000 3.9358000000 3.1890000000
0.5063000000 4.2535000000 3.3205000000
0.5060000000 8.0128000000 0.7517000000
0.5056000000 5.6828000000 2.5378000000
0.5055000000 6.6902000000 1.8783000000
0.5051000000 8.1655000000 0.5612000000
0.5049000000 0.8752000000 1.1456000000
0.5048000000 1.9324000000 1.8629000000
0.5046000000 0.8673000000 1.1317000000
0.5044000000 7.9855000000 0.7894000000
0.5041000000 4.7513000000 3.1582000000
0.5040000000 0.0910000000 0.1253000000
0.5038000000 0.6604000000 0.8860000000
0.5033000000 1.5243000000 1.5900000000
0.5030000000 8.6340000000 0.0864000000
0.5028000000 7.8281000000 1.0538000000
0.5027000000 8.4823000000 0.1374000000
0.5024000000 8.4002000000 0.2510000000
0.5020000000 0.9009000000 1.1582000000
0.5017000000 4.0635000000 3.2668000000
0.5014000000 3.9254000000 3.1756000000
0.5013000000 0.5941000000 0.7950000000
0.5003000000 1.6628000000 1.6771000000
0.4995000000 0.1466000000 0.2053000000
0.4990000000 1.1825000000 1.3644000000
0.4979000000 1.0035000000 1.2410000000
0.4965000000 0.3884000000 0.5219000000
0.4954000000 3.1285000000 2.6419000000
0.2614000000 8.1895000000 0.5798000000
0.2608000000 5.9508000000 2.0820000000
0.2604000000 8.6111000000 0.0413000000
0.2594000000 7.5883000000 0.9179000000
0.2586000000 1.3851000000 1.2183000000
0.2582000000 6.0835000000 1.9901000000
0.2573000000 7.6253000000 0.9000000000
0.2570000000 6.4339000000 1.7533000000
0.2568000000 3.9057000000 2.8849000000
0.2563000000 7.1479000000 1.2832000000
0.2561000000 1.8209000000 1.5004000000
0.2558000000 5.9892000000 2.0520000000
0.2554000000 4.3804000000 3.0433000000
0.2552000000 3.6015000000 2.6791000000
0.2548000000 3.1555000000 2.3807000000
0.2547000000 6.9033000000 1.3693000000
0.2545000000 0.0333000000 0.0529000000
0.2541000000 6.0290000000 2.0230000000
0.2538000000 1.7935000000 1.4845000000
0.2535000000 1.1927000000 1.0905000000
0.2533000000 5.7434000000 2.1353000000
0.2530000000 2.4124000000 1.8943000000
0.2526000000 5.5179000000 2.3619000000
0.2521000000 2.5931000000 2.0169000000
0.2519000000 5.9971000000 2.0424000000
0.2517000000 8.3396000000 0.3239000000
0.2514000000 6.3737000000 1.7906000000
0.2511000000 5.9681000000 2.0600000000
0.2504000000 5.0209000000 2.6863000000
0.2500000000 0.2247000000 0.3056000000
0.2496000000 0.6905000000 0.7478000000
0.2495000000 2.1004000000 1.6761000000
0.2490000000 3.4824000000 2.5984000000
0.2485000000 1.3553000000 1.1900000000
0.2482000000 5.5597000000 2.3265000000
0.2471000000 1.4160000000 1.2350000000
0.0123000000 5.3056000000 2.2249000000
0.0107000000 6.7552000000 1.1887000000
0.0095000000 2.6879000000 1.7955000000
0.0088000000 2.4881000000 1.6632000000
0.0082000000 5.7120000000 1.9462000000
0.0080000000 1.8107000000 1.2175000000
0.0075000000 5.1222000000 2.3350000000
0.0071000000 2.0182000000 1.3447000000
0.0067000000 3.0338000000 2.0208000000
0.0063000000 4.3214000000 2.8418000000
0.0061000000 5.0518000000 2.3798000000
0.0056000000 6.5919000000 1.3677000000
0.0055000000 5.6951000000 1.9597000000
0.0053000000 7.2189000000 0.8781000000
0.0052000000 4.2767000000 2.8216000000
0.0050000000 6.3933000000 1.4975000000
0.0046000000 4.2594000000 2.7489000000
0.0044000000 3.1239000000 2.0781000000
0.0042000000 3.8853000000 2.5780000000
0.0039000000 2.3353000000 1.5542000000
0.0036000000 8.5324000000 0.0658000000
0.0035000000 5.6795000000 1.9661000000
0.0031000000 6.6925000000 1.2187000000
0.0030000000 0.8212000000 0.5535000000
0.0028000000 1.0115000000 0.6807000000
0.0027000000 6.5052000000 1.3388000000
0.0026000000 3.1419000000 2.0910000000
0.0025000000 5.4080000000 2.1417000000
0.0021000000 5.8331000000 1.8586000000
0.0019000000 4.4791000000 2.7613000000
0.0018000000 8.3454000000 0.1303000000
0.0016000000 8.5757000000 0.1034000000
0.0014000000 4.0548000000 2.6832000000
0.0011000000 4.1524000000 2.7585000000
0.0008000000 4.5604000000 2.7083000000
0.0000000000 7.4848000000 0.6967000000
-0.0005000000 2.2033000000 1.4752000000
-0.0018000000 0.4237000000 0.2847000000
-0.0027000000 1.9119000000 1.2703000000
-0.0044000000 2.4370000000 1.6150000000
-0.2370000000 8.3908000000 0.0466000000
-0.2386000000 8.2825000000 0.0423000000
-0.2395000000 2.5039000000 1.3876000000
-0.2402000000 3.3654000000 1.9545000000
-0.2409000000 7.1804000000 0.6222000000
-0.2411000000 7.7744000000 0.2238000000
-0.2417000000 7.6163000000 0.3317000000
-0.2426000000 7.6499000000 0.3070000000
-0.2429000000 4.1563000000 2.4781000000
-0.2431000000 0.8924000000 0.3243000000
-0.2434000000 8.1309000000 0.0692000000
-0.2440000000 2.3061000000 1.2509000000
-0.2445000000 8.2498000000 0.0560000000
-0.2448000000 5.7824000000 1.5397000000
-0.2452000000 3.6279000000 2.1232000000
-0.2455000000 1.6337000000 0.8088000000
-0.2457000000 3.6248000000 2.1258000000
-0.2459000000 6.7430000000 0.9767000000
-0.2461000000 7.5310000000 0.3869000000
-0.2463000000 7.3549000000 0.5018000000
-0.2467000000 5.4580000000 1.8245000000
-0.2470000000 8.2684000000 0.0434000000
-0.2472000000 1.1742000000 0.5093000000
-0.2475000000 8.2029000000 0.0125000000
-0.2477000000 3.2143000000 1.8476000000
-0.2480000000 2.6319000000 1.4634000000
-0.2485000000 1.8980000000 0.9777000000
-0.2488000000 6.9236000000 0.7881000000
-0.2492000000 2.3598000000 1.2780000000
-0.2497000000 6.9514000000 0.7627000000
-0.2507000000 2.2122000000 1.1772000000
-0.2528000000 1.7398000000 0.8714000000
-0.2539000000 1.4159000000 0.6560000000
-0.4888000000 3.6185000000 1.8391000000
-0.4897000000 4.9215000000 1.8997000000
-0.4905000000 6.4606000000 0.8073000000
-0.4917000000 5.0112000000 1.8386000000
-0.4920000000 7.3033000000 0.2531000000
-0.4925000000 7.1954000000 0.3194000000
-0.4930000000 6.9939000000 0.4494000000
-0.4932000000 4.4752000000 2.1949000000
-0.4935000000 5.5629000000 1.4725000000
-0.4938000000 3.0525000000 1.4588000000
-0.4940000000 6.8921000000 0.5185000000
-0.4945000000 7.6867000000 0.0705000000
-0.4946000000 3.3593000000 1.6633000000
-0.4950000000 6.2002000000 0.9762000000
-0.4951000000 7.1879000000 0.3234000000
-0.4954000000 6.7754000000 0.5982000000
-0.4955000000 3.5738000000 1.8061000000
-0.4957000000 3.3029000000 1.6220000000
-0.4960000000 6.3354000000 0.8840000000
-0.4962000000 2.2357000000 0.9132000000
-0.4964000000 5.5040000000 1.5135000000
-0.4966000000 1.6874000000 0.5530000000
-0.4969000000 6.5852000000 0.7212000000
-0.4970000000 2.1269000000 0.8470000000
-0.4972000000 2.3301000000 0.9824000000
-0.4975000000 4.1464000000 2.1773000000
-0.4977000000 1.4687000000 0.4108000000
-0.4979000000 6.1302000000 1.0252000000
-0.4982000000 7.0305000000 0.4285000000
-0.4985000000 1.2728000000 0.2803000000
-0.4990000000 0.9294000000 0.0529000000
-0.4992000000 5.8511000000 1.2738000000
-0.4995000000 3.2766000000 1.6017000000
-0.4997000000 2.3637000000 0.9986000000
-0.5001000000 1.9960000000 0.7565000000
-0.5012000000 3.6018000000 1.8052000000
-0.5025000000 2.5759000000 1.1347000000
-0.5053000000 1.7908000000 0.6079000000
-0.7384000000 6.7843000000 0.3166000000
-0.7401000000 4.5222000000 1.8773000000
-0.7417000000 2.5906000000 0.8733000000
-0.7421000000 2.8772000000 1.0578000000
-0.7423000000 7.0142000000 0.1588000000
-0.7427000000 5.9008000000 0.8906000000
-0.7429000000 4.1890000000 1.9263000000
-0.7433000000 5.6072000000 1.1583000000
-0.7437000000 1.1685000000 0.0048000000
-0.7440000000 6.6637000000 0.3911000000
-0.7443000000 3.5996000000 1.5342000000
-0.7445000000 4.9005000000 1.6275000000
-0.7450000000 2.1772000000 0.5962000000
-0.7452000000 6.2569000000 0.7281000000
-0.7456000000 3.0259000000 1.1589000000
-0.7458000000 3.1080000000 1.2055000000
-0.7461000000 5.6420000000 1.1358000000
-0.7465000000 1.0547000000 -0.0012000000
-0.7470000000 3.8105000000 1.6755000000
-0.7475000000 2.8883000000 1.0634000000
-0.7477000000 4.6755000000 1.7717000000
-0.7478000000 1.7443000000 0.3055000000
-0.7480000000 3.8477000000 1.6968000000
-0.7482000000 3.4095000000 1.4086000000
-0.7483000000 3.9842000000 1.7866000000
-0.7489000000 7.4762000000 0.0680000000
-0.7494000000 2.8026000000 1.0034000000
-0.7505000000 1.3823000000 0.0621000000
-0.7508000000 6.3354000000 0.6719000000
-0.7510000000 1.2787000000 0.0678000000
-0.7517000000 4.7502000000 1.7112000000
-0.7520000000 3.1474000000 1.2243000000
-0.7548000000 2.8031000000 1.0010000000
-0.9883000000 6.7800000000 0.1013000000
-0.9901000000 1.6254000000 0.0295000000
-0.9916000000 5.8554000000 0.6327000000
-0.9925000000 2.8500000000 0.7571000000
-0.9929000000 1.7361000000 0.0181000000
-0.9932000000 1.5784000000 0.0634000000
-0.9935000000 4.0746000000 1.5655000000
-0.9937000000 6.9222000000 0.0782000000
-0.9939000000 3.9564000000 1.4862000000
-0.9944000000 5.6711000000 0.7593000000
-0.9951000000 2.6002000000 0.5910000000
-0.9955000000 3.5098000000 1.1830000000
-0.9957000000 3.8217000000 1.3933000000
-0.9961000000 3.5577000000 1.2218000000
-0.9964000000 2.5305000000 0.5371000000
-0.9970000000 3.1415000000 0.9402000000
-0.9973000000 5.1450000000 1.1707000000
-0.9977000000 5.4495000000 0.9698000000
-0.9982000000 4.3579000000 1.6748000000
-0.9983000000 5.3738000000 1.0229000000
-0.9985000000 4.9766000000 1.2864000000
-0.9988000000 7.0511000000 0.0660000000
-0.9993000000 5.9691000000 0.5531000000
-0.9999000000 3.0263000000 0.8589000000
-1.0003000000 4.7825000000 1.4093000000
-1.0007000000 2.3348000000 0.4065000000
-1.0016000000 2.6547000000 0.6146000000
-1.0030000000 1.9758000000 0.1621000000
-1.2377000000 2.2659000000 0.0920000000
-1.2391000000 5.6342000000 0.5704000000
-1.2398000000 3.8352000000 1.1267000000
-1.2412000000 6.3646000000 0.0851000000
-1.2418000000 6.0450000000 0.2282000000
-1.2424000000 5.7498000000 0.4954000000
-1.2428000000 4.6802000000 1.1971000000
-1.2431000000 3.8336000000 1.1201000000
-1.2435000000 4.8735000000 1.0712000000
-1.2445000000 4.2718000000 1.3914000000
-1.2449000000 5.2322000000 0.8353000000
-1.2453000000 2.5193000000 0.2475000000
-1.2458000000 2.4279000000 0.1838000000
-1.2464000000 2.4068000000 0.1730000000
-1.2467000000 2.1943000000 0.0333000000
-1.2470000000 5.6158000000 0.5737000000
-1.2473000000 4.9908000000 0.9895000000
-1.2475000000 6.6424000000 0.0489000000
-1.2477000000 3.8685000000 1.1314000000
-1.2486000000 2.4597000000 0.2056000000
-1.2490000000 5.6585000000 0.4742000000
-1.2506000000 6.5334000000 0.0408000000
-1.2510000000 1.9353000000 0.0110000000
-1.2522000000 4.8364000000 1.0857000000
-1.2538000000 4.2652000000 1.3769000000
-1.4898000000 3.5214000000 0.6319000000
-1.4918000000 5.4813000000 0.3862000000
-1.4922000000 5.5506000000 0.3403000000
-1.4937000000 3.0128000000 0.2873000000
-1.4937000000 3.6747000000 0.7283000000
-1.4943000000 2.7658000000 0.1251000000
-1.4946000000 2.5896000000 0.0130000000
-1.4950000000 3.6352000000 0.7022000000
-1.4958000000 4.0228000000 0.9559000000
-1.4964000000 4.1595000000 1.0451000000
-1.4970000000 3.1948000000 0.4058000000
-1.4976000000 4.4544000000 1.0560000000
-1.4983000000 2.4217000000 0.0433000000
-1.4987000000 3.5216000000 0.6225000000
-1.4999000000 2.9902000000 0.2671000000
-1.5013000000 5.9355000000 0.0800000000
-1.5031000000 2.4332000000 0.0460000000
-1.5051000000 3.2962000000 0.4651000000
-1.7412000000 3.4299000000 0.2812000000
-1.7420000000 3.7891000000 0.5147000000
-1.7425000000 2.9487000000 0.0371000000
-1.7431000000 4.6059000000 0.6837000000
-1.7442000000 3.9930000000 0.6513000000
-1.7452000000 4.3483000000 0.8237000000
-1.7461000000 4.2594000000 0.7466000000
-1.7466000000 4.0685000000 0.6953000000
