6.7582000000 3.3499000000 0.0535000000
6.7571000000 3.3572000000 0.0618000000
6.7567000000 3.0023000000 0.0053000000
6.7563000000 4.8229000000 0.1714000000
6.7557000000 5.3784000000 0.0409000000
6.7552000000 5.3720000000 0.0479000000
6.7537000000 3.6311000000 0.1557000000
6.7520000000 3.5295000000 0.1177000000
6.7504000000 5.1552000000 0.0545000000
6.5140000000 4.5741000000 0.4135000000
6.5118000000 4.5545000000 0.4215000000
6.5096000000 5.5515000000 0.0602000000
6.5085000000 5.3411000000 0.1423000000
6.5070000000 2.6303000000 0.0244000000
6.5068000000 3.6231000000 0.3178000000
6.5060000000 3.2526000000 0.1823000000
6.5054000000 5.3223000000 0.1513000000
6.5046000000 2.7482000000 0.0781000000
6.5044000000 4.9966000000 0.2694000000
6.5040000000 4.2951000000 0.5220000000
6.5033000000 4.7941000000 0.3448000000
6.5018000000 4.1914000000 0.5226000000
6.5008000000 4.7823000000 0.3527000000
6.4998000000 3.9545000000 0.4393000000
6.4990000000 2.8089000000 0.0307000000
6.4975000000 3.3774000000 0.2317000000
6.2619000000 5.8327000000 0.1144000000
6.2608000000 5.0055000000 0.4175000000
6.2600000000 4.1292000000 0.6621000000
6.2591000000 2.5532000000 0.0774000000
6.2589000000 5.5061000000 0.2365000000
6.2574000000 2.6110000000 0.1054000000
6.2571000000 4.6116000000 0.5610000000
6.2568000000 5.6926000000 0.1709000000
6.2561000000 5.4422000000 0.2540000000
6.2553000000 4.4667000000 0.6205000000
6.2550000000 3.0603000000 0.2739000000
6.2545000000 3.0812000000 0.2743000000
6.2542000000 6.1869000000 0.0637000000
6.2539000000 3.6585000000 0.4917000000
6.2536000000 3.0132000000 0.2481000000
6.2533000000 5.7342000000 0.1558000000
6.2530000000 4.1383000000 0.6652000000
6.2526000000 4.1413000000 0.6712000000
6.2521000000 2.7497000000 0.1612000000
6.2511000000 4.6639000000 0.5492000000
6.2496000000 3.8140000000 0.5466000000
6.2490000000 2.3785000000 0.0270000000
6.2474000000 2.1257000000 0.0010000000
6.0131000000 4.8615000000 0.6242000000
6.0106000000 2.4108000000 0.1888000000
6.0095000000 1.9343000000 0.0121000000
6.0088000000 6.4584000000 0.0463000000
6.0080000000 4.7953000000 0.6576000000
6.0075000000 5.5899000000 0.3653000000
6.0072000000 5.3860000000 0.4396000000
6.0068000000 6.2824000000 0.1131000000
6.0060000000 2.5729000000 0.2497000000
6.0055000000 5.9694000000 0.2287000000
6.0053000000 6.3161000000 0.0960000000
6.0050000000 3.6946000000 0.6636000000
6.0046000000 3.7049000000 0.6691000000
6.0042000000 3.1400000000 0.4618000000
6.0040000000 4.4385000000 0.7871000000
6.0038000000 6.0928000000 0.1864000000
6.0035000000 1.8020000000 0.0503000000
6.0031000000 2.3299000000 0.1605000000
6.0030000000 3.6264000000 0.6403000000
6.0025000000 4.5861000000 0.7360000000
6.0020000000 4.1323000000 0.8227000000
6.0018000000 2.5084000000 0.2248000000
6.0013000000 3.9390000000 0.7532000000
6.0003000000 2.2613000000 0.1385000000
5.9978000000 4.2662000000 0.8414000000
5.7653000000 7.0550000000 0.0569000000
5.7619000000 5.4352000000 0.5732000000
5.7613000000 6.3923000000 0.2235000000
5.7604000000 3.7035000000 0.8140000000
5.7598000000 6.5623000000 0.1682000000
5.7592000000 6.0287000000 0.3593000000
5.7584000000 6.6329000000 0.1387000000
5.7579000000 5.5484000000 0.5379000000
5.7573000000 6.0131000000 0.3696000000
5.7572000000 6.6929000000 0.1149000000
5.7570000000 4.2698000000 0.9886000000
5.7566000000 1.3537000000 0.0333000000
5.7563000000 6.2016000000 0.2956000000
5.7562000000 2.2161000000 0.2800000000
5.7560000000 4.9272000000 0.7688000000
5.7556000000 6.1797000000 0.3121000000
5.7551000000 2.0447000000 0.2195000000
5.7550000000 1.4882000000 0.0866000000
5.7548000000 2.0234000000 0.2118000000
5.7545000000 7.0492000000 0.0651000000
5.7541000000 4.3157000000 0.9897000000
5.7540000000 4.5426000000 0.9096000000
5.7537000000 3.6410000000 0.8046000000
5.7531000000 6.4361000000 0.2180000000
5.7529000000 2.9944000000 0.5631000000
5.7523000000 1.8060000000 0.1294000000
5.7522000000 2.3047000000 0.3157000000
5.7519000000 1.5576000000 0.0377000000
5.7513000000 3.8463000000 0.8762000000
5.7508000000 3.2424000000 0.6598000000
5.7503000000 2.7807000000 0.4857000000
5.7498000000 3.0863000000 0.5980000000
5.7490000000 1.3644000000 0.0467000000
5.7475000000 3.4622000000 0.7393000000
5.5122000000 7.4857000000 0.0606000000
5.5102000000 7.1469000000 0.1097000000
5.5095000000 4.5143000000 1.0716000000
5.5093000000 7.1793000000 0.1030000000
5.5090000000 3.8494000000 1.0356000000
5.5087000000 6.9306000000 0.1935000000
5.5083000000 1.9372000000 0.3291000000
5.5079000000 6.2789000000 0.4331000000
5.5076000000 4.9178000000 0.9244000000
5.5070000000 0.8849000000 0.0238000000
5.5066000000 2.5838000000 0.5709000000
5.5064000000 3.4278000000 0.8753000000
5.5060000000 6.2946000000 0.4221000000
5.5059000000 2.4868000000 0.5314000000
5.5056000000 4.7459000000 0.9912000000
5.5054000000 4.9265000000 0.9221000000
5.5052000000 7.3467000000 0.0413000000
5.5050000000 7.2295000000 0.0858000000
5.5045000000 6.8511000000 0.2241000000
5.5043000000 5.0994000000 0.8630000000
5.5040000000 6.1804000000 0.4682000000
5.5038000000 3.2224000000 0.8013000000
5.5035000000 2.1940000000 0.4290000000
5.5030000000 2.4028000000 0.5095000000
5.5025000000 6.9836000000 0.1785000000
5.5022000000 0.9505000000 0.0551000000
5.5018000000 1.5739000000 0.2075000000
5.5016000000 7.1929000000 0.0973000000
5.5013000000 6.8349000000 0.2311000000
5.5010000000 6.8152000000 0.2367000000
5.5003000000 3.4906000000 0.9043000000
5.4997000000 1.8476000000 0.3015000000
5.4993000000 1.5901000000 0.2069000000
5.4987000000 3.1875000000 0.7975000000
5.4979000000 1.3092000000 0.1079000000
5.2625000000 4.5885000000 1.2037000000
5.2612000000 3.0888000000 0.9069000000
5.2598000000 5.8785000000 0.7262000000
5.2596000000 4.6087000000 1.1959000000
5.2594000000 7.6680000000 0.0794000000
5.2592000000 4.4718000000 1.2459000000
5.2585000000 5.9972000000 0.6874000000
5.2579000000 1.9366000000 0.4890000000
5.2575000000 2.8414000000 0.8239000000
5.2572000000 0.7084000000 0.0415000000
5.2569000000 5.0156000000 1.0505000000
5.2567000000 5.9368000000 0.7166000000
5.2565000000 5.1991000000 0.9832000000
5.2562000000 6.9531000000 0.3423000000
5.2560000000 7.4607000000 0.1568000000
5.2559000000 4.9040000000 1.0926000000
5.2555000000 4.8530000000 1.1097000000
5.2554000000 7.2584000000 0.2296000000
5.2553000000 5.5022000000 0.8674000000
5.2551000000 7.4903000000 0.1413000000
5.2550000000 5.3072000000 0.9480000000
5.2548000000 3.3340000000 1.0012000000
5.2545000000 5.1869000000 0.9904000000
5.2543000000 7.3486000000 0.1992000000
5.2541000000 7.9269000000 0.0625000000
5.2538000000 1.0658000000 0.1788000000
5.2536000000 4.8993000000 1.0952000000
5.2533000000 3.6126000000 1.1159000000
5.2529000000 6.7449000000 0.4245000000
5.2524000000 0.6591000000 0.0222000000
5.2518000000 4.2335000000 1.3236000000
5.2517000000 7.2017000000 0.2592000000
5.2510000000 0.5332000000 0.0606000000
5.2504000000 3.1630000000 0.9484000000
5.2500000000 1.4596000000 0.3160000000
5.2495000000 0.6659000000 0.0327000000
5.2485000000 1.2650000000 0.2468000000
5.0160000000 6.1311000000 0.7980000000
5.0121000000 6.8636000000 0.5300000000
5.0118000000 8.2171000000 0.0338000000
5.0101000000 6.4389000000 0.6910000000
5.0097000000 5.3612000000 1.0833000000
5.0093000000 6.2790000000 0.7459000000
5.0088000000 1.5648000000 0.5177000000
5.0087000000 4.0853000000 1.4397000000
5.0082000000 4.4516000000 1.4145000000
5.0080000000 7.5595000000 0.2745000000
5.0076000000 3.1487000000 1.0865000000
5.0073000000 2.7832000000 0.9627000000
5.0070000000 5.8338000000 0.9129000000
5.0067000000 3.3753000000 1.1752000000
5.0064000000 6.2420000000 0.7559000000
5.0061000000 6.9346000000 0.5041000000
5.0060000000 5.0163000000 1.2099000000
5.0057000000 3.2511000000 1.1348000000
5.0056000000 3.9098000000 1.3736000000
5.0054000000 3.1861000000 1.1056000000
5.0051000000 5.9547000000 0.8628000000
5.0050000000 8.3696000000 0.0548000000
5.0048000000 0.4903000000 0.1255000000
5.0045000000 5.7332000000 0.9484000000
5.0044000000 3.1551000000 1.0976000000
5.0042000000 1.4890000000 0.4909000000
5.0040000000 6.5375000000 0.6502000000
5.0038000000 8.0069000000 0.1154000000
5.0035000000 2.1896000000 0.7464000000
5.0031000000 3.6186000000 1.2637000000
5.0029000000 4.8756000000 1.2579000000
5.0025000000 6.0573000000 0.8306000000
5.0023000000 3.8535000000 1.3522000000
5.0018000000 1.3583000000 0.4435000000
5.0014000000 1.3486000000 0.4403000000
5.0013000000 3.8198000000 1.3426000000
5.0004000000 2.6813000000 0.9253000000
5.0001000000 6.8593000000 0.5383000000
4.9998000000 0.6461000000 0.1813000000
4.9992000000 7.1759000000 0.4273000000
4.9980000000 0.5221000000 0.1325000000
4.9961000000 0.3304000000 0.0675000000
4.7648000000 5.3903000000 1.2273000000
4.7617000000 7.6257000000 0.4089000000
4.7613000000 4.5151000000 1.5475000000
4.7598000000 7.9916000000 0.2773000000
4.7590000000 7.9439000000 0.2934000000
4.7587000000 7.8220000000 0.3357000000
4.7584000000 3.7683000000 1.4813000000
4.7580000000 6.3500000000 0.8809000000
4.7578000000 2.6471000000 1.0655000000
4.7575000000 7.3860000000 0.4976000000
4.7571000000 0.4360000000 0.2608000000
4.7568000000 8.3504000000 0.1042000000
4.7563000000 1.8049000000 0.7593000000
4.7560000000 7.3281000000 0.5197000000
4.7558000000 3.5646000000 1.4038000000
4.7557000000 8.1473000000 0.2109000000
4.7552000000 0.4438000000 0.2662000000
4.7550000000 0.7866000000 0.3875000000
4.7549000000 3.6006000000 1.4183000000
4.7546000000 1.3977000000 0.6130000000
4.7545000000 4.4147000000 1.5890000000
4.7543000000 5.8477000000 1.0629000000
4.7538000000 7.3843000000 0.5038000000
4.7535000000 3.6323000000 1.4352000000
4.7533000000 0.6863000000 0.3529000000
4.7531000000 6.0433000000 0.9924000000
4.7529000000 6.6733000000 0.7654000000
4.7528000000 7.9625000000 0.2942000000
4.7524000000 0.1273000000 0.1005000000
4.7521000000 5.4271000000 1.2182000000
4.7520000000 6.0531000000 0.9912000000
4.7513000000 4.6146000000 1.5229000000
4.7509000000 2.3700000000 0.9697000000
4.7507000000 3.2327000000 1.2839000000
4.7504000000 3.1245000000 1.2481000000
4.7498000000 3.7020000000 1.4553000000
4.7455000000 1.8194000000 0.7771000000
4.5126000000 6.8102000000 0.8641000000
4.5113000000 7.1789000000 0.7312000000
4.5107000000 1.2837000000 0.7247000000
4.5104000000 7.6802000000 0.5487000000
4.5095000000 4.1543000000 1.7703000000
4.5093000000 2.7637000000 1.2676000000
4.5090000000 8.4013000000 0.0647000000
4.5088000000 6.5081000000 0.9791000000
4.5084000000 6.8469000000 0.8531000000
4.5082000000 3.1653000000 1.4143000000
4.5079000000 7.0174000000 0.7874000000
4.5076000000 7.4982000000 0.6214000000
4.5072000000 0.3253000000 0.2498000000
4.5069000000 5.5067000000 1.3427000000
4.5068000000 5.9223000000 1.1905000000
4.5065000000 7.1586000000 0.7413000000
4.5062000000 7.2452000000 0.7074000000
4.5058000000 2.9149000000 1.3279000000
4.5054000000 1.0249000000 0.6330000000
4.5052000000 3.3807000000 1.4972000000
4.5051000000 1.4800000000 0.7989000000
4.5048000000 3.3918000000 1.4995000000
4.5046000000 6.4664000000 0.9938000000
4.5044000000 1.5608000000 0.8354000000
4.5039000000 4.9145000000 1.5587000000
4.5038000000 8.0238000000 0.3450000000
4.5036000000 4.7322000000 1.6381000000
4.5033000000 2.6662000000 1.2361000000
4.5025000000 7.1226000000 0.7556000000
4.5023000000 6.1867000000 1.1005000000
4.5020000000 7.0412000000 0.7842000000
4.5017000000 0.9507000000 0.6088000000
4.5014000000 7.3333000000 0.6818000000
4.5012000000 1.9159000000 0.9672000000
4.5006000000 2.0926000000 1.0275000000
4.5002000000 2.4432000000 1.1546000000
4.5000000000 5.0278000000 1.5303000000
4.4998000000 3.1879000000 1.4304000000
4.4992000000 0.3335000000 0.2548000000
4.4975000000 3.2527000000 1.4575000000
4.2633000000 4.4619000000 1.8797000000
4.2611000000 0.4730000000 0.3646000000
4.2605000000 5.8520000000 1.3722000000
4.2597000000 4.4798000000 1.8819000000
4.2593000000 5.7623000000 1.4116000000
4.2592000000 8.4797000000 0.0840000000
4.2591000000 7.6460000000 0.6234000000
4.2584000000 6.5570000000 1.1190000000
4.2580000000 1.3566000000 0.9100000000
4.2579000000 7.4392000000 0.7616000000
4.2578000000 7.4935000000 0.7319000000
4.2575000000 1.2649000000 0.8824000000
4.2574000000 5.2663000000 1.5903000000
4.2572000000 7.0343000000 0.9442000000
4.2570000000 6.6465000000 1.0854000000
4.2568000000 7.8429000000 0.4830000000
4.2564000000 4.1830000000 1.9429000000
4.2563000000 4.0743000000 1.9065000000
4.2559000000 0.3723000000 0.2854000000
4.2553000000 8.1233000000 0.2681000000
4.2551000000 5.9612000000 1.3417000000
4.2548000000 7.2980000000 0.8379000000
4.2546000000 1.7379000000 1.0552000000
4.2544000000 1.7865000000 1.0726000000
4.2543000000 3.8551000000 1.8306000000
4.2541000000 5.9795000000 1.3342000000
4.2539000000 3.5936000000 1.7332000000
4.2536000000 1.6162000000 1.0039000000
4.2535000000 4.9830000000 1.6988000000
4.2532000000 3.9025000000 1.8475000000
4.2530000000 4.8136000000 1.7607000000
4.2527000000 6.2697000000 1.2239000000
4.2525000000 2.1839000000 1.2253000000
4.2523000000 2.2713000000 1.2528000000
4.2518000000 3.3669000000 1.6551000000
4.2517000000 7.9653000000 0.3911000000
4.2514000000 1.4490000000 0.9490000000
4.2505000000 0.1268000000 0.1047000000
4.2501000000 5.6632000000 1.4546000000
4.2499000000 2.6657000000 1.3988000000
4.2488000000 2.3839000000 1.2930000000
4.2482000000 5.2831000000 1.5916000000
4.2474000000 2.8965000000 1.4838000000
4.2468000000 1.1209000000 0.8219000000
4.2455000000 0.9089000000 0.6754000000
4.0144000000 6.9479000000 1.1173000000
4.0106000000 1.8470000000 1.2485000000
4.0099000000 4.0185000000 2.0424000000
4.0093000000 3.5659000000 1.8765000000
4.0088000000 7.7386000000 0.5502000000
4.0083000000 6.4363000000 1.3190000000
4.0080000000 3.4395000000 1.8314000000
4.0077000000 7.6048000000 0.6567000000
4.0071000000 7.9731000000 0.3824000000
4.0067000000 5.3075000000 1.7372000000
4.0064000000 0.6901000000 0.5172000000
4.0060000000 2.0455000000 1.3225000000
4.0058000000 5.0666000000 1.8221000000
4.0054000000 1.4854000000 1.0893000000
4.0051000000 4.1016000000 2.0759000000
4.0049000000 4.9941000000 1.8559000000
4.0047000000 5.0133000000 1.8470000000
4.0045000000 2.8993000000 1.6376000000
4.0043000000 3.5370000000 1.8693000000
4.0042000000 6.7798000000 1.2014000000
4.0040000000 3.4391000000 1.8365000000
4.0036000000 4.3887000000 2.0739000000
4.0035000000 4.7850000000 1.9275000000
4.0033000000 1.1245000000 0.8344000000
4.0030000000 7.1631000000 0.9780000000
4.0025000000 1.2963000000 0.9609000000
4.0024000000 1.7260000000 1.2110000000
4.0023000000 6.2452000000 1.3990000000
4.0015000000 2.7519000000 1.5868000000
4.0013000000 3.0212000000 1.6893000000
4.0011000000 1.0005000000 0.7490000000
4.0009000000 5.2611000000 1.7572000000
4.0002000000 0.5328000000 0.4049000000
3.9995000000 1.6147000000 1.1556000000
3.9973000000 3.8038000000 1.9747000000
3.9938000000 0.0339000000 0.0333000000
3.7615000000 3.8193000000 2.1268000000
3.7605000000 1.7245000000 1.2741000000
3.7600000000 2.2217000000 1.5460000000
3.7599000000 2.8357000000 1.7699000000
3.7595000000 8.0078000000 0.3576000000
3.7588000000 4.6144000000 2.1498000000
3.7585000000 5.4042000000 1.8638000000
3.7582000000 8.4160000000 0.0622000000
3.7578000000 1.2235000000 0.9115000000
3.7576000000 2.3960000000 1.6061000000
3.7574000000 6.6159000000 1.3751000000
3.7568000000 4.6538000000 2.1306000000
3.7565000000 4.1880000000 2.2595000000
3.7563000000 6.9657000000 1.1233000000
3.7559000000 2.2131000000 1.5468000000
3.7556000000 6.3497000000 1.5146000000
3.7555000000 6.8349000000 1.2213000000
3.7552000000 4.7755000000 2.0900000000
3.7551000000 5.1774000000 1.9446000000
3.7548000000 7.5867000000 0.6605000000
3.7545000000 7.0096000000 1.0871000000
3.7543000000 5.8719000000 1.6899000000
3.7542000000 3.6563000000 2.0735000000
3.7540000000 2.1386000000 1.5173000000
3.7537000000 5.8911000000 1.6846000000
3.7535000000 3.7199000000 2.1016000000
3.7533000000 5.2773000000 1.9042000000
3.7532000000 6.2582000000 1.5475000000
3.7530000000 2.8887000000 1.7999000000
3.7527000000 4.9479000000 2.0289000000
3.7522000000 2.2783000000 1.5753000000
3.7518000000 6.9844000000 1.1073000000
3.7516000000 6.5297000000 1.4329000000
3.7514000000 1.9875000000 1.4495000000
3.7512000000 1.5265000000 1.1297000000
3.7508000000 5.2886000000 1.9049000000
3.7506000000 0.3452000000 0.2662000000
3.7505000000 6.8353000000 1.2176000000
3.7502000000 6.9775000000 1.1113000000
3.7500000000 2.7653000000 1.7421000000
3.7495000000 0.3711000000 0.2815000000
3.7493000000 4.0697000000 2.2255000000
3.7480000000 2.6529000000 1.7130000000
3.7466000000 4.0541000000 2.2234000000
3.7425000000 1.1668000000 0.8661000000
3.5140000000 5.8470000000 1.8484000000
3.5118000000 8.4767000000 0.0125000000
3.5099000000 7.8613000000 0.4622000000
3.5095000000 1.3920000000 1.0291000000
3.5088000000 0.4550000000 0.3491000000
3.5086000000 1.8974000000 1.4033000000
3.5078000000 5.4539000000 1.9954000000
3.5076000000 4.2128000000 2.4250000000
3.5073000000 0.1758000000 0.1417000000
3.5072000000 6.0113000000 1.7757000000
3.5068000000 6.9711000000 1.1154000000
3.5067000000 4.9528000000 2.1830000000
3.5063000000 2.5626000000 1.8370000000
3.5061000000 4.0698000000 2.3857000000
3.5058000000 7.6590000000 0.6104000000
3.5055000000 7.2258000000 0.9310000000
3.5053000000 3.6892000000 2.2420000000
3.5051000000 8.1494000000 0.2564000000
3.5050000000 2.3547000000 1.7268000000
3.5048000000 4.9880000000 2.1708000000
3.5045000000 6.5057000000 1.4622000000
3.5043000000 1.6485000000 1.2131000000
3.5040000000 8.1012000000 0.2904000000
3.5038000000 1.0648000000 0.7889000000
3.5034000000 5.1987000000 2.0923000000
3.5033000000 0.4519000000 0.3377000000
3.5028000000 0.3148000000 0.2450000000
3.5024000000 6.0030000000 1.7909000000
3.5016000000 0.4265000000 0.3291000000
3.5012000000 1.4422000000 1.0681000000
3.5008000000 5.3365000000 2.0418000000
3.5005000000 3.7750000000 2.2799000000
3.5000000000 5.1159000000 2.1226000000
3.4996000000 5.1845000000 2.1052000000
3.4986000000 4.2567000000 2.4307000000
3.4977000000 0.1282000000 0.1074000000
3.2653000000 4.2232000000 2.5771000000
3.2628000000 7.2062000000 0.9465000000
3.2611000000 2.7320000000 2.0019000000
3.2603000000 7.2422000000 0.9200000000
3.2596000000 4.0342000000 2.5283000000
3.2591000000 6.9550000000 1.1305000000
3.2586000000 1.0905000000 0.8128000000
3.2585000000 3.0974000000 2.1838000000
3.2583000000 5.5113000000 2.1357000000
3.2582000000 6.8236000000 1.2246000000
3.2580000000 5.9486000000 1.8629000000
3.2578000000 5.5908000000 2.0949000000
3.2575000000 2.9938000000 2.1459000000
3.2572000000 4.6772000000 2.4456000000
3.2570000000 5.8798000000 1.9138000000
3.2569000000 2.7614000000 2.0161000000
3.2566000000 6.7146000000 1.3069000000
3.2564000000 2.5311000000 1.8672000000
3.2562000000 7.5494000000 0.6903000000
3.2558000000 0.7221000000 0.5459000000
3.2552000000 2.1967000000 1.6147000000
3.2550000000 1.3295000000 0.9868000000
3.2547000000 0.6076000000 0.4519000000
3.2545000000 1.4457000000 1.0698000000
3.2543000000 2.1757000000 1.6042000000
3.2542000000 2.2952000000 1.6885000000
3.2540000000 5.2901000000 2.2215000000
3.2538000000 1.6829000000 1.2448000000
3.2537000000 4.1655000000 2.5775000000
3.2534000000 0.2018000000 0.1624000000
3.2532000000 4.3306000000 2.5775000000
3.2530000000 0.5924000000 0.4493000000
3.2526000000 3.0199000000 2.1634000000
3.2523000000 5.5486000000 2.1174000000
3.2521000000 1.2014000000 0.8939000000
3.2518000000 2.5861000000 1.9057000000
3.2514000000 0.0973000000 0.0814000000
3.2509000000 2.3841000000 1.7558000000
3.2506000000 1.7492000000 1.2901000000
3.2505000000 4.8980000000 2.3647000000
3.2499000000 1.3038000000 0.9663000000
3.2490000000 1.2124000000 0.9012000000
3.2484000000 0.9647000000 0.7208000000
3.2451000000 0.2866000000 0.2162000000
3.0130000000 7.0943000000 1.0267000000
3.0114000000 7.6435000000 0.6239000000
3.0109000000 1.7264000000 1.2749000000
3.0101000000 4.4809000000 2.6715000000
3.0097000000 6.9813000000 1.1190000000
3.0095000000 7.5696000000 0.6793000000
3.0090000000 7.4824000000 0.7442000000
3.0087000000 6.7522000000 1.2727000000
3.0084000000 4.8447000000 2.5325000000
3.0081000000 8.3704000000 0.0928000000
3.0078000000 6.3614000000 1.5623000000
3.0076000000 3.2630000000 2.3867000000
3.0073000000 7.7415000000 0.5533000000
3.0068000000 2.2950000000 1.6928000000
3.0065000000 0.4880000000 0.3665000000
3.0063000000 1.6470000000 1.2154000000
3.0060000000 3.3918000000 2.4476000000
3.0058000000 3.2161000000 2.3540000000
3.0055000000 4.8910000000 2.5254000000
3.0052000000 4.4675000000 2.6762000000
3.0051000000 7.8263000000 0.4929000000
3.0049000000 6.2871000000 1.6134000000
3.0047000000 2.4125000000 1.7737000000
3.0045000000 6.0096000000 1.8206000000
3.0042000000 1.2714000000 0.9436000000
3.0039000000 5.4707000000 2.2144000000
3.0035000000 4.5937000000 2.6310000000
3.0034000000 3.3348000000 2.4240000000
3.0030000000 3.7881000000 2.5960000000
3.0028000000 7.4618000000 0.7563000000
3.0025000000 4.6870000000 2.5998000000
3.0022000000 3.6355000000 2.5384000000
3.0019000000 1.6548000000 1.2216000000
3.0017000000 3.1374000000 2.3082000000
3.0012000000 1.5144000000 1.1244000000
3.0007000000 4.5205000000 2.6611000000
3.0003000000 2.7142000000 1.9984000000
3.0000000000 0.5377000000 0.4075000000
2.9998000000 0.6431000000 0.4842000000
2.9994000000 3.9180000000 2.6479000000
2.9987000000 0.9566000000 0.7117000000
2.9981000000 2.3020000000 1.7023000000
2.9959000000 4.7877000000 2.5597000000
2.7647000000 6.6359000000 1.3565000000
2.7630000000 5.4526000000 2.2316000000
2.7616000000 5.1793000000 2.4312000000
2.7608000000 7.7499000000 0.5491000000
2.7603000000 3.5244000000 2.5868000000
2.7601000000 8.0398000000 0.3367000000
2.7595000000 4.9765000000 2.5820000000
2.7590000000 7.9594000000 0.3963000000
2.7585000000 4.5131000000 2.8152000000
2.7582000000 5.2538000000 2.3722000000
2.7577000000 7.9867000000 0.3685000000
2.7575000000 2.6749000000 1.9702000000
2.7573000000 8.0393000000 0.3374000000
2.7571000000 3.9626000000 2.8147000000
2.7566000000 7.7590000000 0.5432000000
2.7561000000 5.4518000000 2.2261000000
2.7559000000 4.2683000000 2.8931000000
2.7556000000 8.1417000000 0.2643000000
2.7553000000 7.3305000000 0.8532000000
2.7550000000 5.7951000000 1.9800000000
2.7546000000 4.5092000000 2.8224000000
2.7543000000 2.5594000000 1.8867000000
2.7540000000 1.4432000000 1.0694000000
2.7536000000 1.3288000000 0.9872000000
2.7534000000 3.3028000000 2.4308000000
2.7527000000 7.4695000000 0.7533000000
2.7520000000 5.9583000000 1.8584000000
2.7515000000 3.0979000000 2.2848000000
2.7513000000 4.1867000000 2.8974000000
2.7510000000 5.6835000000 2.0550000000
2.7506000000 1.0417000000 0.7760000000
2.7504000000 1.6934000000 1.2531000000
2.7502000000 3.1751000000 2.3355000000
2.7493000000 2.2942000000 1.6970000000
2.7488000000 2.8818000000 2.1238000000
2.7476000000 2.1446000000 1.5823000000
2.5132000000 4.8536000000 2.6688000000
2.5127000000 5.3241000000 2.3207000000
2.5103000000 5.1499000000 2.4498000000
2.5099000000 6.7551000000 1.2792000000
2.5094000000 8.2808000000 0.1585000000
2.5088000000 1.4530000000 1.0769000000
2.5085000000 4.6263000000 2.8313000000
2.5081000000 4.0794000000 2.9854000000
2.5077000000 7.5604000000 0.6841000000
2.5073000000 8.1227000000 0.2742000000
2.5071000000 2.6548000000 1.9574000000
2.5066000000 5.9080000000 1.9048000000
2.5063000000 3.0595000000 2.2496000000
2.5060000000 5.1012000000 2.4861000000
2.5058000000 6.9567000000 1.1251000000
2.5056000000 0.0234000000 0.0323000000
2.5054000000 7.8584000000 0.4651000000
2.5052000000 0.9556000000 0.7106000000
2.5049000000 1.3886000000 1.0259000000
2.5047000000 6.8784000000 1.1815000000
2.5043000000 2.7989000000 2.0579000000
2.5040000000 4.2098000000 3.0248000000
2.5040000000 3.0975000000 2.2822000000
2.5037000000 3.5593000000 2.6177000000
2.5035000000 4.7279000000 2.7575000000
2.5034000000 1.4257000000 1.0574000000
2.5031000000 1.0631000000 0.7907000000
2.5030000000 3.1777000000 2.3353000000
2.5027000000 7.4313000000 0.7778000000
2.5021000000 4.0308000000 2.9584000000
2.5019000000 4.0896000000 2.9930000000
2.5014000000 0.1786000000 0.1477000000
2.5012000000 1.4682000000 1.0874000000
2.5009000000 4.4249000000 2.9774000000
2.5005000000 2.6446000000 1.9424000000
2.5004000000 3.7317000000 2.7393000000
2.5000000000 6.2720000000 1.6250000000
2.4996000000 4.7879000000 2.7161000000
2.4993000000 6.5354000000 1.4370000000
2.4988000000 0.7896000000 0.5902000000
2.4983000000 0.5026000000 0.3814000000
2.4977000000 2.7504000000 2.0220000000
2.4948000000 1.0786000000 0.7990000000
2.2639000000 1.1718000000 0.8707000000
2.2619000000 6.3351000000 1.5814000000
2.2608000000 5.9421000000 1.8694000000
2.2600000000 8.0257000000 0.3469000000
2.2597000000 4.8043000000 2.7032000000
2.2592000000 1.8733000000 1.3879000000
2.2589000000 4.9437000000 2.5956000000
2.2583000000 7.5442000000 0.6957000000
2.2579000000 0.2585000000 0.2052000000
2.2575000000 3.0606000000 2.2554000000
2.2573000000 6.2165000000 1.6692000000
2.2569000000 6.7729000000 1.2568000000
2.2567000000 0.9042000000 0.6751000000
2.2565000000 8.2037000000 0.2126000000
2.2563000000 4.9316000000 2.6068000000
2.2560000000 5.5363000000 2.1693000000
2.2557000000 5.4129000000 2.2543000000
2.2555000000 7.4872000000 0.7442000000
2.2553000000 7.4424000000 0.7723000000
2.2550000000 6.7667000000 1.2687000000
2.2548000000 2.6215000000 1.9359000000
2.2545000000 4.4605000000 2.9103000000
2.2541000000 5.5163000000 2.1798000000
2.2540000000 2.4201000000 1.7836000000
2.2539000000 0.2657000000 0.2060000000
2.2536000000 6.3085000000 1.6086000000
2.2532000000 0.7113000000 0.5330000000
2.2531000000 1.9156000000 1.4147000000
2.2528000000 4.3860000000 2.9389000000
2.2525000000 6.1702000000 1.7016000000
2.2522000000 5.8672000000 1.9298000000
2.2520000000 7.3150000000 0.8655000000
2.2516000000 1.7475000000 1.2882000000
2.2511000000 7.9957000000 0.3678000000
2.2508000000 4.7974000000 2.7073000000
2.2505000000 2.8447000000 2.0886000000
2.2494000000 1.5259000000 1.1241000000
2.2492000000 0.6201000000 0.4694000000
2.2490000000 4.9035000000 2.6312000000
2.2487000000 1.5493000000 1.1435000000
2.2473000000 2.6859000000 1.9780000000
2.0150000000 5.6829000000 2.0652000000
2.0130000000 7.6778000000 0.5996000000
2.0119000000 7.9665000000 0.3875000000
2.0113000000 5.3289000000 2.3149000000
2.0108000000 2.1059000000 1.5509000000
2.0099000000 8.3589000000 0.0997000000
2.0089000000 7.8766000000 0.4550000000
2.0087000000 7.0766000000 1.0399000000
2.0085000000 7.4524000000 0.7656000000
2.0080000000 5.4005000000 2.2687000000
2.0078000000 6.0851000000 1.7652000000
2.0074000000 8.3845000000 0.0794000000
2.0071000000 3.6982000000 2.6316000000
2.0068000000 7.1441000000 0.9885000000
2.0065000000 7.9664000000 0.3865000000
2.0063000000 2.0958000000 1.5425000000
2.0060000000 6.9070000000 1.1673000000
2.0058000000 3.1316000000 2.3088000000
2.0055000000 5.2341000000 2.3889000000
2.0053000000 4.6779000000 2.6770000000
2.0051000000 4.6521000000 2.6806000000
2.0049000000 1.4375000000 1.0605000000
2.0048000000 6.2799000000 1.6214000000
2.0047000000 3.3616000000 2.4670000000
2.0045000000 5.1152000000 2.4712000000
2.0043000000 4.0329000000 2.7584000000
2.0041000000 0.4119000000 0.3136000000
2.0038000000 3.6413000000 2.6155000000
2.0036000000 6.1512000000 1.7165000000
2.0033000000 2.9830000000 2.1920000000
2.0032000000 7.6651000000 0.6061000000
2.0029000000 2.9910000000 2.2007000000
2.0027000000 5.7370000000 2.0224000000
2.0025000000 0.8279000000 0.6189000000
2.0022000000 2.8367000000 2.0860000000
2.0020000000 8.2017000000 0.2146000000
2.0018000000 1.3279000000 0.9819000000
2.0015000000 2.1128000000 1.5566000000
2.0008000000 2.6322000000 1.9384000000
2.0005000000 7.8121000000 0.5026000000
2.0001000000 0.6637000000 0.5026000000
1.9998000000 0.2832000000 0.2210000000
1.9996000000 0.6803000000 0.5124000000
1.9986000000 2.6324000000 1.9398000000
1.9973000000 1.9026000000 1.4059000000
1.9951000000 0.0102000000 0.0163000000
1.7620000000 7.7543000000 0.5410000000
1.7614000000 7.3305000000 0.8564000000
1.7608000000 7.9707000000 0.3905000000
1.7600000000 4.1818000000 2.6583000000
1.7592000000 7.2642000000 0.9035000000
1.7585000000 6.1624000000 1.7089000000
1.7578000000 2.5329000000 1.8680000000
1.7575000000 4.3856000000 2.6227000000
1.7572000000 2.9876000000 2.1904000000
1.7569000000 7.3856000000 0.8106000000
1.7567000000 0.8843000000 0.6637000000
1.7563000000 1.8114000000 1.3356000000
1.7562000000 5.7373000000 2.0251000000
1.7560000000 5.8067000000 1.9758000000
1.7558000000 2.5950000000 1.9108000000
1.7554000000 2.5280000000 1.8640000000
1.7553000000 1.7930000000 1.3238000000
1.7550000000 6.9728000000 1.1165000000
1.7548000000 3.1551000000 2.2821000000
1.7546000000 1.3084000000 0.9648000000
1.7544000000 0.2029000000 0.1626000000
1.7540000000 1.8187000000 1.3453000000
1.7538000000 7.5057000000 0.7226000000
1.7536000000 7.2662000000 0.9041000000
1.7533000000 2.6496000000 1.9445000000
1.7530000000 4.1128000000 2.6252000000
1.7528000000 3.8265000000 2.5234000000
1.7526000000 6.5653000000 1.4119000000
1.7523000000 6.8803000000 1.1856000000
1.7520000000 0.4447000000 0.3367000000
1.7516000000 0.8131000000 0.6065000000
1.7512000000 8.2858000000 0.1572000000
1.7510000000 3.2568000000 2.3172000000
1.7508000000 2.4476000000 1.8013000000
1.7504000000 4.6878000000 2.5084000000
1.7499000000 3.3674000000 2.3543000000
1.7480000000 0.3501000000 0.2661000000
1.7472000000 1.2052000000 0.8995000000
1.5120000000 5.2225000000 2.1639000000
1.5108000000 5.1552000000 2.1907000000
1.5103000000 8.3312000000 0.1250000000
1.5095000000 3.3261000000 2.1891000000
1.5092000000 2.5288000000 1.8531000000
1.5083000000 2.1448000000 1.5836000000
1.5076000000 3.3337000000 2.1902000000
1.5073000000 5.4636000000 2.0764000000
1.5070000000 5.4258000000 2.0866000000
1.5068000000 0.4836000000 0.3674000000
1.5067000000 4.2694000000 2.4935000000
1.5064000000 1.6770000000 1.2393000000
1.5062000000 3.7712000000 2.3448000000
1.5060000000 2.6296000000 1.9235000000
1.5055000000 6.8647000000 1.1931000000
1.5054000000 7.6993000000 0.5804000000
1.5052000000 2.9694000000 2.0476000000
1.5049000000 3.3454000000 2.1917000000
1.5045000000 7.9814000000 0.3766000000
1.5041000000 4.7621000000 2.3269000000
1.5039000000 5.4255000000 2.0817000000
1.5037000000 5.1445000000 2.1895000000
1.5035000000 3.2483000000 2.1592000000
1.5033000000 4.9608000000 2.2513000000
1.5030000000 8.3133000000 0.1380000000
1.5026000000 5.8652000000 1.9131000000
1.5024000000 5.4089000000 2.0876000000
1.5022000000 6.5446000000 1.4320000000
1.5020000000 3.8483000000 2.3708000000
1.5016000000 1.5813000000 1.1724000000
1.5012000000 3.9254000000 2.4064000000
1.5009000000 3.2929000000 2.1740000000
1.5007000000 5.4534000000 2.0620000000
1.5003000000 0.0820000000 0.0716000000
1.5000000000 2.8218000000 1.9961000000
1.4995000000 3.9443000000 2.4067000000
1.4988000000 5.7119000000 1.9813000000
1.4976000000 0.4390000000 0.3313000000
1.4973000000 1.6682000000 1.2298000000
1.4960000000 1.2509000000 0.9298000000
1.2613000000 7.6288000000 0.6372000000
1.2607000000 2.1405000000 1.5663000000
1.2591000000 3.5449000000 2.1092000000
1.2585000000 3.5165000000 2.0937000000
1.2582000000 8.4997000000 0.0741000000
1.2579000000 3.3529000000 2.0361000000
1.2577000000 1.4324000000 1.0641000000
1.2575000000 1.1329000000 0.8372000000
1.2573000000 6.1843000000 1.6435000000
1.2570000000 3.8395000000 2.2150000000
1.2568000000 8.0392000000 0.3330000000
1.2566000000 2.7053000000 1.7973000000
1.2565000000 7.7249000000 0.5669000000
1.2563000000 3.4112000000 2.0518000000
1.2560000000 5.7379000000 1.8121000000
1.2557000000 5.0315000000 2.0719000000
1.2552000000 3.4977000000 2.0904000000
1.2548000000 0.1081000000 0.0984000000
1.2545000000 7.6288000000 0.6380000000
1.2543000000 8.3748000000 0.0950000000
1.2541000000 3.3843000000 2.0428000000
1.2537000000 1.0836000000 0.8059000000
1.2534000000 7.7052000000 0.5772000000
1.2532000000 5.0085000000 2.0779000000
1.2530000000 7.5919000000 0.6712000000
1.2527000000 2.1622000000 1.5800000000
1.2525000000 1.6632000000 1.2268000000
1.2522000000 2.8804000000 1.8621000000
1.2518000000 2.9191000000 1.8747000000
1.2517000000 6.3120000000 1.5891000000
1.2510000000 6.2903000000 1.5981000000
1.2508000000 2.0572000000 1.5164000000
1.2503000000 8.0600000000 0.3179000000
1.2498000000 4.0518000000 2.2899000000
1.2495000000 1.2530000000 0.9285000000
1.2474000000 4.7444000000 2.1678000000
1.2458000000 1.9727000000 1.4544000000
1.0125000000 5.7601000000 1.6480000000
1.0106000000 7.0219000000 1.0796000000
1.0100000000 3.4414000000 1.9141000000
1.0095000000 7.7108000000 0.5780000000
1.0083000000 8.2501000000 0.1813000000
1.0077000000 6.4979000000 1.3811000000
1.0072000000 3.4197000000 1.9078000000
1.0070000000 6.9508000000 1.1298000000
1.0068000000 4.6978000000 2.0360000000
1.0067000000 8.4691000000 0.0176000000
1.0065000000 6.4756000000 1.3809000000
1.0061000000 3.7368000000 2.0132000000
1.0060000000 2.0379000000 1.3943000000
1.0055000000 7.4002000000 0.8031000000
1.0054000000 1.6785000000 1.2280000000
1.0052000000 6.9359000000 1.1389000000
1.0048000000 5.6627000000 1.6789000000
1.0045000000 8.3238000000 0.1272000000
1.0043000000 7.4358000000 0.7781000000
1.0038000000 0.3665000000 0.2830000000
1.0036000000 6.6812000000 1.2922000000
1.0035000000 3.1371000000 1.7914000000
1.0033000000 0.4311000000 0.3320000000
1.0030000000 4.9225000000 1.9524000000
1.0028000000 7.6270000000 0.6412000000
1.0025000000 1.6085000000 1.1885000000
1.0023000000 2.4086000000 1.5313000000
1.0020000000 5.2457000000 1.8315000000
1.0018000000 0.9233000000 0.6901000000
1.0015000000 2.3896000000 1.5183000000
1.0012000000 5.1135000000 1.8765000000
1.0005000000 1.7969000000 1.2903000000
0.9999000000 2.2708000000 1.4773000000
0.9994000000 1.1295000000 0.8336000000
0.9988000000 3.1811000000 1.8177000000
0.9983000000 4.4321000000 2.1309000000
0.9975000000 5.1593000000 1.8533000000
0.9957000000 0.7001000000 0.5265000000
0.7618000000 8.2712000000 0.1620000000
0.7605000000 5.5289000000 1.5707000000
0.7599000000 4.5467000000 1.9313000000
0.7588000000 7.8096000000 0.5031000000
0.7584000000 6.6751000000 1.1497000000
0.7581000000 3.3780000000 1.7334000000
0.7578000000 5.6152000000 1.5459000000
0.7575000000 2.7687000000 1.5063000000
0.7571000000 5.4730000000 1.5927000000
0.7570000000 2.3836000000 1.3619000000
0.7568000000 4.8749000000 1.8127000000
0.7565000000 5.2705000000 1.6667000000
0.7563000000 2.1289000000 1.2666000000
0.7559000000 6.8680000000 1.0822000000
0.7558000000 2.3812000000 1.3644000000
0.7553000000 2.8374000000 1.5277000000
0.7550000000 6.4905000000 1.2184000000
0.7548000000 0.6587000000 0.4973000000
0.7555000000 4.5186000000 1.9443000000
0.7544000000 7.0907000000 0.9849000000
0.7543000000 0.3589000000 0.2771000000
0.7540000000 3.7590000000 1.8709000000
0.7538000000 2.4813000000 1.3970000000
0.7535000000 8.0149000000 0.3530000000
0.7532000000 0.0180000000 0.0282000000
0.7529000000 0.1282000000 0.1020000000
0.7528000000 6.3755000000 1.2628000000
0.7525000000 7.4246000000 0.7873000000
0.7521000000 2.1231000000 1.2645000000
0.7518000000 0.5498000000 0.4125000000
0.7515000000 2.4846000000 1.3943000000
0.7512000000 7.8243000000 0.4919000000
0.7507000000 6.4353000000 1.2385000000
0.7505000000 0.8133000000 0.6075000000
0.7503000000 7.5675000000 0.6795000000
0.7499000000 0.4104000000 0.3163000000
0.7493000000 6.8545000000 1.0801000000
0.7488000000 3.4622000000 1.7534000000
0.7483000000 4.2388000000 2.0211000000
0.7474000000 4.7599000000 1.8472000000
0.5163000000 6.9368000000 0.9034000000
0.5106000000 7.8752000000 0.4562000000
0.5102000000 7.4097000000 0.7305000000
0.5093000000 7.6481000000 0.6117000000
0.5089000000 7.7735000000 0.5321000000
0.5086000000 7.5441000000 0.6635000000
0.5082000000 7.7946000000 0.5123000000
0.5081000000 8.3621000000 0.1003000000
0.5077000000 4.7056000000 1.7197000000
0.5075000000 4.0097000000 1.8017000000
0.5073000000 8.3978000000 0.0809000000
0.5071000000 1.1817000000 0.7623000000
0.5067000000 4.3584000000 1.8443000000
0.5064000000 5.0062000000 1.6002000000
0.5060000000 3.5391000000 1.6256000000
0.5058000000 3.7687000000 1.7118000000
0.5055000000 8.4727000000 0.0147000000
0.5052000000 2.3191000000 1.1815000000
0.5047000000 2.8733000000 1.3837000000
0.5046000000 1.3273000000 0.8174000000
0.5042000000 3.1836000000 1.4989000000
0.5041000000 2.9811000000 1.4251000000
0.5038000000 4.6723000000 1.7275000000
0.5037000000 8.1951000000 0.2173000000
0.5035000000 4.9344000000 1.6287000000
0.5033000000 5.9117000000 1.2712000000
0.5031000000 6.6176000000 1.0117000000
0.5028000000 1.6405000000 0.9386000000
0.5026000000 5.2352000000 1.5125000000
0.5025000000 2.1179000000 1.1090000000
0.5023000000 5.7043000000 1.3476000000
0.5018000000 0.5069000000 0.3827000000
0.5017000000 2.9186000000 1.4005000000
0.5012000000 1.4756000000 0.8690000000
0.5009000000 1.4175000000 0.8483000000
0.5005000000 5.2093000000 1.5273000000
0.5002000000 5.8710000000 1.2875000000
0.4998000000 3.9070000000 1.7632000000
0.4995000000 1.4031000000 0.8398000000
0.4992000000 1.2761000000 0.7978000000
0.4979000000 2.5357000000 1.2545000000
0.4971000000 1.7289000000 0.9610000000
0.4964000000 1.5800000000 0.9038000000
0.2623000000 7.2551000000 0.6279000000
0.2612000000 4.4135000000 1.6655000000
0.2606000000 5.8322000000 1.1421000000
0.2600000000 5.9219000000 1.1118000000
0.2594000000 2.3538000000 1.0379000000
0.2591000000 7.4849000000 0.5427000000
0.2589000000 5.7510000000 1.1761000000
0.2586000000 2.9564000000 1.2570000000
0.2580000000 5.3248000000 1.3331000000
0.2573000000 7.1892000000 0.6483000000
0.2569000000 4.2102000000 1.7076000000
0.2568000000 7.0038000000 0.7189000000
0.2563000000 7.4479000000 0.5520000000
0.2560000000 2.6372000000 1.1389000000
0.2557000000 1.9510000000 0.8867000000
0.2554000000 4.5878000000 1.5954000000
0.2551000000 7.7486000000 0.4393000000
0.2548000000 6.5716000000 0.8745000000
0.2545000000 6.5230000000 0.8875000000
0.2544000000 7.5988000000 0.4964000000
0.2541000000 4.7776000000 1.5295000000
0.2539000000 4.8537000000 1.4949000000
0.2538000000 4.8008000000 1.5178000000
0.2535000000 4.9999000000 1.4493000000
0.2534000000 3.2045000000 1.3470000000
0.2533000000 4.4584000000 1.6444000000
0.2531000000 3.5051000000 1.4501000000
0.2529000000 1.6049000000 0.7638000000
0.2528000000 1.0706000000 0.5646000000
0.2526000000 0.5236000000 0.3520000000
0.2523000000 7.2333000000 0.6285000000
0.2522000000 2.0536000000 0.9277000000
0.2519000000 0.4884000000 0.3424000000
0.2516000000 1.1985000000 0.6102000000
0.2513000000 4.8460000000 1.4983000000
0.2508000000 2.0943000000 0.9365000000
0.2497000000 2.6978000000 1.1576000000
0.2493000000 0.1810000000 0.1422000000
0.2484000000 4.2662000000 1.6986000000
0.2477000000 1.3300000000 0.6556000000
0.2452000000 5.0122000000 1.4399000000
0.0112000000 4.1677000000 1.5401000000
0.0107000000 6.7590000000 0.6459000000
0.0103000000 6.9198000000 0.5954000000
0.0100000000 5.5475000000 1.0961000000
0.0094000000 7.1015000000 0.5199000000
0.0091000000 6.2885000000 0.8174000000
0.0085000000 1.9656000000 0.7342000000
0.0081000000 7.8420000000 0.2499000000
0.0077000000 4.5205000000 1.4722000000
0.0073000000 8.0042000000 0.1950000000
0.0070000000 3.0129000000 1.1218000000
0.0065000000 4.6735000000 1.4056000000
0.0064000000 7.0685000000 0.5352000000
0.0063000000 7.6971000000 0.3031000000
0.0060000000 3.8025000000 1.4065000000
0.0058000000 0.8270000000 0.3179000000
0.0054000000 6.3556000000 0.7924000000
0.0052000000 5.9025000000 0.9615000000
0.0051000000 4.9641000000 1.3018000000
0.0049000000 7.4896000000 0.3781000000
0.0048000000 4.1602000000 1.5372000000
0.0047000000 1.2291000000 0.4664000000
0.0044000000 5.8618000000 0.9783000000
0.0041000000 0.9057000000 0.3497000000
0.0039000000 6.5925000000 0.7095000000
0.0037000000 1.0980000000 0.4153000000
0.0035000000 1.4749000000 0.5582000000
0.0032000000 0.9067000000 0.3393000000
0.0028000000 6.1204000000 0.8812000000
0.0025000000 5.4610000000 1.1194000000
0.0023000000 7.1328000000 0.5056000000
0.0022000000 4.0639000000 1.5039000000
0.0019000000 3.7601000000 1.3913000000
0.0016000000 4.9007000000 1.3199000000
0.0013000000 4.3819000000 1.5109000000
0.0010000000 3.2700000000 1.2079000000
0.0008000000 0.8245000000 0.3143000000
0.0004000000 2.0574000000 0.7682000000
0.0001000000 4.4624000000 1.4807000000
-0.0002000000 4.3849000000 1.5104000000
-0.0012000000 3.8819000000 1.4351000000
-0.0015000000 0.0543000000 0.0236000000
-0.0027000000 7.7982000000 0.2620000000
-0.0038000000 1.2779000000 0.4805000000
-0.2375000000 5.7696000000 0.8551000000
-0.2390000000 8.2334000000 0.0279000000
-0.2395000000 5.6990000000 0.8836000000
-0.2399000000 3.7384000000 1.2281000000
-0.2403000000 7.2617000000 0.3003000000
-0.2411000000 2.9832000000 0.9577000000
-0.2415000000 4.7028000000 1.2464000000
-0.2422000000 7.9717000000 0.0487000000
-0.2426000000 0.8561000000 0.1690000000
-0.2431000000 1.1146000000 0.2648000000
-0.2437000000 6.5214000000 0.5764000000
-0.2440000000 5.0424000000 1.1153000000
-0.2442000000 6.1564000000 0.7129000000
-0.2445000000 3.2368000000 1.0404000000
-0.2447000000 7.8618000000 0.0821000000
-0.2449000000 6.7233000000 0.5025000000
-0.2452000000 0.7327000000 0.1239000000
-0.2453000000 1.8960000000 0.5590000000
-0.2455000000 4.1505000000 1.3812000000
-0.2459000000 7.7629000000 0.1152000000
-0.2461000000 6.5493000000 0.5638000000
-0.2463000000 7.1239000000 0.3503000000
-0.2466000000 3.5852000000 1.1733000000
-0.2468000000 2.6340000000 0.8202000000
-0.2471000000 7.6062000000 0.1767000000
-0.2473000000 3.9656000000 1.3076000000
-0.2475000000 3.5579000000 1.1594000000
-0.2477000000 7.4834000000 0.2169000000
-0.2479000000 7.0856000000 0.3612000000
-0.2482000000 5.0883000000 1.0952000000
-0.2485000000 4.7117000000 1.2365000000
-0.2488000000 3.1910000000 1.0237000000
-0.2492000000 0.6456000000 0.0925000000
-0.2494000000 5.2743000000 1.0281000000
-0.2497000000 5.3760000000 0.9889000000
-0.2502000000 5.7640000000 0.8519000000
-0.2505000000 1.9361000000 0.5623000000
-0.2513000000 0.4627000000 0.0234000000
-0.2519000000 2.8294000000 0.8892000000
-0.2524000000 2.7976000000 0.8739000000
-0.2583000000 0.2772000000 0.0257000000
-0.4882000000 7.7708000000 0.0396000000
-0.4895000000 4.5988000000 1.1214000000
-0.4902000000 5.7571000000 0.7004000000
-0.4909000000 4.8380000000 1.0315000000
-0.4915000000 4.7112000000 1.0755000000
-0.4919000000 2.8719000000 0.7450000000
-0.4927000000 5.3346000000 0.8476000000
-0.4930000000 4.0017000000 1.1692000000
-0.4935000000 5.5253000000 0.7867000000
-0.4938000000 6.5426000000 0.4129000000
-0.4940000000 6.4496000000 0.4433000000
-0.4947000000 5.7450000000 0.7017000000
-0.4951000000 6.1547000000 0.5507000000
-0.4955000000 2.8960000000 0.7657000000
-0.4956000000 3.3636000000 0.9266000000
-0.4957000000 2.7646000000 0.7055000000
-0.4960000000 7.0805000000 0.2084000000
-0.4961000000 6.6254000000 0.3786000000
-0.4963000000 2.0174000000 0.4398000000
-0.4965000000 7.5926000000 0.0191000000
-0.4967000000 2.9953000000 0.7983000000
-0.4969000000 4.4426000000 1.1807000000
-0.4971000000 6.8374000000 0.2971000000
-0.4974000000 4.0165000000 1.1674000000
-0.4976000000 4.1547000000 1.2137000000
-0.4979000000 4.1204000000 1.2089000000
-0.4981000000 2.4529000000 0.5961000000
-0.4984000000 1.0494000000 0.0768000000
-0.4986000000 7.3979000000 0.0940000000
-0.4991000000 1.5433000000 0.2644000000
-0.4998000000 1.2972000000 0.1712000000
-0.5003000000 1.1111000000 0.1007000000
-0.5005000000 3.3930000000 0.9353000000
-0.5011000000 2.5427000000 0.6231000000
-0.5020000000 3.0695000000 0.8171000000
-0.5026000000 3.3209000000 0.9133000000
-0.5069000000 1.7633000000 0.3371000000
-0.7392000000 6.4751000000 0.2830000000
-0.7396000000 5.8179000000 0.5133000000
-0.7409000000 6.3468000000 0.3263000000
-0.7414000000 5.1392000000 0.7651000000
-0.7422000000 1.7047000000 0.1672000000
-0.7429000000 4.5740000000 0.9675000000
-0.7433000000 3.9317000000 0.9759000000
-0.7437000000 1.3233000000 0.0279000000
-0.7440000000 5.7770000000 0.5282000000
-0.7443000000 4.3753000000 1.0405000000
-0.7445000000 4.5255000000 0.9897000000
-0.7447000000 1.6437000000 0.1380000000
-0.7452000000 1.1593000000 0.0408000000
-0.7454000000 6.2222000000 0.3720000000
-0.7457000000 4.9568000000 0.8278000000
-0.7460000000 6.2338000000 0.3597000000
-0.7465000000 5.0523000000 0.7930000000
-0.7468000000 1.1974000000 0.0537000000
-0.7472000000 7.2852000000 0.0551000000
-0.7474000000 5.9611000000 0.4641000000
-0.7478000000 2.5600000000 0.4722000000
-0.7483000000 3.7328000000 0.9025000000
-0.7489000000 1.0785000000 0.0146000000
-0.7494000000 5.5724000000 0.5993000000
-0.7499000000 2.9718000000 0.6262000000
-0.7501000000 2.2697000000 0.3704000000
-0.7511000000 1.4216000000 0.0631000000
-0.7517000000 6.7590000000 0.1684000000
-0.7536000000 1.6561000000 0.1396000000
-0.7549000000 1.9334000000 0.2433000000
-0.7553000000 1.5713000000 0.1105000000
-0.9902000000 1.9282000000 0.0847000000
-0.9910000000 6.7327000000 0.0225000000
-0.9918000000 6.0504000000 0.2735000000
-0.9920000000 4.3438000000 0.9031000000
-0.9929000000 3.3763000000 0.6247000000
-0.9935000000 2.9644000000 0.4677000000
-0.9937000000 4.3930000000 0.8754000000
-0.9944000000 5.7042000000 0.3973000000
-0.9949000000 1.8896000000 0.0814000000
-0.9950000000 2.7909000000 0.4018000000
-0.9952000000 2.0684000000 0.1365000000
-0.9955000000 1.9973000000 0.1118000000
-0.9960000000 6.8460000000 0.0550000000
-0.9964000000 4.9807000000 0.6704000000
-0.9967000000 6.1184000000 0.2510000000
-0.9971000000 6.8699000000 0.0440000000
-0.9973000000 1.5898000000 0.0353000000
-0.9974000000 4.7600000000 0.7430000000
-0.9975000000 4.0307000000 0.8539000000
-0.9977000000 2.8982000000 0.4421000000
-0.9980000000 5.2338000000 0.5692000000
-0.9982000000 2.9886000000 0.4687000000
-0.9985000000 1.8914000000 0.0700000000
-0.9986000000 6.5651000000 0.0836000000
-0.9991000000 5.3224000000 0.5299000000
-0.9995000000 4.5769000000 0.8056000000
-1.0001000000 2.3269000000 0.2293000000
-1.0019000000 5.6176000000 0.4230000000
-1.0025000000 3.6497000000 0.7112000000
-1.0036000000 4.3930000000 0.8736000000
-1.2389000000 4.9623000000 0.5163000000
-1.2407000000 3.8285000000 0.6279000000
-1.2412000000 5.9112000000 0.1634000000
-1.2417000000 5.2686000000 0.3989000000
-1.2427000000 6.0931000000 0.0990000000
-1.2431000000 6.3833000000 0.0582000000
-1.2438000000 4.2970000000 0.7518000000
-1.2441000000 3.8140000000 0.6173000000
-1.2447000000 5.5014000000 0.3087000000
-1.2452000000 2.9682000000 0.3038000000
-1.2458000000 4.4387000000 0.7020000000
-1.2460000000 6.0441000000 0.1137000000
-1.2466000000 6.4594000000 0.0339000000
-1.2470000000 5.8074000000 0.1974000000
-1.2474000000 2.4139000000 0.1078000000
-1.2478000000 5.6059000000 0.2742000000
-1.2483000000 2.0850000000 0.0569000000
-1.2487000000 4.1552000000 0.7416000000
-1.2491000000 3.7887000000 0.6111000000
-1.2495000000 5.3380000000 0.3760000000
-1.2499000000 2.0722000000 0.0519000000
-1.2511000000 2.9503000000 0.2977000000
-1.2515000000 2.4107000000 0.1046000000
-1.2532000000 2.5281000000 0.1436000000
-1.2557000000 1.9873000000 0.0215000000
-1.4907000000 3.9867000000 0.5291000000
-1.4915000000 5.7237000000 0.0753000000
-1.4918000000 3.5876000000 0.3792000000
-1.4928000000 3.7942000000 0.4557000000
-1.4940000000 5.5918000000 0.1231000000
-1.4944000000 3.4114000000 0.3147000000
-1.4951000000 3.2562000000 0.2550000000
-1.4955000000 3.6086000000 0.3804000000
-1.4961000000 5.0251000000 0.3298000000
-1.4967000000 2.8972000000 0.1322000000
-1.4970000000 4.0650000000 0.5563000000
-1.4975000000 4.7189000000 0.4381000000
-1.4980000000 3.4593000000 0.3308000000
-1.4991000000 5.8238000000 0.0347000000
-1.4999000000 4.3514000000 0.5753000000
-1.5002000000 2.9002000000 0.1223000000
-1.5007000000 4.9447000000 0.3509000000
-1.5025000000 4.5711000000 0.4913000000
-1.5049000000 2.4881000000 0.0399000000
-1.7400000000 5.0718000000 0.1537000000
-1.7425000000 4.3866000000 0.4087000000
-1.7442000000 4.0132000000 0.3684000000
-1.7452000000 5.0162000000 0.1742000000
-1.7459000000 3.5848000000 0.2203000000
-1.7464000000 4.8150000000 0.2475000000
-1.7472000000 3.4702000000 0.1732000000
