3.5023000000 4.1704000000 0.7836000000
3.5023000000 5.8916000000 0.0467000000
3.5023000000 0.0542000000 0.0456000000
3.5022000000 1.2700000000 0.5087000000
3.5022000000 2.9106000000 1.2066000000
3.5021000000 3.6295000000 1.0228000000
3.5021000000 0.6473000000 0.2422000000
3.5019000000 0.3342000000 0.1088000000
3.5018000000 2.5059000000 1.0396000000
3.5018000000 2.5498000000 1.0601000000
3.5017000000 5.6003000000 0.1746000000
3.5009000000 3.0473000000 1.3314000000
3.5009000000 4.1258000000 0.8063000000
3.5008000000 3.5429000000 1.0460000000
3.5008000000 5.8740000000 0.1322000000
3.5006000000 1.1657000000 0.4712000000
3.5006000000 0.8016000000 0.3113000000
3.5004000000 3.6889000000 0.9893000000
3.4995000000 4.3988000000 0.6870000000
3.4991000000 5.4994000000 0.2156000000
3.4989000000 1.8197000000 0.7497000000
3.4977000000 3.0932000000 1.3167000000
3.4973000000 4.4827000000 0.6553000000
3.4968000000 0.3945000000 0.1361000000
3.4967000000 2.3896000000 0.9938000000
3.4963000000 0.0524000000 0.0443000000
3.4950000000 1.5675000000 0.6434000000
3.4948000000 3.8493000000 0.9307000000
3.4931000000 1.7470000000 0.7200000000
3.2630000000 2.1280000000 1.0522000000
3.2608000000 2.1455000000 1.0683000000
3.2601000000 6.1014000000 0.0182000000
3.2593000000 5.2787000000 0.4935000000
3.2586000000 0.6396000000 0.4213000000
3.2584000000 0.2094000000 0.1373000000
3.2583000000 1.0054000000 0.5762000000
3.2580000000 5.9354000000 0.0827000000
3.2579000000 5.3781000000 0.4497000000
3.2578000000 4.3897000000 0.8696000000
3.2576000000 5.8472000000 0.1605000000
3.2575000000 4.3661000000 0.8791000000
3.2574000000 5.6403000000 0.4004000000
3.2573000000 1.1158000000 0.6216000000
3.2572000000 4.8343000000 0.6873000000
3.2571000000 0.2193000000 0.1407000000
3.2570000000 0.4608000000 0.3985000000
3.2567000000 4.3705000000 0.8772000000
3.2563000000 4.3424000000 0.8924000000
3.2560000000 5.8143000000 0.1853000000
3.2560000000 2.7249000000 1.3164000000
3.2560000000 2.5880000000 1.2585000000
3.2558000000 1.3906000000 0.7390000000
3.2557000000 0.8956000000 0.5303000000
3.2556000000 3.4078000000 1.2957000000
3.2556000000 3.2748000000 1.3539000000
3.2555000000 3.0046000000 1.4958000000
3.2553000000 2.0987000000 1.0471000000
3.2553000000 2.8812000000 1.3839000000
3.2551000000 4.9071000000 0.6520000000
3.2550000000 2.2732000000 1.1177000000
3.2549000000 2.0953000000 1.0428000000
3.2548000000 2.9728000000 1.4196000000
3.2545000000 2.2528000000 1.1165000000
3.2545000000 4.4481000000 0.8484000000
3.2544000000 3.4701000000 1.2673000000
3.2543000000 4.7119000000 0.7335000000
3.2543000000 0.8998000000 0.5370000000
3.2542000000 1.2829000000 0.6988000000
3.2541000000 0.1841000000 0.1092000000
3.2540000000 2.1727000000 1.0755000000
3.2538000000 2.8117000000 1.3567000000
3.2537000000 3.7160000000 1.1657000000
3.2536000000 5.5986000000 0.4188000000
3.2535000000 3.7713000000 1.1434000000
3.2533000000 1.1586000000 0.6448000000
3.2533000000 4.2440000000 0.9416000000
3.2532000000 4.3556000000 0.8961000000
3.2531000000 3.6379000000 1.1998000000
3.2531000000 0.4078000000 0.3721000000
3.2529000000 5.9319000000 0.0878000000
3.2528000000 4.7272000000 0.7298000000
3.2528000000 1.7005000000 0.8745000000
3.2527000000 1.3248000000 0.7188000000
3.2527000000 1.3484000000 0.7282000000
3.2526000000 4.9105000000 0.6533000000
3.2525000000 3.1776000000 1.3979000000
3.2525000000 3.4696000000 1.2767000000
3.2524000000 1.6254000000 0.8443000000
3.2520000000 1.3930000000 0.7506000000
3.2519000000 4.5741000000 0.8032000000
3.2519000000 5.6969000000 0.3489000000
3.2517000000 0.3152000000 0.2224000000
3.2516000000 1.5859000000 0.8280000000
3.2515000000 1.6381000000 0.8546000000
3.2513000000 5.8937000000 0.1179000000
3.2511000000 0.4542000000 0.4064000000
3.2510000000 4.5073000000 0.8241000000
3.2508000000 0.4914000000 0.4223000000
3.2508000000 0.2322000000 0.1508000000
3.2504000000 1.7336000000 0.8928000000
3.2501000000 0.8746000000 0.5276000000
3.2499000000 1.3579000000 0.7324000000
3.2496000000 5.4285000000 0.4333000000
3.2494000000 0.9656000000 0.5616000000
3.2493000000 1.2276000000 0.6794000000
3.2488000000 3.7133000000 1.1711000000
3.2488000000 3.1328000000 1.4128000000
3.2487000000 1.9605000000 0.9942000000
3.2487000000 3.2952000000 1.3470000000
3.2485000000 3.4227000000 1.2939000000
3.2474000000 2.2608000000 1.1222000000
3.2473000000 5.9905000000 0.1100000000
3.2472000000 4.5482000000 0.8131000000
3.2471000000 2.2367000000 1.1137000000
3.2464000000 4.6361000000 0.7742000000
3.2448000000 1.6693000000 0.8680000000
3.2442000000 0.3189000000 0.2274000000
3.0129000000 2.4555000000 1.3842000000
3.0125000000 5.1091000000 0.8120000000
3.0109000000 2.8311000000 1.5382000000
3.0108000000 4.3768000000 1.0607000000
3.0098000000 4.3599000000 1.0708000000
3.0097000000 4.2007000000 1.1369000000
3.0094000000 5.4045000000 0.5399000000
3.0093000000 5.0882000000 0.7560000000
3.0092000000 5.8397000000 0.1696000000
3.0087000000 3.9170000000 1.2599000000
3.0085000000 2.9821000000 1.6053000000
3.0082000000 3.0405000000 1.6923000000
3.0080000000 3.3387000000 1.5054000000
3.0076000000 3.5971000000 1.3979000000
3.0075000000 0.4778000000 0.3596000000
3.0075000000 2.7235000000 1.4984000000
3.0074000000 4.7061000000 0.9262000000
3.0073000000 6.0693000000 0.0412000000
3.0071000000 5.5471000000 0.4206000000
3.0069000000 3.5224000000 1.4272000000
3.0066000000 0.4148000000 0.3113000000
3.0065000000 4.2336000000 1.1256000000
3.0064000000 0.6372000000 0.5036000000
3.0061000000 1.4036000000 0.9306000000
3.0058000000 4.8617000000 0.8474000000
3.0056000000 3.4649000000 1.4553000000
3.0055000000 2.0392000000 1.2061000000
3.0055000000 4.8234000000 0.8745000000
3.0053000000 3.3954000000 1.4813000000
3.0053000000 1.7357000000 1.0749000000
3.0053000000 3.0264000000 1.6933000000
3.0052000000 4.1354000000 1.1692000000
3.0051000000 3.4305000000 1.4728000000
3.0050000000 3.0182000000 1.6868000000
3.0049000000 1.3466000000 0.9094000000
3.0048000000 3.4880000000 1.4502000000
3.0047000000 1.3031000000 0.8873000000
3.0047000000 6.0187000000 0.0916000000
3.0045000000 5.9075000000 0.1064000000
3.0044000000 6.0211000000 0.0870000000
3.0043000000 4.7271000000 0.9205000000
3.0043000000 4.8909000000 0.8441000000
3.0042000000 3.5023000000 1.4379000000
3.0041000000 0.5962000000 0.4668000000
3.0040000000 3.9287000000 1.2627000000
3.0040000000 2.9629000000 1.6057000000
3.0037000000 1.2783000000 0.8794000000
3.0036000000 3.0887000000 1.6856000000
3.0034000000 1.5519000000 0.9975000000
3.0033000000 5.7259000000 0.2639000000
3.0032000000 1.3110000000 0.8962000000
3.0032000000 4.9016000000 0.8467000000
3.0030000000 3.7950000000 1.3224000000
3.0029000000 4.4023000000 1.0599000000
3.0027000000 0.0508000000 0.0706000000
3.0028000000 1.3108000000 0.8963000000
3.0027000000 5.1306000000 0.8075000000
3.0026000000 0.7075000000 0.5638000000
3.0025000000 2.9082000000 1.5820000000
3.0024000000 5.7005000000 0.2831000000
3.0024000000 2.5269000000 1.4208000000
3.0023000000 0.1628000000 0.0929000000
3.0020000000 2.1217000000 1.2489000000
3.0019000000 3.6101000000 1.3963000000
3.0016000000 4.3900000000 1.0669000000
3.0016000000 2.2635000000 1.3093000000
3.0015000000 2.3071000000 1.3255000000
3.0013000000 2.2622000000 1.3044000000
3.0013000000 1.4036000000 0.9373000000
3.0011000000 4.5051000000 1.0086000000
3.0010000000 5.0892000000 0.8325000000
3.0007000000 3.6591000000 1.3814000000
3.0006000000 0.4674000000 0.3557000000
3.0005000000 2.4636000000 1.3942000000
3.0005000000 1.7223000000 1.0739000000
3.0003000000 2.8816000000 1.5749000000
3.0003000000 4.7430000000 0.9079000000
3.0002000000 2.7843000000 1.5242000000
2.9998000000 0.7960000000 0.7028000000
2.9994000000 0.7275000000 0.5757000000
2.9991000000 1.8724000000 1.1323000000
2.9990000000 4.2331000000 1.1359000000
2.9983000000 3.2176000000 1.5734000000
2.9980000000 2.4780000000 1.4005000000
2.9980000000 2.4332000000 1.3848000000
2.9974000000 0.3223000000 0.2287000000
2.9973000000 0.1246000000 0.0605000000
2.9972000000 0.7996000000 0.7092000000
2.9958000000 0.9398000000 0.7980000000
2.7652000000 5.1391000000 0.7679000000
2.7634000000 1.8098000000 1.2926000000
2.7604000000 2.8296000000 1.7269000000
2.7602000000 5.7649000000 0.2306000000
2.7594000000 3.9450000000 1.4387000000
2.7592000000 3.7518000000 1.5137000000
2.7592000000 3.8854000000 1.4619000000
2.7587000000 4.6921000000 1.1707000000
2.7586000000 5.9014000000 0.1136000000
2.7585000000 1.0115000000 0.8181000000
2.7576000000 2.8875000000 1.7554000000
2.7575000000 2.0145000000 1.3796000000
2.7574000000 4.8957000000 0.9788000000
2.7573000000 2.6403000000 1.6484000000
2.7572000000 1.2008000000 1.0497000000
2.7570000000 2.8385000000 1.7299000000
2.7569000000 2.2794000000 1.4986000000
2.7568000000 5.5325000000 0.4317000000
2.7566000000 4.1677000000 1.3382000000
2.7565000000 3.7842000000 1.5031000000
2.7564000000 3.0610000000 1.8767000000
2.7564000000 3.2246000000 1.7442000000
2.7562000000 5.7966000000 0.1990000000
2.7560000000 2.7199000000 1.6874000000
2.7559000000 5.9648000000 0.0607000000
2.7558000000 0.9317000000 0.7542000000
2.7557000000 3.3278000000 1.6985000000
2.7557000000 1.3748000000 1.1692000000
2.7556000000 0.8241000000 0.6597000000
2.7554000000 2.3100000000 1.5084000000
2.7553000000 5.9275000000 0.0937000000
2.7552000000 1.4464000000 1.1452000000
2.7550000000 1.2433000000 1.0828000000
2.7550000000 1.7775000000 1.2827000000
2.7547000000 4.9506000000 0.9331000000
2.7546000000 4.5082000000 1.1918000000
2.7545000000 4.7952000000 1.1251000000
2.7544000000 0.6600000000 0.5182000000
2.7544000000 2.7724000000 1.7122000000
2.7543000000 3.9122000000 1.4526000000
2.7543000000 3.7321000000 1.5251000000
2.7542000000 1.1110000000 0.9058000000
2.7542000000 0.5810000000 0.4525000000
2.7541000000 5.8977000000 0.1230000000
2.7540000000 5.7804000000 0.2117000000
2.7538000000 4.2013000000 1.3300000000
2.7538000000 0.8868000000 0.7145000000
2.7537000000 4.9008000000 0.9703000000
2.7534000000 4.3740000000 1.2511000000
2.7533000000 4.2999000000 1.2889000000
2.7533000000 5.8579000000 0.1501000000
2.7532000000 1.4028000000 1.1837000000
2.7531000000 0.3391000000 0.2453000000
2.7527000000 3.9592000000 1.4342000000
2.7526000000 4.3924000000 1.2492000000
2.7526000000 2.1584000000 1.4518000000
2.7525000000 2.9414000000 1.7826000000
2.7525000000 0.0949000000 0.1127000000
2.7525000000 2.7206000000 1.7645000000
2.7524000000 2.1130000000 1.4236000000
2.7523000000 0.0105000000 0.0403000000
2.7522000000 2.5221000000 1.6014000000
2.7521000000 0.9589000000 0.7783000000
2.7521000000 5.6105000000 0.3726000000
2.7520000000 3.5309000000 1.6192000000
2.7518000000 3.2588000000 1.7389000000
2.7516000000 4.5435000000 1.1823000000
2.7515000000 0.2272000000 0.1447000000
2.7514000000 0.9775000000 0.7882000000
2.7513000000 2.9938000000 1.8701000000
2.7512000000 2.3810000000 1.5392000000
2.7511000000 2.0714000000 1.4071000000
2.7510000000 2.5928000000 1.6294000000
2.7508000000 0.8869000000 0.7136000000
2.7507000000 0.5323000000 0.4079000000
2.7505000000 3.8508000000 1.4869000000
2.7504000000 0.9171000000 0.7416000000
2.7500000000 1.5921000000 1.1973000000
2.7497000000 5.9615000000 0.0604000000
2.7494000000 1.0189000000 0.8242000000
2.7493000000 0.1105000000 0.1162000000
2.7490000000 3.1995000000 1.7586000000
2.7490000000 3.0569000000 1.8834000000
2.7488000000 2.9594000000 1.7964000000
2.7487000000 3.5755000000 1.6049000000
2.7487000000 5.6259000000 0.3517000000
2.7479000000 3.7059000000 1.5444000000
2.7473000000 0.6760000000 0.5314000000
2.7471000000 2.7456000000 1.6967000000
2.7470000000 4.1434000000 1.3593000000
2.7469000000 0.8656000000 0.6923000000
2.7465000000 1.5478000000 1.1858000000
2.7460000000 0.8149000000 0.6464000000
2.5150000000 5.2673000000 0.6556000000
2.5135000000 6.0146000000 0.0901000000
2.5119000000 3.6810000000 1.7358000000
2.5110000000 0.6134000000 0.4798000000
2.5105000000 3.4689000000 1.8209000000
2.5098000000 3.9319000000 1.6217000000
2.5092000000 3.9017000000 1.6373000000
2.5091000000 2.9038000000 1.9501000000
2.5087000000 4.0033000000 1.5952000000
2.5085000000 0.0796000000 0.0965000000
2.5080000000 1.8525000000 1.5660000000
2.5078000000 3.0168000000 2.0604000000
2.5073000000 5.1985000000 0.7130000000
2.5071000000 4.9135000000 0.9619000000
2.5070000000 1.9896000000 1.5549000000
2.5068000000 5.3874000000 0.5563000000
2.5067000000 1.3448000000 1.1092000000
2.5066000000 1.8760000000 1.5096000000
2.5065000000 3.5004000000 1.8119000000
2.5065000000 3.4395000000 1.8357000000
2.5064000000 5.6332000000 0.3409000000
2.5063000000 5.3582000000 0.5825000000
2.5061000000 4.8417000000 1.0267000000
2.5060000000 2.8855000000 1.9404000000
2.5059000000 2.9454000000 1.9702000000
2.5058000000 1.6570000000 1.4409000000
2.5057000000 5.8326000000 0.1725000000
2.5056000000 2.5211000000 1.7830000000
2.5054000000 2.5700000000 1.8056000000
2.5055000000 1.9337000000 1.5303000000
2.5053000000 0.6789000000 0.5327000000
2.5051000000 4.0222000000 1.5859000000
2.5049000000 2.8377000000 1.9199000000
2.5046000000 5.3209000000 0.6091000000
2.5045000000 0.6424000000 0.5059000000
2.5045000000 5.4076000000 0.5330000000
2.5044000000 1.5338000000 1.2662000000
2.5042000000 3.3017000000 1.8947000000
2.5041000000 0.7197000000 0.5692000000
2.5042000000 5.9046000000 0.1054000000
2.5041000000 4.1329000000 1.5464000000
2.5039000000 2.6821000000 1.8545000000
2.5037000000 3.9918000000 1.6064000000
2.5036000000 5.7744000000 0.2261000000
2.5033000000 4.7428000000 1.1087000000
2.5033000000 2.8891000000 1.9418000000
2.5030000000 5.3076000000 0.6220000000
2.5028000000 0.3814000000 0.2797000000
2.5028000000 4.1708000000 1.5380000000
2.5026000000 4.3113000000 1.5325000000
2.5024000000 0.0089000000 0.0323000000
2.5025000000 4.2017000000 1.5192000000
2.5024000000 5.2626000000 0.6637000000
2.5023000000 3.0879000000 2.0510000000
2.5021000000 3.1617000000 1.9617000000
2.5020000000 4.2802000000 1.5418000000
2.5017000000 4.2984000000 1.5347000000
2.5016000000 1.2240000000 1.0048000000
2.5011000000 1.4747000000 1.2140000000
2.5010000000 2.7555000000 1.8911000000
2.5008000000 2.4460000000 1.7625000000
2.5008000000 5.7904000000 0.2070000000
2.5006000000 1.2176000000 0.9978000000
2.5005000000 5.4069000000 0.5374000000
2.5004000000 1.7633000000 1.5273000000
2.5001000000 0.7159000000 0.5718000000
2.5000000000 4.1779000000 1.5297000000
2.5000000000 3.4888000000 1.8235000000
2.4996000000 2.6949000000 1.8630000000
2.4995000000 4.9856000000 0.9006000000
2.4995000000 1.4353000000 1.1848000000
2.4993000000 3.9086000000 1.6377000000
2.4993000000 3.9998000000 1.6027000000
2.4992000000 3.3236000000 1.8950000000
2.4991000000 3.6831000000 1.7424000000
2.4990000000 2.0979000000 1.6114000000
2.4987000000 2.8872000000 1.9450000000
2.4985000000 1.8278000000 1.5484000000
2.4979000000 2.4265000000 1.7486000000
2.4976000000 0.6999000000 0.5528000000
2.4968000000 0.3410000000 0.2490000000
2.4966000000 0.9998000000 0.8139000000
2.4965000000 1.1259000000 0.9176000000
2.4963000000 5.0374000000 0.8605000000
2.4948000000 5.0967000000 0.8043000000
2.2677000000 1.4843000000 1.2318000000
2.2634000000 5.7491000000 0.2425000000
2.2627000000 5.7450000000 0.2472000000
2.2607000000 0.4998000000 0.3858000000
2.2607000000 3.4178000000 2.0341000000
2.2593000000 5.1652000000 0.7504000000
2.2588000000 5.3621000000 0.5748000000
2.2587000000 2.0967000000 1.8167000000
2.2583000000 3.7508000000 1.8892000000
2.2580000000 5.1079000000 0.7960000000
2.2580000000 5.3445000000 0.5936000000
2.2576000000 1.5635000000 1.2925000000
2.2573000000 6.0484000000 0.0608000000
2.2572000000 0.0928000000 0.1086000000
2.2571000000 1.0663000000 0.8649000000
2.2568000000 5.6434000000 0.3346000000
2.2568000000 1.7004000000 1.4140000000
2.2567000000 1.8354000000 1.5251000000
2.2565000000 2.7266000000 2.0586000000
2.2564000000 2.5724000000 1.9925000000
2.2564000000 0.2424000000 0.1600000000
2.2562000000 4.2754000000 1.5045000000
2.2561000000 2.9678000000 2.1623000000
2.2557000000 5.4098000000 0.5346000000
2.2556000000 4.5593000000 1.2667000000
2.2556000000 3.8543000000 1.9123000000
2.2555000000 4.0658000000 1.6917000000
2.2554000000 3.9663000000 1.8384000000
2.2553000000 1.8726000000 1.5626000000
2.2552000000 1.7773000000 1.4810000000
2.2552000000 1.6713000000 1.3888000000
2.2551000000 1.6827000000 1.4031000000
2.2550000000 5.0748000000 0.8198000000
2.2550000000 1.4676000000 1.2116000000
2.2549000000 3.6107000000 1.9502000000
2.2548000000 2.0770000000 1.7977000000
2.2546000000 4.7854000000 1.0705000000
2.2545000000 3.2164000000 2.1230000000
2.2545000000 3.1296000000 2.1582000000
2.2543000000 0.5793000000 0.4486000000
2.2543000000 4.6450000000 1.1947000000
2.2541000000 2.7879000000 2.0865000000
2.2539000000 3.0894000000 2.2385000000
2.2538000000 3.6174000000 1.9503000000
2.2537000000 0.5580000000 0.4273000000
2.2536000000 4.5553000000 1.2733000000
2.2535000000 4.5662000000 1.2558000000
2.2535000000 5.6241000000 0.3507000000
2.2535000000 2.8612000000 2.1172000000
2.2531000000 2.2334000000 1.9117000000
2.2532000000 2.8606000000 2.1177000000
2.2530000000 0.2672000000 0.1837000000
2.2530000000 4.1652000000 1.6047000000
2.2529000000 5.3090000000 0.6247000000
2.2527000000 0.0836000000 0.1003000000
2.2525000000 2.0470000000 1.7094000000
2.2525000000 5.5231000000 0.4345000000
2.2524000000 0.6451000000 0.4973000000
2.2524000000 2.1021000000 1.8215000000
2.2522000000 5.1271000000 0.7755000000
2.2521000000 2.9983000000 2.2444000000
2.2520000000 1.8059000000 1.5016000000
2.2518000000 4.2245000000 1.5576000000
2.2518000000 1.1149000000 0.9122000000
2.2516000000 0.8795000000 0.7087000000
2.2515000000 2.1851000000 1.8929000000
2.2515000000 4.7866000000 1.0722000000
2.2514000000 1.6196000000 1.3441000000
2.2514000000 1.8635000000 1.5582000000
2.2512000000 4.8902000000 0.9796000000
2.2511000000 3.4282000000 2.0306000000
2.2509000000 2.6553000000 2.0349000000
2.2508000000 3.0512000000 2.2575000000
2.2507000000 0.4159000000 0.3086000000
2.2506000000 4.3617000000 1.4363000000
2.2505000000 1.7553000000 1.4569000000
2.2504000000 5.7887000000 0.2149000000
2.2503000000 0.9288000000 0.7533000000
2.2502000000 0.8710000000 0.6989000000
2.2502000000 2.4379000000 1.9398000000
2.2497000000 4.9133000000 0.9584000000
2.2493000000 0.2209000000 0.1431000000
2.2492000000 0.8441000000 0.6781000000
2.2489000000 2.0057000000 1.6790000000
2.2488000000 5.8401000000 0.1643000000
2.2488000000 0.1912000000 0.1107000000
2.2487000000 0.8226000000 0.6579000000
2.2486000000 5.9411000000 0.0790000000
2.2472000000 0.1480000000 0.0783000000
2.2464000000 0.0368000000 0.0636000000
2.2463000000 1.1157000000 0.9120000000
2.2450000000 3.3928000000 2.0534000000
2.2435000000 3.3941000000 2.0579000000
2.0133000000 2.7181000000 2.2350000000
2.0128000000 5.8018000000 0.1980000000
2.0118000000 4.5187000000 1.2942000000
2.0098000000 4.1280000000 1.6381000000
2.0097000000 2.3005000000 1.9230000000
2.0095000000 1.8765000000 1.5623000000
2.0094000000 5.9766000000 0.1280000000
2.0093000000 3.9029000000 1.8275000000
2.0091000000 2.6067000000 2.2466000000
2.0085000000 6.1114000000 0.0148000000
2.0085000000 5.2191000000 0.6995000000
2.0084000000 0.1062000000 0.1213000000
2.0082000000 4.6695000000 1.1730000000
2.0080000000 6.0689000000 0.0457000000
2.0081000000 2.5522000000 2.2052000000
2.0079000000 4.2385000000 1.5440000000
2.0078000000 6.0317000000 0.0744000000
2.0075000000 3.3886000000 2.2942000000
2.0074000000 3.6671000000 2.0363000000
2.0073000000 2.9128000000 2.3188000000
2.0073000000 1.7575000000 1.4583000000
2.0072000000 5.8419000000 0.1623000000
2.0071000000 5.2080000000 0.7097000000
2.0068000000 2.3961000000 2.0105000000
2.0067000000 1.7134000000 1.4240000000
2.0067000000 1.4973000000 1.2389000000
2.0066000000 5.6814000000 0.3038000000
2.0065000000 3.2304000000 2.2990000000
2.0063000000 5.2877000000 0.6375000000
2.0062000000 3.3456000000 2.2483000000
2.0061000000 1.6951000000 1.4097000000
2.0060000000 1.8785000000 1.5676000000
2.0059000000 5.6105000000 0.3603000000
2.0056000000 2.4109000000 2.0200000000
2.0054000000 0.3188000000 0.2255000000
2.0051000000 3.7044000000 1.9962000000
2.0051000000 5.1886000000 0.7285000000
2.0050000000 3.7230000000 1.9849000000
2.0050000000 2.5013000000 2.1651000000
2.0048000000 0.4116000000 0.3084000000
2.0046000000 1.4748000000 1.2233000000
2.0045000000 1.4052000000 1.1636000000
2.0045000000 1.6474000000 1.3670000000
2.0045000000 2.5939000000 2.2435000000
2.0042000000 2.5192000000 2.1792000000
2.0041000000 2.3401000000 1.9616000000
2.0040000000 1.8224000000 1.5138000000
2.0039000000 2.5865000000 2.2357000000
2.0039000000 5.5135000000 0.4453000000
2.0037000000 0.9677000000 0.7811000000
2.0035000000 5.4005000000 0.5406000000
2.0034000000 2.4866000000 2.0922000000
2.0034000000 4.5678000000 1.2612000000
2.0033000000 1.2454000000 1.0217000000
2.0033000000 0.6078000000 0.4770000000
2.0032000000 0.0586000000 0.0789000000
2.0032000000 3.9184000000 1.8150000000
2.0031000000 1.9831000000 1.6570000000
2.0030000000 2.5201000000 2.1815000000
2.0029000000 5.7365000000 0.2492000000
2.0028000000 0.0589000000 0.0824000000
2.0027000000 3.1010000000 2.3623000000
2.0026000000 0.2630000000 0.1782000000
2.0025000000 2.2220000000 1.8593000000
2.0024000000 2.1287000000 1.7797000000
2.0023000000 4.6893000000 1.1537000000
2.0022000000 2.3582000000 1.9738000000
2.0021000000 0.1237000000 0.0577000000
2.0019000000 0.9089000000 0.7310000000
2.0019000000 2.0039000000 1.6722000000
2.0018000000 4.6245000000 1.2045000000
2.0018000000 2.6598000000 2.2795000000
2.0017000000 2.5994000000 2.2487000000
2.0013000000 1.1003000000 0.9025000000
2.0013000000 2.1208000000 1.7798000000
2.0011000000 1.5254000000 1.2565000000
2.0010000000 5.4282000000 0.5231000000
2.0010000000 2.6092000000 2.2550000000
2.0008000000 1.2744000000 1.0486000000
2.0007000000 0.4565000000 0.3432000000
2.0006000000 4.2546000000 1.5270000000
2.0006000000 1.6823000000 1.4012000000
2.0005000000 2.0462000000 1.7074000000
2.0002000000 0.0316000000 0.0578000000
2.0001000000 4.7099000000 1.1331000000
2.0000000000 1.2005000000 0.9818000000
1.9999000000 3.7969000000 1.9187000000
1.9998000000 0.2959000000 0.2042000000
1.9996000000 1.1972000000 0.9797000000
1.9995000000 0.0854000000 0.1016000000
1.9995000000 0.8109000000 0.6467000000
1.9993000000 4.0666000000 1.6906000000
1.9992000000 5.1857000000 0.7264000000
1.9992000000 0.1075000000 0.1203000000
1.9989000000 2.7808000000 2.2774000000
1.9988000000 1.1497000000 0.9362000000
1.9988000000 3.2919000000 2.2852000000
1.9987000000 1.0354000000 0.8423000000
1.9986000000 5.9329000000 0.0871000000
1.9983000000 2.8370000000 2.2988000000
1.9981000000 3.3690000000 2.3087000000
1.9977000000 3.7826000000 1.9342000000
1.9975000000 4.0241000000 1.7316000000
1.9974000000 3.0959000000 2.3594000000
1.9973000000 0.6435000000 0.5037000000
1.9955000000 0.1229000000 0.0558000000
1.9955000000 0.0809000000 0.0947000000
1.9941000000 0.7215000000 0.5699000000
1.7628000000 5.0136000000 0.8839000000
1.7628000000 2.0767000000 1.7386000000
1.7626000000 3.7399000000 1.9709000000
1.7615000000 5.4005000000 0.5427000000
1.7607000000 5.5773000000 0.3883000000
1.7606000000 5.9582000000 0.0665000000
1.7593000000 3.2800000000 2.3620000000
1.7590000000 1.0787000000 0.8842000000
1.7589000000 1.6805000000 1.3921000000
1.7586000000 4.3580000000 1.4398000000
1.7584000000 2.3709000000 1.9948000000
1.7585000000 4.3412000000 1.4492000000
1.7583000000 3.7096000000 1.9951000000
1.7582000000 3.5410000000 2.1397000000
1.7580000000 5.9395000000 0.0808000000
1.7577000000 3.9365000000 1.7969000000
1.7574000000 1.5834000000 1.3152000000
1.7573000000 4.2004000000 1.5727000000
1.7572000000 2.4715000000 2.0741000000
1.7571000000 1.6134000000 1.3396000000
1.7571000000 4.0159000000 1.7338000000
1.7569000000 4.2380000000 1.5373000000
1.7568000000 1.6205000000 1.3422000000
1.7567000000 5.7724000000 0.2275000000
1.7567000000 4.5239000000 1.2957000000
1.7563000000 5.0293000000 0.8580000000
1.7561000000 2.2951000000 1.9237000000
1.7561000000 1.0769000000 0.8736000000
1.7560000000 1.0832000000 0.8781000000
1.7559000000 3.5775000000 2.1083000000
1.7555000000 0.5564000000 0.4265000000
1.7555000000 4.0122000000 1.7347000000
1.7554000000 4.0557000000 1.6975000000
1.7553000000 1.8068000000 1.5101000000
1.7552000000 0.9929000000 0.8086000000
1.7551000000 1.3757000000 1.1290000000
1.7549000000 1.6296000000 1.3523000000
1.7547000000 5.4459000000 0.5034000000
1.7545000000 1.9464000000 1.6212000000
1.7545000000 4.7423000000 1.1103000000
1.7542000000 1.3265000000 1.0924000000
1.7542000000 4.3788000000 1.4224000000
1.7541000000 1.4521000000 1.2001000000
1.7540000000 5.1679000000 0.7471000000
1.7540000000 4.6159000000 1.2154000000
1.7540000000 3.5052000000 2.1741000000
1.7538000000 5.4865000000 0.4689000000
1.7537000000 3.9641000000 1.7724000000
1.7536000000 4.4923000000 1.3268000000
1.7536000000 0.9472000000 0.7664000000
1.7534000000 4.4628000000 1.3450000000
1.7533000000 4.4044000000 1.4007000000
1.7533000000 5.6113000000 0.3602000000
1.7532000000 3.2256000000 2.4106000000
1.7532000000 5.3698000000 0.5729000000
1.7531000000 3.1566000000 2.5360000000
1.7530000000 0.7162000000 0.5646000000
1.7530000000 5.1082000000 0.7963000000
1.7529000000 0.2960000000 0.2082000000
1.7528000000 3.7523000000 1.9642000000
1.7527000000 3.3374000000 2.3176000000
1.7525000000 2.3929000000 2.0073000000
1.7523000000 2.9826000000 2.5367000000
1.7521000000 3.6591000000 2.0330000000
1.7519000000 1.5067000000 1.2466000000
1.7517000000 2.0680000000 1.7282000000
1.7516000000 3.3567000000 2.2994000000
1.7516000000 1.7387000000 1.4452000000
1.7513000000 6.1048000000 0.0080000000
1.7512000000 6.0952000000 0.0221000000
1.7511000000 1.4189000000 1.1678000000
1.7511000000 2.1370000000 1.7873000000
1.7510000000 4.7843000000 1.0743000000
1.7506000000 0.0410000000 0.0633000000
1.7506000000 0.0114000000 0.0367000000
1.7507000000 2.7063000000 2.2739000000
1.7504000000 3.6388000000 2.0514000000
1.7503000000 5.0045000000 0.8825000000
1.7502000000 4.4354000000 1.3679000000
1.7501000000 1.3533000000 1.1178000000
1.7498000000 0.3955000000 0.2964000000
1.7498000000 1.7843000000 1.4900000000
1.7495000000 5.4242000000 0.5251000000
1.7493000000 0.3894000000 0.2882000000
1.7491000000 4.0454000000 1.6999000000
1.7490000000 4.6466000000 1.1937000000
1.7488000000 2.9104000000 2.4517000000
1.7485000000 2.7805000000 2.3385000000
1.7484000000 4.1647000000 1.6017000000
1.7485000000 4.0572000000 1.7024000000
1.7482000000 1.7470000000 1.4510000000
1.7482000000 4.2836000000 1.4966000000
1.7477000000 3.4864000000 2.1886000000
1.7476000000 2.2417000000 1.8733000000
1.7476000000 5.7735000000 0.2273000000
1.7468000000 0.5870000000 0.4555000000
1.7466000000 0.1450000000 0.0801000000
1.7463000000 6.0835000000 0.0271000000
1.7453000000 0.7758000000 0.6157000000
1.5099000000 0.7594000000 0.6034000000
1.5094000000 3.7248000000 1.9842000000
1.5088000000 3.3179000000 2.2652000000
1.5085000000 5.7929000000 0.2089000000
1.5084000000 3.9697000000 1.7674000000
1.5079000000 4.7451000000 1.1088000000
1.5078000000 3.7395000000 1.9675000000
1.5078000000 4.9069000000 0.9649000000
1.5073000000 4.6895000000 1.1575000000
1.5069000000 3.5413000000 2.2011000000
1.5067000000 3.4981000000 2.2401000000
1.5066000000 1.8926000000 1.5752000000
1.5065000000 1.3004000000 1.0686000000
1.5064000000 2.4860000000 2.0911000000
1.5063000000 1.7491000000 1.4558000000
1.5062000000 4.7750000000 1.0813000000
1.5061000000 3.0154000000 2.4335000000
1.5062000000 1.8811000000 1.5711000000
1.5061000000 5.4141000000 0.5345000000
1.5057000000 0.0395000000 0.0712000000
1.5058000000 4.3662000000 1.4318000000
1.5057000000 4.5851000000 1.2435000000
1.5056000000 1.2119000000 0.9943000000
1.5055000000 2.0889000000 1.7515000000
1.5055000000 3.5918000000 2.0898000000
1.5054000000 4.9621000000 0.9182000000
1.5053000000 5.1555000000 0.7499000000
1.5052000000 3.1306000000 2.3417000000
1.5050000000 3.5101000000 2.2329000000
1.5046000000 4.6291000000 1.2054000000
1.5045000000 5.0751000000 0.8205000000
1.5044000000 4.6334000000 1.2060000000
1.5043000000 1.5071000000 1.2467000000
1.5043000000 4.8322000000 1.0336000000
1.5039000000 0.9172000000 0.7457000000
1.5038000000 4.3184000000 1.4717000000
1.5037000000 3.1702000000 2.3291000000
1.5034000000 1.7704000000 1.4750000000
1.5034000000 5.4167000000 0.5303000000
1.5033000000 5.4723000000 0.4805000000
1.5031000000 4.6432000000 1.1940000000
1.5030000000 5.0024000000 0.8890000000
1.5030000000 1.4129000000 1.1673000000
1.5028000000 5.1292000000 0.7805000000
1.5027000000 4.3529000000 1.4441000000
1.5025000000 5.1082000000 0.7940000000
1.5025000000 5.1409000000 0.7634000000
1.5023000000 5.6519000000 0.3243000000
1.5023000000 3.6431000000 2.0496000000
1.5022000000 0.2489000000 0.1631000000
1.5021000000 5.1206000000 0.7796000000
1.5019000000 2.2341000000 1.8645000000
1.5019000000 1.6112000000 1.3387000000
1.5017000000 0.0350000000 0.0580000000
1.5017000000 2.0818000000 1.7377000000
1.5016000000 1.8222000000 1.5199000000
1.5015000000 4.1946000000 1.5831000000
1.5015000000 2.7372000000 2.2441000000
1.5013000000 0.9057000000 0.7303000000
1.5012000000 0.5330000000 0.4082000000
1.5011000000 4.1857000000 1.5900000000
1.5010000000 3.2968000000 2.2708000000
1.5009000000 2.4163000000 2.0281000000
1.5007000000 2.5578000000 2.2064000000
1.5006000000 1.8237000000 1.5158000000
1.5001000000 1.9609000000 1.6383000000
1.5000000000 0.8312000000 0.6678000000
1.4997000000 2.9850000000 2.3490000000
1.4993000000 1.6249000000 1.3474000000
1.4992000000 0.8952000000 0.7211000000
1.4988000000 1.6307000000 1.3520000000
1.4982000000 2.2363000000 1.8773000000
1.4976000000 1.1214000000 0.9174000000
1.4970000000 0.4854000000 0.3741000000
1.4962000000 0.0822000000 0.0980000000
1.4950000000 2.1529000000 1.7991000000
1.4945000000 2.0819000000 1.7403000000
1.4943000000 0.4895000000 0.3721000000
1.2608000000 0.0074000000 0.0354000000
1.2607000000 4.6999000000 1.1427000000
1.2597000000 5.3092000000 0.6236000000
1.2593000000 4.3653000000 1.4222000000
1.2591000000 5.0500000000 0.8441000000
1.2585000000 2.9425000000 2.1504000000
1.2582000000 4.6744000000 1.1730000000
1.2581000000 2.6585000000 2.0320000000
1.2576000000 4.9584000000 0.9227000000
1.2575000000 5.5428000000 0.4239000000
1.2569000000 4.5237000000 1.2936000000
1.2566000000 4.6540000000 1.1806000000
1.2565000000 2.3779000000 1.9094000000
1.2565000000 4.8011000000 1.0574000000
1.2563000000 6.0319000000 0.0776000000
1.2562000000 5.7248000000 0.2670000000
1.2562000000 2.9606000000 2.1603000000
1.2559000000 0.2177000000 0.1397000000
1.2558000000 0.1940000000 0.1188000000
1.2557000000 4.3127000000 1.4783000000
1.2556000000 1.2134000000 0.9890000000
1.2552000000 5.1962000000 0.7166000000
1.2552000000 1.0824000000 0.8825000000
1.2551000000 6.0087000000 0.1013000000
1.2551000000 0.7298000000 0.5763000000
1.2548000000 0.4040000000 0.3005000000
1.2545000000 3.3238000000 2.0762000000
1.2543000000 3.8257000000 1.9189000000
1.2543000000 1.2232000000 1.0021000000
1.2541000000 4.3478000000 1.4437000000
1.2540000000 0.9972000000 0.8095000000
1.2540000000 3.2303000000 2.1132000000
1.2538000000 4.3335000000 1.4623000000
1.2535000000 1.5473000000 1.2813000000
1.2533000000 4.0078000000 1.8031000000
1.2532000000 3.6606000000 1.9286000000
1.2531000000 5.0552000000 0.8417000000
1.2530000000 1.9953000000 1.6664000000
1.2528000000 4.6473000000 1.1954000000
1.2527000000 0.7328000000 0.5816000000
1.2526000000 3.8814000000 1.8942000000
1.2525000000 5.4507000000 0.5034000000
1.2524000000 1.6152000000 1.3432000000
1.2523000000 2.8067000000 2.0884000000
1.2522000000 5.7236000000 0.2665000000
1.2521000000 5.8732000000 0.1344000000
1.2519000000 4.0957000000 1.6636000000
1.2518000000 1.4746000000 1.2170000000
1.2518000000 0.7350000000 0.5830000000
1.2515000000 4.6116000000 1.2199000000
1.2515000000 3.5580000000 1.9706000000
1.2514000000 2.0589000000 1.7151000000
1.2513000000 2.3239000000 1.8764000000
1.2510000000 2.6248000000 2.0074000000
1.2508000000 4.4276000000 1.3753000000
1.2507000000 1.8008000000 1.4975000000
1.2506000000 0.0351000000 0.0626000000
1.2506000000 3.7264000000 1.8993000000
1.2505000000 5.6057000000 0.3646000000
1.2505000000 2.2672000000 1.9221000000
1.2503000000 2.3726000000 1.9028000000
1.2502000000 1.5723000000 1.3053000000
1.2499000000 5.3291000000 0.6025000000
1.2498000000 1.1010000000 0.8949000000
1.2498000000 1.1982000000 0.9851000000
1.2496000000 5.8972000000 0.1209000000
1.2491000000 3.7654000000 1.8811000000
1.2491000000 0.5807000000 0.4541000000
1.2490000000 1.0894000000 0.8872000000
1.2488000000 1.3794000000 1.1389000000
1.2488000000 3.7903000000 1.8698000000
1.2487000000 1.9760000000 1.6493000000
1.2475000000 3.0625000000 2.2397000000
1.2468000000 0.3877000000 0.2864000000
1.2467000000 4.3362000000 1.4587000000
1.2467000000 1.1232000000 0.9143000000
1.2463000000 1.1026000000 0.9011000000
1.2456000000 3.0468000000 2.2484000000
1.0111000000 4.4842000000 1.3336000000
1.0100000000 2.5423000000 1.7892000000
1.0099000000 5.3121000000 0.6172000000
1.0094000000 4.7459000000 1.1055000000
1.0093000000 4.8839000000 0.9864000000
1.0090000000 3.4016000000 1.8575000000
1.0088000000 6.0375000000 0.0764000000
1.0084000000 5.7454000000 0.2487000000
1.0083000000 3.6384000000 1.7561000000
1.0082000000 3.5956000000 1.7738000000
1.0080000000 2.9901000000 2.0613000000
1.0080000000 3.1164000000 1.9802000000
1.0076000000 4.5281000000 1.2933000000
1.0072000000 4.2490000000 1.5517000000
1.0071000000 2.6066000000 1.8222000000
1.0071000000 4.0835000000 1.5587000000
1.0063000000 6.0643000000 0.0471000000
1.0062000000 1.0126000000 0.8214000000
1.0061000000 3.9535000000 1.6230000000
1.0060000000 5.3454000000 0.5872000000
1.0059000000 3.4198000000 1.8481000000
1.0058000000 5.5341000000 0.4268000000
1.0057000000 4.2634000000 1.5495000000
1.0056000000 3.6064000000 1.7675000000
1.0055000000 3.7120000000 1.7267000000
1.0055000000 3.3238000000 1.8868000000
1.0054000000 2.1245000000 1.6076000000
1.0053000000 0.1314000000 0.0655000000
1.0053000000 5.0360000000 0.8551000000
1.0052000000 5.3812000000 0.5564000000
1.0051000000 4.9535000000 0.9275000000
1.0050000000 1.5879000000 1.3205000000
1.0050000000 3.9729000000 1.6055000000
1.0049000000 1.2130000000 0.9922000000
1.0048000000 1.9985000000 1.5572000000
1.0047000000 1.0822000000 0.8791000000
1.0047000000 2.0961000000 1.6032000000
1.0045000000 0.7118000000 0.5634000000
1.0043000000 4.9415000000 0.9386000000
1.0042000000 4.5392000000 1.2826000000
1.0041000000 0.2321000000 0.1516000000
1.0040000000 2.7593000000 1.8851000000
1.0040000000 5.5152000000 0.4480000000
1.0038000000 2.7609000000 1.8875000000
1.0038000000 2.0131000000 1.5681000000
1.0038000000 1.5501000000 1.2842000000
1.0035000000 4.9000000000 0.9735000000
1.0035000000 0.2066000000 0.1338000000
1.0034000000 3.7502000000 1.7042000000
1.0034000000 5.9848000000 0.1187000000
1.0033000000 0.4326000000 0.3224000000
1.0032000000 0.6674000000 0.5305000000
1.0032000000 2.3475000000 1.7119000000
1.0030000000 3.8824000000 1.6478000000
1.0030000000 0.8709000000 0.6990000000
1.0029000000 5.3126000000 0.6223000000
1.0028000000 4.4262000000 1.4366000000
1.0027000000 3.8858000000 1.6418000000
1.0026000000 0.9878000000 0.7988000000
1.0026000000 4.5117000000 1.3070000000
1.0025000000 3.3000000000 1.8937000000
1.0024000000 5.7576000000 0.2395000000
1.0024000000 5.1526000000 0.7594000000
1.0021000000 2.6771000000 1.8382000000
1.0020000000 5.2131000000 0.7030000000
1.0020000000 1.7807000000 1.5268000000
1.0016000000 3.3568000000 1.8752000000
1.0015000000 5.0194000000 0.8710000000
1.0013000000 1.8085000000 1.5402000000
1.0014000000 5.5315000000 0.4334000000
1.0013000000 4.0690000000 1.5592000000
1.0011000000 1.8125000000 1.5388000000
1.0011000000 1.6918000000 1.4643000000
1.0010000000 1.4901000000 1.2316000000
1.0008000000 0.7385000000 0.5838000000
1.0005000000 4.2301000000 1.4960000000
1.0005000000 2.5346000000 1.7815000000
1.0004000000 1.3242000000 1.0904000000
1.0003000000 0.7903000000 0.6308000000
1.0001000000 5.1321000000 0.7712000000
1.0000000000 0.3568000000 0.2640000000
1.0000000000 1.1486000000 0.9387000000
0.9996000000 4.8008000000 1.0573000000
0.9995000000 3.6012000000 1.7632000000
0.9992000000 0.6123000000 0.4801000000
0.9988000000 2.0920000000 1.5952000000
0.9985000000 0.8101000000 0.6500000000
0.9984000000 4.1411000000 1.5326000000
0.9985000000 1.6650000000 1.4498000000
0.9980000000 3.3446000000 1.8724000000
0.9980000000 5.4551000000 0.4962000000
0.9980000000 4.4675000000 1.3422000000
0.9976000000 2.3094000000 1.6863000000
0.9975000000 5.8977000000 0.1182000000
0.9973000000 1.9075000000 1.5186000000
0.9968000000 4.0184000000 1.5901000000
0.9958000000 1.2567000000 1.0297000000
0.9955000000 4.4639000000 1.4098000000
0.9954000000 0.7065000000 0.5588000000
0.9952000000 0.9176000000 0.7442000000
0.9949000000 0.0420000000 0.0653000000
0.9945000000 2.2504000000 1.6581000000
0.9938000000 0.2945000000 0.2034000000
0.7628000000 5.7248000000 0.2661000000
0.7622000000 5.9782000000 0.1293000000
0.7615000000 4.8924000000 0.9816000000
0.7614000000 3.8847000000 1.4624000000
0.7611000000 5.4140000000 0.5340000000
0.7600000000 4.2165000000 1.3210000000
0.7598000000 1.0818000000 0.8836000000
0.7598000000 5.2662000000 0.6594000000
0.7595000000 5.8267000000 0.1793000000
0.7594000000 0.1059000000 0.1179000000
0.7589000000 6.0404000000 0.0729000000
0.7588000000 4.7395000000 1.1535000000
0.7588000000 0.3932000000 0.2872000000
0.7586000000 4.8290000000 1.0895000000
0.7585000000 3.0608000000 1.8760000000
0.7584000000 3.8680000000 1.4710000000
0.7582000000 5.6874000000 0.2935000000
0.7580000000 1.2302000000 1.0720000000
0.7578000000 2.1711000000 1.4485000000
0.7577000000 0.9976000000 0.8124000000
0.7575000000 5.6084000000 0.3687000000
0.7573000000 4.6526000000 1.1333000000
0.7572000000 2.3735000000 1.5331000000
0.7571000000 5.2226000000 0.6970000000
0.7569000000 3.5797000000 1.5939000000
0.7569000000 3.8973000000 1.4564000000
0.7567000000 5.3451000000 0.5920000000
0.7566000000 0.7137000000 0.5724000000
0.7565000000 5.9468000000 0.0756000000
0.7564000000 2.7176000000 1.6816000000
0.7563000000 4.4039000000 1.2399000000
0.7563000000 3.9400000000 1.4337000000
0.7561000000 4.5253000000 1.1873000000
0.7558000000 3.0487000000 1.8820000000
0.7557000000 3.1941000000 1.7570000000
0.7555000000 0.4212000000 0.3173000000
0.7550000000 3.9392000000 1.4401000000
0.7550000000 4.8547000000 1.0786000000
0.7549000000 4.0238000000 1.3996000000
0.7549000000 2.8770000000 1.7490000000
0.7548000000 2.3397000000 1.5192000000
0.7543000000 1.6586000000 1.2204000000
0.7543000000 1.5863000000 1.1956000000
0.7542000000 5.6998000000 0.2876000000
0.7541000000 5.8351000000 0.1686000000
0.7541000000 3.0733000000 1.8723000000
0.7539000000 1.0364000000 0.8430000000
0.7538000000 2.9530000000 1.7822000000
0.7536000000 5.8772000000 0.1390000000
0.7536000000 0.2413000000 0.1621000000
0.7535000000 2.9376000000 1.7681000000
0.7535000000 2.6350000000 1.6445000000
0.7534000000 2.6519000000 1.6505000000
0.7533000000 0.5780000000 0.4402000000
0.7530000000 2.9739000000 1.7878000000
0.7530000000 2.7837000000 1.7024000000
0.7528000000 2.7705000000 1.7083000000
0.7528000000 4.7941000000 1.1307000000
0.7526000000 2.6327000000 1.6420000000
0.7525000000 4.0138000000 1.4021000000
0.7525000000 1.6091000000 1.2003000000
0.7524000000 1.2152000000 1.0625000000
0.7523000000 2.7111000000 1.6754000000
0.7522000000 1.5714000000 1.1864000000
0.7522000000 4.6824000000 1.1118000000
0.7520000000 2.6603000000 1.6557000000
0.7519000000 0.2955000000 0.2110000000
0.7519000000 1.3563000000 1.1535000000
0.7518000000 2.8803000000 1.7434000000
0.7518000000 2.4837000000 1.5799000000
0.7517000000 5.4014000000 0.5457000000
0.7516000000 5.9200000000 0.1002000000
0.7515000000 5.7229000000 0.2664000000
0.7512000000 4.7417000000 1.1498000000
0.7512000000 4.9537000000 0.9324000000
0.7510000000 2.2662000000 1.4826000000
0.7510000000 2.7859000000 1.7092000000
0.7510000000 5.1019000000 0.7993000000
0.7509000000 0.6942000000 0.5496000000
0.7506000000 5.7427000000 0.2496000000
0.7502000000 5.3181000000 0.6149000000
0.7499000000 1.3779000000 1.1693000000
0.7496000000 2.3160000000 1.5072000000
0.7496000000 1.8505000000 1.3029000000
0.7494000000 4.7547000000 1.1494000000
0.7491000000 3.2526000000 1.7356000000
0.7491000000 3.8309000000 1.4840000000
0.7490000000 4.9843000000 0.8930000000
0.7489000000 5.3313000000 0.6054000000
0.7488000000 2.0815000000 1.4072000000
0.7484000000 4.9441000000 0.9333000000
0.7483000000 1.0439000000 0.8514000000
0.7483000000 3.7002000000 1.5329000000
0.7480000000 4.1602000000 1.3401000000
0.7476000000 4.4776000000 1.2090000000
0.7475000000 1.9496000000 1.3489000000
0.7474000000 4.5606000000 1.1630000000
0.7463000000 1.6453000000 1.2160000000
0.5118000000 2.6563000000 1.4749000000
0.5109000000 5.2473000000 0.7354000000
0.5095000000 4.8482000000 0.8654000000
0.5093000000 5.0709000000 0.7695000000
0.5088000000 2.7509000000 1.5152000000
0.5086000000 4.0489000000 1.2031000000
0.5085000000 5.4098000000 0.5417000000
0.5083000000 2.2386000000 1.2900000000
0.5081000000 3.6874000000 1.3656000000
0.5080000000 5.1149000000 0.8197000000
0.5079000000 3.0218000000 1.6938000000
0.5074000000 5.8434000000 0.1670000000
0.5074000000 4.6948000000 0.9297000000
0.5073000000 3.9812000000 1.2321000000
0.5073000000 4.1040000000 1.1814000000
0.5071000000 1.8981000000 1.1456000000
0.5070000000 2.2738000000 1.3014000000
0.5069000000 1.8305000000 1.1165000000
0.5067000000 5.3981000000 0.5456000000
0.5065000000 4.2279000000 1.1296000000
0.5065000000 3.4306000000 1.4722000000
0.5065000000 4.3385000000 1.0807000000
0.5059000000 4.9273000000 0.8289000000
0.5059000000 3.3702000000 1.4946000000
0.5058000000 6.0875000000 0.0347000000
0.5056000000 5.0699000000 0.7671000000
0.5055000000 3.9138000000 1.2662000000
0.5055000000 2.4747000000 1.3893000000
0.5052000000 6.0828000000 0.0364000000
0.5051000000 2.5678000000 1.4323000000
0.5051000000 2.5347000000 1.4184000000
0.5050000000 5.2614000000 0.7297000000
0.5050000000 4.4963000000 1.0167000000
0.5049000000 1.6048000000 1.0201000000
0.5048000000 1.9808000000 1.1805000000
0.5047000000 4.6794000000 0.9314000000
0.5047000000 0.9988000000 0.7603000000
0.5045000000 5.8690000000 0.1452000000
0.5044000000 1.9401000000 1.1623000000
0.5042000000 4.3087000000 1.0927000000
0.5041000000 1.7935000000 1.0946000000
0.5040000000 4.1873000000 1.1459000000
0.5039000000 3.1587000000 1.5842000000
0.5039000000 4.5241000000 1.0002000000
0.5038000000 3.6278000000 1.3878000000
0.5038000000 0.8068000000 0.7083000000
0.5037000000 1.5409000000 0.9859000000
0.5037000000 1.2594000000 0.8690000000
0.5036000000 3.2618000000 1.5433000000
0.5034000000 4.2163000000 1.1342000000
0.5033000000 2.2833000000 1.3073000000
0.5033000000 3.1125000000 1.6049000000
0.5031000000 0.0922000000 0.1064000000
0.5029000000 0.0240000000 0.0500000000
0.5028000000 2.7856000000 1.5210000000
0.5024000000 4.6380000000 0.9533000000
0.5023000000 4.0530000000 1.2054000000
0.5023000000 1.8206000000 1.1081000000
0.5022000000 2.7179000000 1.4930000000
0.5020000000 5.9539000000 0.0641000000
0.5019000000 3.1027000000 1.6061000000
0.5014000000 3.8168000000 1.2986000000
0.5014000000 1.4543000000 0.9535000000
0.5013000000 3.4205000000 1.4726000000
0.5013000000 4.0271000000 1.2072000000
0.5012000000 1.6751000000 1.0436000000
0.5012000000 3.1381000000 1.5906000000
0.5009000000 1.8259000000 1.1083000000
0.5008000000 0.6757000000 0.5356000000
0.5004000000 3.2360000000 1.5518000000
0.5000000000 3.6321000000 1.3781000000
0.5000000000 0.8288000000 0.7235000000
0.4989000000 5.9839000000 0.1125000000
0.4988000000 4.9101000000 0.8290000000
0.4985000000 2.1612000000 1.2459000000
0.4978000000 3.0063000000 1.6706000000
0.4969000000 4.3603000000 1.0650000000
0.4970000000 2.6874000000 1.4749000000
0.4956000000 3.4624000000 1.4421000000
0.2643000000 5.7559000000 0.2392000000
0.2628000000 4.9588000000 0.6360000000
0.2604000000 6.1095000000 0.0050000000
0.2600000000 5.9038000000 0.1109000000
0.2593000000 5.6287000000 0.4021000000
0.2592000000 5.2161000000 0.5195000000
0.2590000000 2.6579000000 1.2809000000
0.2590000000 4.8015000000 0.6924000000
0.2589000000 4.8334000000 0.6819000000
0.2588000000 5.7904000000 0.2094000000
0.2587000000 3.2655000000 1.3569000000
0.2582000000 5.7377000000 0.3158000000
0.2579000000 5.1573000000 0.5412000000
0.2578000000 3.1765000000 1.3934000000
0.2575000000 5.6427000000 0.3987000000
0.2574000000 0.2218000000 0.1430000000
0.2572000000 3.1413000000 1.4074000000
0.2571000000 4.5951000000 0.7835000000
0.2570000000 4.3480000000 0.8903000000
0.2569000000 0.1360000000 0.0637000000
0.2567000000 2.9448000000 1.4098000000
0.2566000000 3.1211000000 1.4157000000
0.2565000000 5.6568000000 0.3862000000
0.2564000000 1.1729000000 0.6465000000
0.2563000000 5.8338000000 0.1771000000
0.2563000000 2.9176000000 1.3979000000
0.2562000000 3.1136000000 1.4224000000
0.2561000000 4.1788000000 0.9610000000
0.2559000000 0.8732000000 0.5252000000
0.2559000000 4.2823000000 0.9186000000
0.2558000000 4.8196000000 0.6917000000
0.2557000000 5.4840000000 0.4006000000
0.2555000000 5.2308000000 0.5123000000
0.2555000000 3.9093000000 1.0790000000
0.2555000000 4.7060000000 0.7397000000
0.2552000000 5.5627000000 0.4265000000
0.2551000000 4.0182000000 1.0289000000
0.2551000000 4.5451000000 0.8057000000
0.2549000000 5.6175000000 0.4031000000
0.2546000000 4.3363000000 0.8956000000
0.2545000000 5.8626000000 0.1470000000
0.2545000000 5.6381000000 0.3993000000
0.2544000000 4.8025000000 0.6930000000
0.2543000000 0.7268000000 0.4533000000
0.2540000000 0.7838000000 0.4784000000
0.2538000000 1.1040000000 0.6120000000
0.2537000000 2.9789000000 1.4195000000
0.2535000000 2.4118000000 1.1792000000
0.2534000000 4.6238000000 0.7717000000
0.2532000000 3.8340000000 1.1102000000
0.2530000000 0.9505000000 0.5519000000
0.2531000000 1.9723000000 0.9840000000
0.2531000000 3.6242000000 1.2008000000
0.2530000000 3.7396000000 1.1486000000
0.2529000000 3.5455000000 1.2349000000
0.2527000000 3.4466000000 1.2805000000
0.2527000000 2.3255000000 1.1428000000
0.2525000000 5.7409000000 0.3184000000
0.2524000000 4.0970000000 0.9974000000
0.2522000000 4.0199000000 1.0292000000
0.2521000000 1.7927000000 0.9101000000
0.2519000000 2.3575000000 1.1487000000
0.2518000000 5.2625000000 0.4978000000
0.2518000000 5.6915000000 0.3533000000
0.2516000000 3.3830000000 1.3031000000
0.2515000000 3.1196000000 1.4152000000
0.2515000000 0.2989000000 0.2165000000
0.2507000000 3.1844000000 1.3867000000
0.2505000000 3.3451000000 1.3149000000
0.2505000000 2.7055000000 1.2985000000
0.2502000000 2.8967000000 1.3840000000
0.2501000000 2.5272000000 1.2238000000
0.2500000000 0.4138000000 0.3714000000
0.2500000000 1.8119000000 0.9193000000
0.2499000000 0.7621000000 0.4692000000
0.2498000000 5.0889000000 0.5631000000
0.2496000000 2.1667000000 1.0701000000
0.2495000000 0.8067000000 0.4812000000
0.2494000000 1.5933000000 0.8243000000
0.2492000000 0.5290000000 0.4292000000
0.2491000000 5.9304000000 0.0940000000
0.2485000000 3.6135000000 1.2040000000
0.2483000000 5.4479000000 0.4100000000
0.2481000000 0.5678000000 0.3816000000
0.2479000000 3.3016000000 1.3337000000
0.2478000000 0.8474000000 0.5043000000
0.2469000000 1.9739000000 0.9859000000
0.2460000000 1.1591000000 0.6333000000
0.2441000000 1.2391000000 0.6658000000
0.2425000000 1.0209000000 0.5664000000
0.0126000000 4.8075000000 0.5131000000
0.0113000000 3.0797000000 1.3126000000
0.0112000000 5.7915000000 0.0855000000
0.0091000000 4.9807000000 0.4366000000
0.0087000000 5.8663000000 0.1260000000
0.0086000000 4.5134000000 0.6378000000
0.0086000000 4.4674000000 0.6546000000
0.0083000000 1.8270000000 0.7459000000
0.0079000000 3.3178000000 1.1478000000
0.0079000000 0.2373000000 0.0603000000
0.0078000000 4.7650000000 0.5280000000
0.0077000000 5.2172000000 0.3327000000
0.0075000000 3.4124000000 1.1120000000
0.0074000000 1.1454000000 0.4492000000
0.0070000000 1.0274000000 0.4001000000
0.0068000000 4.4754000000 0.6498000000
0.0067000000 5.1960000000 0.3429000000
0.0061000000 0.7088000000 0.2608000000
0.0060000000 3.5094000000 1.0641000000
0.0058000000 4.4624000000 0.6580000000
