5.2597000000 2.9346000000 0.0640000000
5.2591000000 2.8297000000 0.0217000000
5.2560000000 3.0262000000 0.1123000000
5.2553000000 2.6312000000 0.0170000000
5.2546000000 3.2337000000 0.1146000000
5.2539000000 3.1686000000 0.1289000000
5.2514000000 2.7978000000 0.0122000000
5.2483000000 2.8878000000 0.0625000000
5.0087000000 4.0972000000 -0.0005000000
5.0072000000 4.0626000000 0.0147000000
5.0056000000 2.4242000000 0.0333000000
5.0043000000 3.2651000000 0.2138000000
5.0040000000 3.3025000000 0.1943000000
5.0038000000 2.5581000000 0.0968000000
5.0029000000 4.0093000000 0.0442000000
5.0019000000 3.9578000000 0.0703000000
4.9986000000 2.7597000000 0.1046000000
4.9967000000 2.2306000000 0.0350000000
4.9958000000 2.8830000000 0.1621000000
4.7613000000 2.7269000000 0.2753000000
4.7598000000 2.1566000000 0.1021000000
4.7581000000 3.6873000000 0.2185000000
4.7567000000 2.4905000000 0.1796000000
4.7563000000 4.3440000000 0.0097000000
4.7554000000 2.9668000000 0.3843000000
4.7550000000 2.7974000000 0.3042000000
4.7549000000 2.0527000000 0.0693000000
4.7542000000 3.7070000000 0.2108000000
4.7540000000 4.4840000000 0.0248000000
4.7538000000 4.0867000000 0.1255000000
4.7536000000 4.5194000000 0.0119000000
4.7534000000 2.6989000000 0.2649000000
4.7522000000 2.0123000000 0.0542000000
4.7519000000 2.9347000000 0.3708000000
4.7509000000 2.6957000000 0.2659000000
4.7489000000 2.1386000000 0.1052000000
4.7473000000 3.8281000000 0.1616000000
4.7469000000 3.9027000000 0.1328000000
4.5101000000 3.8205000000 0.3491000000
4.5093000000 4.9121000000 0.0201000000
4.5088000000 3.8618000000 0.3248000000
4.5075000000 3.2379000000 0.5980000000
4.5068000000 3.1068000000 0.6934000000
4.5067000000 3.6518000000 0.4185000000
4.5055000000 3.9937000000 0.2765000000
4.5053000000 3.1759000000 0.6832000000
4.5049000000 4.3518000000 0.1185000000
4.5046000000 2.7284000000 0.4608000000
4.5045000000 4.2338000000 0.1674000000
4.5041000000 1.5886000000 0.0520000000
4.5037000000 4.1310000000 0.2107000000
4.5037000000 4.4864000000 0.0617000000
4.5032000000 4.9103000000 0.0295000000
4.5030000000 2.9802000000 0.5772000000
4.5029000000 4.6494000000 0.0704000000
4.5027000000 1.6459000000 0.0793000000
4.5023000000 3.0757000000 0.6197000000
4.5020000000 1.4164000000 0.0557000000
4.5019000000 1.7912000000 0.0637000000
4.5017000000 2.8973000000 0.5507000000
4.5013000000 1.7293000000 0.1097000000
4.5012000000 4.0855000000 0.2377000000
4.5000000000 4.6342000000 0.0790000000
4.4990000000 2.4824000000 0.3659000000
4.4987000000 2.0619000000 0.1826000000
4.4968000000 3.8930000000 0.3220000000
4.4966000000 1.4639000000 0.0076000000
4.2635000000 1.9863000000 0.3280000000
4.2615000000 2.8423000000 0.6978000000
4.2603000000 2.1594000000 0.4025000000
4.2599000000 3.9929000000 0.4620000000
4.2592000000 5.3157000000 0.0363000000
4.2581000000 2.3874000000 0.5083000000
4.2573000000 2.3533000000 0.4938000000
4.2570000000 3.2665000000 0.7628000000
4.2566000000 3.3584000000 0.7288000000
4.2565000000 3.6683000000 0.6072000000
4.2556000000 4.2433000000 0.3466000000
4.2554000000 4.9128000000 0.0673000000
4.2552000000 1.6675000000 0.1984000000
4.2550000000 4.2579000000 0.3462000000
4.2548000000 1.2630000000 0.0998000000
4.2543000000 2.9083000000 0.7365000000
4.2539000000 0.8927000000 0.0213000000
4.2535000000 3.5826000000 0.6327000000
4.2535000000 4.0793000000 0.4185000000
4.2530000000 3.6958000000 0.5900000000
4.2523000000 4.6599000000 0.1730000000
4.2517000000 1.1796000000 0.0638000000
4.2514000000 3.2680000000 0.7738000000
4.2509000000 3.0942000000 0.8810000000
4.2502000000 2.7508000000 0.6699000000
4.2499000000 3.2076000000 0.8002000000
4.2498000000 3.9703000000 0.4705000000
4.2493000000 1.4201000000 0.0963000000
4.2484000000 1.8739000000 0.2947000000
4.0129000000 5.0365000000 0.1874000000
4.0104000000 5.7652000000 0.0291000000
4.0091000000 0.7362000000 0.0532000000
4.0084000000 5.8084000000 0.0127000000
4.0081000000 1.0832000000 0.1244000000
4.0078000000 3.1068000000 1.0612000000
4.0077000000 2.6912000000 0.8219000000
4.0075000000 1.8203000000 0.4519000000
4.0070000000 4.3435000000 0.4957000000
4.0068000000 3.1929000000 0.9926000000
4.0066000000 2.5046000000 0.7472000000
4.0064000000 2.7048000000 0.8327000000
4.0062000000 5.5458000000 0.0452000000
4.0058000000 3.6595000000 0.7874000000
4.0057000000 1.4223000000 0.2762000000
4.0053000000 4.2594000000 0.5313000000
4.0052000000 2.6932000000 0.8225000000
4.0051000000 5.5503000000 0.0473000000
4.0049000000 2.8477000000 0.8974000000
4.0047000000 0.5701000000 0.0614000000
4.0045000000 1.3121000000 0.2336000000
4.0043000000 5.8181000000 0.0091000000
4.0042000000 5.6175000000 0.0211000000
4.0039000000 1.8693000000 0.4728000000
4.0036000000 5.0927000000 0.1723000000
4.0033000000 4.8301000000 0.2828000000
4.0028000000 0.6632000000 0.0299000000
4.0024000000 3.2662000000 0.9631000000
4.0023000000 5.4391000000 0.0969000000
4.0021000000 1.7421000000 0.4173000000
4.0018000000 0.7239000000 0.0538000000
4.0015000000 3.2885000000 0.9572000000
4.0007000000 2.6388000000 0.8050000000
4.0001000000 0.4477000000 0.0138000000
4.0000000000 1.8379000000 0.4571000000
3.9998000000 3.6863000000 0.7817000000
3.9991000000 1.0856000000 0.1302000000
3.9991000000 4.8960000000 0.2607000000
3.9990000000 1.4252000000 0.2873000000
3.9977000000 5.5532000000 0.0508000000
3.9954000000 2.2785000000 0.6582000000
3.7609000000 6.1536000000 0.0500000000
3.7592000000 2.0783000000 0.7510000000
3.7579000000 5.7188000000 0.0871000000
3.7575000000 5.5924000000 0.1432000000
3.7572000000 4.6001000000 0.5667000000
3.7571000000 2.0466000000 0.7310000000
3.7569000000 2.2871000000 0.8308000000
3.7565000000 6.1148000000 0.0686000000
3.7562000000 1.8212000000 0.6323000000
3.7560000000 1.9445000000 0.6928000000
3.7559000000 1.7018000000 0.5849000000
3.7555000000 3.0953000000 1.2513000000
3.7555000000 1.4455000000 0.4717000000
3.7554000000 3.8644000000 0.8835000000
3.7551000000 2.7215000000 1.0248000000
3.7549000000 3.0039000000 1.1475000000
3.7548000000 4.0547000000 0.8012000000
3.7547000000 3.2408000000 1.1577000000
3.7545000000 6.1793000000 0.0422000000
3.7541000000 0.7413000000 0.1697000000
3.7540000000 5.6028000000 0.1425000000
3.7537000000 3.3143000000 1.1298000000
3.7535000000 3.5736000000 1.0200000000
3.7533000000 5.0976000000 0.3551000000
3.7530000000 2.0487000000 0.7348000000
3.7528000000 1.6002000000 0.5398000000
3.7527000000 0.7492000000 0.1739000000
3.7524000000 1.3973000000 0.4508000000
3.7523000000 3.4001000000 1.0878000000
3.7522000000 4.1171000000 0.7825000000
3.7516000000 4.8570000000 0.4589000000
3.7515000000 3.1215000000 1.2677000000
3.7513000000 4.7273000000 0.5169000000
3.7510000000 2.5316000000 0.9382000000
3.7508000000 4.9147000000 0.4366000000
3.7503000000 0.5162000000 0.0772000000
3.7501000000 4.8571000000 0.4630000000
3.7500000000 1.2857000000 0.4119000000
3.7497000000 1.5210000000 0.5049000000
3.7493000000 0.3862000000 0.0954000000
3.7483000000 1.3860000000 0.4521000000
3.7481000000 4.4421000000 0.6427000000
3.7468000000 0.1951000000 0.0137000000
3.5123000000 3.0100000000 1.3272000000
3.5110000000 2.1426000000 0.9621000000
3.5099000000 5.2713000000 0.4635000000
3.5093000000 4.5135000000 0.7949000000
3.5085000000 4.4454000000 0.8251000000
3.5075000000 1.7534000000 0.7956000000
3.5071000000 2.8741000000 1.2748000000
3.5069000000 3.9003000000 1.0579000000
3.5064000000 2.2140000000 0.9944000000
3.5063000000 2.7140000000 1.2095000000
3.5057000000 0.2076000000 0.1876000000
3.5060000000 4.5961000000 0.7568000000
3.5055000000 0.5025000000 0.2546000000
3.5053000000 5.7640000000 0.2561000000
3.5050000000 0.0213000000 0.0495000000
3.5048000000 3.6965000000 1.1462000000
3.5045000000 5.7133000000 0.2784000000
3.5043000000 2.0797000000 0.9369000000
3.5040000000 1.5089000000 0.6898000000
3.5038000000 4.4548000000 0.8198000000
3.5036000000 4.8254000000 0.6596000000
3.5035000000 3.2272000000 1.3510000000
3.5034000000 2.8670000000 1.2783000000
3.5033000000 1.0381000000 0.4879000000
3.5031000000 1.8411000000 0.8374000000
3.5030000000 0.3657000000 0.1949000000
3.5028000000 0.1771000000 0.1658000000
3.5026000000 2.4501000000 1.0953000000
3.5023000000 1.4693000000 0.6728000000
3.5022000000 1.3727000000 0.6331000000
3.5021000000 2.9188000000 1.2979000000
3.5018000000 5.5656000000 0.3440000000
3.5015000000 5.9789000000 0.2274000000
3.5013000000 5.2959000000 0.4591000000
3.5011000000 0.7915000000 0.3832000000
3.5010000000 1.4181000000 0.6547000000
3.5007000000 4.7336000000 0.7043000000
3.5003000000 0.4782000000 0.2443000000
3.5002000000 2.0499000000 0.9283000000
3.4996000000 1.1649000000 0.5427000000
3.4984000000 1.0445000000 0.4980000000
3.4970000000 0.1471000000 0.1450000000
3.4967000000 0.2255000000 0.2026000000
3.4942000000 0.8781000000 0.4219000000
3.2634000000 5.9066000000 0.2637000000
3.2613000000 5.5981000000 0.5715000000
3.2611000000 3.3354000000 1.4864000000
3.2602000000 5.6204000000 0.5632000000
3.2601000000 5.8911000000 0.2850000000
3.2593000000 6.0816000000 0.1158000000
3.2582000000 3.1419000000 1.6298000000
3.2578000000 0.3158000000 0.2267000000
3.2573000000 1.6619000000 0.9391000000
3.2570000000 1.8668000000 1.0313000000
3.2565000000 5.5656000000 0.5930000000
3.2563000000 5.1356000000 0.7165000000
3.2556000000 5.4021000000 0.6000000000
3.2555000000 0.4159000000 0.3156000000
3.2553000000 6.2108000000 0.0770000000
3.2550000000 3.6601000000 1.3461000000
3.2547000000 2.0935000000 1.1270000000
3.2546000000 1.8857000000 1.0411000000
3.2543000000 2.2274000000 1.1838000000
3.2543000000 2.5776000000 1.3363000000
3.2542000000 1.0537000000 0.6856000000
3.2538000000 3.2792000000 1.5215000000
3.2536000000 4.8320000000 0.8469000000
3.2534000000 2.0467000000 1.1139000000
3.2532000000 1.1439000000 0.7183000000
3.2530000000 5.9876000000 0.1945000000
3.2530000000 2.7895000000 1.4319000000
3.2528000000 1.6379000000 0.9353000000
3.2527000000 0.4166000000 0.3157000000
3.2524000000 3.3010000000 1.5089000000
3.2522000000 6.1715000000 0.1088000000
3.2520000000 4.7633000000 0.8730000000
3.2515000000 6.0196000000 0.1678000000
3.2513000000 3.9944000000 1.2053000000
3.2510000000 6.0363000000 0.1602000000
3.2508000000 2.3669000000 1.2441000000
3.2498000000 2.0234000000 1.0982000000
3.2497000000 3.6066000000 1.3754000000
3.2495000000 4.1736000000 1.1338000000
3.2488000000 4.4569000000 1.0116000000
3.2482000000 0.2328000000 0.1593000000
3.2480000000 0.5419000000 0.4868000000
3.2471000000 1.4103000000 0.8375000000
3.2465000000 0.7409000000 0.6187000000
3.0126000000 4.1733000000 1.3059000000
3.0111000000 2.3020000000 1.3954000000
3.0108000000 4.6967000000 1.0847000000
3.0103000000 3.9719000000 1.3985000000
3.0098000000 3.5412000000 1.5884000000
3.0090000000 0.0174000000 0.0443000000
3.0086000000 2.3921000000 1.4469000000
3.0081000000 1.1823000000 0.9206000000
3.0079000000 3.7634000000 1.4936000000
3.0075000000 5.1418000000 0.9585000000
3.0075000000 6.2423000000 0.0528000000
3.0074000000 2.3225000000 1.4154000000
3.0072000000 0.8542000000 0.6837000000
3.0070000000 0.1134000000 0.1275000000
3.0068000000 5.0387000000 0.9422000000
3.0063000000 3.4218000000 1.6361000000
3.0060000000 3.1943000000 1.7353000000
3.0059000000 3.1045000000 1.8095000000
3.0058000000 5.0888000000 0.9140000000
3.0056000000 1.0561000000 0.9224000000
3.0054000000 5.5342000000 0.5873000000
3.0053000000 2.2395000000 1.3779000000
3.0050000000 4.6764000000 1.1031000000
3.0047000000 6.0965000000 0.0994000000
3.0043000000 0.3941000000 0.2943000000
3.0037000000 4.8650000000 1.0186000000
3.0036000000 4.2613000000 1.2846000000
3.0034000000 0.7838000000 0.6252000000
3.0033000000 4.9070000000 0.9989000000
3.0031000000 1.0386000000 0.9101000000
3.0029000000 0.7008000000 0.5562000000
3.0028000000 3.7742000000 1.4953000000
3.0025000000 5.4271000000 0.6838000000
3.0023000000 1.0022000000 0.8773000000
3.0020000000 3.6036000000 1.5593000000
3.0018000000 5.7947000000 0.3674000000
3.0011000000 1.6781000000 1.1412000000
3.0010000000 2.6966000000 1.5759000000
3.0007000000 2.0382000000 1.2895000000
3.0003000000 1.5022000000 1.0652000000
2.9999000000 2.5224000000 1.5042000000
2.9996000000 1.2586000000 0.9617000000
2.9990000000 5.0936000000 0.9923000000
2.9988000000 4.5090000000 1.1796000000
2.9976000000 4.1896000000 1.3128000000
2.7605000000 5.6418000000 0.4961000000
2.7590000000 2.1717000000 1.5320000000
2.7586000000 3.6785000000 1.7135000000
2.7577000000 1.5120000000 1.3114000000
2.7575000000 0.2861000000 0.2015000000
2.7572000000 6.2626000000 0.0330000000
2.7568000000 2.6388000000 1.7440000000
2.7563000000 6.1896000000 0.0983000000
2.7560000000 4.5800000000 1.3277000000
2.7559000000 4.6982000000 1.3381000000
2.7557000000 5.2336000000 0.8504000000
2.7555000000 1.2471000000 1.0291000000
2.7550000000 1.9718000000 1.4434000000
2.7549000000 0.3644000000 0.2669000000
2.7548000000 1.9567000000 1.4439000000
2.7544000000 4.0059000000 1.5728000000
2.7543000000 2.9776000000 1.8891000000
2.7541000000 4.9786000000 1.0644000000
2.7539000000 5.3585000000 0.7373000000
2.7538000000 1.3988000000 1.2259000000
2.7535000000 2.0000000000 1.4630000000
2.7535000000 4.8205000000 1.2651000000
2.7531000000 5.5028000000 0.6167000000
2.7533000000 0.4194000000 0.3151000000
2.7528000000 2.7047000000 1.7622000000
2.7526000000 4.2386000000 1.4770000000
2.7523000000 1.2495000000 1.0368000000
2.7521000000 2.2203000000 1.5555000000
2.7519000000 2.2032000000 1.5503000000
2.7513000000 2.9425000000 1.8742000000
2.7512000000 1.6693000000 1.3203000000
2.7509000000 5.0620000000 0.9954000000
2.7507000000 0.3241000000 0.2276000000
2.7506000000 0.0420000000 0.0656000000
2.7502000000 5.1248000000 0.9433000000
2.7498000000 2.8322000000 1.8318000000
2.7495000000 1.2141000000 1.0006000000
2.7491000000 1.1059000000 0.9030000000
2.7489000000 1.6821000000 1.3214000000
2.7485000000 5.0015000000 1.0452000000
2.7479000000 1.4638000000 1.2737000000
2.7469000000 1.0594000000 0.8690000000
2.7449000000 5.2466000000 0.8356000000
2.5137000000 5.5590000000 0.5688000000
2.5105000000 1.6137000000 1.3461000000
2.5095000000 4.1141000000 1.7054000000
2.5093000000 5.8531000000 0.3145000000
2.5089000000 5.4793000000 0.6362000000
2.5085000000 6.0847000000 0.1108000000
2.5084000000 5.8010000000 0.3577000000
2.5081000000 2.8569000000 2.0143000000
2.5078000000 0.3137000000 0.2217000000
2.5072000000 2.0101000000 1.7166000000
2.5068000000 4.8559000000 1.1693000000
2.5065000000 0.2040000000 0.1281000000
2.5062000000 2.4952000000 1.8614000000
2.5060000000 1.6303000000 1.3569000000
2.5057000000 4.1409000000 1.7027000000
2.5055000000 5.7541000000 0.4014000000
2.5053000000 3.2965000000 2.0628000000
2.5051000000 3.7856000000 1.8554000000
2.5049000000 4.8936000000 1.1438000000
2.5046000000 3.7686000000 1.8651000000
2.5045000000 5.5428000000 0.5768000000
2.5043000000 0.0225000000 0.0512000000
2.5041000000 5.7875000000 0.3670000000
2.5040000000 1.2725000000 1.0534000000
2.5038000000 3.5843000000 1.9480000000
2.5037000000 2.3068000000 1.7808000000
2.5036000000 5.3493000000 0.7427000000
2.5033000000 0.0372000000 0.0609000000
2.5032000000 0.0783000000 0.0987000000
2.5029000000 2.8566000000 2.0176000000
2.5027000000 1.6238000000 1.3549000000
2.5024000000 4.7336000000 1.2799000000
2.5020000000 5.1738000000 0.8947000000
2.5015000000 0.7776000000 0.6272000000
2.5011000000 4.8093000000 1.2151000000
2.5010000000 0.3333000000 0.2410000000
2.5005000000 1.7478000000 1.4589000000
2.5004000000 1.9931000000 1.7070000000
2.5001000000 0.1344000000 0.0705000000
2.4995000000 0.8011000000 0.6488000000
2.4991000000 3.3765000000 2.0369000000
2.4985000000 3.7874000000 1.8601000000
2.4977000000 1.1794000000 0.9744000000
2.4975000000 4.9841000000 1.0684000000
2.4964000000 6.0842000000 0.1160000000
2.2618000000 5.5522000000 0.5716000000
2.2602000000 3.8300000000 2.0810000000
2.2594000000 5.8062000000 0.3550000000
2.2592000000 4.3317000000 1.6202000000
2.2588000000 6.2900000000 0.0093000000
2.2579000000 6.2313000000 0.0586000000
2.2575000000 3.3304000000 2.2376000000
2.2573000000 4.2217000000 1.7218000000
2.2571000000 1.7468000000 1.4593000000
2.2569000000 3.7081000000 2.0796000000
2.2566000000 5.3061000000 0.7859000000
2.2565000000 4.3472000000 1.6084000000
2.2564000000 4.8903000000 1.1451000000
2.2562000000 2.2779000000 1.9863000000
2.2557000000 5.1624000000 0.9118000000
2.2554000000 0.8812000000 0.7139000000
2.2553000000 4.8744000000 1.1600000000
2.2552000000 5.8394000000 0.3237000000
2.2551000000 3.6286000000 2.1105000000
2.2549000000 5.8065000000 0.3530000000
2.2547000000 2.6310000000 2.1078000000
2.2545000000 5.6071000000 0.5280000000
2.2543000000 1.4955000000 1.2501000000
2.2540000000 3.8186000000 2.0920000000
2.2537000000 6.1294000000 0.0771000000
2.2536000000 4.0577000000 1.8689000000
2.2532000000 2.7470000000 2.1578000000
2.2531000000 2.2051000000 1.8537000000
2.2530000000 4.4480000000 1.5259000000
2.2525000000 4.5724000000 1.4182000000
2.2521000000 2.1134000000 1.7751000000
2.2520000000 0.1598000000 0.0892000000
2.2516000000 0.6755000000 0.5351000000
2.2512000000 5.3163000000 0.7763000000
2.2505000000 0.3851000000 0.2847000000
2.2503000000 5.4498000000 0.6604000000
2.2500000000 4.0923000000 1.8333000000
2.2490000000 0.0265000000 0.0540000000
2.2488000000 6.2836000000 0.0118000000
2.2486000000 5.3489000000 0.7473000000
2.2482000000 4.7683000000 1.2531000000
2.2465000000 1.4302000000 1.1901000000
2.2446000000 0.4241000000 0.3153000000
2.0138000000 5.1959000000 0.8765000000
2.0092000000 5.5325000000 0.5886000000
2.0089000000 1.2014000000 0.9978000000
2.0085000000 4.4328000000 1.5388000000
2.0083000000 4.2594000000 1.6917000000
2.0078000000 3.4415000000 2.4414000000
2.0077000000 3.5338000000 2.3732000000
2.0075000000 6.2302000000 0.0595000000
2.0071000000 1.1603000000 0.9494000000
2.0069000000 6.1159000000 0.0871000000
2.0067000000 6.2463000000 0.0496000000
2.0063000000 6.1356000000 0.0719000000
2.0060000000 5.4127000000 0.6954000000
2.0059000000 5.1476000000 0.9217000000
2.0056000000 3.0782000000 2.5588000000
2.0054000000 5.7539000000 0.3975000000
2.0053000000 3.7984000000 2.0878000000
2.0051000000 1.0655000000 0.8763000000
2.0048000000 5.3155000000 0.7766000000
2.0046000000 5.3462000000 0.7458000000
2.0044000000 5.7485000000 0.3999000000
2.0040000000 6.1525000000 0.1302000000
2.0040000000 4.1310000000 1.8012000000
2.0038000000 0.4001000000 0.2986000000
2.0038000000 0.4479000000 0.3402000000
2.0035000000 1.6115000000 1.3469000000
2.0035000000 5.1710000000 0.8991000000
2.0032000000 4.1166000000 1.8068000000
2.0032000000 6.0807000000 0.1203000000
2.0030000000 0.1319000000 0.0629000000
2.0029000000 6.2115000000 0.0813000000
2.0027000000 4.5107000000 1.4718000000
2.0026000000 5.7412000000 0.4107000000
2.0024000000 5.3700000000 0.7300000000
2.0023000000 1.6793000000 1.4043000000
2.0020000000 3.8011000000 2.0848000000
2.0018000000 1.3945000000 1.1554000000
2.0018000000 3.8014000000 2.0826000000
2.0017000000 0.4820000000 0.3643000000
2.0015000000 2.0726000000 1.7466000000
2.0012000000 3.8715000000 2.0201000000
2.0012000000 0.5077000000 0.3881000000
2.0009000000 2.0959000000 1.7608000000
2.0004000000 2.7957000000 2.4277000000
2.0003000000 3.0089000000 2.4631000000
2.0002000000 1.1506000000 0.9418000000
2.0000000000 5.2468000000 0.8336000000
1.9997000000 4.1875000000 1.7506000000
1.9994000000 0.9983000000 0.8168000000
1.9986000000 0.5262000000 0.4121000000
1.9981000000 1.1636000000 0.9576000000
1.9977000000 0.7175000000 0.5634000000
1.9976000000 -0.0004000000 0.0259000000
1.9950000000 3.6242000000 2.2437000000
1.7628000000 0.0498000000 0.0763000000
1.7612000000 4.1404000000 1.7891000000
1.7604000000 0.4403000000 0.3364000000
1.7603000000 5.0636000000 0.9883000000
1.7594000000 2.1756000000 1.8300000000
1.7587000000 6.1656000000 0.1181000000
1.7579000000 1.7468000000 1.5380000000
1.7573000000 0.2508000000 0.1701000000
1.7566000000 1.8527000000 1.5501000000
1.7565000000 3.7716000000 2.1104000000
1.7564000000 5.6634000000 0.4749000000
1.7560000000 5.0248000000 1.0274000000
1.7559000000 5.5470000000 0.5701000000
1.7558000000 3.6725000000 2.1942000000
1.7554000000 1.5269000000 1.2757000000
1.7553000000 4.4439000000 1.5319000000
1.7551000000 5.4550000000 0.6576000000
1.7550000000 6.0231000000 0.1697000000
1.7547000000 0.0775000000 0.0921000000
1.7546000000 1.0702000000 0.8765000000
1.7544000000 4.9819000000 1.0641000000
1.7543000000 1.2444000000 1.0271000000
1.7541000000 5.9904000000 0.1954000000
1.7539000000 3.7047000000 2.1686000000
1.7533000000 4.4117000000 1.5542000000
1.7530000000 2.1721000000 1.8244000000
1.7525000000 4.7773000000 1.2443000000
1.7523000000 4.9400000000 1.0975000000
1.7520000000 0.2407000000 0.1618000000
1.7518000000 2.5183000000 2.1279000000
1.7516000000 2.1927000000 1.8512000000
1.7515000000 4.2236000000 1.7184000000
1.7512000000 4.5326000000 1.4494000000
1.7510000000 2.2781000000 1.9237000000
1.7510000000 0.6243000000 0.4954000000
1.7503000000 1.2026000000 0.9927000000
1.7500000000 1.3884000000 1.1477000000
1.7500000000 4.9418000000 1.1064000000
1.7495000000 0.7114000000 0.5708000000
1.7490000000 0.0861000000 0.0978000000
1.7484000000 4.6521000000 1.3474000000
1.7474000000 6.2829000000 0.0145000000
1.7463000000 1.3816000000 1.1487000000
1.5116000000 3.8007000000 2.0854000000
1.5105000000 4.3529000000 1.6054000000
1.5102000000 1.3563000000 1.1186000000
1.5098000000 4.5380000000 1.4457000000
1.5085000000 3.4008000000 2.3189000000
1.5080000000 2.7656000000 2.2710000000
1.5068000000 0.0880000000 0.1009000000
1.5065000000 6.0344000000 0.1555000000
1.5063000000 4.6122000000 1.3849000000
1.5060000000 4.6862000000 1.3218000000
1.5057000000 6.0073000000 0.1787000000
1.5055000000 0.6954000000 0.5615000000
1.5054000000 0.8878000000 0.7207000000
1.5053000000 0.0287000000 0.0542000000
1.5052000000 5.4469000000 0.6682000000
1.5051000000 0.4551000000 0.3465000000
1.5050000000 1.7566000000 1.4686000000
1.5048000000 4.4908000000 1.4868000000
1.5047000000 0.2556000000 0.1751000000
1.5046000000 4.6060000000 1.3910000000
1.5044000000 2.3528000000 1.9841000000
1.5042000000 5.2799000000 0.8113000000
1.5040000000 1.8272000000 1.5291000000
1.5038000000 1.6676000000 1.3871000000
1.5037000000 5.0409000000 1.0203000000
1.5035000000 0.7249000000 0.5784000000
1.5034000000 6.2687000000 0.0282000000
1.5029000000 1.9350000000 1.6243000000
1.5028000000 3.1657000000 2.4786000000
1.5026000000 4.3367000000 1.6276000000
1.5024000000 0.1748000000 0.1094000000
1.5022000000 1.0162000000 0.8344000000
1.5020000000 2.9021000000 2.3327000000
1.5015000000 0.9549000000 0.7712000000
1.5012000000 3.9265000000 1.9735000000
1.5004000000 4.9066000000 1.1302000000
1.4998000000 0.6141000000 0.4869000000
1.4993000000 2.2406000000 1.8897000000
1.4988000000 3.7313000000 2.2041000000
1.4985000000 4.3702000000 1.5918000000
1.4974000000 0.5921000000 0.4634000000
1.4965000000 5.3152000000 0.7798000000
1.4949000000 3.2514000000 2.3760000000
1.4923000000 0.0427000000 0.0639000000
1.2620000000 1.4784000000 1.2268000000
1.2598000000 5.0310000000 1.0208000000
1.2593000000 2.5193000000 1.9776000000
1.2588000000 4.1697000000 1.8242000000
1.2587000000 3.9160000000 1.9077000000
1.2585000000 4.9159000000 1.1204000000
1.2583000000 4.5567000000 1.4258000000
1.2581000000 6.1168000000 0.0833000000
1.2577000000 2.3091000000 1.8833000000
1.2568000000 1.7799000000 1.4857000000
1.2565000000 1.3389000000 1.1113000000
1.2563000000 3.8702000000 1.9296000000
1.2557000000 4.3793000000 1.5809000000
1.2554000000 1.4508000000 1.2099000000
1.2552000000 4.5140000000 1.4688000000
1.2550000000 0.5981000000 0.4731000000
1.2548000000 4.1316000000 1.8576000000
1.2547000000 3.3481000000 2.1521000000
1.2545000000 3.7266000000 1.9858000000
1.2544000000 1.8477000000 1.5459000000
1.2537000000 3.0895000000 2.2861000000
1.2535000000 4.9244000000 1.1161000000
1.2534000000 2.8555000000 2.1212000000
1.2533000000 2.6376000000 2.0272000000
1.2531000000 6.0729000000 0.1222000000
1.2529000000 2.7229000000 2.0630000000
1.2525000000 3.2127000000 2.2073000000
1.2520000000 0.4805000000 0.3693000000
1.2540000000 0.2670000000 0.1887000000
1.2516000000 1.7693000000 1.4811000000
1.2514000000 0.0241000000 0.0512000000
1.2513000000 4.0103000000 1.9222000000
1.2511000000 0.2856000000 0.1924000000
1.2509000000 2.3681000000 1.9120000000
1.2501000000 0.1981000000 0.1202000000
1.2498000000 4.9662000000 1.0740000000
1.2495000000 5.1343000000 0.9301000000
1.2493000000 0.6915000000 0.5510000000
1.2485000000 1.7236000000 1.4409000000
1.2481000000 3.5845000000 2.0452000000
1.2478000000 0.3485000000 0.2513000000
1.2473000000 2.2621000000 1.9289000000
1.2452000000 1.3221000000 1.0984000000
1.0145000000 5.3650000000 0.7306000000
1.0135000000 1.9667000000 1.5611000000
1.0104000000 5.7766000000 0.3765000000
1.0095000000 3.3501000000 1.9665000000
1.0092000000 4.7508000000 1.2630000000
1.0090000000 5.5528000000 0.5818000000
1.0085000000 4.2752000000 1.5668000000
1.0079000000 4.9301000000 1.1096000000
1.0078000000 4.8654000000 1.1671000000
1.0077000000 6.1407000000 0.0631000000
1.0075000000 4.6868000000 1.3197000000
1.0071000000 0.9168000000 0.7467000000
1.0069000000 1.4059000000 1.1712000000
1.0068000000 3.1646000000 2.1048000000
1.0066000000 3.3839000000 1.9504000000
1.0062000000 2.6702000000 1.8562000000
1.0061000000 4.2996000000 1.5576000000
1.0056000000 4.1902000000 1.6065000000
1.0054000000 3.1055000000 2.1099000000
1.0052000000 3.4537000000 1.9195000000
1.0050000000 3.9366000000 1.7120000000
1.0049000000 6.2922000000 0.0079000000
1.0046000000 3.7992000000 1.7684000000
1.0043000000 2.9106000000 1.9608000000
1.0041000000 4.8838000000 1.1474000000
1.0040000000 0.3747000000 0.2763000000
1.0037000000 5.8066000000 0.3501000000
1.0033000000 3.2784000000 1.9904000000
1.0031000000 5.4323000000 0.6716000000
1.0030000000 2.7601000000 1.8957000000
1.0029000000 3.7482000000 1.7877000000
1.0026000000 4.6280000000 1.4352000000
1.0025000000 0.6332000000 0.4993000000
1.0023000000 2.0325000000 1.5792000000
1.0019000000 3.5817000000 1.8615000000
1.0018000000 2.5747000000 1.8126000000
1.0015000000 1.7923000000 1.5345000000
1.0014000000 3.1630000000 2.0996000000
1.0013000000 0.5071000000 0.3913000000
1.0009000000 4.8731000000 1.1631000000
1.0005000000 3.6274000000 1.8397000000
1.0001000000 2.0897000000 1.6039000000
0.9998000000 6.1872000000 0.0995000000
0.9996000000 1.9311000000 1.5331000000
0.9990000000 0.7170000000 0.5772000000
0.9983000000 0.7751000000 0.6201000000
0.9980000000 3.1753000000 2.0986000000
0.9973000000 3.3663000000 1.9506000000
0.9967000000 2.3979000000 1.7325000000
0.9909000000 1.3657000000 1.1303000000
0.7613000000 3.1820000000 1.9163000000
0.7600000000 3.2491000000 1.8202000000
0.7596000000 5.6452000000 0.4932000000
0.7577000000 0.7584000000 0.6074000000
0.7573000000 0.9883000000 0.8087000000
0.7570000000 5.8460000000 0.3207000000
0.7565000000 5.7681000000 0.3870000000
0.7562000000 4.4834000000 1.2948000000
0.7556000000 1.5964000000 1.2053000000
0.7551000000 1.4324000000 1.1340000000
0.7551000000 5.3089000000 0.7854000000
0.7548000000 3.8056000000 1.5781000000
0.7545000000 0.9063000000 0.7322000000
0.7544000000 3.9500000000 1.5185000000
0.7543000000 2.7380000000 1.7004000000
0.7540000000 1.5152000000 1.1705000000
0.7539000000 5.3315000000 0.7558000000
0.7539000000 0.4199000000 0.3160000000
0.7538000000 0.1910000000 0.1219000000
0.7535000000 5.9834000000 0.1998000000
0.7533000000 2.4693000000 1.5822000000
0.7530000000 3.9975000000 1.4981000000
0.7528000000 4.8289000000 1.1390000000
0.7527000000 1.9409000000 1.3480000000
0.7525000000 5.6489000000 0.4886000000
0.7523000000 4.7319000000 1.1750000000
0.7522000000 0.7701000000 0.6162000000
0.7518000000 6.0194000000 0.1678000000
0.7514000000 0.9809000000 0.8020000000
0.7510000000 3.7317000000 1.6120000000
0.7506000000 2.3355000000 1.5219000000
0.7504000000 1.7731000000 1.2797000000
0.7502000000 2.0240000000 1.3903000000
0.7501000000 3.5539000000 1.6825000000
0.7500000000 1.2205000000 1.0617000000
0.7494000000 1.5087000000 1.1671000000
0.7480000000 3.7094000000 1.6175000000
0.7478000000 1.5747000000 1.1948000000
0.7463000000 0.0926000000 0.1158000000
0.7448000000 5.8642000000 0.3025000000
0.5132000000 3.7246000000 1.4317000000
0.5112000000 6.1492000000 0.1284000000
0.5099000000 4.0222000000 1.3049000000
0.5092000000 5.8658000000 0.3004000000
0.5086000000 3.1561000000 1.7384000000
0.5085000000 5.4759000000 0.7041000000
0.5082000000 3.0983000000 1.7286000000
0.5077000000 4.0609000000 1.2821000000
0.5074000000 1.0317000000 0.7772000000
0.5071000000 5.7474000000 0.4039000000
0.5070000000 4.3582000000 1.1588000000
0.5065000000 2.0231000000 1.2099000000
0.5063000000 6.0463000000 0.1457000000
0.5060000000 5.7955000000 0.3635000000
0.5058000000 0.4573000000 0.3498000000
0.5056000000 6.1643000000 0.1158000000
0.5055000000 3.2720000000 1.6198000000
0.5054000000 2.1052000000 1.2424000000
0.5051000000 4.7864000000 0.9689000000
0.5049000000 5.9132000000 0.2630000000
0.5048000000 5.1281000000 0.8272000000
0.5045000000 4.0696000000 1.2804000000
0.5043000000 1.2908000000 0.8837000000
0.5040000000 2.6299000000 1.4629000000
0.5038000000 4.8867000000 0.9286000000
0.5034000000 1.5872000000 1.0191000000
0.5035000000 6.1108000000 0.0883000000
0.5030000000 3.2450000000 1.6282000000
0.5024000000 2.0700000000 1.2209000000
0.5023000000 3.9973000000 1.3054000000
0.5023000000 4.2713000000 1.1884000000
0.5016000000 1.9886000000 1.1878000000
0.5015000000 4.5702000000 1.0617000000
0.5013000000 1.2336000000 0.8575000000
0.5012000000 3.7040000000 1.4368000000
0.5009000000 1.0629000000 0.7863000000
0.5005000000 0.2177000000 0.1400000000
0.5004000000 2.1713000000 1.2686000000
0.5002000000 0.9971000000 0.7569000000
0.4998000000 1.2055000000 0.8440000000
0.4995000000 1.7107000000 1.0674000000
0.4990000000 3.0825000000 1.7191000000
0.4987000000 1.7306000000 1.0759000000
0.4985000000 0.6531000000 0.5158000000
0.4976000000 1.3086000000 0.8858000000
0.4970000000 3.5854000000 1.4864000000
0.4963000000 1.2995000000 0.8889000000
0.4953000000 0.8674000000 0.7592000000
0.4879000000 0.1468000000 0.0833000000
0.2609000000 5.8428000000 0.3836000000
0.2594000000 6.0382000000 0.1580000000
0.2586000000 4.1871000000 1.0406000000
0.2579000000 1.1651000000 0.6493000000
0.2576000000 0.8241000000 0.4972000000
0.2575000000 5.9084000000 0.3281000000
0.2573000000 3.7553000000 1.2257000000
0.2570000000 5.5206000000 0.4660000000
0.2568000000 3.8855000000 1.1701000000
0.2563000000 2.5255000000 1.2358000000
0.2558000000 5.5822000000 0.4416000000
0.2556000000 2.3884000000 1.1730000000
0.2553000000 3.3920000000 1.3855000000
0.2550000000 4.8053000000 0.7776000000
0.2549000000 4.9397000000 0.7137000000
0.2546000000 2.5315000000 1.2348000000
0.2545000000 3.3593000000 1.3946000000
0.2542000000 2.5938000000 1.2600000000
0.2540000000 0.4457000000 0.3992000000
0.2538000000 1.7955000000 0.9173000000
0.2536000000 1.0089000000 0.5749000000
0.2535000000 3.2270000000 1.4554000000
0.2533000000 3.4130000000 1.3768000000
0.2532000000 2.7336000000 1.3161000000
0.2528000000 1.4963000000 0.7837000000
0.2527000000 5.3460000000 0.5457000000
0.2523000000 3.4861000000 1.3404000000
0.2523000000 0.2304000000 0.1530000000
0.2518000000 1.2792000000 0.6935000000
0.2517000000 2.5561000000 1.2440000000
0.2514000000 1.9539000000 0.9886000000
0.2513000000 3.2365000000 1.4499000000
0.2510000000 4.4082000000 0.9439000000
0.2509000000 5.3511000000 0.5420000000
0.2510000000 1.1641000000 0.6434000000
0.2505000000 2.7362000000 1.3221000000
0.2503000000 1.1779000000 0.6462000000
0.2500000000 2.5356000000 1.2325000000
0.2499000000 3.0505000000 1.4563000000
0.2495000000 5.0153000000 0.6839000000
0.2493000000 0.8056000000 0.4916000000
0.2492000000 2.5080000000 1.2209000000
0.2487000000 1.4796000000 0.7801000000
0.2478000000 2.5405000000 1.2329000000
0.2472000000 1.4099000000 0.7476000000
0.2466000000 2.2662000000 1.1130000000
0.0125000000 5.8946000000 0.1236000000
0.0100000000 6.1113000000 0.1037000000
0.0091000000 5.9291000000 0.1109000000
0.0088000000 5.5754000000 0.2614000000
0.0080000000 2.7556000000 1.1504000000
0.0075000000 2.8465000000 1.1798000000
0.0072000000 5.8340000000 0.1458000000
0.0071000000 6.1038000000 0.1024000000
0.0070000000 3.1998000000 1.2896000000
0.0062000000 1.2337000000 0.4854000000
0.0060000000 2.7020000000 1.1207000000
0.0055000000 5.0013000000 0.5009000000
0.0051000000 0.1148000000 0.0707000000
0.0050000000 1.0666000000 0.4159000000
0.0049000000 0.8609000000 0.3335000000
0.0047000000 5.1938000000 0.4254000000
0.0045000000 4.3753000000 0.7747000000
0.0040000000 1.4124000000 0.5689000000
0.0037000000 4.5987000000 0.6704000000
0.0035000000 2.4820000000 1.0216000000
0.0034000000 2.0114000000 0.8268000000
0.0028000000 1.9605000000 0.7961000000
0.0026000000 0.5227000000 0.1798000000
0.0023000000 3.1031000000 1.3562000000
0.0018000000 3.8154000000 1.0178000000
0.0017000000 0.5555000000 0.1984000000
0.0013000000 4.4608000000 0.7388000000
0.0012000000 1.4462000000 0.5798000000
0.0009000000 2.3016000000 0.9489000000
0.0004000000 3.1609000000 1.3563000000
0.0003000000 5.5462000000 0.2605000000
0.0000000000 1.1183000000 0.4369000000
-0.0007000000 3.2693000000 1.2467000000
-0.0010000000 1.7943000000 0.7244000000
-0.0017000000 4.0831000000 0.8960000000
-0.0018000000 3.4023000000 1.1892000000
-0.0020000000 3.3999000000 1.1944000000
-0.0033000000 1.9205000000 0.7793000000
-0.2365000000 4.8209000000 0.4028000000
-0.2401000000 5.3269000000 0.1792000000
-0.2405000000 0.1773000000 0.0050000000
-0.2408000000 4.1002000000 0.7090000000
-0.2410000000 5.1175000000 0.2688000000
-0.2418000000 4.0138000000 0.7539000000
-0.2422000000 3.6686000000 0.8963000000
-0.2424000000 3.7065000000 0.8771000000
-0.2426000000 1.1042000000 0.2527000000
-0.2427000000 5.2578000000 0.2070000000
-0.2432000000 2.6923000000 0.9304000000
-0.2432000000 0.6869000000 0.0721000000
-0.2434000000 3.5847000000 0.9279000000
-0.2436000000 1.4213000000 0.3866000000
-0.2438000000 4.3491000000 0.6022000000
-0.2439000000 1.0768000000 0.2400000000
-0.2442000000 1.4621000000 0.4028000000
-0.2444000000 4.1768000000 0.6809000000
-0.2445000000 3.7481000000 0.8567000000
-0.2446000000 5.7904000000 0.0520000000
-0.2447000000 1.1217000000 0.2553000000
-0.2449000000 4.4935000000 0.5346000000
-0.2450000000 3.8027000000 0.8372000000
-0.2454000000 5.2340000000 0.2157000000
-0.2455000000 2.9135000000 1.0294000000
-0.2457000000 2.0208000000 0.6395000000
-0.2460000000 4.1154000000 0.6992000000
-0.2463000000 3.5475000000 0.9419000000
-0.2467000000 3.5321000000 0.9487000000
-0.2470000000 4.4197000000 0.5654000000
-0.2470000000 1.0536000000 0.2267000000
-0.2472000000 5.6731000000 0.0947000000
-0.2473000000 5.0500000000 0.2902000000
-0.2477000000 2.0086000000 0.6393000000
-0.2478000000 4.2313000000 0.6482000000
-0.2480000000 2.5853000000 0.8852000000
-0.2482000000 4.5276000000 0.5161000000
-0.2483000000 2.6850000000 0.9233000000
-0.2488000000 1.9463000000 0.6067000000
-0.2490000000 3.1772000000 1.1613000000
-0.2492000000 0.8735000000 0.1442000000
-0.2495000000 3.0817000000 1.1663000000
-0.2500000000 2.4027000000 0.8033000000
-0.2504000000 5.7249000000 0.0858000000
-0.2505000000 0.7638000000 0.0968000000
-0.2510000000 1.7253000000 0.5081000000
-0.2516000000 4.4782000000 0.5335000000
-0.2523000000 0.4056000000 0.0156000000
-0.2535000000 2.0650000000 0.6533000000
-0.2547000000 2.4080000000 0.8031000000
-0.2555000000 1.2625000000 0.3137000000
-0.4875000000 5.4249000000 0.0268000000
-0.4893000000 2.5884000000 0.7014000000
-0.4912000000 5.4324000000 0.0239000000
-0.4919000000 2.3513000000 0.5991000000
-0.4922000000 1.0869000000 0.1309000000
-0.4930000000 4.3995000000 0.3929000000
-0.4932000000 1.5650000000 0.2624000000
-0.4937000000 4.7172000000 0.2526000000
-0.4938000000 4.4731000000 0.3603000000
-0.4940000000 1.3820000000 0.1789000000
-0.4943000000 2.0857000000 0.4878000000
-0.4944000000 3.2292000000 0.9005000000
-0.4946000000 1.6896000000 0.3113000000
-0.4950000000 1.7205000000 0.3255000000
-0.4952000000 4.2531000000 0.4585000000
-0.4955000000 3.2203000000 0.8891000000
-0.4957000000 2.5312000000 0.6721000000
-0.4960000000 3.2702000000 0.8734000000
-0.4962000000 1.1829000000 0.0927000000
-0.4966000000 1.2560000000 0.1205000000
-0.4966000000 5.2824000000 0.0833000000
-0.4972000000 1.7403000000 0.3269000000
-0.4975000000 5.0652000000 0.1039000000
-0.4977000000 4.8183000000 0.2042000000
-0.4981000000 3.5090000000 0.7713000000
-0.4983000000 2.7145000000 0.7474000000
-0.4986000000 2.6090000000 0.7060000000
-0.4992000000 4.8640000000 0.1855000000
-0.4994000000 0.8109000000 0.0004000000
-0.4995000000 1.8977000000 0.3955000000
-0.4996000000 1.7930000000 0.3525000000
-0.4999000000 2.7402000000 0.7629000000
-0.5000000000 1.4029000000 0.1847000000
-0.5011000000 1.4274000000 0.1940000000
-0.5032000000 3.4971000000 0.7695000000
-0.5036000000 2.6234000000 0.7118000000
-0.5084000000 5.5568000000 0.0286000000
-0.7393000000 4.6345000000 0.1044000000
-0.7402000000 2.2057000000 0.3448000000
-0.7406000000 1.2347000000 0.0074000000
-0.7409000000 1.6265000000 0.1029000000
-0.7415000000 4.9821000000 0.0293000000
-0.7422000000 4.3144000000 0.2466000000
-0.7427000000 4.7626000000 0.1257000000
-0.7431000000 4.0459000000 0.3532000000
-0.7435000000 3.8163000000 0.4565000000
-0.7440000000 4.5656000000 0.1313000000
-0.7444000000 1.4077000000 0.0791000000
-0.7445000000 3.1122000000 0.7970000000
-0.7450000000 4.8833000000 0.0661000000
-0.7454000000 4.2369000000 0.2744000000
-0.7456000000 3.2453000000 0.6990000000
-0.7457000000 1.3320000000 0.0476000000
-0.7446000000 4.9557000000 0.0433000000
-0.7464000000 1.2982000000 0.0380000000
-0.7468000000 4.2822000000 0.2479000000
-0.7475000000 1.1753000000 0.0508000000
-0.7477000000 1.9554000000 0.2391000000
-0.7479000000 4.7315000000 0.1324000000
-0.7483000000 1.7930000000 0.1719000000
-0.7487000000 3.6482000000 0.5257000000
-0.7491000000 1.5476000000 0.0600000000
-0.7496000000 3.5772000000 0.5523000000
-0.7507000000 1.7764000000 0.1598000000
-0.7508000000 1.0688000000 0.0028000000
-0.7514000000 4.2481000000 0.2594000000
-0.7543000000 3.6854000000 0.5029000000
-0.9876000000 2.4609000000 0.2817000000
-0.9896000000 4.7370000000 0.0272000000
-0.9915000000 4.4148000000 0.0882000000
-0.9929000000 2.1044000000 0.1190000000
-0.9942000000 4.6486000000 0.0618000000
-0.9946000000 1.5042000000 0.0070000000
-0.9949000000 2.8336000000 0.4273000000
-0.9951000000 3.8683000000 0.2480000000
-0.9952000000 3.7112000000 0.3161000000
-0.9955000000 3.9653000000 0.2013000000
-0.9958000000 1.8116000000 0.0668000000
-0.9961000000 4.4252000000 0.0771000000
-0.9962000000 2.4459000000 0.2688000000
-0.9963000000 3.4445000000 0.4266000000
-0.9967000000 4.1361000000 0.1291000000
-0.9970000000 3.2145000000 0.5269000000
-0.9977000000 4.1799000000 0.1071000000
-0.9980000000 4.4390000000 0.0721000000
-0.9985000000 3.9844000000 0.1945000000
-0.9990000000 4.2979000000 0.1330000000
-0.9996000000 3.9455000000 0.2084000000
-0.9997000000 2.0280000000 0.0813000000
-1.0006000000 2.6995000000 0.3699000000
-1.0018000000 1.9829000000 0.0617000000
-1.0045000000 1.5412000000 0.0191000000
-1.2428000000 4.3274000000 0.0122000000
-1.2434000000 2.3618000000 0.1181000000
-1.2436000000 2.7304000000 0.2088000000
-1.2440000000 3.7591000000 0.1067000000
-1.2447000000 3.3784000000 0.2692000000
-1.2452000000 3.2637000000 0.3179000000
-1.2469000000 2.5680000000 0.1244000000
-1.2478000000 2.6475000000 0.1633000000
-1.2482000000 3.6910000000 0.1294000000
-1.2487000000 4.0243000000 0.0649000000
-1.2490000000 3.7689000000 0.0948000000
-1.2493000000 3.3410000000 0.2835000000
-1.2498000000 2.6379000000 0.1600000000
-1.4876000000 2.8976000000 0.0970000000
-1.4912000000 3.1170000000 0.2390000000
-1.4935000000 3.3862000000 0.0798000000
-1.4950000000 3.4144000000 0.0657000000
-1.4954000000 3.7223000000 0.0046000000
-1.4959000000 2.5441000000 0.0041000000
-1.4964000000 3.4856000000 0.1049000000
-1.4969000000 3.5452000000 0.0818000000
-1.4980000000 3.4240000000 0.0628000000
-1.4988000000 2.6212000000 0.0427000000
-1.4996000000 2.4366000000 0.0384000000
-1.5025000000 2.5277000000 0.0683000000
-1.5053000000 2.7307000000 0.0788000000
-1.7429000000 3.3095000000 0.0751000000
-1.7440000000 3.3809000000 0.0411000000
-1.7467000000 2.9665000000 0.0046000000
-1.7469000000 3.1713000000 0.0426000000
-1.7482000000 3.2957000000 0.0033000000
-1.7495000000 2.8067000000 0.0100000000
