6.5093000000 3.4923000000 0.0146000000
6.5068000000 3.6443000000 0.0065000000
6.5048000000 4.0147000000 0.0423000000
6.5039000000 4.0129000000 0.0456000000
6.5008000000 3.7826000000 0.0607000000
6.2577000000 3.3000000000 0.0468000000
6.2569000000 3.5028000000 0.1379000000
6.2553000000 4.0585000000 0.0728000000
6.2538000000 3.6010000000 0.1090000000
6.2518000000 3.4104000000 0.1021000000
6.2489000000 4.3911000000 0.0734000000
6.0123000000 3.5747000000 0.2854000000
6.0100000000 3.7748000000 0.4410000000
6.0087000000 4.9425000000 0.0153000000
6.0079000000 3.7453000000 0.4281000000
6.0071000000 4.7703000000 0.0136000000
6.0068000000 3.4726000000 0.2431000000
6.0058000000 3.3471000000 0.1860000000
6.0054000000 2.7118000000 0.0494000000
6.0038000000 3.6728000000 0.3419000000
6.0024000000 4.4765000000 0.0795000000
6.0018000000 2.9259000000 0.0750000000
6.0003000000 4.9241000000 0.0396000000
5.9977000000 4.7437000000 0.0388000000
5.7638000000 3.9485000000 0.5016000000
5.7600000000 3.4384000000 0.4208000000
5.7586000000 3.2471000000 0.3430000000
5.7579000000 4.5853000000 0.2243000000
5.7573000000 2.4632000000 0.0569000000
5.7567000000 4.9376000000 0.1413000000
5.7564000000 3.8678000000 0.5443000000
5.7555000000 5.1608000000 0.0398000000
5.7543000000 2.9269000000 0.1977000000
5.7533000000 4.2144000000 0.3890000000
5.7525000000 4.0950000000 0.4446000000
5.7519000000 2.6987000000 0.0956000000
5.7513000000 2.1542000000 0.0009000000
5.7510000000 3.8124000000 0.6409000000
5.7500000000 4.1378000000 0.4305000000
5.7478000000 2.5102000000 0.0864000000
5.5121000000 5.6857000000 0.0640000000
5.5097000000 5.1474000000 0.1646000000
5.5089000000 4.8126000000 0.3148000000
5.5076000000 3.7496000000 0.8241000000
5.5070000000 3.5190000000 0.6500000000
5.5063000000 3.6998000000 0.7432000000
5.5058000000 2.5155000000 0.2067000000
5.5054000000 5.6556000000 0.0084000000
5.5050000000 2.8638000000 0.3624000000
5.5044000000 1.9778000000 0.0405000000
5.5040000000 4.5191000000 0.4484000000
5.5035000000 2.7941000000 0.3346000000
5.5029000000 3.5740000000 0.6862000000
5.5021000000 3.5719000000 0.6834000000
5.5018000000 2.0830000000 0.0884000000
5.5013000000 2.5007000000 0.2018000000
5.5005000000 3.8677000000 0.7474000000
5.4999000000 2.2380000000 0.0845000000
5.4989000000 3.6244000000 0.7167000000
5.4968000000 1.8110000000 0.0479000000
5.2629000000 6.2283000000 0.0098000000
5.2594000000 4.9094000000 0.4674000000
5.2591000000 5.0104000000 0.4152000000
5.2583000000 4.2414000000 0.7620000000
5.2581000000 3.9296000000 0.9076000000
5.2576000000 4.3825000000 0.7008000000
5.2573000000 6.2266000000 0.0235000000
5.2571000000 4.6186000000 0.5989000000
5.2568000000 1.4482000000 0.0661000000
5.2567000000 5.4961000000 0.2015000000
5.2562000000 2.0319000000 0.1799000000
5.2559000000 4.9115000000 0.4677000000
5.2554000000 5.9251000000 0.0797000000
5.2551000000 3.6167000000 0.9022000000
5.2549000000 2.7089000000 0.4863000000
5.2547000000 2.6368000000 0.4555000000
5.2543000000 3.5392000000 0.8630000000
5.2540000000 3.6782000000 0.9297000000
5.2536000000 1.7735000000 0.0667000000
5.2535000000 3.3404000000 0.7810000000
5.2533000000 2.3105000000 0.3073000000
5.2529000000 3.3826000000 0.7945000000
5.2525000000 4.8359000000 0.5047000000
5.2524000000 5.1353000000 0.3661000000
5.2522000000 1.8816000000 0.1202000000
5.2512000000 3.0864000000 0.6597000000
5.2505000000 3.3402000000 0.7797000000
5.2503000000 4.1957000000 0.7973000000
5.2494000000 1.3605000000 0.0313000000
5.2488000000 3.7426000000 1.0225000000
5.2465000000 3.4706000000 0.8407000000
5.0165000000 5.9016000000 0.2042000000
5.0110000000 6.6236000000 0.0345000000
5.0105000000 6.5270000000 0.0790000000
5.0101000000 2.9722000000 0.8018000000
5.0091000000 5.7906000000 0.2644000000
5.0085000000 2.1074000000 0.4066000000
5.0076000000 4.1208000000 1.0150000000
5.0075000000 1.7596000000 0.2588000000
5.0070000000 3.9692000000 1.0915000000
5.0069000000 4.1451000000 1.0114000000
5.0068000000 4.0066000000 1.0730000000
5.0065000000 3.4118000000 1.0013000000
5.0060000000 4.3643000000 0.9035000000
5.0057000000 3.3614000000 0.9828000000
5.0055000000 3.2275000000 0.9134000000
5.0048000000 2.5581000000 0.6185000000
5.0045000000 4.1529000000 1.0070000000
5.0041000000 2.0900000000 0.4087000000
5.0039000000 2.6605000000 0.6612000000
5.0035000000 1.1986000000 0.0755000000
5.0033000000 1.5318000000 0.1551000000
5.0030000000 3.1235000000 0.8748000000
5.0027000000 4.6018000000 0.8035000000
5.0026000000 5.6208000000 0.3460000000
5.0023000000 3.2440000000 0.9272000000
5.0020000000 1.0498000000 0.0118000000
5.0016000000 2.0918000000 0.4099000000
5.0008000000 6.1347000000 0.1103000000
5.0004000000 6.6138000000 0.0435000000
4.9990000000 3.0957000000 0.8682000000
4.9983000000 2.6271000000 0.6541000000
4.9963000000 1.0941000000 0.0360000000
4.7622000000 6.6924000000 0.1196000000
4.7610000000 7.1251000000 -0.0005000000
4.7606000000 6.0936000000 0.3148000000
4.7598000000 1.1629000000 0.1790000000
4.7589000000 3.3023000000 1.1428000000
4.7583000000 6.5460000000 0.1215000000
4.7579000000 0.8117000000 0.0964000000
4.7575000000 5.0500000000 0.7996000000
4.7573000000 2.8238000000 0.9324000000
4.7572000000 1.9320000000 0.5261000000
4.7569000000 5.6766000000 0.5075000000
4.7564000000 6.9474000000 0.0111000000
4.7561000000 1.3236000000 0.2610000000
4.7559000000 6.6767000000 0.1375000000
4.7555000000 2.8531000000 0.9470000000
4.7548000000 2.5269000000 0.7965000000
4.7546000000 5.4291000000 0.6258000000
4.7544000000 2.4825000000 0.7737000000
4.7543000000 2.1049000000 0.6104000000
4.7539000000 2.4155000000 0.7465000000
4.7534000000 6.8165000000 0.0742000000
4.7532000000 5.2535000000 0.7046000000
4.7528000000 7.0647000000 0.0349000000
4.7526000000 4.2985000000 1.1409000000
4.7523000000 4.1240000000 1.2137000000
4.7521000000 2.5875000000 0.8260000000
4.7519000000 6.2360000000 0.2601000000
4.7517000000 2.4897000000 0.7839000000
4.7514000000 3.0971000000 1.0620000000
4.7513000000 0.8318000000 0.1149000000
4.7508000000 1.8378000000 0.4924000000
4.7502000000 5.9139000000 0.4090000000
4.7498000000 1.8550000000 0.4995000000
4.7492000000 2.0419000000 0.5927000000
4.7484000000 1.1769000000 0.1945000000
4.5157000000 7.1749000000 0.0972000000
4.5110000000 0.2035000000 0.0147000000
4.5102000000 6.9239000000 0.1426000000
4.5092000000 4.4696000000 1.2583000000
4.5090000000 6.3361000000 0.4062000000
4.5084000000 5.3445000000 0.8482000000
4.5079000000 4.7485000000 1.1241000000
4.5073000000 4.2027000000 1.3744000000
4.5070000000 2.5658000000 1.0124000000
4.5065000000 1.0735000000 0.3410000000
4.5062000000 2.3621000000 0.9217000000
4.5060000000 6.4831000000 0.3411000000
4.5059000000 0.3466000000 0.0818000000
4.5056000000 0.7090000000 0.1759000000
4.5055000000 3.5337000000 1.4474000000
4.5051000000 2.0649000000 0.7870000000
4.5048000000 2.2245000000 0.8608000000
4.5046000000 1.2941000000 0.4413000000
4.5043000000 1.3728000000 0.4793000000
4.5040000000 2.2660000000 0.8677000000
4.5038000000 5.4326000000 0.8195000000
4.5035000000 6.7327000000 0.2327000000
4.5031000000 1.4923000000 0.5338000000
4.5030000000 0.7217000000 0.1796000000
4.5028000000 2.4325000000 0.9510000000
4.5026000000 7.3054000000 0.0490000000
4.5024000000 1.3353000000 0.4614000000
4.5020000000 5.2335000000 0.9093000000
4.5018000000 4.4044000000 1.2873000000
4.5016000000 3.0468000000 1.2355000000
4.5014000000 1.0169000000 0.3131000000
4.5008000000 5.2462000000 0.9066000000
4.5004000000 0.4999000000 0.0814000000
4.5001000000 3.3249000000 1.3612000000
4.4992000000 2.1319000000 0.8173000000
4.4989000000 3.6924000000 1.5305000000
4.4961000000 3.9009000000 1.5198000000
4.2613000000 6.7414000000 0.4172000000
4.2603000000 3.7234000000 1.7289000000
4.2589000000 1.6818000000 0.8101000000
4.2585000000 6.6884000000 0.4415000000
4.2583000000 4.0445000000 1.6452000000
4.2582000000 1.6517000000 0.7934000000
4.2577000000 5.0231000000 1.2032000000
4.2573000000 4.4432000000 1.4632000000
4.2568000000 6.7985000000 0.4012000000
4.2564000000 3.5021000000 1.6327000000
4.2562000000 6.8970000000 0.3526000000
4.2559000000 3.5040000000 1.6314000000
4.2557000000 6.0674000000 0.7235000000
4.2554000000 1.0435000000 0.5229000000
4.2550000000 5.3244000000 1.0666000000
4.2546000000 5.6721000000 0.9087000000
4.2543000000 2.3034000000 1.0942000000
4.2542000000 4.6222000000 1.3797000000
4.2539000000 6.6603000000 0.4602000000
4.2537000000 7.0904000000 0.2670000000
4.2534000000 2.5343000000 1.1957000000
4.2531000000 0.7013000000 0.3695000000
4.2524000000 3.2732000000 1.5250000000
4.2521000000 2.4845000000 1.1718000000
4.2520000000 2.9881000000 1.4004000000
4.2517000000 6.2456000000 0.6516000000
4.2512000000 2.3429000000 1.1111000000
4.2507000000 5.8719000000 0.8181000000
4.2502000000 1.0866000000 0.5463000000
4.2499000000 2.8050000000 1.3232000000
4.2497000000 2.2425000000 1.0725000000
4.2491000000 0.9821000000 0.4937000000
4.2480000000 0.1156000000 0.1262000000
4.2461000000 3.5859000000 1.6716000000
4.0109000000 6.9059000000 0.6023000000
4.0104000000 3.7893000000 2.0073000000
4.0100000000 5.3554000000 1.2435000000
4.0096000000 4.7867000000 1.5026000000
4.0092000000 1.2765000000 0.8147000000
4.0088000000 5.0541000000 1.3750000000
4.0085000000 4.3670000000 1.6862000000
4.0079000000 1.1832000000 0.7789000000
4.0076000000 4.9628000000 1.4239000000
4.0072000000 3.9051000000 1.8977000000
4.0071000000 3.4220000000 1.7935000000
4.0068000000 1.7845000000 1.0469000000
4.0065000000 1.2587000000 0.8112000000
4.0064000000 6.0783000000 0.9142000000
4.0062000000 7.1925000000 0.2996000000
4.0060000000 4.8913000000 1.4550000000
4.0055000000 5.2229000000 1.3057000000
4.0054000000 4.5845000000 1.5956000000
4.0051000000 4.5097000000 1.6349000000
4.0050000000 1.2579000000 0.8098000000
4.0049000000 7.2607000000 0.2384000000
4.0048000000 7.2143000000 0.2829000000
4.0045000000 0.3005000000 0.2275000000
4.0043000000 2.3907000000 1.3282000000
4.0040000000 4.0095000000 1.8553000000
4.0037000000 3.0218000000 1.6182000000
4.0036000000 0.9717000000 0.6813000000
4.0031000000 2.3160000000 1.2882000000
4.0030000000 4.1531000000 1.7934000000
4.0024000000 0.0366000000 0.0706000000
4.0020000000 5.4376000000 1.2120000000
4.0018000000 2.0196000000 1.1563000000
4.0016000000 4.2813000000 1.7296000000
4.0012000000 1.2701000000 0.8222000000
4.0008000000 7.1149000000 0.3728000000
4.0003000000 3.6007000000 1.8813000000
3.9993000000 4.6527000000 1.5625000000
3.9986000000 3.0415000000 1.6223000000
3.9978000000 1.6843000000 1.0129000000
3.9965000000 5.3824000000 1.2383000000
3.9951000000 2.2391000000 1.2571000000
3.7655000000 6.6393000000 0.7997000000
3.7629000000 7.6000000000 0.0818000000
3.7621000000 2.0077000000 1.3475000000
3.7608000000 3.0116000000 1.8010000000
3.7593000000 7.1179000000 0.3632000000
3.7590000000 5.9506000000 1.1692000000
3.7587000000 1.5174000000 1.1281000000
3.7579000000 6.3132000000 1.0043000000
3.7577000000 0.8968000000 0.7701000000
3.7573000000 7.3781000000 0.1340000000
3.7570000000 6.5203000000 0.9665000000
3.7568000000 3.4343000000 1.9900000000
3.7566000000 7.3708000000 0.1379000000
3.7564000000 6.6301000000 0.8079000000
3.7561000000 4.3992000000 1.8725000000
3.7559000000 0.5474000000 0.4519000000
3.7557000000 3.3957000000 1.9700000000
3.7554000000 3.1791000000 1.8758000000
3.7551000000 0.7571000000 0.6413000000
3.7550000000 4.5184000000 1.8194000000
3.7547000000 2.5562000000 1.6043000000
3.7544000000 5.9464000000 1.1700000000
3.7541000000 6.1975000000 1.0591000000
3.7539000000 1.1805000000 0.9712000000
3.7537000000 5.3570000000 1.4440000000
3.7533000000 3.0415000000 1.8147000000
3.7531000000 3.0730000000 1.8296000000
3.7528000000 3.0002000000 1.7993000000
3.7527000000 6.8179000000 0.6445000000
3.7525000000 4.6968000000 1.7347000000
3.7523000000 4.1964000000 1.9715000000
3.7521000000 4.7081000000 1.7402000000
3.7518000000 2.9798000000 1.7925000000
3.7513000000 3.0782000000 1.8366000000
3.7507000000 1.6345000000 1.1834000000
3.7502000000 1.6510000000 1.1887000000
3.7490000000 1.6214000000 1.1735000000
3.7472000000 0.3032000000 0.2323000000
3.7454000000 3.7521000000 2.2066000000
3.5125000000 3.7288000000 2.3080000000
3.5116000000 7.1853000000 0.3046000000
3.5108000000 7.4891000000 0.1091000000
3.5095000000 4.7919000000 1.8872000000
3.5091000000 4.9165000000 1.8316000000
3.5086000000 3.3132000000 2.1325000000
3.5083000000 3.8069000000 2.3916000000
3.5079000000 6.1004000000 1.2750000000
3.5074000000 2.5090000000 1.7647000000
3.5072000000 7.0558000000 0.4265000000
3.5070000000 7.1679000000 0.3221000000
3.5067000000 2.4618000000 1.7416000000
3.5064000000 4.2194000000 2.1539000000
3.5062000000 3.7545000000 2.3868000000
3.5058000000 3.7032000000 2.3099000000
3.5055000000 6.8256000000 0.6418000000
3.5050000000 2.3397000000 1.6970000000
3.5047000000 7.0466000000 0.4342000000
3.5045000000 4.4595000000 2.0405000000
3.5043000000 5.8775000000 1.3981000000
3.5040000000 2.4012000000 1.7249000000
3.5038000000 3.6252000000 2.2799000000
3.5035000000 3.2468000000 2.1065000000
3.5030000000 3.1631000000 2.0652000000
3.5027000000 4.3403000000 2.1006000000
3.5024000000 6.9460000000 0.5285000000
3.5023000000 0.9225000000 0.7947000000
3.5022000000 4.5124000000 2.0260000000
3.5019000000 1.9298000000 1.5124000000
3.5017000000 5.0345000000 1.7861000000
3.5013000000 0.9628000000 0.8300000000
3.5010000000 0.9864000000 0.8513000000
3.5009000000 5.2149000000 1.7052000000
3.5005000000 2.2231000000 1.6493000000
3.5000000000 3.8044000000 2.4029000000
3.4996000000 0.2283000000 0.1602000000
3.4993000000 0.9122000000 0.7778000000
3.4990000000 2.7995000000 1.9075000000
3.4985000000 6.3811000000 1.0282000000
3.4974000000 0.1478000000 0.0949000000
3.4969000000 0.2198000000 0.1570000000
3.4963000000 2.0006000000 1.5452000000
3.2668000000 6.1967000000 1.1986000000
3.2628000000 3.8508000000 2.5050000000
3.2611000000 5.9741000000 1.4021000000
3.2607000000 2.2530000000 1.8468000000
3.2598000000 3.5440000000 2.4337000000
3.2594000000 7.0342000000 0.4414000000
3.2590000000 6.1611000000 1.2338000000
3.2587000000 5.7157000000 1.6225000000
3.2583000000 5.2296000000 1.8927000000
3.2579000000 4.0790000000 2.4067000000
3.2577000000 5.8757000000 1.4931000000
3.2572000000 0.0872000000 0.1119000000
3.2570000000 2.8234000000 2.1110000000
3.2568000000 5.0699000000 1.9640000000
3.2565000000 6.9250000000 0.5444000000
3.2564000000 4.1200000000 2.3932000000
3.2559000000 7.5210000000 0.0797000000
3.2556000000 5.8218000000 1.5438000000
3.2553000000 4.9948000000 1.9975000000
3.2550000000 3.9635000000 2.4603000000
3.2549000000 7.2243000000 0.2752000000
3.2546000000 2.6921000000 2.0519000000
3.2545000000 5.2984000000 1.8623000000
3.2542000000 2.6099000000 2.0130000000
3.2538000000 4.2442000000 2.3388000000
3.2536000000 1.3928000000 1.2173000000
3.2532000000 6.2858000000 1.1201000000
3.2530000000 5.2805000000 1.8693000000
3.2528000000 3.5422000000 2.4331000000
3.2526000000 0.8913000000 0.7605000000
3.2524000000 2.5316000000 1.9741000000
3.2522000000 4.1319000000 2.3902000000
3.2519000000 1.7892000000 1.5712000000
3.2509000000 5.2801000000 1.8708000000
3.2503000000 2.6884000000 2.0522000000
3.2498000000 2.4371000000 1.9361000000
3.2485000000 0.9891000000 0.8455000000
3.2476000000 1.6706000000 1.4697000000
3.0138000000 7.5912000000 0.0148000000
3.0114000000 6.8359000000 0.6199000000
3.0110000000 6.8457000000 0.6147000000
3.0103000000 6.3202000000 1.0956000000
3.0095000000 6.7894000000 0.6638000000
3.0089000000 5.8774000000 1.4878000000
3.0083000000 5.3849000000 1.9355000000
3.0077000000 6.3098000000 1.0973000000
3.0074000000 4.7932000000 2.2824000000
3.0069000000 2.2645000000 1.9976000000
3.0064000000 5.2947000000 2.0061000000
3.0057000000 1.5280000000 1.3427000000
3.0055000000 3.7868000000 2.8014000000
3.0053000000 6.0064000000 1.3690000000
3.0051000000 3.5336000000 2.6256000000
3.0048000000 3.3731000000 2.5546000000
3.0045000000 5.2090000000 2.0824000000
3.0042000000 5.5030000000 1.8288000000
3.0038000000 5.1846000000 2.0969000000
3.0036000000 1.6120000000 1.4186000000
3.0034000000 2.9722000000 2.3679000000
3.0032000000 2.1018000000 1.8613000000
3.0030000000 0.9231000000 0.7877000000
3.0028000000 1.8439000000 1.6317000000
3.0026000000 6.1142000000 1.2767000000
3.0023000000 2.4428000000 2.1939000000
3.0019000000 0.7969000000 0.6819000000
3.0017000000 2.5304000000 2.1708000000
3.0015000000 2.2184000000 1.9643000000
3.0010000000 5.2231000000 2.1394000000
3.0006000000 3.2402000000 2.4995000000
3.0002000000 3.1806000000 2.4732000000
2.9998000000 0.2745000000 0.2013000000
2.9985000000 6.4495000000 0.9713000000
2.9979000000 2.9477000000 2.3641000000
2.9968000000 3.2731000000 2.5190000000
2.9963000000 4.6395000000 2.3592000000
2.9945000000 0.3875000000 0.3065000000
2.7636000000 6.7001000000 0.7465000000
2.7606000000 4.1168000000 2.7882000000
2.7589000000 2.4634000000 2.1866000000
2.7585000000 3.5656000000 2.8338000000
2.7583000000 3.9604000000 2.8558000000
2.7582000000 4.5898000000 2.5685000000
2.7580000000 1.6788000000 1.4835000000
2.7575000000 7.2375000000 0.2645000000
2.7573000000 6.2552000000 1.1475000000
2.7570000000 2.9927000000 2.5765000000
2.7567000000 3.4377000000 2.7764000000
2.7564000000 2.8979000000 2.5245000000
2.7561000000 4.0956000000 2.7988000000
2.7559000000 7.0837000000 0.3945000000
2.7555000000 3.7781000000 2.9969000000
2.7551000000 0.8239000000 0.7050000000
2.7547000000 4.1988000000 2.7481000000
2.7543000000 2.8092000000 2.5506000000
2.7539000000 3.1053000000 2.6278000000
2.7537000000 4.7289000000 2.5705000000
2.7533000000 0.2259000000 0.1619000000
2.7530000000 0.9767000000 0.8359000000
2.7529000000 5.7066000000 1.6401000000
2.7523000000 2.2022000000 1.9501000000
2.7518000000 3.3485000000 2.7401000000
2.7517000000 2.0178000000 1.7811000000
2.7514000000 0.5219000000 0.4358000000
2.7513000000 4.0720000000 2.8092000000
2.7510000000 0.8492000000 0.7245000000
2.7509000000 0.7354000000 0.6229000000
2.7502000000 6.6546000000 0.7862000000
2.7492000000 6.5676000000 0.8673000000
2.7490000000 2.5391000000 2.2588000000
2.7471000000 1.2782000000 1.1162000000
2.7441000000 0.3921000000 0.3189000000
2.5108000000 6.6554000000 0.7864000000
2.5087000000 6.1086000000 1.2756000000
2.5080000000 5.6628000000 1.6819000000
2.5077000000 7.5640000000 0.0380000000
2.5074000000 4.9496000000 2.3291000000
2.5071000000 5.0465000000 2.2442000000
2.5065000000 2.9711000000 2.6498000000
2.5061000000 0.8826000000 0.7543000000
2.5058000000 3.5560000000 3.0298000000
2.5055000000 4.3231000000 2.9515000000
2.5053000000 2.2998000000 2.0384000000
2.5048000000 4.4762000000 2.7565000000
2.5047000000 2.6563000000 2.3568000000
2.5043000000 3.4448000000 2.9759000000
2.5038000000 4.0012000000 3.0367000000
2.5036000000 6.6054000000 0.8344000000
2.5031000000 5.3554000000 1.9648000000
2.5030000000 5.7816000000 1.5753000000
2.5028000000 0.4995000000 0.4110000000
2.5026000000 4.0209000000 3.0236000000
2.5025000000 1.0871000000 0.9404000000
2.5023000000 5.3213000000 1.9939000000
2.5020000000 2.1321000000 1.8856000000
2.5017000000 5.6496000000 1.6981000000
2.5015000000 0.2932000000 0.2277000000
2.5011000000 3.3501000000 2.9406000000
2.5008000000 0.1490000000 0.0972000000
2.5005000000 7.0123000000 0.4597000000
2.5003000000 1.2442000000 1.0833000000
2.4998000000 3.0872000000 2.7477000000
2.4996000000 1.1782000000 1.0245000000
2.4991000000 5.1660000000 2.1340000000
2.4988000000 4.7954000000 2.4691000000
2.4983000000 4.9519000000 2.3271000000
2.4969000000 3.2494000000 2.9564000000
2.4956000000 0.5456000000 0.4536000000
2.2608000000 4.5861000000 2.6547000000
2.2596000000 3.4031000000 3.0327000000
2.2588000000 4.7718000000 2.4942000000
2.2585000000 7.5961000000 0.0154000000
2.2581000000 3.9360000000 3.3059000000
2.2575000000 7.2915000000 0.2147000000
2.2573000000 3.8258000000 3.3279000000
2.2569000000 4.9995000000 2.2854000000
2.2565000000 5.6295000000 1.7104000000
2.2563000000 1.8262000000 1.6080000000
2.2560000000 5.0581000000 2.2357000000
2.2555000000 3.8832000000 3.3417000000
2.2551000000 0.8323000000 0.7156000000
2.2549000000 1.4636000000 1.2853000000
2.2547000000 4.5800000000 2.6649000000
2.2543000000 2.2826000000 2.0240000000
2.2542000000 7.1671000000 0.3223000000
2.2540000000 3.2580000000 2.9060000000
2.2537000000 2.6310000000 2.3396000000
2.2535000000 1.9650000000 1.7371000000
2.2533000000 6.0138000000 1.3669000000
2.2532000000 1.3784000000 1.2086000000
2.2530000000 6.3648000000 1.0488000000
2.2526000000 0.0728000000 0.1007000000
2.2524000000 2.4676000000 2.1935000000
2.2521000000 5.8163000000 1.5462000000
2.2518000000 1.9474000000 1.7222000000
2.2515000000 1.0712000000 0.9210000000
2.2513000000 4.5128000000 2.7279000000
2.2510000000 3.3112000000 2.9521000000
2.2508000000 1.4465000000 1.2687000000
2.2504000000 1.3690000000 1.1937000000
2.2493000000 2.4930000000 2.2128000000
2.2488000000 3.7602000000 3.3320000000
2.2480000000 5.2029000000 2.1015000000
2.2470000000 3.3280000000 2.9735000000
2.0128000000 5.9160000000 1.4595000000
2.0117000000 7.1028000000 0.3796000000
2.0107000000 2.8898000000 2.5708000000
2.0103000000 5.8376000000 1.5244000000
2.0086000000 3.0314000000 2.7031000000
2.0083000000 2.1839000000 1.9375000000
2.0076000000 1.5605000000 1.3705000000
2.0073000000 7.0467000000 0.4334000000
2.0070000000 2.2491000000 1.9910000000
2.0065000000 5.5001000000 1.8312000000
2.0062000000 0.2899000000 0.2183000000
2.0061000000 5.0704000000 2.2206000000
2.0059000000 5.0748000000 2.2145000000
2.0056000000 1.1914000000 1.0414000000
2.0055000000 6.3290000000 1.0836000000
2.0053000000 6.7130000000 0.7348000000
2.0050000000 0.0188000000 0.0515000000
2.0045000000 6.0481000000 1.3387000000
2.0044000000 4.1776000000 3.0177000000
2.0040000000 2.0544000000 1.8184000000
2.0038000000 0.5602000000 0.4682000000
2.0036000000 1.9058000000 1.6829000000
2.0034000000 3.8486000000 3.2088000000
2.0033000000 6.3150000000 1.0870000000
2.0029000000 6.3796000000 1.0374000000
2.0027000000 3.4716000000 3.1582000000
2.0025000000 4.1712000000 3.0222000000
2.0020000000 5.4672000000 1.8603000000
2.0016000000 1.0779000000 0.9317000000
2.0015000000 5.5948000000 1.7450000000
2.0011000000 4.1137000000 3.0741000000
2.0004000000 4.8436000000 2.4282000000
2.0000000000 2.2801000000 2.0223000000
1.9994000000 0.9336000000 0.8008000000
1.9977000000 5.6898000000 1.6634000000
1.9961000000 1.2080000000 1.0532000000
1.7622000000 4.9208000000 2.3512000000
1.7613000000 6.5773000000 0.8585000000
1.7604000000 5.0351000000 2.2519000000
1.7596000000 5.1426000000 2.1534000000
1.7590000000 6.6764000000 0.7656000000
1.7586000000 6.3633000000 1.0526000000
1.7585000000 7.1785000000 0.3128000000
1.7577000000 3.2514000000 2.8089000000
1.7572000000 0.0879000000 0.1149000000
1.7570000000 6.9208000000 0.5448000000
1.7565000000 4.0861000000 2.9107000000
1.7562000000 2.5576000000 2.2741000000
1.7559000000 6.3989000000 1.0227000000
1.7555000000 7.1149000000 0.3700000000
1.7551000000 6.3820000000 1.0374000000
1.7549000000 0.8846000000 0.7597000000
1.7547000000 5.4681000000 1.8621000000
1.7544000000 3.2823000000 2.8183000000
1.7541000000 3.0071000000 2.7359000000
1.7540000000 2.5312000000 2.2530000000
1.7538000000 6.2653000000 1.1400000000
1.7532000000 7.5194000000 0.0780000000
1.7529000000 4.1348000000 2.8932000000
1.7527000000 0.0950000000 0.1207000000
1.7525000000 3.5755000000 2.9500000000
1.7521000000 5.9780000000 1.4040000000
1.7519000000 6.8552000000 0.6020000000
1.7518000000 0.1874000000 0.1330000000
1.7515000000 0.2122000000 0.1510000000
1.7512000000 0.2648000000 0.2016000000
1.7511000000 3.8996000000 2.9927000000
1.7506000000 4.8602000000 2.4095000000
1.7500000000 2.3402000000 2.0752000000
1.7498000000 1.3172000000 1.1528000000
1.7488000000 3.0380000000 2.7680000000
1.7469000000 1.9001000000 1.6773000000
1.5135000000 6.0123000000 1.3677000000
1.5107000000 6.8825000000 0.5818000000
1.5097000000 7.1747000000 0.3180000000
1.5089000000 5.2931000000 2.0184000000
1.5080000000 7.6074000000 0.0725000000
1.5079000000 1.9856000000 1.7534000000
1.5075000000 7.1029000000 0.3887000000
1.5071000000 3.2265000000 2.5949000000
1.5067000000 5.9144000000 1.4589000000
1.5065000000 6.3780000000 1.0358000000
1.5062000000 5.5906000000 1.7452000000
1.5060000000 1.5821000000 1.3892000000
1.5056000000 4.7528000000 2.4193000000
1.5054000000 3.5265000000 2.7296000000
1.5048000000 4.2746000000 2.6267000000
1.5044000000 2.9871000000 2.4915000000
1.5043000000 2.7049000000 2.3447000000
1.5040000000 5.1779000000 2.1250000000
1.5039000000 4.5271000000 2.5192000000
1.5036000000 1.1986000000 1.0446000000
1.5035000000 1.3652000000 1.1967000000
1.5031000000 5.9449000000 1.4310000000
1.5029000000 3.1900000000 2.5823000000
1.5027000000 2.1694000000 1.9251000000
1.5024000000 2.3311000000 2.0700000000
1.5023000000 1.3653000000 1.1951000000
1.5021000000 4.4752000000 2.5315000000
1.5018000000 3.1315000000 2.5486000000
1.5014000000 5.0382000000 2.2355000000
1.5010000000 1.6648000000 1.4669000000
1.5003000000 2.7263000000 2.3636000000
1.4999000000 4.6773000000 2.4381000000
1.4996000000 0.2758000000 0.2115000000
1.4989000000 5.6574000000 1.6857000000
1.4985000000 2.6985000000 2.3507000000
1.4964000000 1.1720000000 1.0283000000
1.2623000000 7.0940000000 0.3860000000
1.2605000000 6.9939000000 0.4825000000
1.2599000000 1.8217000000 1.6023000000
1.2587000000 3.8184000000 2.7036000000
1.2583000000 4.5341000000 2.3169000000
1.2580000000 4.0924000000 2.5154000000
1.2577000000 7.3558000000 0.1566000000
1.2573000000 2.8720000000 2.2395000000
1.2570000000 4.3397000000 2.4086000000
1.2567000000 6.7845000000 0.6697000000
1.2560000000 6.3870000000 1.0309000000
1.2558000000 2.6933000000 2.1600000000
1.2554000000 4.1172000000 2.5036000000
1.2553000000 5.3479000000 2.0085000000
1.2548000000 5.0561000000 2.0795000000
1.2545000000 0.8221000000 0.7017000000
1.2543000000 7.0745000000 0.4114000000
1.2542000000 2.5444000000 2.0979000000
1.2540000000 2.2629000000 2.0256000000
1.2538000000 3.9373000000 2.5779000000
1.2536000000 0.6362000000 0.5355000000
1.2534000000 6.8918000000 0.5707000000
1.2529000000 3.6668000000 2.6048000000
1.2528000000 5.1214000000 2.0546000000
1.2525000000 0.5802000000 0.4851000000
1.2522000000 3.8178000000 2.7009000000
1.2520000000 1.7899000000 1.5764000000
1.2518000000 3.5939000000 2.5605000000
1.2516000000 4.6296000000 2.2721000000
1.2513000000 0.2064000000 0.1455000000
1.2508000000 6.1640000000 1.2294000000
1.2501000000 3.6458000000 2.5830000000
1.2490000000 7.0884000000 0.3956000000
1.2487000000 1.8864000000 1.6616000000
1.2481000000 0.1789000000 0.1189000000
1.2476000000 0.6851000000 0.5775000000
1.2452000000 1.8223000000 1.6077000000
1.0128000000 6.4355000000 0.9882000000
1.0113000000 4.9259000000 1.9471000000
1.0098000000 7.1041000000 0.3847000000
1.0094000000 5.9611000000 1.4160000000
1.0090000000 7.3379000000 0.1695000000
1.0082000000 4.6441000000 2.0757000000
1.0073000000 4.9018000000 1.9549000000
1.0070000000 4.7513000000 2.0240000000
1.0068000000 6.8307000000 0.6300000000
1.0066000000 3.7678000000 2.5124000000
1.0062000000 3.6852000000 2.4164000000
1.0059000000 7.4401000000 0.0784000000
1.0056000000 1.4887000000 1.3068000000
1.0051000000 4.6283000000 2.0767000000
1.0050000000 0.4396000000 0.3580000000
1.0049000000 1.5409000000 1.3518000000
1.0047000000 5.1617000000 1.8362000000
1.0043000000 3.2514000000 2.2213000000
1.0041000000 0.1229000000 0.0640000000
1.0038000000 5.2097000000 1.8151000000
1.0037000000 6.7941000000 0.6685000000
1.0030000000 2.2462000000 1.7646000000
1.0028000000 1.1203000000 0.9681000000
1.0025000000 3.2224000000 2.2020000000
1.0020000000 1.8964000000 1.6071000000
1.0016000000 1.8403000000 1.5740000000
1.0013000000 4.7358000000 2.0298000000
1.0009000000 4.7852000000 2.0040000000
1.0003000000 1.3520000000 1.1762000000
1.0000000000 2.2804000000 1.7758000000
0.9993000000 6.6465000000 0.7994000000
0.9985000000 0.1006000000 0.1251000000
0.9971000000 3.5632000000 2.3577000000
0.9949000000 0.7146000000 0.6041000000
0.7608000000 4.3189000000 2.0329000000
0.7601000000 4.8537000000 1.7873000000
0.7597000000 7.3837000000 0.1287000000
0.7588000000 1.9458000000 1.4355000000
0.7583000000 2.1571000000 1.5268000000
0.7578000000 7.0172000000 0.4533000000
0.7572000000 5.3639000000 1.5559000000
0.7570000000 6.2095000000 1.1498000000
0.7568000000 6.3565000000 1.0476000000
0.7567000000 5.6232000000 1.4302000000
0.7564000000 5.9549000000 1.2860000000
0.7561000000 1.5176000000 1.2397000000
0.7558000000 3.3199000000 2.0553000000
0.7556000000 4.2843000000 2.0386000000
0.7551000000 0.0416000000 0.0745000000
0.7548000000 5.7914000000 1.3569000000
0.7546000000 1.1954000000 1.0417000000
0.7545000000 7.0087000000 0.4661000000
0.7543000000 7.4958000000 0.1029000000
0.7541000000 0.3807000000 0.3010000000
0.7540000000 1.8546000000 1.3860000000
0.7535000000 4.1032000000 2.1192000000
0.7532000000 7.1753000000 0.3196000000
0.7528000000 1.9600000000 1.4331000000
0.7525000000 2.6577000000 1.7522000000
0.7523000000 2.0542000000 1.4756000000
0.7520000000 5.2383000000 1.6043000000
0.7515000000 3.2082000000 1.9956000000
0.7514000000 0.1649000000 0.1092000000
0.7511000000 1.6272000000 1.2822000000
0.7508000000 5.2623000000 1.5897000000
0.7505000000 3.7784000000 2.3192000000
0.7500000000 5.2324000000 1.5988000000
0.7494000000 3.2095000000 2.0003000000
0.7488000000 5.7083000000 1.3890000000
0.7484000000 6.5736000000 0.8635000000
0.7475000000 0.7048000000 0.6005000000
0.7462000000 0.9413000000 0.8092000000
0.7447000000 2.7645000000 1.7931000000
0.5119000000 3.5536000000 1.9640000000
0.5104000000 7.2015000000 0.2939000000
0.5102000000 4.4250000000 1.7785000000
0.5098000000 5.6853000000 1.2105000000
0.5093000000 5.3385000000 1.3688000000
0.5089000000 7.0503000000 0.4306000000
0.5086000000 6.1916000000 0.9789000000
0.5083000000 5.7010000000 1.2028000000
0.5077000000 1.4391000000 1.0023000000
0.5071000000 1.9830000000 1.2503000000
0.5064000000 7.0442000000 0.4310000000
0.5063000000 2.3507000000 1.4177000000
0.5058000000 6.0309000000 1.0557000000
0.5054000000 2.5535000000 1.5034000000
0.5053000000 3.4229000000 1.9025000000
0.5050000000 3.7592000000 2.1191000000
0.5047000000 3.6543000000 2.0093000000
0.5045000000 2.2247000000 1.3557000000
0.5042000000 3.2373000000 1.8200000000
0.5039000000 0.1168000000 0.1427000000
0.5037000000 2.4127000000 1.4469000000
0.5034000000 0.6441000000 0.5429000000
0.5033000000 7.4178000000 0.0975000000
0.5031000000 4.4577000000 1.7676000000
0.5029000000 5.3066000000 1.3741000000
0.5027000000 0.4322000000 0.3475000000
0.5025000000 3.5205000000 1.9466000000
0.5024000000 2.0484000000 1.2811000000
0.5021000000 3.1506000000 1.7754000000
0.5019000000 5.1786000000 1.4306000000
0.5014000000 2.7099000000 1.5816000000
0.5014000000 1.3390000000 0.9607000000
0.5012000000 0.5130000000 0.4259000000
0.5008000000 0.3351000000 0.2590000000
0.5006000000 3.4444000000 1.9149000000
0.5004000000 3.5151000000 1.9425000000
0.5002000000 0.2590000000 0.1933000000
0.4998000000 6.3582000000 0.8960000000
0.4996000000 1.3525000000 0.9670000000
0.4990000000 2.7339000000 1.5786000000
0.4984000000 0.3583000000 0.2810000000
0.4980000000 1.2116000000 0.8997000000
0.2622000000 6.1865000000 0.7858000000
0.2611000000 5.0121000000 1.3214000000
0.2604000000 6.8386000000 0.4854000000
0.2599000000 4.8006000000 1.4125000000
0.2593000000 4.9317000000 1.3572000000
0.2587000000 6.8154000000 0.5001000000
0.2578000000 6.3313000000 0.7208000000
0.2573000000 0.0224000000 0.0504000000
0.2570000000 6.0250000000 0.8628000000
0.2568000000 6.2086000000 0.7797000000
0.2566000000 2.9842000000 1.5130000000
0.2564000000 2.2088000000 1.1582000000
0.2560000000 2.8014000000 1.4229000000
0.2556000000 1.3498000000 0.7678000000
0.2555000000 6.9700000000 0.4299000000
0.2551000000 4.0149000000 1.7727000000
0.2548000000 0.4058000000 0.3882000000
0.2545000000 6.1850000000 0.7860000000
0.2540000000 1.5493000000 0.8569000000
0.2537000000 1.9192000000 1.0295000000
0.2535000000 4.1723000000 1.6922000000
0.2533000000 0.0293000000 0.0607000000
0.2531000000 6.0564000000 0.8444000000
0.2530000000 3.2301000000 1.6137000000
0.2527000000 0.5972000000 0.4231000000
0.2525000000 1.3795000000 0.7806000000
0.2520000000 1.1475000000 0.6765000000
0.2518000000 0.2319000000 0.1691000000
0.2516000000 1.8155000000 0.9724000000
0.2511000000 0.5292000000 0.4545000000
0.2509000000 0.4292000000 0.4116000000
0.2507000000 1.6350000000 0.8913000000
0.2505000000 4.5647000000 1.5123000000
0.2504000000 6.3343000000 0.7113000000
0.2496000000 1.4468000000 0.8079000000
0.2494000000 5.8377000000 0.9400000000
0.2487000000 5.4825000000 1.0959000000
0.2484000000 6.9565000000 0.4350000000
0.2478000000 0.4309000000 0.4073000000
0.2470000000 3.4252000000 1.7013000000
0.2466000000 0.3495000000 0.3362000000
0.2453000000 2.9057000000 1.4682000000
0.2438000000 3.8656000000 1.8342000000
0.0107000000 5.6010000000 0.8517000000
0.0102000000 5.9458000000 0.7055000000
0.0091000000 6.1531000000 0.6081000000
0.0087000000 4.5563000000 1.3289000000
0.0084000000 6.3601000000 0.5115000000
0.0078000000 4.3261000000 1.4340000000
0.0073000000 4.1438000000 1.5191000000
0.0071000000 3.6621000000 1.6262000000
0.0067000000 1.1302000000 0.4751000000
0.0065000000 2.7894000000 1.2245000000
0.0060000000 2.5108000000 1.1017000000
0.0058000000 5.1455000000 1.0583000000
0.0056000000 1.2916000000 0.5461000000
0.0053000000 6.7645000000 0.3250000000
0.0052000000 4.0401000000 1.5648000000
0.0051000000 4.3884000000 1.4022000000
0.0047000000 6.5216000000 0.4427000000
0.0046000000 1.2519000000 0.5262000000
0.0042000000 5.4389000000 0.9294000000
0.0039000000 3.0630000000 1.3508000000
0.0037000000 7.4674000000 0.0736000000
0.0035000000 3.7113000000 1.6436000000
0.0034000000 4.6283000000 1.2906000000
0.0031000000 3.4722000000 1.5353000000
0.0028000000 6.1618000000 0.5999000000
0.0027000000 2.4026000000 1.0443000000
0.0025000000 3.8194000000 1.7196000000
0.0023000000 4.4979000000 1.3505000000
0.0018000000 0.6285000000 0.2445000000
0.0013000000 1.1276000000 0.4694000000
0.0013000000 4.6224000000 1.2954000000
0.0010000000 2.7166000000 1.1846000000
0.0009000000 1.7422000000 0.7436000000
0.0007000000 1.7238000000 0.7397000000
0.0005000000 2.3446000000 1.0138000000
-0.0005000000 1.2279000000 0.5139000000
-0.0013000000 3.2728000000 1.4372000000
-0.0018000000 5.3735000000 0.9511000000
-0.0033000000 1.0832000000 0.4481000000
-0.0050000000 4.8506000000 1.1807000000
-0.2360000000 6.7649000000 0.1369000000
-0.2381000000 1.7615000000 0.5711000000
-0.2402000000 4.7311000000 1.0536000000
-0.2407000000 2.2199000000 0.7703000000
-0.2419000000 5.7167000000 0.6098000000
-0.2424000000 5.3333000000 0.7775000000
-0.2425000000 4.7001000000 1.0701000000
-0.2429000000 6.3107000000 0.3374000000
-0.2432000000 0.4586000000 0.0532000000
-0.2435000000 3.3712000000 1.2923000000
-0.2438000000 6.2641000000 0.3601000000
-0.2440000000 5.1897000000 0.8440000000
-0.2443000000 6.9627000000 0.1179000000
-0.2445000000 4.1854000000 1.2939000000
-0.2447000000 5.4166000000 0.7406000000
-0.2449000000 1.9383000000 0.6436000000
-0.2452000000 6.2750000000 0.3549000000
-0.2456000000 4.8487000000 0.9994000000
-0.2459000000 6.8661000000 0.0821000000
-0.2465000000 4.5685000000 1.1195000000
-0.2469000000 5.0242000000 0.9164000000
-0.2472000000 6.5447000000 0.2308000000
-0.2479000000 3.3458000000 1.2762000000
-0.2480000000 2.5317000000 0.9091000000
-0.2481000000 7.3327000000 0.0205000000
-0.2486000000 7.1944000000 0.0105000000
-0.2492000000 3.0907000000 1.1585000000
-0.2495000000 6.9404000000 0.1275000000
-0.2499000000 3.8781000000 1.4314000000
-0.2507000000 5.0102000000 0.9206000000
-0.2512000000 6.4032000000 0.2901000000
-0.2516000000 4.7701000000 1.0243000000
-0.2518000000 2.9631000000 1.0972000000
-0.2524000000 2.6062000000 0.9404000000
-0.2530000000 0.5503000000 0.0848000000
-0.2547000000 0.5059000000 0.0627000000
-0.4901000000 6.3490000000 0.1258000000
-0.4919000000 6.1665000000 0.2029000000
-0.4926000000 5.6524000000 0.4426000000
-0.4930000000 6.6894000000 0.0452000000
-0.4935000000 3.8489000000 1.2556000000
-0.4938000000 5.7988000000 0.3719000000
-0.4942000000 6.3212000000 0.1430000000
-0.4946000000 1.2752000000 0.1483000000
-0.4951000000 4.2559000000 1.0680000000
-0.4953000000 5.0695000000 0.7042000000
-0.4955000000 4.1163000000 1.1314000000
-0.4958000000 2.3463000000 0.6355000000
-0.4960000000 0.7142000000 0.0400000000
-0.4962000000 5.6733000000 0.4284000000
-0.4965000000 2.6276000000 0.7553000000
-0.4967000000 4.6242000000 0.9030000000
-0.4969000000 3.8354000000 1.2507000000
-0.4972000000 0.8070000000 0.0086000000
-0.4974000000 4.8465000000 0.8034000000
-0.4976000000 1.7800000000 0.3746000000
-0.4982000000 3.6562000000 1.2226000000
-0.4985000000 6.1099000000 0.2301000000
-0.4989000000 1.7815000000 0.3734000000
-0.4992000000 3.5267000000 1.1612000000
-0.4996000000 6.1503000000 0.2124000000
-0.4999000000 5.2944000000 0.5991000000
-0.5003000000 2.0244000000 0.4830000000
-0.5007000000 0.9027000000 0.0456000000
-0.5015000000 2.0900000000 0.5093000000
-0.5025000000 5.6504000000 0.4391000000
-0.7394000000 3.1885000000 0.8219000000
-0.7407000000 3.8475000000 1.0658000000
-0.7416000000 2.5159000000 0.5189000000
-0.7424000000 6.5195000000 0.0077000000
-0.7428000000 6.3595000000 0.0760000000
-0.7434000000 3.6782000000 1.0440000000
-0.7442000000 5.5876000000 0.2715000000
-0.7446000000 1.5246000000 0.1434000000
-0.7447000000 4.8619000000 0.5969000000
-0.7452000000 1.5235000000 0.1350000000
-0.7455000000 4.1599000000 0.9171000000
-0.7462000000 3.3938000000 0.9067000000
-0.7462000000 1.9063000000 0.2382000000
-0.7465000000 2.7044000000 0.5922000000
-0.7469000000 2.6384000000 0.5626000000
-0.7471000000 4.1137000000 0.9399000000
-0.7474000000 6.2790000000 0.0312000000
-0.7479000000 5.3552000000 0.3747000000
-0.7482000000 5.7265000000 0.2072000000
-0.7488000000 2.5150000000 0.5093000000
-0.7492000000 2.4155000000 0.4603000000
-0.7503000000 4.6044000000 0.7090000000
-0.7510000000 1.8232000000 0.1968000000
-0.7517000000 1.8246000000 0.1973000000
-0.7530000000 3.5679000000 0.9832000000
-0.9879000000 3.1134000000 0.5913000000
-0.9907000000 5.3426000000 0.1949000000
-0.9914000000 4.2415000000 0.6901000000
-0.9930000000 6.0115000000 0.0327000000
-0.9933000000 2.0675000000 0.1177000000
-0.9938000000 2.5313000000 0.3250000000
-0.9943000000 5.3759000000 0.1711000000
-0.9947000000 1.9283000000 0.1280000000
-0.9955000000 4.6739000000 0.4817000000
-0.9960000000 2.8472000000 0.4617000000
-0.9966000000 4.2848000000 0.6659000000
-0.9970000000 2.4912000000 0.3079000000
-0.9973000000 1.5167000000 0.0130000000
-0.9976000000 5.6377000000 0.1242000000
-0.9978000000 4.0376000000 0.7783000000
-0.9981000000 3.7522000000 0.9335000000
-0.9985000000 3.0786000000 0.5732000000
-0.9990000000 1.7138000000 0.0255000000
-0.9995000000 1.7040000000 0.0227000000
-1.0028000000 1.6399000000 0.0661000000
-1.0051000000 3.3502000000 0.6851000000
-1.2394000000 4.3065000000 0.4611000000
-1.2426000000 4.3890000000 0.4207000000
-1.2430000000 4.2494000000 0.4859000000
-1.2440000000 2.2264000000 0.0665000000
-1.2444000000 2.7381000000 0.2219000000
-1.2448000000 3.5528000000 0.5918000000
-1.2457000000 5.1739000000 0.1384000000
-1.2462000000 3.9048000000 0.6422000000
-1.2469000000 3.8606000000 0.6596000000
-1.2472000000 2.8590000000 0.2771000000
-1.2475000000 5.5735000000 0.0311000000
-1.2480000000 4.2347000000 0.4838000000
-1.2482000000 4.4536000000 0.3870000000
-1.2497000000 4.6286000000 0.3151000000
-1.2505000000 5.2753000000 0.0907000000
-1.2519000000 4.2101000000 0.4977000000
-1.2559000000 5.2513000000 0.0969000000
-1.4901000000 4.9241000000 0.0639000000
-1.4918000000 4.8103000000 0.1152000000
-1.4932000000 3.3561000000 0.3069000000
-1.4936000000 4.9235000000 0.0583000000
-1.4945000000 3.1908000000 0.2276000000
-1.4952000000 4.0500000000 0.3828000000
-1.4967000000 4.9015000000 0.0677000000
-1.4972000000 4.0278000000 0.3927000000
-1.4975000000 4.3087000000 0.2610000000
-1.4984000000 4.4017000000 0.2254000000
-1.4997000000 2.3904000000 0.0145000000
-1.5006000000 3.2942000000 0.2685000000
-1.5039000000 4.0056000000 0.3940000000
-1.7405000000 3.0785000000 0.0652000000
-1.7416000000 3.4806000000 0.1707000000
-1.7421000000 4.3958000000 0.1056000000
-1.7434000000 2.9293000000 0.0674000000
-1.7440000000 4.0243000000 0.1983000000
-1.7451000000 3.7677000000 0.3563000000
-1.7460000000 3.3086000000 0.0838000000
-1.7464000000 3.0667000000 0.0540000000
-1.7470000000 2.7956000000 0.0023000000
-1.7508000000 3.2054000000 0.1106000000
-1.9943000000 3.8706000000 0.0685000000
-1.9961000000 3.7448000000 0.1512000000
-1.9971000000 3.6397000000 0.1185000000
