4.2570000000 3.8037000000 0.3244000000
4.2569000000 4.1553000000 0.1965000000
4.2566000000 3.4721000000 0.4473000000
4.2565000000 4.5728000000 0.0449000000
4.2563000000 2.0385000000 0.2558000000
4.2561000000 1.9159000000 0.2152000000
4.2560000000 2.2836000000 0.3461000000
4.2559000000 3.2727000000 0.5166000000
4.2557000000 1.2758000000 0.0555000000
4.2557000000 2.0441000000 0.2570000000
4.2556000000 4.0913000000 0.2184000000
4.2555000000 3.3248000000 0.4989000000
4.2555000000 3.0197000000 0.5946000000
4.2555000000 4.3335000000 0.1337000000
4.2554000000 4.0592000000 0.2295000000
4.2554000000 3.6569000000 0.3802000000
4.2552000000 3.2190000000 0.5329000000
4.2552000000 2.1874000000 0.3118000000
4.2548000000 4.5845000000 0.0459000000
4.2546000000 3.6666000000 0.3756000000
4.2546000000 4.5749000000 0.0521000000
4.2545000000 3.6902000000 0.3664000000
4.2544000000 4.0462000000 0.2321000000
4.2543000000 1.4909000000 0.0615000000
4.2542000000 3.6326000000 0.3896000000
4.2542000000 3.3252000000 0.5011000000
4.2540000000 1.5327000000 0.0783000000
4.2540000000 1.5566000000 0.0870000000
4.2538000000 4.8754000000 0.0164000000
4.2538000000 3.9729000000 0.2637000000
4.2537000000 4.2109000000 0.1796000000
4.2536000000 1.8700000000 0.1936000000
4.2535000000 4.7339000000 0.0662000000
4.2531000000 3.6452000000 0.3796000000
4.2530000000 3.9124000000 0.2853000000
4.2528000000 3.6709000000 0.3773000000
4.2528000000 3.5129000000 0.4369000000
4.2524000000 4.6335000000 0.0236000000
4.2523000000 1.3599000000 0.0151000000
4.2522000000 3.4390000000 0.4575000000
4.2520000000 4.8952000000 0.0031000000
4.2520000000 2.9900000000 0.5963000000
4.2518000000 1.9997000000 0.2440000000
4.2516000000 2.4736000000 0.4198000000
4.2510000000 3.0526000000 0.5855000000
4.2508000000 4.7465000000 0.0552000000
4.2507000000 2.7014000000 0.5049000000
4.2502000000 1.6109000000 0.1098000000
4.2497000000 1.3108000000 0.0747000000
4.2490000000 3.9660000000 0.2706000000
4.2473000000 2.0239000000 0.2607000000
4.2449000000 1.3778000000 0.0308000000
4.0109000000 4.1198000000 0.3643000000
4.0102000000 2.4952000000 0.5761000000
4.0088000000 4.3204000000 0.2975000000
4.0080000000 2.7815000000 0.6799000000
4.0077000000 4.2145000000 0.3367000000
4.0072000000 4.2090000000 0.3298000000
4.0070000000 2.5766000000 0.6052000000
4.0067000000 5.1479000000 0.0689000000
4.0066000000 3.9167000000 0.4381000000
4.0065000000 5.1147000000 0.0844000000
4.0061000000 4.8778000000 0.0934000000
4.0059000000 2.8049000000 0.6934000000
4.0058000000 5.2071000000 0.0489000000
4.0057000000 4.4686000000 0.2403000000
4.0052000000 1.2264000000 0.1192000000
4.0051000000 1.8676000000 0.3553000000
4.0050000000 3.5657000000 0.5665000000
4.0050000000 1.7454000000 0.3051000000
4.0049000000 4.4065000000 0.2639000000
4.0048000000 0.8234000000 0.0501000000
4.0044000000 1.2580000000 0.1391000000
4.0042000000 1.3026000000 0.1535000000
4.0040000000 3.4806000000 0.6028000000
4.0040000000 1.4622000000 0.2129000000
4.0039000000 1.1630000000 0.1031000000
4.0039000000 3.3294000000 0.6471000000
4.0038000000 1.2741000000 0.1380000000
4.0038000000 1.4857000000 0.2156000000
4.0033000000 3.8021000000 0.4845000000
4.0032000000 0.7903000000 0.0463000000
4.0031000000 3.3538000000 0.6440000000
4.0030000000 2.3040000000 0.5146000000
4.0030000000 3.2359000000 0.6911000000
4.0025000000 2.6857000000 0.6518000000
4.0025000000 1.4092000000 0.1914000000
4.0023000000 3.5368000000 0.5797000000
4.0023000000 3.3168000000 0.6610000000
4.0016000000 1.7585000000 0.3131000000
4.0012000000 1.9309000000 0.3770000000
4.0009000000 1.8179000000 0.3374000000
4.0008000000 4.9142000000 0.0801000000
4.0004000000 5.2016000000 0.0591000000
4.0005000000 3.6285000000 0.5466000000
4.0001000000 5.1712000000 0.0638000000
3.9997000000 2.0115000000 0.4106000000
3.9995000000 4.7272000000 0.1506000000
3.9993000000 2.0184000000 0.4085000000
3.9992000000 4.0850000000 0.3841000000
3.9990000000 3.3967000000 0.6323000000
3.9988000000 3.5559000000 0.5736000000
3.9988000000 4.8972000000 0.0878000000
3.9977000000 3.5965000000 0.5649000000
3.9975000000 0.8469000000 0.0671000000
3.9973000000 1.4786000000 0.2177000000
3.9973000000 0.7751000000 0.0423000000
3.9966000000 1.1752000000 0.1126000000
3.7629000000 5.1520000000 0.1491000000
3.7621000000 5.0598000000 0.1751000000
3.7615000000 4.5536000000 0.3602000000
3.7608000000 5.4630000000 0.0328000000
3.7599000000 3.8566000000 0.6143000000
3.7590000000 3.9569000000 0.5810000000
3.7589000000 1.8824000000 0.5189000000
3.7587000000 1.3103000000 0.3067000000
3.7579000000 4.6304000000 0.3396000000
3.7576000000 3.0168000000 0.9086000000
3.7575000000 1.9804000000 0.5553000000
3.7572000000 2.2081000000 0.6281000000
3.7571000000 2.1294000000 0.6012000000
3.7568000000 5.5464000000 0.0796000000
3.7567000000 0.4992000000 0.0193000000
3.7564000000 2.6841000000 0.8000000000
3.7564000000 1.7175000000 0.4558000000
3.7563000000 5.4962000000 0.0268000000
3.7563000000 1.5629000000 0.3940000000
3.7561000000 5.2054000000 0.1337000000
3.7560000000 4.8944000000 0.2418000000
3.7559000000 0.6629000000 0.0787000000
3.7558000000 1.9126000000 0.5270000000
3.7556000000 3.8051000000 0.6357000000
3.7556000000 3.9053000000 0.5997000000
3.7555000000 3.8604000000 0.6170000000
3.7552000000 3.4335000000 0.7659000000
3.7547000000 3.2574000000 0.8393000000
3.7545000000 4.0580000000 0.5481000000
3.7545000000 2.4993000000 0.7446000000
3.7544000000 0.3095000000 0.0225000000
3.7543000000 0.8591000000 0.1429000000
3.7543000000 0.3556000000 0.0388000000
3.7539000000 1.5269000000 0.3911000000
3.7539000000 0.8295000000 0.1394000000
3.7538000000 4.7274000000 0.3063000000
3.7537000000 0.9490000000 0.1856000000
3.7535000000 2.2297000000 0.6381000000
3.7532000000 2.0985000000 0.5963000000
3.7530000000 1.8529000000 0.5075000000
3.7528000000 5.0753000000 0.1787000000
3.7525000000 2.9119000000 0.8899000000
3.7525000000 4.8704000000 0.2527000000
3.7520000000 1.8488000000 0.5092000000
3.7519000000 3.2656000000 0.8323000000
3.7516000000 4.3302000000 0.4528000000
3.7514000000 3.0695000000 0.9022000000
3.7514000000 0.8302000000 0.1378000000
3.7508000000 1.5905000000 0.4112000000
3.7506000000 1.2339000000 0.2813000000
3.7504000000 0.5834000000 0.0511000000
3.7503000000 3.8283000000 0.6306000000
3.7502000000 0.5935000000 0.0510000000
3.7496000000 4.4914000000 0.3956000000
3.7495000000 1.7648000000 0.4726000000
3.7493000000 0.4982000000 0.0163000000
3.7485000000 0.5439000000 0.0388000000
3.7481000000 0.6028000000 0.0597000000
3.7480000000 1.7594000000 0.4796000000
3.7479000000 0.2971000000 0.0233000000
3.5117000000 4.3485000000 0.5973000000
3.5111000000 1.2977000000 0.4599000000
3.5108000000 1.6390000000 0.5851000000
3.5107000000 1.0831000000 0.3866000000
3.5105000000 3.3705000000 0.9444000000
3.5088000000 5.6194000000 0.1285000000
3.5087000000 4.0341000000 0.7015000000
3.5085000000 4.5757000000 0.5155000000
3.5085000000 1.2635000000 0.4460000000
3.5085000000 2.8878000000 1.0396000000
3.5084000000 5.1818000000 0.2939000000
3.5081000000 1.1346000000 0.4041000000
3.5080000000 4.6740000000 0.4816000000
3.5077000000 3.3739000000 0.9506000000
3.5076000000 4.1785000000 0.6558000000
3.5076000000 3.1004000000 1.0448000000
3.5075000000 4.0810000000 0.6897000000
3.5075000000 1.8888000000 0.6720000000
3.5075000000 3.3927000000 0.9425000000
3.5073000000 3.3052000000 0.9721000000
3.5072000000 0.7979000000 0.2784000000
3.5070000000 3.1974000000 1.0115000000
3.5069000000 5.2791000000 0.2585000000
3.5069000000 0.9051000000 0.3171000000
3.5068000000 3.3000000000 0.9731000000
3.5066000000 5.1260000000 0.3178000000
3.5065000000 3.2473000000 0.9899000000
3.5063000000 5.9481000000 0.0180000000
3.5062000000 2.2549000000 0.8082000000
3.5061000000 5.8549000000 0.0507000000
3.5060000000 1.7385000000 0.6212000000
3.5059000000 3.4153000000 0.9322000000
3.5058000000 3.3039000000 0.9729000000
3.5056000000 4.8041000000 0.4275000000
3.5055000000 2.9004000000 1.0421000000
3.5054000000 3.8663000000 0.7669000000
3.5053000000 4.8707000000 0.4073000000
3.5051000000 5.3405000000 0.2424000000
3.5051000000 0.8341000000 0.3000000000
3.5050000000 5.7534000000 0.0881000000
3.5048000000 5.7364000000 0.0976000000
3.5047000000 0.2495000000 0.0817000000
3.5045000000 2.5294000000 0.9076000000
3.5045000000 0.4021000000 0.1382000000
3.5044000000 1.5417000000 0.5501000000
3.5044000000 0.3931000000 0.1386000000
3.5043000000 2.0549000000 0.7360000000
3.5043000000 1.2989000000 0.4632000000
3.5040000000 1.8020000000 0.6427000000
3.5035000000 2.4754000000 0.8873000000
3.5035000000 1.5627000000 0.5568000000
3.5033000000 3.9896000000 0.7253000000
3.5033000000 0.8248000000 0.2953000000
3.5032000000 3.9421000000 0.7406000000
3.5032000000 4.6231000000 0.5009000000
3.5030000000 4.1319000000 0.6707000000
3.5030000000 1.1008000000 0.3917000000
3.5030000000 4.8998000000 0.3998000000
3.5029000000 2.9691000000 1.0528000000
3.5028000000 3.3195000000 0.9703000000
3.5027000000 0.1091000000 0.0346000000
3.5025000000 0.1118000000 0.0338000000
3.5025000000 1.8968000000 0.6781000000
3.5024000000 2.0974000000 0.7547000000
3.5023000000 4.3054000000 0.6162000000
3.5023000000 0.3040000000 0.1033000000
3.5021000000 4.8396000000 0.4241000000
3.5021000000 4.9888000000 0.3653000000
3.5019000000 1.2237000000 0.4336000000
3.5018000000 4.5843000000 0.5140000000
3.5015000000 4.6356000000 0.4947000000
3.5014000000 3.9144000000 0.7538000000
3.5013000000 3.0831000000 1.0588000000
3.5013000000 4.5777000000 0.5158000000
3.5011000000 1.6163000000 0.5773000000
3.5010000000 3.7999000000 0.7984000000
3.5010000000 1.4727000000 0.5286000000
3.5008000000 1.4401000000 0.5118000000
3.5008000000 0.2850000000 0.0994000000
3.5007000000 5.0847000000 0.3321000000
3.5007000000 3.4241000000 0.9352000000
3.5005000000 0.1961000000 0.0644000000
3.5003000000 0.1200000000 0.0391000000
3.5002000000 4.5910000000 0.5167000000
3.5002000000 1.4648000000 0.5278000000
3.4999000000 0.1563000000 0.0541000000
3.4998000000 3.2338000000 1.0033000000
3.4997000000 1.9821000000 0.7120000000
3.4995000000 1.6233000000 0.5859000000
3.4995000000 2.9374000000 1.0549000000
3.4993000000 0.4851000000 0.1753000000
3.4992000000 0.0391000000 0.0699000000
3.4989000000 2.0514000000 0.7369000000
3.4983000000 1.9587000000 0.7023000000
3.4982000000 2.7678000000 1.0006000000
3.4980000000 2.8259000000 1.0190000000
3.4962000000 1.3236000000 0.4745000000
3.4957000000 1.7491000000 0.6277000000
3.4956000000 0.9190000000 0.3284000000
3.4938000000 2.0378000000 0.7323000000
3.4931000000 3.1625000000 1.0333000000
3.2604000000 1.8729000000 0.8291000000
3.2603000000 5.7191000000 0.2140000000
3.2598000000 2.9371000000 1.2024000000
3.2598000000 4.9370000000 0.5322000000
3.2597000000 2.5263000000 1.0568000000
3.2591000000 2.2248000000 0.9460000000
3.2591000000 2.6521000000 1.1029000000
3.2588000000 3.7533000000 0.9699000000
3.2586000000 5.5041000000 0.3388000000
3.2580000000 1.1076000000 0.5498000000
3.2579000000 1.1344000000 0.5635000000
3.2579000000 0.5726000000 0.3509000000
3.2576000000 5.6817000000 0.2448000000
3.2570000000 5.1354000000 0.4677000000
3.2568000000 5.4712000000 0.3486000000
3.2566000000 4.5091000000 0.6924000000
3.2558000000 0.0527000000 0.0511000000
3.2558000000 1.2641000000 0.6047000000
3.2556000000 4.7378000000 0.6082000000
3.2555000000 5.2825000000 0.4166000000
3.2553000000 5.5237000000 0.3224000000
3.2552000000 3.7484000000 0.9682000000
3.2550000000 1.2574000000 0.6098000000
3.2548000000 3.8774000000 0.9269000000
3.2546000000 2.7572000000 1.1411000000
3.2543000000 1.1458000000 0.5608000000
3.2542000000 0.5010000000 0.3319000000
3.2540000000 4.2487000000 0.7906000000
3.2539000000 3.3459000000 1.1168000000
3.2537000000 5.6986000000 0.2340000000
3.2536000000 3.1116000000 1.1996000000
3.2536000000 3.8063000000 0.9482000000
3.2535000000 4.2318000000 0.7968000000
3.2533000000 2.7499000000 1.1420000000
3.2531000000 2.3591000000 1.0022000000
3.2530000000 1.4664000000 0.6754000000
3.2530000000 2.7862000000 1.1594000000
3.2529000000 1.4663000000 0.6791000000
3.2528000000 4.6243000000 0.6554000000
3.2528000000 0.1886000000 0.1456000000
3.2525000000 1.2864000000 0.6182000000
3.2525000000 0.4390000000 0.2933000000
3.2522000000 2.8025000000 1.1652000000
3.2522000000 5.1578000000 0.4601000000
3.2520000000 2.4234000000 1.0302000000
3.2518000000 3.4215000000 1.0888000000
3.2518000000 2.7084000000 1.1268000000
3.2517000000 4.6474000000 0.6515000000
3.2516000000 1.5565000000 0.7181000000
3.2515000000 5.4233000000 0.3629000000
3.2511000000 0.0231000000 0.0228000000
3.2511000000 3.1971000000 1.1699000000
3.2510000000 0.5171000000 0.3386000000
3.2509000000 2.9183000000 1.2050000000
3.2509000000 0.4165000000 0.2970000000
3.2508000000 0.1650000000 0.1275000000
3.2507000000 4.5280000000 0.6959000000
3.2506000000 4.6427000000 0.6542000000
3.2506000000 5.3658000000 0.3955000000
3.2504000000 0.2187000000 0.1681000000
3.2503000000 0.1323000000 0.1027000000
3.2502000000 5.8323000000 0.1481000000
3.2495000000 3.2176000000 1.1611000000
3.2494000000 3.0921000000 1.2113000000
3.2493000000 4.3291000000 0.7631000000
3.2480000000 1.7315000000 0.7745000000
3.2471000000 1.2609000000 0.6115000000
3.2454000000 2.6285000000 1.1020000000
3.0145000000 5.6991000000 0.2456000000
3.0120000000 2.5822000000 1.2345000000
3.0110000000 1.7745000000 0.9394000000
3.0108000000 4.2580000000 0.9371000000
3.0101000000 3.8520000000 1.0867000000
3.0101000000 5.7543000000 0.2022000000
3.0096000000 3.5542000000 1.1884000000
3.0095000000 3.8075000000 1.1051000000
3.0086000000 3.0039000000 1.3754000000
3.0085000000 5.5703000000 0.3428000000
3.0084000000 5.9399000000 0.0756000000
3.0083000000 3.7954000000 1.1111000000
3.0080000000 1.9037000000 0.9938000000
3.0076000000 5.5027000000 0.3893000000
3.0075000000 5.0094000000 0.6711000000
3.0073000000 0.9567000000 0.6500000000
3.0073000000 5.3686000000 0.4870000000
3.0072000000 6.0100000000 0.0224000000
3.0071000000 4.1625000000 0.9793000000
3.0070000000 2.7265000000 1.2858000000
3.0069000000 5.7733000000 0.1896000000
3.0068000000 4.6645000000 0.7932000000
3.0067000000 1.9595000000 1.0168000000
3.0066000000 5.4931000000 0.3933000000
3.0062000000 4.3748000000 0.9030000000
3.0061000000 0.5788000000 0.4312000000
3.0058000000 2.9396000000 1.3629000000
3.0056000000 0.7444000000 0.5339000000
3.0055000000 0.8318000000 0.5946000000
3.0054000000 5.9714000000 0.0542000000
3.0053000000 2.3509000000 1.1562000000
3.0053000000 2.4909000000 1.2063000000
3.0053000000 1.6682000000 0.9101000000
3.0052000000 4.4550000000 0.8692000000
3.0047000000 4.8941000000 0.7132000000
3.0046000000 2.1533000000 1.0846000000
3.0044000000 2.8626000000 1.3446000000
3.0043000000 5.9414000000 0.0697000000
3.0042000000 0.6600000000 0.4814000000
3.0043000000 5.7045000000 0.2419000000
3.0040000000 1.4489000000 0.8307000000
3.0040000000 0.8361000000 0.5941000000
3.0040000000 1.3957000000 0.8068000000
3.0039000000 3.2300000000 1.3172000000
3.0038000000 4.6686000000 0.7971000000
3.0037000000 2.0581000000 1.0470000000
3.0036000000 1.8776000000 0.9784000000
3.0035000000 1.5046000000 0.8511000000
3.0035000000 4.4249000000 0.8901000000
3.0033000000 2.7663000000 1.3080000000
3.0029000000 4.5963000000 0.8188000000
3.0028000000 3.2393000000 1.3113000000
3.0026000000 0.8461000000 0.6049000000
3.0025000000 2.3149000000 1.1370000000
3.0023000000 5.4107000000 0.4560000000
3.0021000000 0.7573000000 0.5517000000
3.0018000000 1.1666000000 0.7345000000
3.0015000000 2.0784000000 1.0574000000
3.0015000000 1.2270000000 0.7456000000
3.0014000000 1.0745000000 0.6988000000
3.0013000000 2.1904000000 1.1031000000
3.0012000000 2.0624000000 1.0500000000
3.0011000000 0.2759000000 0.2062000000
3.0010000000 3.1076000000 1.3574000000
3.0008000000 1.6480000000 0.9052000000
3.0008000000 2.0074000000 1.0353000000
3.0005000000 0.9291000000 0.6408000000
3.0002000000 3.0613000000 1.3691000000
3.0002000000 1.5434000000 0.8654000000
2.9999000000 5.0228000000 0.6724000000
2.9998000000 1.6956000000 0.9176000000
2.9996000000 0.2592000000 0.2000000000
2.9995000000 4.4017000000 0.8941000000
2.9993000000 3.4209000000 1.2482000000
2.9992000000 2.0184000000 1.0456000000
2.9990000000 3.8821000000 1.0765000000
2.9988000000 0.9363000000 0.6531000000
2.9983000000 2.3204000000 1.1477000000
2.9980000000 5.6677000000 0.2752000000
2.9979000000 2.2327000000 1.1152000000
2.9978000000 3.5910000000 1.1896000000
2.9973000000 4.0259000000 1.0257000000
2.9970000000 1.7705000000 0.9502000000
2.9958000000 3.9014000000 1.0735000000
2.7618000000 4.9680000000 0.7731000000
2.7618000000 4.6130000000 0.9696000000
2.7616000000 4.8646000000 0.8306000000
2.7615000000 4.9534000000 0.7829000000
2.7614000000 5.8828000000 0.1156000000
2.7611000000 5.0112000000 0.7392000000
2.7610000000 4.9503000000 0.7795000000
2.7605000000 2.8154000000 1.4720000000
2.7602000000 3.2223000000 1.4674000000
2.7601000000 4.8497000000 0.8401000000
2.7600000000 6.0201000000 0.0909000000
2.7598000000 1.1283000000 0.8269000000
2.7593000000 1.9213000000 1.1531000000
2.7591000000 5.0183000000 0.7323000000
2.7590000000 5.0408000000 0.7239000000
2.7587000000 4.2224000000 1.1118000000
2.7586000000 2.6555000000 1.4179000000
2.7585000000 4.4660000000 1.0196000000
2.7584000000 1.4034000000 0.9722000000
2.7582000000 5.9806000000 0.0433000000
2.7582000000 3.4868000000 1.3766000000
2.7581000000 2.7571000000 1.4547000000
2.7580000000 1.5438000000 1.0171000000
2.7572000000 6.0267000000 0.0821000000
2.7572000000 5.8200000000 0.1591000000
2.7571000000 4.8062000000 0.8784000000
2.7570000000 5.9546000000 0.0611000000
2.7568000000 2.7456000000 1.4522000000
2.7567000000 5.6471000000 0.2779000000
2.7565000000 5.8496000000 0.1348000000
2.7565000000 2.2817000000 1.2845000000
2.7564000000 5.1742000000 0.6241000000
2.7564000000 1.5724000000 1.0274000000
2.7561000000 5.3096000000 0.5258000000
2.7562000000 5.8943000000 0.1059000000
2.7557000000 0.4329000000 0.3211000000
2.7556000000 4.9082000000 0.8194000000
2.7555000000 1.6697000000 1.0658000000
2.7555000000 5.5152000000 0.3778000000
2.7555000000 4.6312000000 0.9631000000
2.7553000000 3.4413000000 1.3941000000
2.7552000000 5.9148000000 0.0813000000
2.7553000000 4.4525000000 1.0265000000
2.7551000000 2.7595000000 1.4538000000
2.7550000000 4.8034000000 0.8793000000
2.7549000000 4.9813000000 0.7639000000
2.7548000000 3.0368000000 1.5244000000
2.7545000000 4.4450000000 1.0329000000
2.7543000000 1.7770000000 1.1133000000
2.7543000000 5.7421000000 0.2158000000
2.7542000000 1.3434000000 0.9411000000
2.7541000000 0.7990000000 0.5855000000
2.7540000000 2.2989000000 1.2898000000
2.7540000000 4.5759000000 0.9859000000
2.7539000000 3.3768000000 1.4208000000
2.7538000000 0.1069000000 0.0840000000
2.7534000000 4.0565000000 1.1762000000
2.7533000000 1.6617000000 1.0651000000
2.7532000000 0.1075000000 0.0886000000
2.7532000000 0.3047000000 0.2307000000
2.7531000000 3.4489000000 1.3949000000
2.7530000000 2.5792000000 1.3986000000
2.7530000000 3.6233000000 1.3343000000
2.7529000000 4.9021000000 0.8209000000
2.7528000000 1.6834000000 1.0756000000
2.7527000000 2.3388000000 1.3071000000
2.7525000000 0.3674000000 0.2820000000
2.7524000000 0.7914000000 0.5836000000
2.7524000000 2.7952000000 1.4768000000
2.7522000000 0.9455000000 0.6933000000
2.7521000000 4.9119000000 0.8104000000
2.7521000000 0.2398000000 0.1869000000
2.7520000000 5.1183000000 0.6577000000
2.7520000000 3.1378000000 1.4996000000
2.7519000000 5.7326000000 0.2231000000
2.7518000000 1.9923000000 1.1814000000
2.7515000000 1.0233000000 0.7456000000
2.7515000000 0.5942000000 0.4404000000
2.7512000000 5.1748000000 0.6251000000
2.7509000000 5.6195000000 0.3006000000
2.7508000000 6.0354000000 0.0741000000
2.7508000000 1.1802000000 0.8493000000
2.7503000000 4.5673000000 0.9921000000
2.7501000000 1.9121000000 1.1543000000
2.7501000000 5.2561000000 0.5604000000
2.7500000000 1.3901000000 0.9619000000
2.7499000000 3.1134000000 1.5111000000
2.7497000000 1.2174000000 0.8799000000
2.7496000000 0.6887000000 0.5079000000
2.7496000000 0.1620000000 0.1300000000
2.7494000000 0.6031000000 0.4469000000
2.7493000000 3.0806000000 1.5261000000
2.7492000000 2.9569000000 1.5310000000
2.7486000000 3.7043000000 1.2996000000
2.7483000000 4.7062000000 0.9357000000
2.7471000000 0.4251000000 0.3191000000
2.7470000000 3.0660000000 1.5315000000
2.7458000000 1.8357000000 1.1333000000
2.5118000000 5.4045000000 0.4535000000
2.5114000000 5.7420000000 0.2127000000
2.5113000000 3.3754000000 1.5722000000
2.5108000000 4.6649000000 0.9954000000
2.5103000000 4.5195000000 1.0911000000
2.5096000000 5.1074000000 0.6682000000
2.5093000000 1.0629000000 0.7754000000
2.5092000000 3.5565000000 1.5050000000
2.5084000000 0.8763000000 0.6448000000
2.5082000000 2.5517000000 1.5425000000
2.5080000000 3.9583000000 1.3623000000
2.5076000000 4.3475000000 1.1995000000
2.5075000000 5.3547000000 0.4961000000
2.5073000000 1.7926000000 1.2657000000
2.5070000000 5.1028000000 0.6728000000
2.5068000000 3.5075000000 1.5275000000
2.5064000000 1.4988000000 1.0934000000
2.5063000000 4.9077000000 0.8139000000
2.5060000000 3.7881000000 1.4272000000
2.5058000000 3.6702000000 1.4666000000
2.5057000000 5.8577000000 0.1295000000
2.5055000000 4.1377000000 1.2995000000
2.5054000000 4.6189000000 1.0248000000
2.5053000000 3.3802000000 1.5726000000
2.5053000000 2.8709000000 1.6590000000
2.5052000000 5.7843000000 0.1816000000
2.5052000000 3.1084000000 1.6714000000
2.5049000000 4.7778000000 0.9093000000
2.5048000000 4.7646000000 0.9225000000
2.5048000000 2.0595000000 1.3652000000
2.5047000000 5.3738000000 0.4807000000
2.5046000000 2.2445000000 1.4278000000
2.5044000000 1.0875000000 0.7925000000
2.5043000000 2.4633000000 1.5059000000
2.5040000000 3.2989000000 1.6068000000
2.5039000000 4.1440000000 1.2920000000
2.5039000000 5.0150000000 0.7359000000
2.5033000000 0.3509000000 0.2594000000
2.5030000000 1.2227000000 0.8948000000
2.5030000000 5.3663000000 0.4829000000
2.5028000000 3.0007000000 1.6915000000
2.5028000000 4.2748000000 1.2376000000
2.5028000000 4.2986000000 1.2329000000
2.5023000000 3.8628000000 1.3994000000
2.5022000000 2.1917000000 1.4176000000
2.5021000000 1.4950000000 1.0924000000
2.5021000000 1.9072000000 1.3108000000
2.5018000000 3.9725000000 1.3610000000
2.5015000000 0.5926000000 0.4362000000
2.5014000000 1.6245000000 1.1729000000
2.5013000000 4.8586000000 0.8516000000
2.5010000000 3.5966000000 1.4993000000
2.5009000000 4.6741000000 0.9854000000
2.5008000000 2.8641000000 1.6518000000
2.5008000000 4.6645000000 0.9943000000
2.5007000000 0.3394000000 0.2582000000
2.5004000000 0.2677000000 0.2115000000
2.5002000000 5.4682000000 0.4117000000
2.4999000000 4.4653000000 1.1417000000
2.4998000000 5.4650000000 0.4117000000
2.4996000000 4.6601000000 0.9945000000
2.4995000000 2.1108000000 1.3803000000
2.4994000000 3.9550000000 1.3672000000
2.4993000000 0.3199000000 0.2446000000
2.4993000000 2.3736000000 1.4842000000
2.4990000000 1.8618000000 1.2905000000
2.4990000000 2.6523000000 1.5843000000
2.4990000000 1.8289000000 1.2803000000
2.4987000000 0.3707000000 0.2788000000
2.4985000000 1.7779000000 1.2528000000
2.4985000000 1.0327000000 0.7541000000
2.4978000000 1.5363000000 1.1196000000
2.4970000000 1.8876000000 1.3035000000
2.4966000000 1.9495000000 1.3271000000
2.4961000000 0.8696000000 0.6424000000
2.4959000000 0.1504000000 0.1194000000
2.2645000000 4.6475000000 1.0006000000
2.2623000000 1.8156000000 1.3233000000
2.2619000000 3.4851000000 1.6870000000
2.2610000000 3.6339000000 1.6354000000
2.2606000000 2.0297000000 1.4662000000
2.2602000000 5.1805000000 0.6194000000
2.2597000000 4.8049000000 0.8832000000
2.2593000000 1.2550000000 0.9210000000
2.2590000000 2.9368000000 1.8329000000
2.2587000000 1.2858000000 0.9424000000
2.2585000000 1.0135000000 0.7400000000
2.2583000000 2.1919000000 1.5553000000
2.2579000000 1.6441000000 1.2042000000
2.2578000000 3.5662000000 1.6594000000
2.2577000000 6.0057000000 0.0232000000
2.2575000000 5.9861000000 0.0384000000
2.2572000000 4.7978000000 0.8998000000
2.2568000000 5.2071000000 0.6056000000
2.2566000000 1.2030000000 0.8805000000
2.2564000000 1.3181000000 0.9590000000
2.2562000000 3.7547000000 1.5926000000
2.2560000000 1.1527000000 0.8449000000
2.2560000000 3.4574000000 1.7025000000
2.2560000000 1.1609000000 0.8484000000
2.2557000000 2.7586000000 1.7702000000
2.2557000000 5.2070000000 0.5983000000
2.2555000000 5.8149000000 0.1611000000
2.2555000000 1.5111000000 1.0971000000
2.2553000000 3.4067000000 1.7196000000
2.2553000000 4.3902000000 1.1896000000
2.2552000000 5.7844000000 0.1888000000
2.2549000000 3.3552000000 1.7350000000
2.2548000000 2.2896000000 1.6071000000
2.2548000000 3.6252000000 1.6410000000
2.2547000000 5.6459000000 0.2813000000
2.2547000000 3.2333000000 1.7779000000
2.2546000000 5.8862000000 0.1119000000
2.2543000000 0.7645000000 0.5678000000
2.2542000000 2.0192000000 1.4597000000
2.2541000000 3.9889000000 1.4659000000
2.2541000000 1.4845000000 1.0824000000
2.2540000000 3.5868000000 1.6499000000
2.2539000000 4.5695000000 1.0545000000
2.2537000000 0.2039000000 0.1612000000
2.2536000000 5.9625000000 0.0549000000
2.2535000000 3.2485000000 1.7789000000
2.2535000000 1.8122000000 1.3223000000
2.2534000000 1.0766000000 0.7853000000
2.2534000000 5.8168000000 0.1598000000
2.2528000000 4.3673000000 1.2062000000
2.2529000000 5.3007000000 0.5334000000
2.2528000000 1.5621000000 1.1389000000
2.2526000000 0.4469000000 0.3388000000
2.2525000000 0.9297000000 0.6804000000
2.2524000000 4.5525000000 1.0712000000
2.2526000000 3.8385000000 1.5589000000
2.2523000000 2.9612000000 1.8380000000
2.2521000000 5.5974000000 0.3217000000
2.2520000000 2.8547000000 1.8062000000
2.2519000000 0.6996000000 0.5260000000
2.2518000000 3.9158000000 1.5232000000
2.2516000000 0.7963000000 0.5927000000
2.2516000000 1.8523000000 1.3483000000
2.2515000000 3.6778000000 1.6276000000
2.2515000000 3.5273000000 1.6738000000
2.2515000000 4.4181000000 1.1728000000
2.2514000000 1.4722000000 1.0702000000
2.2513000000 3.3383000000 1.7509000000
2.2513000000 4.6416000000 1.0069000000
2.2512000000 2.1522000000 1.5460000000
2.2512000000 0.1816000000 0.1388000000
2.2510000000 5.3400000000 0.5018000000
2.2510000000 5.9587000000 0.0546000000
2.2509000000 0.3438000000 0.2642000000
2.2508000000 5.8059000000 0.1674000000
2.2504000000 5.1403000000 0.6453000000
2.2500000000 2.3355000000 1.6250000000
2.2497000000 4.1448000000 1.3634000000
2.2497000000 2.4598000000 1.6612000000
2.2496000000 4.1207000000 1.3855000000
2.2496000000 2.6346000000 1.7279000000
2.2495000000 4.4013000000 1.1818000000
2.2495000000 1.8504000000 1.3447000000
2.2494000000 1.9831000000 1.4461000000
2.2488000000 4.2097000000 1.3180000000
2.2488000000 0.3014000000 0.2279000000
2.2482000000 4.4917000000 1.1140000000
2.2473000000 2.2169000000 1.5664000000
2.2462000000 1.8114000000 1.3158000000
2.2447000000 4.7013000000 0.9655000000
2.2405000000 0.3972000000 0.2966000000
2.0125000000 5.8970000000 0.1050000000
2.0120000000 4.7404000000 0.9336000000
2.0101000000 0.2501000000 0.1889000000
2.0097000000 4.7056000000 0.9586000000
2.0095000000 3.3930000000 1.8633000000
2.0094000000 3.1916000000 1.9524000000
2.0092000000 0.9295000000 0.6821000000
2.0091000000 3.4818000000 1.8329000000
2.0086000000 0.7578000000 0.5586000000
2.0084000000 4.9872000000 0.7604000000
2.0083000000 5.6239000000 0.2938000000
2.0082000000 4.7873000000 0.9047000000
2.0081000000 1.8320000000 1.3327000000
2.0079000000 5.3781000000 0.4819000000
2.0077000000 5.0198000000 0.7266000000
2.0076000000 3.4719000000 1.8389000000
2.0073000000 2.0728000000 1.5071000000
2.0072000000 4.5512000000 1.0660000000
2.0070000000 0.3453000000 0.2652000000
2.0067000000 0.3062000000 0.2319000000
2.0066000000 4.0896000000 1.4084000000
2.0064000000 6.0111000000 0.0150000000
2.0062000000 4.3850000000 1.1942000000
2.0060000000 0.7232000000 0.5351000000
2.0059000000 5.0260000000 0.7353000000
2.0057000000 4.7815000000 0.9031000000
2.0055000000 4.7603000000 0.9223000000
2.0054000000 3.7087000000 1.6846000000
2.0053000000 2.1662000000 1.5694000000
2.0053000000 2.7924000000 1.9423000000
2.0052000000 3.8963000000 1.5466000000
2.0051000000 2.6206000000 1.8655000000
2.0050000000 3.6885000000 1.6954000000
2.0050000000 0.0951000000 0.0786000000
2.0049000000 0.9390000000 0.6895000000
2.0050000000 4.2330000000 1.3042000000
2.0048000000 5.9414000000 0.0655000000
2.0046000000 4.3191000000 1.2411000000
2.0045000000 3.0362000000 1.9947000000
2.0044000000 4.7023000000 0.9679000000
2.0043000000 4.2808000000 1.2674000000
2.0042000000 5.1696000000 0.6227000000
2.0041000000 0.5998000000 0.4404000000
2.0040000000 2.0379000000 1.4872000000
2.0040000000 2.6555000000 1.8894000000
2.0038000000 2.8307000000 1.9560000000
2.0035000000 4.6298000000 1.0155000000
2.0034000000 0.5912000000 0.4353000000
2.0033000000 2.3171000000 1.6820000000
2.0033000000 5.4281000000 0.4429000000
2.0032000000 2.7434000000 1.9220000000
2.0030000000 0.5816000000 0.4388000000
2.0029000000 5.5193000000 0.3746000000
2.0028000000 4.6400000000 1.0169000000
2.0026000000 5.3521000000 0.4986000000
2.0025000000 3.6220000000 1.7455000000
2.0024000000 5.6026000000 0.3158000000
2.0023000000 2.7869000000 1.9400000000
2.0023000000 3.7230000000 1.6715000000
2.0023000000 3.2541000000 1.9324000000
2.0019000000 0.2147000000 0.1623000000
2.0017000000 2.2847000000 1.6641000000
2.0017000000 5.0393000000 0.7242000000
2.0015000000 0.0075000000 0.0204000000
2.0013000000 0.7384000000 0.5481000000
2.0012000000 0.8138000000 0.5940000000
2.0011000000 0.4963000000 0.3700000000
2.0011000000 2.4136000000 1.7543000000
2.0010000000 3.5353000000 1.7965000000
2.0005000000 0.0694000000 0.0609000000
2.0001000000 0.7938000000 0.5863000000
1.9997000000 0.7280000000 0.5411000000
1.9993000000 1.5608000000 1.1406000000
1.9992000000 1.1504000000 0.8401000000
1.9990000000 1.9913000000 1.4486000000
1.9989000000 3.7923000000 1.6205000000
1.9988000000 0.9855000000 0.7211000000
1.9988000000 0.0321000000 0.0407000000
1.9983000000 0.2923000000 0.2202000000
1.9981000000 1.3415000000 0.9847000000
1.9978000000 3.2148000000 1.9471000000
1.9978000000 4.7167000000 0.9495000000
1.9974000000 2.6698000000 1.8997000000
1.9973000000 3.1419000000 1.9757000000
1.9971000000 0.4922000000 0.3651000000
1.9970000000 0.3145000000 0.2407000000
1.9966000000 2.3199000000 1.6857000000
1.9964000000 0.0483000000 0.0435000000
1.9953000000 0.5590000000 0.4140000000
1.9948000000 1.9026000000 1.3789000000
1.9947000000 0.6532000000 0.4850000000
1.7598000000 3.5339000000 1.8092000000
1.7597000000 1.8632000000 1.3589000000
1.7588000000 4.7700000000 0.9166000000
1.7588000000 2.0763000000 1.5100000000
1.7585000000 3.0523000000 2.0847000000
1.7583000000 4.2441000000 1.2928000000
1.7582000000 4.1127000000 1.3915000000
1.7579000000 0.9921000000 0.7249000000
1.7578000000 3.6592000000 1.7188000000
1.7575000000 4.3884000000 1.1931000000
1.7574000000 5.2351000000 0.5738000000
1.7572000000 5.1898000000 0.6129000000
1.7570000000 5.1334000000 0.6480000000
1.7568000000 5.9161000000 0.0885000000
1.7565000000 1.6299000000 1.1913000000
1.7563000000 4.8162000000 0.8793000000
1.7562000000 5.8568000000 0.1338000000
1.7559000000 6.0298000000 0.0852000000
1.7557000000 1.2585000000 0.9208000000
1.7556000000 1.2727000000 0.9336000000
1.7555000000 2.3823000000 1.7282000000
1.7554000000 2.5440000000 1.8471000000
1.7553000000 5.0916000000 0.6813000000
1.7552000000 4.9843000000 0.7614000000
1.7551000000 3.0485000000 2.0859000000
1.7551000000 1.8844000000 1.3714000000
1.7550000000 4.2695000000 1.2758000000
1.7549000000 5.0202000000 0.7382000000
1.7548000000 4.0641000000 1.4272000000
1.7545000000 6.0254000000 0.0826000000
1.7545000000 1.1248000000 0.8313000000
1.7544000000 4.0932000000 1.4044000000
1.7542000000 4.5327000000 1.0920000000
1.7541000000 5.0157000000 0.7413000000
1.7538000000 5.8731000000 0.1178000000
1.7538000000 3.6770000000 1.7039000000
1.7537000000 3.5382000000 1.7981000000
1.7536000000 1.7373000000 1.2647000000
1.7534000000 3.3315000000 1.9583000000
1.7534000000 4.5845000000 1.0500000000
1.7533000000 1.7973000000 1.3013000000
1.7532000000 1.9590000000 1.4268000000
1.7531000000 5.6929000000 0.2494000000
1.7529000000 2.0264000000 1.4761000000
1.7523000000 5.3909000000 0.4659000000
1.7522000000 5.0377000000 0.7201000000
1.7521000000 0.0463000000 0.0451000000
1.7521000000 4.1616000000 1.3576000000
1.7520000000 3.1111000000 2.0838000000
1.7520000000 5.3696000000 0.4796000000
1.7519000000 0.7522000000 0.5525000000
1.7518000000 5.2103000000 0.6007000000
1.7517000000 1.1327000000 0.8300000000
1.7516000000 2.6676000000 1.9320000000
1.7515000000 0.3754000000 0.2823000000
1.7513000000 4.5590000000 1.0657000000
1.7513000000 2.1293000000 1.5411000000
1.7512000000 0.8661000000 0.6348000000
1.7512000000 0.9863000000 0.7274000000
1.7511000000 3.0136000000 2.0871000000
1.7509000000 1.9886000000 1.4486000000
1.7508000000 1.7626000000 1.2845000000
1.7508000000 5.6648000000 0.2732000000
1.7505000000 5.2157000000 0.5883000000
1.7502000000 1.8479000000 1.3393000000
1.7501000000 3.3355000000 1.9499000000
1.7499000000 2.3257000000 1.6867000000
1.7498000000 0.8427000000 0.6217000000
1.7496000000 3.2117000000 2.0344000000
1.7496000000 3.0526000000 2.0828000000
1.7492000000 0.8915000000 0.6510000000
1.7488000000 0.0450000000 0.0358000000
1.7485000000 2.4105000000 1.7516000000
1.7484000000 5.3002000000 0.5308000000
1.7474000000 1.1832000000 0.8660000000
1.7470000000 2.7334000000 1.9865000000
1.7455000000 1.3703000000 1.0060000000
1.7454000000 2.6822000000 1.9447000000
1.7449000000 0.4458000000 0.3365000000
1.5120000000 3.6282000000 1.7397000000
1.5097000000 5.1107000000 0.6731000000
1.5095000000 3.9392000000 1.5193000000
1.5092000000 3.0626000000 2.0142000000
1.5090000000 5.7797000000 0.1875000000
1.5088000000 2.5014000000 1.8203000000
1.5088000000 3.1216000000 2.0014000000
1.5086000000 2.6379000000 1.8934000000
1.5085000000 3.6733000000 1.7070000000
1.5082000000 3.3328000000 1.9136000000
1.5075000000 4.0592000000 1.4258000000
1.5073000000 4.5727000000 1.0575000000
1.5072000000 4.1737000000 1.3474000000
1.5071000000 5.6408000000 0.2876000000
1.5069000000 2.4671000000 1.7854000000
1.5065000000 0.8649000000 0.6370000000
1.5058000000 2.5109000000 1.8137000000
1.5057000000 5.2829000000 0.5463000000
1.5055000000 1.9152000000 1.3919000000
1.5054000000 4.8621000000 0.8504000000
1.5053000000 0.9185000000 0.6741000000
1.5053000000 1.7710000000 1.2910000000
1.5052000000 4.1395000000 1.3745000000
1.5049000000 1.9052000000 1.3869000000
1.5049000000 5.6745000000 0.2613000000
1.5047000000 4.7817000000 0.9087000000
1.5047000000 4.3426000000 1.2193000000
1.5046000000 0.3502000000 0.2639000000
1.5046000000 2.2536000000 1.6440000000
1.5045000000 2.8821000000 1.9924000000
1.5045000000 4.3775000000 1.1936000000
1.5044000000 5.2003000000 0.6042000000
1.5042000000 0.2083000000 0.1644000000
1.5040000000 1.2512000000 0.9164000000
1.5038000000 5.4445000000 0.4271000000
1.5038000000 4.1782000000 1.3488000000
1.5036000000 0.9612000000 0.7099000000
1.5035000000 0.9792000000 0.7156000000
1.5035000000 4.2002000000 1.3245000000
1.5033000000 5.7850000000 0.1801000000
1.5033000000 2.4258000000 1.7645000000
1.5032000000 4.7609000000 0.9247000000
1.5029000000 5.4173000000 0.4486000000
1.5027000000 1.1498000000 0.8382000000
1.5026000000 3.1684000000 1.9841000000
1.5025000000 2.5674000000 1.8525000000
1.5025000000 1.4111000000 1.0346000000
1.5025000000 4.4161000000 1.1722000000
1.5021000000 6.0248000000 0.0827000000
1.5019000000 0.8999000000 0.6610000000
1.5019000000 1.1523000000 0.8424000000
1.5017000000 1.0476000000 0.7678000000
1.5015000000 0.4532000000 0.3381000000
1.5015000000 0.8329000000 0.6165000000
1.5013000000 4.7907000000 0.8979000000
1.5010000000 3.0848000000 2.0115000000
1.5009000000 3.6567000000 1.7205000000
1.5008000000 4.3489000000 1.2206000000
1.5007000000 0.7824000000 0.5780000000
1.5007000000 0.6277000000 0.4634000000
1.5004000000 0.5941000000 0.4400000000
1.5004000000 1.9208000000 1.3958000000
1.5002000000 0.0889000000 0.0744000000
1.5002000000 4.9496000000 0.7854000000
1.5000000000 3.2669000000 1.9462000000
1.4999000000 4.8363000000 0.8677000000
1.4998000000 2.7887000000 1.9596000000
1.4992000000 2.9085000000 1.9980000000
1.4987000000 0.6552000000 0.4826000000
1.4986000000 2.8307000000 1.9724000000
1.4985000000 0.6571000000 0.4852000000
1.4980000000 0.4102000000 0.3023000000
1.4980000000 5.5753000000 0.3375000000
1.4975000000 5.9082000000 0.0970000000
1.4968000000 1.4908000000 1.0880000000
1.4968000000 3.6744000000 1.7038000000
1.4963000000 2.2369000000 1.6234000000
1.4938000000 0.3595000000 0.2697000000
1.2620000000 5.3436000000 0.5014000000
1.2616000000 4.4591000000 1.1375000000
1.2604000000 3.6088000000 1.6731000000
1.2593000000 2.6495000000 1.7576000000
1.2592000000 4.5857000000 1.0511000000
1.2591000000 4.6590000000 0.9941000000
1.2590000000 1.9032000000 1.3848000000
1.2588000000 4.4083000000 1.1735000000
1.2587000000 2.4485000000 1.6822000000
1.2587000000 3.3663000000 1.7601000000
1.2586000000 3.8274000000 1.5730000000
1.2583000000 4.6999000000 0.9654000000
1.2582000000 0.4995000000 0.3701000000
1.2579000000 0.3011000000 0.2353000000
1.2577000000 6.0182000000 0.0130000000
1.2574000000 4.7963000000 0.8967000000
1.2574000000 3.5848000000 1.6811000000
1.2573000000 4.2432000000 1.2986000000
1.2573000000 1.0743000000 0.7953000000
1.2572000000 5.5748000000 0.3294000000
1.2570000000 4.6157000000 1.0245000000
1.2568000000 4.4764000000 1.1293000000
1.2563000000 5.7277000000 0.2226000000
1.2563000000 1.9935000000 1.4577000000
1.2561000000 2.6772000000 1.7664000000
1.2560000000 3.6980000000 1.6336000000
1.2559000000 2.6476000000 1.7557000000
1.2558000000 0.4725000000 0.3540000000
1.2557000000 2.9442000000 1.8560000000
1.2556000000 4.8188000000 0.8763000000
1.2554000000 1.9034000000 1.3867000000
1.2553000000 2.2904000000 1.6236000000
1.2553000000 2.2963000000 1.6262000000
1.2552000000 1.3963000000 1.0199000000
1.2549000000 3.8055000000 1.5851000000
1.2549000000 3.5568000000 1.6846000000
1.2548000000 4.4947000000 1.1155000000
1.2547000000 4.5181000000 1.0947000000
1.2545000000 2.8617000000 1.8298000000
1.2545000000 3.0085000000 1.8667000000
1.2543000000 0.8798000000 0.6491000000
1.2543000000 2.3703000000 1.6511000000
1.2539000000 4.8971000000 0.8292000000
1.2538000000 5.7476000000 0.2145000000
1.2537000000 0.2140000000 0.1639000000
1.2535000000 4.7189000000 0.9561000000
1.2535000000 1.4061000000 1.0283000000
1.2535000000 1.1002000000 0.8039000000
1.2534000000 0.2143000000 0.1645000000
1.2534000000 4.5728000000 1.0580000000
1.2533000000 0.9005000000 0.6610000000
1.2530000000 4.4310000000 1.1623000000
1.2530000000 2.1141000000 1.5259000000
1.2528000000 1.3697000000 0.9977000000
1.2528000000 4.5387000000 1.0807000000
1.2528000000 4.3587000000 1.2089000000
1.2526000000 3.4020000000 1.7371000000
1.2523000000 5.2759000000 0.5463000000
1.2524000000 2.8834000000 1.8385000000
1.2521000000 0.9591000000 0.7010000000
1.2520000000 5.6221000000 0.3027000000
1.2519000000 0.7738000000 0.5746000000
1.2518000000 1.2004000000 0.8826000000
1.2514000000 1.4799000000 1.0831000000
1.2513000000 0.9626000000 0.7076000000
1.2511000000 0.6635000000 0.4933000000
1.2510000000 1.1671000000 0.8568000000
1.2509000000 5.7914000000 0.1754000000
1.2508000000 5.5063000000 0.3837000000
1.2505000000 4.3159000000 1.2449000000
1.2505000000 3.5296000000 1.6968000000
1.2501000000 1.0961000000 0.8040000000
1.2500000000 5.2421000000 0.5732000000
1.2500000000 4.6533000000 0.9969000000
1.2499000000 0.7352000000 0.5463000000
1.2498000000 2.3421000000 1.6378000000
1.2495000000 0.2343000000 0.1809000000
1.2489000000 1.3889000000 1.0166000000
1.2486000000 2.8338000000 1.8131000000
1.2482000000 2.7845000000 1.8019000000
1.2478000000 5.1493000000 0.6460000000
1.2477000000 1.3124000000 0.9636000000
1.2469000000 5.5849000000 0.3263000000
1.2468000000 5.2916000000 0.5331000000
1.2466000000 2.0921000000 1.5123000000
1.2464000000 2.4359000000 1.6738000000
1.2462000000 0.4750000000 0.3569000000
1.2455000000 2.7353000000 1.7792000000
1.2438000000 0.4366000000 0.3258000000
1.0135000000 0.0249000000 0.0253000000
1.0127000000 1.3012000000 0.9506000000
1.0123000000 5.4310000000 0.4405000000
1.0105000000 1.9701000000 1.3567000000
1.0098000000 4.5612000000 1.0720000000
1.0092000000 5.5505000000 0.3464000000
1.0090000000 1.1827000000 0.8733000000
1.0088000000 3.0454000000 1.7106000000
1.0086000000 0.5481000000 0.4049000000
1.0085000000 4.5366000000 1.0822000000
1.0084000000 3.1079000000 1.6984000000
1.0081000000 4.2776000000 1.2515000000
1.0079000000 5.9215000000 0.0824000000
1.0078000000 5.2543000000 0.5669000000
1.0076000000 1.0446000000 0.7702000000
1.0074000000 2.6064000000 1.5813000000
1.0073000000 5.3550000000 0.4930000000
1.0073000000 4.1896000000 1.2872000000
1.0071000000 3.2681000000 1.6360000000
1.0069000000 4.2024000000 1.2841000000
1.0067000000 3.1162000000 1.6900000000
1.0063000000 0.2993000000 0.2216000000
1.0063000000 5.7357000000 0.2222000000
1.0062000000 4.0433000000 1.3566000000
1.0060000000 4.2380000000 1.2680000000
1.0059000000 2.9708000000 1.6925000000
1.0058000000 2.6421000000 1.5925000000
1.0056000000 4.3003000000 1.2416000000
1.0054000000 1.9876000000 1.3590000000
1.0053000000 3.4355000000 1.5734000000
1.0053000000 3.1554000000 1.6725000000
1.0050000000 5.0725000000 0.6947000000
1.0049000000 5.9813000000 0.0387000000
1.0050000000 5.7118000000 0.2321000000
1.0049000000 0.2622000000 0.2045000000
1.0048000000 1.2500000000 0.9145000000
1.0046000000 1.6603000000 1.1990000000
1.0046000000 4.3795000000 1.1948000000
1.0045000000 2.1058000000 1.3974000000
1.0043000000 1.2589000000 0.9236000000
1.0043000000 3.5893000000 1.5142000000
1.0043000000 4.2473000000 1.2651000000
1.0040000000 5.7465000000 0.2040000000
1.0040000000 1.6221000000 1.1835000000
1.0038000000 1.9323000000 1.3385000000
1.0038000000 4.9389000000 0.7913000000
1.0035000000 5.0039000000 0.7501000000
1.0035000000 0.8092000000 0.5972000000
1.0034000000 2.7142000000 1.6197000000
1.0033000000 0.8022000000 0.5922000000
1.0031000000 4.1184000000 1.3231000000
1.0030000000 1.5154000000 1.1028000000
1.0028000000 2.0605000000 1.3879000000
1.0026000000 0.2037000000 0.1581000000
1.0020000000 0.2786000000 0.2136000000
1.0018000000 2.5034000000 1.5450000000
1.0017000000 2.4819000000 1.5330000000
1.0015000000 0.7951000000 0.5879000000
1.0014000000 5.4839000000 0.4036000000
1.0012000000 2.4019000000 1.5009000000
1.0011000000 0.7858000000 0.5856000000
1.0012000000 2.0814000000 1.3887000000
1.0011000000 3.8925000000 1.4113000000
1.0009000000 3.3226000000 1.6085000000
1.0007000000 0.7729000000 0.5654000000
1.0006000000 2.5245000000 1.5513000000
1.0006000000 2.3222000000 1.4751000000
1.0005000000 0.2620000000 0.2042000000
1.0005000000 2.4694000000 1.5305000000
1.0003000000 0.4887000000 0.3608000000
1.0000000000 2.1556000000 1.4135000000
0.9997000000 1.3292000000 0.9690000000
0.9995000000 0.4247000000 0.3145000000
0.9992000000 2.8221000000 1.6554000000
0.9992000000 3.4157000000 1.5824000000
0.9990000000 0.4808000000 0.3551000000
0.9989000000 5.3637000000 0.4874000000
0.9985000000 1.0675000000 0.7795000000
0.9982000000 3.4554000000 1.5631000000
0.9978000000 1.5690000000 1.1463000000
0.9975000000 2.4898000000 1.5342000000
0.9973000000 2.8922000000 1.6826000000
0.9968000000 1.2320000000 0.8959000000
0.9947000000 0.0480000000 0.0467000000
0.7621000000 3.7870000000 1.3068000000
0.7613000000 3.7122000000 1.3238000000
0.7613000000 1.2895000000 0.9297000000
0.7610000000 1.8443000000 1.1594000000
0.7602000000 4.7593000000 0.9128000000
0.7599000000 0.3660000000 0.2747000000
0.7594000000 2.2402000000 1.2951000000
0.7593000000 1.8989000000 1.1736000000
0.7590000000 5.0557000000 0.7099000000
0.7578000000 3.4005000000 1.4314000000
0.7577000000 4.8771000000 0.8382000000
0.7575000000 5.2282000000 0.5834000000
0.7574000000 2.6846000000 1.4585000000
0.7570000000 3.7540000000 1.3050000000
0.7569000000 2.4486000000 1.3669000000
0.7567000000 3.4022000000 1.4361000000
0.7566000000 1.1331000000 0.8334000000
0.7565000000 1.5141000000 1.0307000000
0.7563000000 5.5806000000 0.3299000000
0.7559000000 5.3681000000 0.4774000000
0.7558000000 3.8266000000 1.2785000000
0.7556000000 2.4324000000 1.3616000000
0.7555000000 1.8161000000 1.1406000000
0.7553000000 3.8466000000 1.2685000000
0.7554000000 0.5509000000 0.4083000000
0.7553000000 3.6557000000 1.3381000000
0.7552000000 4.9285000000 0.7988000000
0.7551000000 4.2862000000 1.1096000000
0.7550000000 3.5917000000 1.3581000000
0.7550000000 1.0082000000 0.7382000000
0.7549000000 4.7377000000 0.9209000000
0.7549000000 3.0478000000 1.5490000000
0.7548000000 5.3616000000 0.4872000000
0.7548000000 1.8168000000 1.1383000000
0.7546000000 5.5564000000 0.3499000000
0.7546000000 0.4314000000 0.3199000000
0.7545000000 3.4638000000 1.4082000000
0.7543000000 1.8969000000 1.1663000000
0.7542000000 5.8070000000 0.1704000000
0.7541000000 3.5122000000 1.3922000000
0.7539000000 1.1680000000 0.8589000000
0.7538000000 2.9852000000 1.5484000000
0.7535000000 1.2961000000 0.9345000000
0.7533000000 5.9362000000 0.0715000000
0.7529000000 5.0265000000 0.7291000000
0.7528000000 5.8573000000 0.1328000000
0.7528000000 1.0950000000 0.8045000000
0.7528000000 3.6560000000 1.3348000000
0.7527000000 3.1729000000 1.5122000000
0.7526000000 5.7855000000 0.1882000000
0.7525000000 1.9547000000 1.1895000000
0.7524000000 2.9573000000 1.5449000000
0.7524000000 5.5959000000 0.3206000000
0.7523000000 5.3538000000 0.4940000000
0.7522000000 1.4005000000 0.9806000000
0.7522000000 1.0354000000 0.7610000000
0.7521000000 2.5717000000 1.4069000000
0.7520000000 0.5565000000 0.4116000000
0.7520000000 1.1414000000 0.8335000000
0.7519000000 1.6918000000 1.0909000000
0.7518000000 0.4334000000 0.3243000000
0.7517000000 0.1178000000 0.0951000000
0.7515000000 1.9845000000 1.1974000000
0.7513000000 2.7833000000 1.4837000000
0.7510000000 5.6208000000 0.2989000000
0.7509000000 3.4417000000 1.4131000000
0.7508000000 3.5621000000 1.3705000000
0.7506000000 3.7308000000 1.3103000000
0.7505000000 1.5364000000 1.0359000000
0.7504000000 2.4028000000 1.3435000000
0.7503000000 2.2664000000 1.2955000000
0.7502000000 3.8488000000 1.2703000000
0.7500000000 1.1687000000 0.8588000000
0.7500000000 0.5680000000 0.4186000000
0.7498000000 0.0824000000 0.0677000000
0.7497000000 3.8645000000 1.2537000000
0.7497000000 1.6332000000 1.0691000000
0.7495000000 5.7486000000 0.2090000000
0.7492000000 3.8654000000 1.2597000000
0.7491000000 3.9460000000 1.2337000000
0.7488000000 1.4543000000 1.0035000000
0.7484000000 0.4512000000 0.3386000000
0.7483000000 1.1922000000 0.8640000000
0.7482000000 1.8211000000 1.1349000000
0.7480000000 3.3089000000 1.4555000000
0.7475000000 1.4381000000 0.9978000000
0.7474000000 2.8127000000 1.4967000000
0.7473000000 0.7847000000 0.5779000000
0.7473000000 2.4994000000 1.3824000000
0.7464000000 0.1778000000 0.1437000000
0.7462000000 1.8290000000 1.1462000000
0.7460000000 2.1601000000 1.2547000000
0.7458000000 3.5414000000 1.3737000000
0.5111000000 5.6813000000 0.2564000000
0.5105000000 4.4897000000 0.8848000000
0.5102000000 5.3737000000 0.4801000000
0.5100000000 5.5905000000 0.3229000000
0.5099000000 5.7304000000 0.2227000000
0.5096000000 4.7081000000 0.8046000000
0.5096000000 3.1009000000 1.3867000000
0.5091000000 4.9254000000 0.7251000000
0.5088000000 1.6742000000 0.9355000000
0.5088000000 5.7573000000 0.1983000000
0.5085000000 3.3815000000 1.2859000000
0.5085000000 0.8685000000 0.6267000000
0.5083000000 2.3511000000 1.1768000000
0.5082000000 1.7281000000 0.9571000000
0.5081000000 5.7626000000 0.1948000000
0.5078000000 3.6686000000 1.1755000000
0.5077000000 0.7184000000 0.5313000000
0.5077000000 4.4020000000 0.9119000000
0.5074000000 2.5270000000 1.2401000000
0.5072000000 5.5169000000 0.3819000000
0.5071000000 4.1344000000 1.0160000000
0.5072000000 5.1348000000 0.6368000000
0.5068000000 4.2748000000 0.9566000000
0.5067000000 3.7568000000 1.1438000000
0.5066000000 2.5849000000 1.2582000000
0.5064000000 5.1316000000 0.6414000000
0.5063000000 3.8275000000 1.1191000000
0.5063000000 2.2294000000 1.1330000000
0.5061000000 0.7930000000 0.5749000000
0.5060000000 1.4578000000 0.8560000000
