3.7484000000 2.8884000000 0.7406000000
3.7484000000 3.0606000000 0.6236000000
3.7481000000 2.7438000000 0.8393000000
3.7479000000 3.4098000000 0.3872000000
3.7478000000 1.1867000000 0.0752000000
3.7472000000 2.1324000000 0.5591000000
3.7458000000 2.1981000000 0.6793000000
3.7456000000 1.3257000000 0.0980000000
3.5140000000 4.5462000000 0.0547000000
3.5120000000 2.3884000000 1.0789000000
3.5110000000 2.9957000000 0.9394000000
3.5091000000 4.7412000000 0.0019000000
3.5090000000 3.7941000000 0.4118000000
3.5088000000 1.5641000000 0.5271000000
3.5080000000 2.0727000000 0.8720000000
3.5078000000 3.4227000000 0.6632000000
3.5077000000 3.5741000000 0.5610000000
3.5074000000 3.4332000000 0.6590000000
3.5071000000 2.0832000000 0.8092000000
3.5070000000 4.4369000000 0.0617000000
3.5061000000 1.3988000000 0.4254000000
3.5059000000 0.6446000000 0.0676000000
3.5060000000 2.0584000000 0.8685000000
3.5052000000 3.2766000000 0.7616000000
3.5051000000 2.2959000000 1.0249000000
3.5050000000 1.5615000000 0.4592000000
3.5049000000 3.7778000000 0.4268000000
3.5047000000 3.9240000000 0.3254000000
3.5046000000 2.0457000000 0.8588000000
3.5037000000 4.3170000000 0.1430000000
3.5037000000 4.2384000000 0.1174000000
3.5035000000 2.6835000000 1.2089000000
3.5035000000 2.3817000000 1.0056000000
3.5034000000 3.7039000000 0.4772000000
3.5033000000 2.8762000000 1.0314000000
3.5032000000 4.2404000000 0.1159000000
3.5032000000 4.5197000000 0.0863000000
3.5030000000 2.4527000000 1.1345000000
3.5031000000 4.5450000000 0.0652000000
3.5029000000 2.3025000000 0.9554000000
3.5026000000 2.5243000000 1.1812000000
3.5024000000 3.0208000000 0.9402000000
3.5018000000 2.0824000000 0.8850000000
3.5018000000 1.5185000000 0.5093000000
3.5018000000 3.3547000000 0.7151000000
3.5016000000 1.8723000000 0.7446000000
3.5016000000 4.1141000000 0.1987000000
3.5015000000 4.1025000000 0.2159000000
3.5015000000 0.9817000000 0.1541000000
3.5013000000 1.8269000000 0.7153000000
3.5013000000 3.1599000000 0.8418000000
3.5010000000 2.2492000000 0.9959000000
3.5005000000 1.3567000000 0.4049000000
3.5002000000 1.8306000000 0.7157000000
3.5002000000 3.9604000000 0.3151000000
3.5000000000 1.4996000000 0.4217000000
3.4999000000 4.0510000000 0.2518000000
3.4998000000 0.6756000000 0.0216000000
3.4998000000 2.4660000000 1.1433000000
3.4997000000 2.9846000000 0.9632000000
3.4995000000 2.2016000000 0.9677000000
3.4991000000 0.9051000000 0.1041000000
3.4983000000 3.1868000000 0.8268000000
3.4981000000 2.6548000000 1.2391000000
3.4980000000 0.8377000000 0.0554000000
3.4977000000 0.9636000000 0.1416000000
3.4975000000 4.6005000000 0.0360000000
3.4955000000 3.4074000000 0.6787000000
3.4948000000 1.4533000000 0.4683000000
3.4931000000 2.8256000000 1.0828000000
3.2645000000 1.6873000000 0.9002000000
3.2630000000 3.7863000000 0.7070000000
3.2612000000 2.4598000000 1.4091000000
3.2603000000 3.9156000000 0.6159000000
3.2601000000 3.0121000000 1.2247000000
3.2600000000 0.8777000000 0.3661000000
3.2596000000 4.2023000000 0.4309000000
3.2595000000 4.5192000000 0.2174000000
3.2592000000 2.6790000000 1.4989000000
3.2590000000 1.1068000000 0.4370000000
3.2588000000 2.8066000000 1.3622000000
3.2588000000 4.6199000000 0.1484000000
3.2581000000 4.9096000000 0.0303000000
3.2578000000 4.5668000000 0.1951000000
3.2577000000 4.9703000000 0.0666000000
3.2577000000 5.0797000000 0.0658000000
3.2573000000 4.9530000000 0.0836000000
3.2566000000 2.1784000000 1.2368000000
3.2565000000 2.7233000000 1.4221000000
3.2560000000 3.2811000000 1.0481000000
3.2559000000 3.6435000000 0.7999000000
3.2554000000 1.4078000000 0.7152000000
3.2551000000 1.8080000000 0.9867000000
3.2549000000 3.2953000000 1.0411000000
3.2548000000 1.1895000000 0.5784000000
3.2548000000 4.4997000000 0.2327000000
3.2546000000 3.0870000000 1.1794000000
3.2546000000 2.3393000000 1.3404000000
3.2545000000 5.1569000000 0.0168000000
3.2544000000 0.5726000000 0.1622000000
3.2540000000 0.8229000000 0.3268000000
3.2539000000 2.6952000000 1.5065000000
3.2535000000 3.6688000000 0.7940000000
3.2534000000 5.0165000000 0.0419000000
3.2530000000 4.2989000000 0.3715000000
3.2529000000 3.8568000000 0.6698000000
3.2526000000 3.7280000000 0.7510000000
3.2525000000 1.5014000000 0.7869000000
3.2525000000 4.2110000000 0.4302000000
3.2522000000 0.5353000000 0.1396000000
3.2520000000 0.6707000000 0.1550000000
3.2519000000 2.3088000000 1.3296000000
3.2516000000 0.1889000000 0.0576000000
3.2517000000 1.7804000000 0.9706000000
3.2515000000 0.9628000000 0.4320000000
3.2515000000 1.9904000000 1.1118000000
3.2511000000 1.3599000000 0.6184000000
3.2508000000 0.8730000000 0.2929000000
3.2505000000 1.6384000000 0.8033000000
3.2505000000 4.7593000000 0.1446000000
3.2504000000 2.8204000000 1.3625000000
3.2503000000 2.9522000000 1.2735000000
3.2502000000 2.7548000000 1.4078000000
3.2500000000 4.1385000000 0.4783000000
3.2500000000 2.6631000000 1.5224000000
3.2499000000 5.1926000000 0.0019000000
3.2498000000 0.2108000000 0.0750000000
3.2498000000 4.0971000000 0.5057000000
3.2498000000 3.8545000000 0.6685000000
3.2496000000 0.5360000000 0.1432000000
3.2494000000 0.2605000000 0.0287000000
3.2493000000 2.1143000000 1.2019000000
3.2493000000 0.4803000000 0.1053000000
3.2490000000 0.9757000000 0.4276000000
3.2485000000 0.9550000000 0.3526000000
3.2483000000 4.1290000000 0.4888000000
3.2476000000 4.2071000000 0.4392000000
3.2475000000 0.8666000000 0.3641000000
3.2473000000 3.0598000000 1.2023000000
3.2470000000 2.4308000000 1.4119000000
3.2467000000 0.1039000000 0.0061000000
3.2466000000 0.7217000000 0.2702000000
3.2462000000 4.3691000000 0.3359000000
3.2455000000 0.3586000000 0.0300000000
3.2451000000 1.2260000000 0.6120000000
3.2428000000 0.7198000000 0.1985000000
3.0113000000 2.7550000000 1.6809000000
3.0108000000 4.6361000000 0.4237000000
3.0105000000 4.0185000000 0.8375000000
3.0096000000 4.1036000000 0.7827000000
3.0092000000 3.4052000000 1.2526000000
3.0090000000 2.2147000000 1.5456000000
3.0089000000 5.0559000000 0.1482000000
3.0088000000 2.8405000000 1.6263000000
3.0087000000 4.6957000000 0.3900000000
3.0087000000 2.7719000000 1.6761000000
3.0083000000 5.1670000000 0.1279000000
3.0076000000 4.5604000000 0.4764000000
3.0070000000 0.3279000000 0.2865000000
3.0069000000 5.2905000000 0.0611000000
3.0067000000 5.3034000000 0.0491000000
3.0067000000 2.9568000000 1.5516000000
3.0066000000 3.2253000000 1.3698000000
3.0065000000 1.7421000000 1.2315000000
3.0063000000 1.8034000000 1.1941000000
3.0063000000 2.8458000000 1.6299000000
3.0061000000 3.0048000000 1.5166000000
3.0061000000 4.7523000000 0.3541000000
3.0060000000 0.5446000000 0.3601000000
3.0060000000 2.6541000000 1.8028000000
3.0058000000 1.5546000000 1.1083000000
3.0056000000 5.0171000000 0.1754000000
3.0055000000 3.9165000000 0.9163000000
3.0053000000 1.1548000000 0.7622000000
3.0053000000 4.2236000000 0.7108000000
3.0051000000 5.2587000000 0.1110000000
3.0051000000 4.5453000000 0.4944000000
3.0050000000 1.9668000000 1.3831000000
3.0047000000 0.7553000000 0.4939000000
3.0045000000 5.1918000000 0.1156000000
3.0043000000 1.8035000000 1.1941000000
3.0041000000 1.9839000000 1.3132000000
3.0040000000 3.7098000000 1.0574000000
3.0038000000 2.7051000000 1.7279000000
3.0037000000 1.0719000000 0.7106000000
3.0036000000 4.3313000000 0.6389000000
3.0038000000 5.0418000000 0.1637000000
3.0035000000 0.8196000000 0.5407000000
3.0035000000 1.0059000000 0.6708000000
3.0034000000 1.6865000000 1.1966000000
3.0032000000 1.3077000000 0.8681000000
3.0031000000 2.1222000000 1.4937000000
3.0030000000 3.5880000000 1.1385000000
3.0028000000 4.7154000000 0.3847000000
3.0026000000 1.7364000000 1.2338000000
3.0025000000 5.2861000000 0.0736000000
3.0025000000 0.0626000000 0.0742000000
3.0023000000 3.6905000000 1.0649000000
3.0023000000 2.2043000000 1.5431000000
3.0022000000 0.3414000000 0.2236000000
3.0019000000 4.9113000000 0.2523000000
3.0015000000 4.7547000000 0.3604000000
3.0014000000 4.4060000000 0.5867000000
3.0012000000 2.4571000000 1.7173000000
3.0009000000 2.8458000000 1.6342000000
3.0008000000 0.2410000000 0.2309000000
3.0006000000 0.2028000000 0.1275000000
3.0005000000 0.6001000000 0.4047000000
3.0003000000 0.4651000000 0.3091000000
3.0002000000 5.0389000000 0.1678000000
3.0000000000 0.4962000000 0.4041000000
2.9998000000 5.0306000000 0.1749000000
2.9996000000 3.8184000000 0.9806000000
2.9989000000 1.2739000000 0.8501000000
2.9988000000 0.3383000000 0.2230000000
2.9985000000 0.5167000000 0.3457000000
2.9983000000 1.5084000000 1.0875000000
2.9981000000 3.7611000000 1.0258000000
2.9971000000 3.3854000000 1.2782000000
2.9968000000 3.4655000000 1.2193000000
2.7603000000 4.2805000000 0.9546000000
2.7603000000 4.7916000000 0.6597000000
2.7597000000 5.0206000000 0.2975000000
2.7588000000 0.6606000000 0.7183000000
2.7588000000 5.1464000000 0.1275000000
2.7579000000 4.9026000000 0.4538000000
2.7579000000 3.9519000000 1.1787000000
2.7576000000 3.7849000000 1.2893000000
2.7575000000 0.9459000000 0.9918000000
2.7573000000 2.8260000000 1.9277000000
2.7565000000 2.9167000000 1.8656000000
2.7564000000 4.8757000000 0.4858000000
2.7563000000 3.9649000000 1.1672000000
2.7562000000 5.1730000000 0.1735000000
2.7561000000 4.5283000000 0.7933000000
2.7559000000 3.4492000000 1.5146000000
2.7557000000 3.9825000000 1.1592000000
2.7555000000 4.9339000000 0.4176000000
2.7553000000 3.8165000000 1.2714000000
2.7551000000 2.4692000000 2.0034000000
2.7550000000 5.2241000000 0.1070000000
2.7549000000 4.5420000000 0.7867000000
2.7548000000 1.6131000000 1.3634000000
2.7547000000 2.1809000000 1.7391000000
2.7546000000 3.4282000000 1.5309000000
2.7545000000 2.8756000000 1.8908000000
2.7543000000 2.3964000000 1.9525000000
2.7542000000 4.0468000000 1.1154000000
2.7541000000 3.0741000000 1.7656000000
2.7541000000 0.6125000000 0.7501000000
2.7540000000 1.7060000000 1.4217000000
2.7539000000 1.9175000000 1.6336000000
2.7538000000 1.9030000000 1.6289000000
2.7537000000 1.2897000000 1.2224000000
2.7535000000 0.7830000000 0.8830000000
2.7535000000 1.0519000000 1.0595000000
2.7533000000 1.3291000000 1.1714000000
2.7533000000 2.1456000000 1.7948000000
2.7532000000 2.1885000000 1.8197000000
2.7531000000 3.9440000000 1.1842000000
2.7531000000 3.3593000000 1.5720000000
2.7525000000 2.0499000000 1.6577000000
2.7525000000 0.6104000000 0.7414000000
2.7523000000 4.4744000000 0.8363000000
2.7525000000 5.0932000000 0.1992000000
2.7523000000 1.2493000000 1.1927000000
2.7522000000 0.6501000000 0.7195000000
2.7521000000 4.2796000000 0.9643000000
2.7520000000 2.3086000000 1.9040000000
2.7519000000 4.4793000000 0.8307000000
2.7517000000 1.6210000000 1.4465000000
2.7517000000 3.8223000000 1.2737000000
2.7516000000 3.7244000000 1.3342000000
2.7515000000 2.3733000000 1.9459000000
2.7514000000 2.6087000000 2.0873000000
2.7513000000 3.9859000000 1.1569000000
2.7511000000 1.4283000000 1.3182000000
2.7509000000 1.7525000000 1.5367000000
2.7509000000 0.4322000000 0.5716000000
2.7508000000 0.7027000000 0.7555000000
2.7506000000 4.3966000000 0.8837000000
2.7505000000 0.9118000000 0.8954000000
2.7500000000 4.2414000000 0.9878000000
2.7497000000 2.3291000000 1.9171000000
2.7496000000 4.0962000000 1.0893000000
2.7493000000 5.1328000000 0.1528000000
2.7493000000 0.4007000000 0.4743000000
2.7490000000 1.3278000000 1.1777000000
2.7488000000 2.1326000000 1.7871000000
2.7485000000 3.6396000000 1.3993000000
2.7479000000 0.8357000000 0.8521000000
2.7478000000 1.5195000000 1.3776000000
2.7477000000 2.1213000000 1.7847000000
2.7476000000 2.9943000000 1.8286000000
2.7475000000 1.5238000000 1.3060000000
2.7474000000 4.7204000000 0.7336000000
2.7469000000 0.3392000000 0.3908000000
2.7453000000 0.8123000000 0.9128000000
2.5105000000 4.1049000000 1.3622000000
2.5099000000 4.8047000000 0.5855000000
2.5094000000 3.6998000000 1.6342000000
2.5084000000 3.1693000000 1.9819000000
2.5078000000 2.5197000000 2.3268000000
2.5074000000 2.3285000000 2.1977000000
2.5073000000 1.1054000000 1.3853000000
2.5072000000 0.2622000000 0.3609000000
2.5071000000 2.4885000000 2.3045000000
2.5070000000 1.1770000000 1.4285000000
2.5068000000 4.1298000000 1.3412000000
2.5069000000 3.3435000000 1.8754000000
2.5066000000 2.7899000000 2.2401000000
2.5065000000 3.8992000000 1.4976000000
2.5065000000 4.3621000000 1.2362000000
2.5064000000 4.1522000000 1.3346000000
2.5062000000 1.3776000000 1.5666000000
2.5059000000 4.4345000000 1.1419000000
2.5057000000 2.3047000000 2.1796000000
2.5055000000 2.7247000000 2.2879000000
2.5055000000 3.7618000000 1.5920000000
2.5053000000 0.8368000000 1.0476000000
2.5050000000 0.5344000000 0.6510000000
2.5048000000 0.1624000000 0.1506000000
2.5047000000 0.0723000000 0.1066000000
2.5046000000 2.3896000000 2.2497000000
2.5045000000 4.3828000000 1.2065000000
2.5045000000 1.2010000000 1.4501000000
2.5044000000 2.9476000000 2.1446000000
2.5043000000 5.2901000000 0.0125000000
2.5044000000 0.3873000000 0.5335000000
2.5043000000 4.3332000000 1.2639000000
2.5042000000 5.1318000000 0.1521000000
2.5041000000 1.1323000000 1.3341000000
2.5041000000 4.5687000000 0.9069000000
2.5040000000 2.7251000000 2.2888000000
2.5036000000 0.2594000000 0.2833000000
2.5035000000 3.1735000000 1.9953000000
2.5034000000 0.4445000000 0.5289000000
2.5033000000 4.8862000000 0.4817000000
2.5031000000 2.9306000000 2.1502000000
2.5030000000 0.5020000000 0.6830000000
2.5030000000 0.7450000000 1.0053000000
2.5030000000 4.9060000000 0.4587000000
2.5029000000 2.2143000000 2.1275000000
2.5027000000 5.2895000000 0.0139000000
2.5025000000 1.9465000000 1.9444000000
2.5024000000 0.1469000000 0.1368000000
2.5022000000 3.7342000000 1.6151000000
2.5021000000 4.5748000000 0.8969000000
2.5021000000 0.8773000000 1.1640000000
2.5020000000 1.9018000000 1.9191000000
2.5019000000 2.3499000000 2.2171000000
2.5017000000 3.6469000000 1.6722000000
2.5015000000 2.5821000000 2.3046000000
2.5014000000 1.7851000000 1.8404000000
2.5012000000 3.8817000000 1.5193000000
2.5011000000 4.6787000000 0.7638000000
2.5010000000 1.9886000000 1.9820000000
2.5009000000 4.4478000000 1.0660000000
2.5008000000 1.6051000000 1.7223000000
2.5008000000 0.5506000000 0.7444000000
2.4999000000 0.9461000000 1.2563000000
2.4995000000 2.0840000000 2.0444000000
2.4994000000 1.6106000000 1.7271000000
2.4992000000 1.8539000000 1.8899000000
2.4992000000 2.4828000000 2.3133000000
2.4991000000 2.6422000000 2.3970000000
2.4990000000 1.0921000000 1.3059000000
2.4985000000 3.7765000000 1.5934000000
2.4985000000 3.4724000000 1.7953000000
2.4983000000 4.3681000000 1.2218000000
2.4983000000 2.9238000000 2.1622000000
2.4979000000 2.2493000000 2.1598000000
2.4977000000 3.3873000000 1.8545000000
2.4958000000 2.5593000000 2.3649000000
2.2639000000 4.5427000000 0.9368000000
2.2633000000 5.2162000000 0.1151000000
2.2596000000 4.1852000000 1.4162000000
2.2593000000 3.4856000000 2.0665000000
2.2590000000 3.2939000000 2.1943000000
2.2588000000 4.9899000000 0.3485000000
2.2584000000 2.4729000000 2.5837000000
2.2583000000 4.8264000000 0.5613000000
2.2582000000 1.0553000000 1.3464000000
2.2578000000 3.0824000000 2.3395000000
2.2577000000 3.5407000000 2.0261000000
2.2577000000 2.8628000000 2.4803000000
2.2569000000 3.2282000000 2.2346000000
2.2568000000 3.0119000000 2.3840000000
2.2568000000 2.7867000000 2.5312000000
2.2567000000 4.5253000000 0.9622000000
2.2565000000 0.7543000000 1.0129000000
2.2563000000 0.7226000000 0.9780000000
2.2560000000 3.5079000000 2.0559000000
2.2558000000 3.7287000000 1.9028000000
2.2557000000 3.0625000000 2.3524000000
2.2555000000 3.4878000000 2.0689000000
2.2555000000 4.7255000000 0.6903000000
2.2554000000 4.3341000000 1.2179000000
2.2553000000 0.5721000000 0.7008000000
2.2552000000 3.3466000000 2.1641000000
2.2551000000 2.9407000000 2.4293000000
2.2550000000 2.1243000000 2.3632000000
2.2549000000 3.6391000000 1.9671000000
2.2548000000 2.2580000000 2.4489000000
2.2548000000 4.7453000000 0.6678000000
2.2545000000 3.5460000000 2.0307000000
2.2545000000 4.8638000000 0.5081000000
2.2544000000 2.8787000000 2.4743000000
2.2543000000 4.5464000000 0.9372000000
2.2540000000 2.9309000000 2.4475000000
2.2540000000 1.2661000000 1.6305000000
2.2539000000 5.1985000000 0.1373000000
2.2538000000 2.6893000000 2.6589000000
2.2537000000 4.4914000000 1.0046000000
2.2535000000 2.7455000000 2.5673000000
2.2534000000 1.6441000000 2.0375000000
2.2533000000 1.6425000000 2.0355000000
2.2531000000 0.9789000000 1.3168000000
2.2531000000 2.1252000000 2.3557000000
2.2530000000 1.1671000000 1.5688000000
2.2530000000 0.1066000000 0.1510000000
2.2527000000 4.3156000000 1.2401000000
2.2526000000 1.7830000000 2.1326000000
2.2523000000 4.3140000000 1.2443000000
2.2522000000 0.2090000000 0.2137000000
2.2522000000 4.6432000000 0.8012000000
2.2521000000 3.1045000000 2.3224000000
2.2521000000 4.7843000000 0.6191000000
2.2520000000 3.8015000000 1.9236000000
2.2520000000 4.2067000000 1.3883000000
2.2520000000 3.5744000000 2.0085000000
2.2519000000 0.8695000000 1.1762000000
2.2517000000 4.1506000000 1.4646000000
2.2516000000 3.2330000000 2.2461000000
2.2515000000 4.5545000000 0.9174000000
2.2513000000 0.1516000000 0.1397000000
2.2513000000 0.6347000000 0.8553000000
2.2510000000 4.8093000000 0.5837000000
2.2510000000 1.5989000000 2.0067000000
2.2509000000 4.6822000000 0.7529000000
2.2504000000 3.6791000000 1.9464000000
2.2498000000 4.1821000000 1.4219000000
2.2493000000 2.1932000000 2.4060000000
2.2493000000 0.3398000000 0.4646000000
2.2488000000 0.5955000000 0.8044000000
2.2487000000 3.1261000000 2.3205000000
2.2485000000 1.4479000000 1.8922000000
2.2484000000 1.3172000000 1.7493000000
2.2479000000 0.0692000000 0.1042000000
2.2478000000 3.8089000000 1.9069000000
2.2477000000 2.2137000000 2.4221000000
2.2458000000 0.4060000000 0.4758000000
2.2456000000 2.8430000000 2.5149000000
2.2440000000 1.9284000000 2.2360000000
2.0107000000 4.7567000000 0.6538000000
2.0096000000 4.6464000000 0.7994000000
2.0093000000 3.0662000000 2.6365000000
2.0093000000 0.7660000000 1.0343000000
2.0093000000 1.2387000000 1.6749000000
2.0090000000 3.2484000000 2.5117000000
2.0088000000 5.0039000000 0.3219000000
2.0083000000 2.4841000000 2.8800000000
2.0080000000 3.5404000000 2.3277000000
2.0078000000 3.1870000000 2.5555000000
2.0076000000 4.1072000000 1.5170000000
2.0070000000 2.9908000000 2.6865000000
2.0070000000 4.1658000000 1.4439000000
2.0069000000 3.5216000000 2.3562000000
2.0066000000 2.4126000000 2.8336000000
2.0065000000 4.9153000000 0.4449000000
2.0065000000 0.9929000000 1.3344000000
2.0064000000 0.9402000000 1.2666000000
2.0061000000 3.8755000000 1.8317000000
2.0060000000 1.5392000000 2.0672000000
2.0059000000 0.9120000000 1.2279000000
2.0053000000 1.9997000000 2.5673000000
2.0053000000 4.1308000000 1.4898000000
2.0050000000 4.5370000000 0.9509000000
2.0049000000 3.9309000000 1.7572000000
2.0047000000 2.1528000000 2.6648000000
2.0046000000 4.3259000000 1.2192000000
2.0043000000 3.1778000000 2.5703000000
2.0041000000 0.9134000000 1.2368000000
2.0039000000 1.8033000000 2.4052000000
2.0037000000 3.1733000000 2.5701000000
2.0036000000 0.6425000000 0.8687000000
2.0035000000 3.0197000000 2.6718000000
2.0034000000 1.6524000000 2.2143000000
2.0032000000 4.6336000000 0.8201000000
2.0031000000 2.7528000000 2.8518000000
2.0029000000 2.3848000000 2.8175000000
2.0028000000 2.4305000000 2.8535000000
2.0025000000 1.2156000000 1.6324000000
2.0024000000 1.2986000000 1.7464000000
2.0023000000 5.2999000000 0.0759000000
2.0023000000 5.1556000000 0.1155000000
2.0022000000 4.8175000000 0.5734000000
2.0018000000 2.3678000000 2.8103000000
2.0018000000 3.3144000000 2.4771000000
2.0017000000 3.0248000000 2.6650000000
2.0016000000 1.3277000000 1.7826000000
2.0015000000 4.4875000000 1.0064000000
2.0014000000 5.2081000000 0.1265000000
2.0011000000 3.2286000000 2.5340000000
2.0010000000 0.3630000000 0.4157000000
2.0009000000 0.9622000000 1.2917000000
2.0008000000 2.4368000000 2.8586000000
2.0007000000 4.5697000000 0.9056000000
2.0005000000 3.9748000000 1.6989000000
2.0005000000 4.0784000000 1.5584000000
2.0005000000 2.2411000000 2.7274000000
2.0004000000 0.1626000000 0.1557000000
2.0002000000 0.9019000000 1.2115000000
2.0000000000 0.9497000000 1.2775000000
1.9998000000 3.7959000000 1.9377000000
1.9995000000 4.0622000000 1.5839000000
1.9989000000 2.3532000000 2.8035000000
1.9987000000 1.2486000000 1.6816000000
1.9980000000 5.2369000000 0.0889000000
1.9973000000 2.4915000000 2.8991000000
1.9969000000 1.5178000000 2.0416000000
1.9958000000 0.8228000000 1.1094000000
1.9955000000 0.0761000000 0.1135000000
1.7612000000 4.0158000000 1.6441000000
1.7610000000 1.2544000000 1.6852000000
1.7603000000 2.2783000000 3.0042000000
1.7592000000 4.3200000000 1.2385000000
1.7589000000 3.8382000000 1.8835000000
1.7588000000 3.5867000000 2.2151000000
1.7586000000 4.4855000000 1.0230000000
1.7583000000 4.5083000000 0.9870000000
1.7581000000 5.2843000000 0.0255000000
1.7579000000 0.9286000000 1.2481000000
1.7573000000 3.2973000000 2.5995000000
1.7572000000 4.1182000000 1.5075000000
1.7565000000 5.3020000000 0.0756000000
1.7564000000 3.2861000000 2.6184000000
1.7560000000 3.5669000000 2.2429000000
1.7557000000 4.2248000000 1.3660000000
1.7556000000 1.5427000000 2.0716000000
1.7555000000 4.7473000000 0.6611000000
1.7555000000 3.0637000000 2.9657000000
1.7554000000 1.6605000000 2.2312000000
1.7554000000 0.0141000000 0.0325000000
1.7553000000 3.3249000000 2.5672000000
1.7553000000 3.8244000000 1.8898000000
1.7552000000 3.4591000000 2.3879000000
1.7551000000 2.3601000000 3.0122000000
1.7551000000 2.5829000000 3.1677000000
1.7548000000 0.1350000000 0.1920000000
1.7548000000 0.3505000000 0.4771000000
1.7547000000 1.1872000000 1.5978000000
1.7543000000 2.2711000000 3.0106000000
1.7538000000 1.6305000000 2.1878000000
1.7538000000 2.2290000000 2.9656000000
1.7537000000 5.1405000000 0.1380000000
1.7536000000 0.3932000000 0.5345000000
1.7535000000 0.8986000000 1.2145000000
1.7533000000 3.2684000000 2.6427000000
1.7530000000 1.1236000000 1.5131000000
1.7528000000 5.1489000000 0.1282000000
1.7527000000 2.0533000000 2.7553000000
1.7526000000 2.6420000000 3.2662000000
1.7523000000 3.1561000000 2.7909000000
1.7521000000 4.7843000000 0.6172000000
1.7522000000 1.8009000000 2.4210000000
1.7520000000 0.5423000000 0.7283000000
1.7519000000 5.3025000000 0.0711000000
1.7518000000 3.8402000000 1.8775000000
1.7518000000 3.9796000000 1.6878000000
1.7517000000 1.0922000000 1.4687000000
1.7515000000 4.7015000000 0.7236000000
1.7515000000 3.3732000000 2.4987000000
1.7514000000 0.2397000000 0.2518000000
1.7512000000 4.9374000000 0.4138000000
1.7510000000 1.8644000000 2.5048000000
1.7510000000 4.6402000000 0.8100000000
1.7508000000 -0.0000000000 0.0840000000
1.7505000000 0.4507000000 0.5370000000
1.7501000000 0.5123000000 0.6210000000
1.7500000000 3.6967000000 2.0727000000
1.7498000000 5.0290000000 0.2835000000
1.7492000000 0.3988000000 0.5407000000
1.7490000000 2.1773000000 2.8962000000
1.7489000000 1.8503000000 2.4830000000
1.7485000000 0.2214000000 0.2319000000
1.7483000000 2.0068000000 2.6904000000
1.7475000000 2.8088000000 3.1086000000
1.7472000000 2.8418000000 3.0894000000
1.7469000000 3.0754000000 2.9459000000
1.7465000000 0.4405000000 0.5998000000
1.7463000000 0.9109000000 1.2301000000
1.5105000000 5.0276000000 0.2919000000
1.5094000000 1.1777000000 1.5867000000
1.5090000000 2.7697000000 3.3630000000
1.5085000000 5.2306000000 0.0927000000
1.5084000000 3.6800000000 2.0907000000
1.5083000000 4.6304000000 0.8225000000
1.5082000000 4.8570000000 0.5210000000
1.5081000000 3.7162000000 2.0442000000
1.5078000000 2.6861000000 3.4258000000
1.5077000000 4.0318000000 1.6185000000
1.5075000000 4.4275000000 1.0931000000
1.5074000000 2.5334000000 3.3598000000
1.5072000000 0.9711000000 1.3078000000
1.5071000000 4.1614000000 1.4495000000
1.5068000000 4.2918000000 1.2726000000
1.5067000000 1.7566000000 2.3553000000
1.5066000000 4.9775000000 0.3587000000
1.5064000000 3.1694000000 2.7721000000
1.5060000000 2.9645000000 3.0509000000
1.5059000000 2.4092000000 3.2343000000
1.5057000000 3.7630000000 1.9778000000
1.5054000000 4.9854000000 0.3493000000
1.5052000000 0.1392000000 0.1987000000
1.5050000000 4.6594000000 0.7849000000
1.5049000000 5.2446000000 0.0752000000
1.5048000000 5.1851000000 0.1550000000
1.5047000000 2.1002000000 2.8164000000
1.5047000000 1.5237000000 2.0490000000
1.5045000000 4.3964000000 1.1356000000
1.5046000000 4.5427000000 0.9373000000
1.5043000000 2.0295000000 2.7178000000
1.5041000000 1.2489000000 1.6781000000
1.5041000000 3.5116000000 2.3125000000
1.5042000000 2.7075000000 3.4327000000
1.5040000000 0.7859000000 1.0524000000
1.5039000000 2.4678000000 3.3050000000
1.5037000000 4.4841000000 1.0153000000
1.5037000000 4.7762000000 0.6273000000
1.5036000000 3.8477000000 1.8654000000
1.5033000000 2.4117000000 3.2349000000
1.5033000000 3.2408000000 2.6778000000
1.5032000000 0.1952000000 0.2006000000
1.5028000000 2.4957000000 3.2587000000
1.5025000000 4.0322000000 1.6225000000
1.5023000000 1.9936000000 2.6752000000
1.5024000000 0.5691000000 0.6986000000
1.5023000000 5.3039000000 0.0760000000
1.5022000000 2.6142000000 3.4257000000
1.5022000000 0.1910000000 0.2688000000
1.5020000000 1.8313000000 2.4551000000
1.5020000000 4.4018000000 1.1282000000
1.5017000000 0.3983000000 0.5427000000
1.5015000000 2.8952000000 3.1398000000
1.5014000000 0.4429000000 0.5270000000
1.5011000000 1.7823000000 2.3910000000
1.5009000000 2.3174000000 3.1052000000
1.5008000000 3.9811000000 1.6860000000
1.5006000000 1.4409000000 1.9370000000
1.5006000000 1.3925000000 1.8794000000
1.5005000000 2.2685000000 3.0357000000
1.5003000000 4.7651000000 0.6401000000
1.5002000000 3.5490000000 2.2651000000
1.5001000000 2.5769000000 3.4232000000
1.4997000000 3.0713000000 2.9011000000
1.4993000000 0.3872000000 0.4520000000
1.4989000000 4.6107000000 0.8463000000
1.4986000000 3.1197000000 2.8395000000
1.4984000000 0.3293000000 0.3771000000
1.4977000000 1.8308000000 2.4562000000
1.4976000000 4.4199000000 1.0990000000
1.4970000000 2.2206000000 2.9782000000
1.4963000000 0.4731000000 0.5682000000
1.4961000000 3.7653000000 1.9785000000
1.4951000000 0.9461000000 1.2038000000
1.2620000000 2.7349000000 3.1825000000
1.2615000000 4.8374000000 0.5501000000
1.2613000000 3.8453000000 1.8703000000
1.2609000000 2.5187000000 3.1533000000
1.2608000000 5.2366000000 0.0848000000
1.2604000000 5.2845000000 0.0251000000
1.2598000000 3.7826000000 1.9567000000
1.2587000000 1.5974000000 2.1379000000
1.2586000000 0.2722000000 0.2960000000
1.2585000000 1.8414000000 2.4690000000
1.2580000000 3.8931000000 1.8048000000
1.2576000000 1.5423000000 2.0754000000
1.2571000000 3.7505000000 1.9960000000
1.2569000000 2.8938000000 2.9972000000
1.2565000000 3.1922000000 2.7976000000
1.2562000000 2.4571000000 3.0986000000
1.2561000000 0.4546000000 0.5429000000
1.2560000000 4.2066000000 1.3892000000
1.2559000000 4.2878000000 1.2733000000
1.2558000000 1.5446000000 2.0705000000
1.2558000000 0.7531000000 1.0149000000
1.2556000000 0.3433000000 0.3966000000
1.2555000000 4.1023000000 1.5269000000
1.2552000000 3.7837000000 1.9569000000
1.2550000000 2.7150000000 3.1181000000
1.2549000000 2.6647000000 3.1944000000
1.2546000000 5.1961000000 0.1451000000
1.2543000000 0.9603000000 1.2935000000
1.2543000000 3.3209000000 2.5776000000
1.2541000000 2.3081000000 3.0004000000
1.2541000000 2.9886000000 2.9232000000
1.2539000000 4.9616000000 0.3726000000
1.2538000000 5.0490000000 0.2651000000
1.2537000000 1.3758000000 1.8452000000
1.2536000000 2.5476000000 3.1647000000
1.2535000000 1.9469000000 2.6058000000
1.2534000000 2.6463000000 3.2068000000
1.2534000000 3.2714000000 2.6415000000
1.2533000000 4.7006000000 0.7314000000
1.2532000000 2.7852000000 3.0545000000
1.2532000000 2.6919000000 3.1775000000
1.2531000000 4.9167000000 0.4414000000
1.2529000000 1.4598000000 1.9583000000
1.2528000000 4.7279000000 0.6918000000
1.2527000000 2.5565000000 3.1640000000
1.2525000000 4.5484000000 0.9361000000
1.2525000000 2.7175000000 3.1824000000
1.2524000000 5.2624000000 0.0483000000
1.2523000000 0.1235000000 0.0961000000
1.2523000000 4.3741000000 1.1650000000
1.2520000000 1.4028000000 1.8807000000
1.2519000000 0.5600000000 0.6853000000
1.2517000000 2.5060000000 3.1337000000
1.2515000000 0.9818000000 1.3246000000
1.2512000000 4.8914000000 0.4742000000
1.2506000000 0.2504000000 0.2764000000
1.2503000000 2.6131000000 3.1789000000
1.2502000000 2.1060000000 2.8046000000
1.2500000000 2.4910000000 3.1202000000
1.2497000000 3.8766000000 1.8300000000
1.2495000000 3.2523000000 2.6659000000
1.2491000000 0.0331000000 0.0577000000
1.2491000000 2.0345000000 2.6566000000
1.2490000000 2.9756000000 2.9301000000
1.2490000000 1.5301000000 2.0521000000
1.2489000000 0.9244000000 1.2462000000
1.2489000000 3.2251000000 2.7560000000
1.2483000000 2.2482000000 2.9343000000
1.2483000000 0.9062000000 1.2229000000
1.2470000000 2.3241000000 3.0047000000
1.0123000000 4.0120000000 1.6468000000
1.0113000000 3.6962000000 2.0722000000
1.0107000000 2.8860000000 2.7121000000
1.0101000000 4.1867000000 1.4072000000
1.0088000000 4.5487000000 0.9321000000
1.0084000000 2.1510000000 2.6172000000
1.0084000000 3.6346000000 2.2046000000
1.0083000000 3.9242000000 1.7700000000
1.0082000000 3.0492000000 2.6048000000
1.0080000000 4.3252000000 1.2251000000
1.0073000000 4.8158000000 0.5746000000
1.0073000000 0.5441000000 0.6659000000
1.0071000000 1.6217000000 2.0936000000
1.0069000000 3.1869000000 2.5076000000
1.0068000000 4.3885000000 1.1444000000
1.0067000000 4.9512000000 0.3898000000
1.0065000000 3.4478000000 2.3926000000
1.0063000000 0.7085000000 0.9601000000
1.0060000000 1.1865000000 1.5971000000
1.0059000000 2.5105000000 2.8507000000
1.0056000000 4.9426000000 0.4052000000
1.0056000000 3.3922000000 2.3717000000
1.0054000000 4.1205000000 1.5023000000
1.0054000000 4.9124000000 0.4478000000
1.0052000000 3.0215000000 2.6146000000
1.0051000000 0.4532000000 0.5409000000
1.0050000000 3.3741000000 2.3826000000
1.0048000000 4.0908000000 1.5433000000
1.0048000000 2.8263000000 2.8164000000
1.0045000000 5.2720000000 0.0373000000
1.0043000000 1.7609000000 2.3277000000
1.0040000000 5.1895000000 0.1542000000
1.0039000000 4.1229000000 1.4915000000
1.0038000000 2.6943000000 2.8913000000
1.0037000000 0.9032000000 1.2141000000
1.0035000000 1.2046000000 1.6192000000
1.0034000000 2.7405000000 2.7986000000
1.0032000000 1.3348000000 1.7930000000
1.0031000000 1.3544000000 1.8174000000
1.0028000000 4.3821000000 1.1533000000
1.0028000000 3.8334000000 1.8905000000
1.0025000000 0.9658000000 1.3033000000
1.0026000000 4.8869000000 0.4837000000
1.0024000000 2.8861000000 2.7003000000
1.0023000000 3.5558000000 2.3101000000
1.0024000000 0.1586000000 0.1465000000
1.0023000000 3.8415000000 1.8756000000
1.0023000000 0.2086000000 0.2888000000
1.0019000000 5.0429000000 0.2660000000
1.0017000000 0.4648000000 0.6279000000
1.0016000000 3.5395000000 2.3122000000
1.0015000000 2.1308000000 2.5955000000
1.0014000000 0.6750000000 0.9099000000
1.0014000000 1.1844000000 1.5909000000
1.0013000000 4.4976000000 0.9981000000
1.0010000000 3.3462000000 2.3968000000
1.0010000000 4.2208000000 1.3723000000
1.0009000000 0.5659000000 0.7621000000
1.0008000000 0.0591000000 0.0871000000
1.0007000000 0.4833000000 0.6577000000
1.0007000000 2.0570000000 2.5442000000
1.0006000000 4.6144000000 0.8381000000
1.0002000000 1.0419000000 1.4056000000
1.0002000000 5.2765000000 0.0315000000
1.0000000000 0.3116000000 0.3464000000
1.0000000000 1.7810000000 2.3391000000
0.9995000000 1.1371000000 1.5289000000
0.9994000000 0.6892000000 0.9357000000
0.9994000000 0.5630000000 0.7588000000
0.9993000000 4.1839000000 1.4142000000
0.9992000000 3.6940000000 2.0702000000
0.9988000000 2.9756000000 2.6343000000
0.9983000000 0.5480000000 0.6692000000
0.9982000000 3.3378000000 2.3925000000
0.9980000000 0.9406000000 1.2592000000
0.9976000000 1.2137000000 1.6258000000
0.9972000000 4.4573000000 1.0542000000
0.9969000000 1.2782000000 1.7205000000
0.9937000000 2.1614000000 2.6085000000
0.7611000000 4.5842000000 0.8841000000
0.7600000000 2.9652000000 2.3710000000
0.7596000000 5.2830000000 0.0240000000
0.7595000000 4.6505000000 0.7941000000
0.7593000000 0.9269000000 1.2474000000
0.7589000000 5.1900000000 0.1473000000
0.7583000000 4.3221000000 1.2330000000
0.7581000000 4.5825000000 0.8851000000
0.7581000000 0.3373000000 0.3894000000
0.7580000000 3.9138000000 1.7873000000
0.7580000000 1.4865000000 1.8817000000
0.7579000000 4.6696000000 0.7657000000
0.7569000000 3.5747000000 1.9589000000
0.7565000000 3.1643000000 2.2391000000
0.7564000000 3.4380000000 2.0535000000
0.7563000000 4.8422000000 0.5412000000
0.7562000000 3.1585000000 2.2363000000
0.7561000000 5.1226000000 0.1672000000
0.7560000000 2.2477000000 2.3835000000
0.7560000000 2.9533000000 2.3746000000
0.7556000000 0.0474000000 0.0772000000
0.7555000000 0.6450000000 0.8719000000
0.7555000000 2.0783000000 2.2710000000
0.7554000000 4.3305000000 1.2225000000
0.7552000000 4.6316000000 0.8211000000
0.7551000000 0.8020000000 1.0815000000
0.7551000000 0.7168000000 0.9702000000
0.7550000000 2.1365000000 2.3077000000
0.7546000000 2.8184000000 2.4608000000
0.7545000000 3.3710000000 2.0962000000
0.7545000000 2.4147000000 2.4922000000
0.7544000000 0.7816000000 1.0570000000
0.7542000000 3.1866000000 2.2089000000
0.7540000000 0.2802000000 0.3120000000
0.7539000000 4.5650000000 0.9067000000
0.7538000000 3.4731000000 2.0193000000
0.7537000000 0.5773000000 0.7821000000
0.7535000000 4.0036000000 1.7137000000
0.7535000000 0.6695000000 0.8330000000
0.7535000000 3.2975000000 2.1417000000
0.7533000000 4.9958000000 0.3366000000
0.7533000000 1.5292000000 1.9045000000
0.7532000000 3.9969000000 1.7175000000
0.7531000000 2.4917000000 2.5470000000
0.7528000000 5.2690000000 0.0518000000
0.7525000000 0.0443000000 0.0699000000
0.7525000000 0.1509000000 0.1360000000
0.7520000000 2.5747000000 2.5976000000
0.7518000000 1.4893000000 1.8755000000
0.7518000000 3.8163000000 1.7941000000
0.7516000000 1.3867000000 1.7868000000
0.7515000000 1.1063000000 1.4895000000
0.7513000000 3.5729000000 1.9558000000
0.7513000000 0.0863000000 0.1280000000
0.7510000000 0.9737000000 1.3120000000
0.7508000000 0.3898000000 0.4578000000
0.7507000000 1.8867000000 2.1432000000
0.7504000000 2.4020000000 2.4820000000
0.7501000000 4.8720000000 0.5034000000
0.7500000000 2.0240000000 2.2306000000
0.7500000000 0.9970000000 1.3444000000
0.7493000000 0.8742000000 1.1774000000
0.7484000000 2.9212000000 2.3875000000
0.7481000000 0.8866000000 1.1941000000
0.7476000000 5.2622000000 0.0470000000
0.7472000000 5.0097000000 0.3160000000
0.7471000000 0.8440000000 1.1352000000
0.7464000000 1.1558000000 1.4823000000
0.7464000000 1.0325000000 1.3916000000
0.7453000000 0.9396000000 1.2684000000
0.7447000000 2.7136000000 2.5234000000
0.5168000000 3.9162000000 1.4554000000
0.5145000000 5.0369000000 0.2834000000
0.5110000000 2.7962000000 2.1962000000
0.5105000000 3.1893000000 1.9335000000
0.5104000000 4.1388000000 1.2991000000
0.5090000000 3.9792000000 1.4042000000
0.5083000000 3.5713000000 1.6702000000
0.5078000000 0.2074000000 0.2133000000
0.5071000000 4.5571000000 0.9207000000
0.5071000000 4.7960000000 0.5996000000
0.5070000000 4.9827000000 0.3503000000
0.5069000000 5.2417000000 0.0820000000
0.5063000000 4.0808000000 1.3405000000
0.5062000000 5.2809000000 0.0355000000
0.5058000000 4.9338000000 0.4189000000
0.5057000000 1.9509000000 1.8967000000
0.5056000000 0.6794000000 0.9130000000
0.5055000000 5.1718000000 0.1757000000
0.5055000000 3.1911000000 1.9239000000
0.5053000000 2.7354000000 2.2307000000
0.5053000000 4.9011000000 0.4562000000
0.5053000000 0.5307000000 0.7138000000
0.5050000000 2.7268000000 2.2277000000
0.5045000000 3.8445000000 1.4886000000
0.5040000000 1.7590000000 1.7690000000
0.5040000000 0.8977000000 1.1694000000
0.5038000000 5.1793000000 0.1629000000
0.5037000000 3.3222000000 1.8332000000
0.5036000000 4.5993000000 0.8679000000
0.5036000000 5.0839000000 0.2194000000
0.5035000000 0.4504000000 0.6137000000
0.5034000000 2.3994000000 2.1961000000
0.5033000000 5.0798000000 0.2218000000
0.5031000000 1.4516000000 1.5620000000
0.5030000000 1.9256000000 1.8753000000
0.5030000000 3.6457000000 1.6163000000
0.5028000000 3.7911000000 1.5223000000
0.5028000000 0.4307000000 0.5078000000
0.5026000000 0.4657000000 0.5616000000
0.5025000000 1.0503000000 1.2917000000
0.5020000000 0.3667000000 0.4269000000
0.5018000000 3.4508000000 1.7472000000
0.5017000000 4.9114000000 0.4494000000
0.5015000000 0.6855000000 0.9283000000
0.5014000000 3.0361000000 2.0212000000
0.5013000000 1.3609000000 1.4929000000
0.5013000000 1.1624000000 1.3674000000
0.5010000000 2.8637000000 2.1327000000
0.5010000000 3.0446000000 2.0183000000
0.5009000000 3.9884000000 1.3896000000
0.5004000000 1.0947000000 1.2460000000
0.5003000000 0.9169000000 1.1818000000
0.5001000000 3.2659000000 1.8687000000
0.5000000000 0.1526000000 0.1422000000
0.4998000000 3.5541000000 1.6763000000
0.4997000000 0.4583000000 0.5487000000
0.4994000000 0.1046000000 0.1545000000
0.4993000000 0.9391000000 1.1941000000
0.4990000000 0.7320000000 0.9123000000
0.4989000000 0.4971000000 0.6730000000
0.4984000000 0.4081000000 0.5536000000
0.4982000000 1.1311000000 1.3460000000
0.4978000000 1.4808000000 1.5754000000
0.4978000000 0.6537000000 0.8890000000
0.4974000000 1.6749000000 1.7024000000
0.4970000000 1.0853000000 1.3164000000
0.4965000000 2.6194000000 2.3143000000
0.4963000000 1.2709000000 1.4309000000
0.2639000000 5.0089000000 0.3221000000
0.2628000000 5.0692000000 0.2311000000
0.2606000000 4.3129000000 0.8949000000
0.2600000000 3.6439000000 1.3366000000
0.2600000000 5.1798000000 0.1647000000
0.2586000000 4.0723000000 1.0523000000
0.2575000000 3.4353000000 1.4726000000
0.2573000000 1.9694000000 1.6188000000
0.2573000000 1.7441000000 1.4790000000
0.2572000000 2.1546000000 1.7467000000
0.2573000000 3.2644000000 1.5840000000
0.2570000000 4.8346000000 0.5939000000
0.2569000000 1.2474000000 1.1409000000
0.2568000000 2.4141000000 1.9205000000
0.2566000000 1.5524000000 1.3400000000
0.2563000000 4.8259000000 0.5962000000
0.2563000000 1.2649000000 1.1533000000
0.2560000000 0.5959000000 0.6295000000
0.2552000000 2.8884000000 1.8406000000
0.2551000000 5.1628000000 0.1117000000
0.2551000000 2.0806000000 1.6929000000
0.2548000000 4.8528000000 0.5783000000
0.2547000000 0.9881000000 0.9662000000
0.2548000000 3.1093000000 1.6908000000
0.2546000000 2.1204000000 1.7159000000
0.2543000000 4.7076000000 0.6212000000
0.2543000000 1.7209000000 1.4506000000
0.2542000000 0.6608000000 0.6729000000
0.2540000000 3.9754000000 1.1078000000
0.2540000000 4.1960000000 0.9649000000
0.2539000000 1.6284000000 1.3882000000
0.2538000000 0.7488000000 0.8038000000
0.2537000000 3.8897000000 1.1654000000
0.2536000000 5.1326000000 0.1520000000
0.2535000000 1.6102000000 1.3847000000
0.2550000000 4.3177000000 0.8807000000
0.2533000000 4.9186000000 0.4932000000
0.2531000000 4.3374000000 0.8690000000
0.2530000000 3.3324000000 1.5385000000
0.2528000000 4.9880000000 0.3435000000
0.2525000000 1.3535000000 1.2109000000
0.2522000000 0.5400000000 0.6554000000
0.2521000000 3.1581000000 1.6534000000
0.2520000000 4.4358000000 0.7979000000
0.2518000000 0.2588000000 0.3543000000
0.2517000000 3.7395000000 1.2614000000
0.2516000000 3.2060000000 1.6201000000
0.2515000000 1.8042000000 1.5074000000
0.2509000000 1.7380000000 1.4633000000
0.2508000000 2.0946000000 1.7020000000
0.2508000000 1.5717000000 1.3471000000
0.2507000000 0.4071000000 0.5367000000
0.2504000000 0.0285000000 0.0512000000
0.2503000000 3.0578000000 1.7173000000
0.2498000000 2.6023000000 2.0200000000
0.2497000000 3.2626000000 1.5826000000
0.2496000000 3.0806000000 1.7002000000
0.2495000000 1.4237000000 1.2511000000
0.2494000000 4.5236000000 0.7422000000
0.2492000000 3.4864000000 1.4316000000
0.2491000000 0.7890000000 0.8273000000
0.2490000000 2.6860000000 2.0222000000
0.2483000000 3.5281000000 1.4021000000
0.2475000000 0.9819000000 0.8726000000
0.2457000000 4.3405000000 0.8546000000
0.2447000000 0.9318000000 0.9153000000
0.0136000000 2.3224000000 1.5769000000
0.0109000000 5.0286000000 0.1324000000
0.0100000000 1.3957000000 0.9520000000
0.0098000000 1.3094000000 0.9015000000
0.0095000000 1.7086000000 1.0823000000
0.0095000000 4.8492000000 0.2416000000
0.0088000000 4.7397000000 0.3187000000
0.0088000000 0.1261000000 0.1018000000
0.0083000000 4.8145000000 0.2644000000
0.0081000000 5.2581000000 0.0965000000
0.0079000000 4.9584000000 0.1672000000
0.0076000000 2.8839000000 1.5528000000
0.0070000000 1.4945000000 1.0091000000
0.0064000000 2.3655000000 1.5992000000
0.0059000000 2.8435000000 1.5745000000
0.0057000000 5.1113000000 0.1366000000
0.0054000000 2.0763000000 1.4078000000
0.0048000000 1.6881000000 1.1431000000
0.0044000000 0.7403000000 0.5075000000
0.0043000000 0.3551000000 0.1805000000
0.0043000000 5.2099000000 0.0515000000
0.0042000000 5.2260000000 0.0427000000
0.0041000000 5.2243000000 0.0377000000
0.0040000000 2.3547000000 1.5873000000
0.0040000000 2.7664000000 1.6284000000
0.0036000000 0.0139000000 0.0770000000
0.0035000000 1.4612000000 0.9905000000
0.0035000000 0.4886000000 0.3440000000
0.0034000000 2.9267000000 1.5194000000
0.0033000000 1.6742000000 1.1344000000
0.0033000000 3.8020000000 0.9347000000
0.0032000000 4.4525000000 0.5027000000
0.0033000000 0.9051000000 0.6201000000
0.0031000000 0.3031000000 0.1399000000
0.0031000000 5.1351000000 0.1157000000
0.0029000000 5.0982000000 0.1430000000
0.0028000000 4.7617000000 0.2944000000
0.0027000000 4.6663000000 0.3624000000
0.0026000000 3.2439000000 1.3088000000
0.0026000000 4.9390000000 0.1756000000
0.0025000000 2.0169000000 1.3658000000
0.0024000000 3.5988000000 1.0761000000
0.0024000000 0.8908000000 0.5302000000
0.0022000000 2.1971000000 1.4839000000
0.0021000000 0.3611000000 0.1793000000
0.0021000000 2.7504000000 1.6342000000
0.0015000000 0.7482000000 0.5101000000
0.0012000000 4.2800000000 0.6192000000
0.0008000000 1.6101000000 1.0851000000
0.0007000000 0.6067000000 0.3392000000
0.0006000000 4.0222000000 0.7818000000
0.0005000000 3.3494000000 1.2330000000
0.0004000000 3.9907000000 0.8056000000
0.0002000000 1.7672000000 1.1916000000
0.0003000000 1.2555000000 0.8457000000
-0.0003000000 3.3463000000 1.2345000000
-0.0009000000 1.2108000000 0.8215000000
-0.0016000000 1.2646000000 0.8561000000
-0.0023000000 2.0281000000 1.3571000000
-0.0028000000 2.7364000000 1.6377000000
-0.0046000000 2.3942000000 1.6078000000
-0.2386000000 1.6708000000 0.8489000000
-0.2408000000 4.7174000000 0.1159000000
-0.2419000000 3.1779000000 1.0747000000
-0.2420000000 3.5658000000 0.8114000000
-0.2422000000 1.5896000000 0.7915000000
-0.2423000000 4.1953000000 0.3896000000
-0.2426000000 4.5677000000 0.1409000000
-0.2427000000 1.5863000000 0.7858000000
-0.2428000000 2.5173000000 1.4091000000
-0.2440000000 3.9266000000 0.5666000000
-0.2444000000 2.1570000000 1.1710000000
-0.2445000000 2.5415000000 1.4274000000
-0.2446000000 2.7766000000 1.3326000000
-0.2451000000 1.5406000000 0.6832000000
-0.2452000000 0.7908000000 0.1756000000
-0.2454000000 1.3645000000 0.6361000000
-0.2455000000 1.0133000000 0.4102000000
-0.2456000000 4.7283000000 0.0997000000
-0.2457000000 1.1038000000 0.3894000000
-0.2458000000 1.7732000000 0.9046000000
-0.2460000000 1.5122000000 0.6556000000
-0.2461000000 4.0345000000 0.4957000000
-0.2462000000 3.0242000000 1.1661000000
-0.2462000000 1.5960000000 0.7945000000
-0.2463000000 2.0336000000 1.0879000000
-0.2464000000 3.4686000000 0.8725000000
-0.2465000000 3.3951000000 0.9164000000
-0.2466000000 2.2790000000 1.2499000000
-0.2470000000 1.0253000000 0.4098000000
-0.2470000000 2.9893000000 1.1920000000
-0.2470000000 2.4179000000 1.3402000000
-0.2475000000 4.4558000000 0.2030000000
-0.2477000000 1.9797000000 1.0473000000
-0.2478000000 4.7126000000 0.1156000000
-0.2480000000 3.1168000000 1.0988000000
-0.2480000000 0.2112000000 0.0202000000
-0.2480000000 0.7253000000 0.2082000000
-0.2481000000 1.5532000000 0.7586000000
-0.2482000000 2.5775000000 1.4445000000
-0.2483000000 3.6808000000 0.7289000000
-0.2485000000 0.4232000000 0.0785000000
-0.2485000000 1.0665000000 0.3661000000
-0.2489000000 4.6805000000 0.1268000000
-0.2490000000 1.6626000000 0.8340000000
-0.2491000000 0.5358000000 0.0809000000
-0.2491000000 0.8500000000 0.2918000000
-0.2492000000 1.9383000000 1.0141000000
-0.2492000000 1.0676000000 0.4383000000
-0.2495000000 1.0101000000 0.4003000000
-0.2495000000 2.3778000000 1.3040000000
-0.2497000000 4.2231000000 0.3599000000
-0.2496000000 0.7616000000 0.1578000000
-0.2498000000 0.8989000000 0.2440000000
-0.2500000000 1.7889000000 0.9153000000
-0.2501000000 4.5919000000 0.1147000000
-0.2505000000 0.5796000000 0.1112000000
-0.2505000000 1.8565000000 0.9656000000
-0.2506000000 1.6200000000 0.8049000000
-0.2509000000 3.1846000000 1.0558000000
-0.2511000000 3.5193000000 0.8303000000
-0.2514000000 2.2015000000 1.1872000000
-0.2515000000 0.9483000000 0.3542000000
-0.2519000000 4.9190000000 0.0433000000
-0.2535000000 0.9528000000 0.2783000000
-0.2536000000 4.0944000000 0.4436000000
-0.2545000000 4.4699000000 0.1967000000
-0.2605000000 1.7392000000 0.8743000000
-0.4877000000 3.7455000000 0.4033000000
-0.4905000000 0.8051000000 0.0519000000
-0.4910000000 1.2977000000 0.3092000000
-0.4912000000 4.2055000000 0.1692000000
-0.4924000000 0.8473000000 0.0797000000
-0.4926000000 2.8039000000 1.0307000000
-0.4927000000 4.3929000000 0.0443000000
-0.4929000000 3.2437000000 0.7344000000
-0.4930000000 1.3186000000 0.2469000000
-0.4932000000 2.7638000000 1.0552000000
-0.4936000000 2.6628000000 1.1734000000
-0.4942000000 3.9362000000 0.2694000000
-0.4947000000 4.6665000000 0.0062000000
-0.4949000000 3.9688000000 0.2503000000
-0.4951000000 3.9563000000 0.2576000000
-0.4952000000 0.7866000000 0.0380000000
-0.4951000000 1.8213000000 0.6559000000
-0.4952000000 2.4516000000 1.0720000000
-0.4954000000 3.6050000000 0.4918000000
-0.4955000000 1.4516000000 0.4057000000
-0.4958000000 2.9359000000 0.9379000000
-0.4959000000 4.2135000000 0.1647000000
-0.4962000000 2.5127000000 1.1141000000
-0.4962000000 2.7180000000 1.0837000000
-0.4962000000 2.0497000000 0.7993000000
-0.4966000000 1.3020000000 0.2353000000
-0.4968000000 3.8886000000 0.2990000000
-0.4969000000 3.7207000000 0.4130000000
-0.4971000000 2.7640000000 1.0498000000
-0.4973000000 4.5764000000 0.0650000000
-0.4972000000 3.4637000000 0.5783000000
-0.4974000000 4.1038000000 0.1522000000
-0.4975000000 2.8726000000 0.9771000000
-0.4977000000 2.8996000000 0.9581000000
-0.4978000000 3.8536000000 0.3192000000
-0.4979000000 0.8929000000 0.0329000000
-0.4980000000 4.0530000000 0.1816000000
-0.4983000000 4.3065000000 0.0922000000
-0.4987000000 2.3375000000 0.9954000000
-0.4988000000 0.6450000000 0.0186000000
-0.4991000000 2.5351000000 1.1255000000
-0.4993000000 2.6593000000 1.1732000000
-0.4994000000 1.8212000000 0.6474000000
-0.5000000000 3.5019000000 0.5519000000
-0.4999000000 2.1718000000 0.8837000000
-0.5002000000 1.5440000000 0.4648000000
-0.5005000000 3.7791000000 0.3666000000
-0.5010000000 0.6364000000 0.0006000000
-0.5009000000 3.8615000000 0.3076000000
-0.5011000000 4.1442000000 0.1247000000
-0.5012000000 0.9963000000 0.0937000000
-0.5014000000 0.8073000000 0.0409000000
-0.5025000000 1.6685000000 0.5403000000
-0.5026000000 2.7997000000 1.0183000000
-0.5047000000 0.8860000000 0.0223000000
-0.5052000000 1.9009000000 0.6206000000
-0.7402000000 2.0125000000 0.4977000000
-0.7414000000 3.8541000000 0.1090000000
-0.7423000000 2.7755000000 0.7624000000
-0.7430000000 2.4532000000 0.7920000000
-0.7433000000 2.9540000000 0.6480000000
-0.7435000000 3.4191000000 0.3204000000
-0.7438000000 3.3862000000 0.3481000000
-0.7439000000 1.2934000000 0.0136000000
-0.7440000000 1.1664000000 0.0024000000
-0.7449000000 2.6364000000 0.8872000000
-0.7457000000 2.0918000000 0.5462000000
-0.7462000000 3.0330000000 0.5855000000
-0.7462000000 3.3464000000 0.3704000000
-0.7463000000 2.0132000000 0.4948000000
-0.7464000000 2.1576000000 0.5850000000
-0.7465000000 3.3183000000 0.3943000000
-0.7464000000 2.7400000000 0.7752000000
-0.7466000000 1.3288000000 0.0322000000
-0.7467000000 1.4835000000 0.1401000000
-0.7467000000 1.9500000000 0.4500000000
-0.7469000000 2.1692000000 0.5953000000
-0.7470000000 1.5094000000 0.1560000000
