6.7586000000 3.9931000000 0.0966000000
6.7535000000 3.6936000000 0.0708000000
6.5136000000 4.5081000000 0.0476000000
6.5093000000 3.4281000000 0.0835000000
6.5082000000 3.9741000000 0.2793000000
6.5053000000 3.2269000000 0.0429000000
6.5033000000 4.1419000000 0.1981000000
6.5028000000 3.6156000000 0.1301000000
6.5016000000 3.8513000000 0.2723000000
6.2609000000 3.0634000000 0.1262000000
6.2587000000 4.1556000000 0.4383000000
6.2576000000 3.8009000000 0.4909000000
6.2566000000 2.8422000000 0.0765000000
6.2558000000 4.1645000000 0.4417000000
6.2554000000 3.2688000000 0.1771000000
6.2541000000 5.1374000000 0.0118000000
6.2533000000 2.8073000000 0.0555000000
6.2530000000 3.1208000000 0.0906000000
6.2520000000 3.0817000000 0.0680000000
6.0144000000 4.5166000000 0.4819000000
6.0105000000 3.4026000000 0.5134000000
6.0087000000 4.4159000000 0.5423000000
6.0083000000 5.1414000000 0.1168000000
6.0075000000 5.5136000000 0.0508000000
6.0068000000 3.2288000000 0.4081000000
6.0060000000 2.5466000000 0.0781000000
6.0052000000 5.4310000000 0.0918000000
6.0048000000 3.7068000000 0.6956000000
6.0042000000 3.8182000000 0.7638000000
6.0033000000 2.7961000000 0.1588000000
6.0031000000 5.3096000000 0.0982000000
6.0029000000 2.4455000000 0.0976000000
6.0025000000 2.5722000000 0.1041000000
6.0017000000 4.2549000000 0.6494000000
5.9999000000 4.4476000000 0.5419000000
5.9974000000 2.4943000000 0.0506000000
5.7622000000 5.4139000000 0.2045000000
5.7604000000 5.7941000000 0.0593000000
5.7593000000 5.2044000000 0.3361000000
5.7584000000 5.2703000000 0.2983000000
5.7579000000 4.5044000000 0.7504000000
5.7568000000 3.6051000000 0.8898000000
5.7563000000 3.7303000000 0.9638000000
5.7560000000 3.2926000000 0.7099000000
5.7558000000 3.3479000000 0.7402000000
5.7550000000 3.4544000000 0.8050000000
5.7548000000 4.7298000000 0.6242000000
5.7543000000 4.6422000000 0.6730000000
5.7540000000 2.0695000000 0.0516000000
5.7538000000 2.3399000000 0.1412000000
5.7534000000 5.6566000000 0.0705000000
5.7526000000 2.9949000000 0.5338000000
5.7518000000 5.1228000000 0.3959000000
5.7511000000 4.7045000000 0.6432000000
5.7491000000 5.5994000000 0.1133000000
5.7481000000 5.8976000000 0.0045000000
5.5131000000 3.0100000000 0.7903000000
5.5090000000 5.6211000000 0.3519000000
5.5086000000 6.2793000000 0.0281000000
5.5080000000 4.5042000000 1.0076000000
5.5076000000 3.8731000000 1.3136000000
5.5065000000 3.1586000000 0.8786000000
5.5063000000 5.9559000000 0.1520000000
5.5061000000 2.7861000000 0.6610000000
5.5057000000 3.2728000000 0.9574000000
5.5054000000 4.5845000000 0.9653000000
5.5052000000 3.8027000000 1.2698000000
5.5044000000 3.6280000000 1.1669000000
5.5041000000 5.7594000000 0.2693000000
5.5038000000 2.4510000000 0.4657000000
5.5036000000 1.8406000000 0.1037000000
5.5028000000 2.9393000000 0.7592000000
5.5025000000 5.2285000000 0.5863000000
5.5007000000 4.1624000000 1.2212000000
5.4999000000 5.9912000000 0.1329000000
5.4984000000 5.2958000000 0.5424000000
5.2624000000 5.6398000000 0.5912000000
5.2617000000 3.4331000000 1.2966000000
5.2609000000 6.6841000000 0.0422000000
5.2600000000 6.3512000000 0.1713000000
5.2591000000 5.8883000000 0.4424000000
5.2583000000 5.6395000000 0.5909000000
5.2580000000 5.3580000000 0.7582000000
5.2578000000 6.4372000000 0.1167000000
5.2576000000 4.4012000000 1.3297000000
5.2574000000 1.9119000000 0.3962000000
5.2565000000 3.0060000000 1.0540000000
5.2561000000 4.6006000000 1.2159000000
5.2558000000 3.7929000000 1.5226000000
5.2556000000 6.0912000000 0.3286000000
5.2550000000 2.3563000000 0.6735000000
5.2548000000 2.9780000000 1.0377000000
5.2545000000 2.6669000000 0.8527000000
5.2543000000 3.6914000000 1.4611000000
5.2541000000 2.0053000000 0.4541000000
5.2539000000 2.1557000000 0.5443000000
5.2537000000 1.6097000000 0.2269000000
5.2535000000 4.9738000000 0.9973000000
5.2530000000 1.2134000000 0.0596000000
5.2527000000 3.9745000000 1.5692000000
5.2523000000 1.1018000000 0.0692000000
5.2520000000 5.1168000000 0.9085000000
5.2516000000 2.1624000000 0.5520000000
5.2510000000 6.3115000000 0.1985000000
5.2500000000 1.5338000000 0.1757000000
5.2493000000 2.2804000000 0.6236000000
5.2460000000 1.3261000000 0.1363000000
5.0127000000 1.9387000000 0.6659000000
5.0106000000 3.9934000000 1.8194000000
5.0097000000 3.2026000000 1.4210000000
5.0094000000 6.5073000000 0.3347000000
5.0087000000 1.2930000000 0.2839000000
5.0079000000 4.1662000000 1.7266000000
5.0075000000 5.5452000000 0.9037000000
5.0073000000 2.4003000000 0.9464000000
5.0070000000 3.3956000000 1.5458000000
5.0066000000 0.8163000000 0.0830000000
5.0061000000 6.5343000000 0.3169000000
5.0057000000 2.1811000000 0.8220000000
5.0053000000 5.5512000000 0.9052000000
5.0051000000 1.9021000000 0.6523000000
5.0050000000 5.9648000000 0.6549000000
5.0048000000 5.7706000000 0.7743000000
5.0043000000 2.5747000000 1.0509000000
5.0040000000 2.0351000000 0.7301000000
5.0035000000 2.7957000000 1.1827000000
5.0034000000 4.9872000000 1.2392000000
5.0031000000 3.4416000000 1.5656000000
5.0028000000 1.2032000000 0.2406000000
5.0024000000 1.9771000000 0.6994000000
5.0021000000 2.4189000000 0.9638000000
5.0020000000 4.3681000000 1.6180000000
5.0015000000 3.2484000000 1.4603000000
5.0006000000 5.4427000000 0.9735000000
5.0003000000 6.5420000000 0.3196000000
4.9998000000 6.1751000000 0.5411000000
4.9994000000 2.5877000000 1.0708000000
4.9980000000 1.8612000000 0.6325000000
4.9968000000 0.6126000000 0.0429000000
4.7624000000 6.1170000000 0.8244000000
4.7598000000 5.3900000000 1.2548000000
4.7590000000 3.3184000000 1.7520000000
4.7588000000 1.6288000000 0.7395000000
4.7585000000 6.6037000000 0.5346000000
4.7580000000 2.1375000000 1.0484000000
4.7578000000 2.4570000000 1.2394000000
4.7571000000 0.4861000000 0.0620000000
4.7568000000 5.9677000000 0.9141000000
4.7565000000 2.2009000000 1.0925000000
4.7561000000 3.0286000000 1.5838000000
4.7558000000 4.8498000000 1.5827000000
4.7553000000 3.4185000000 1.8151000000
4.7552000000 1.2789000000 0.5384000000
4.7550000000 6.4693000000 0.6177000000
4.7548000000 6.6948000000 0.4870000000
4.7545000000 1.2210000000 0.5051000000
4.7543000000 7.7166000000 0.0236000000
4.7538000000 0.9898000000 0.3681000000
4.7533000000 4.4311000000 1.8316000000
4.7532000000 2.5131000000 1.2820000000
4.7530000000 3.6702000000 1.9688000000
4.7525000000 5.7166000000 1.0674000000
4.7523000000 1.5145000000 0.6849000000
4.7520000000 3.9782000000 2.0870000000
4.7516000000 1.2362000000 0.5189000000
4.7514000000 4.8877000000 1.5618000000
4.7508000000 0.2251000000 0.0664000000
4.7503000000 4.0270000000 2.0792000000
4.7501000000 1.3451000000 0.5816000000
4.7496000000 3.0916000000 1.6291000000
4.7490000000 6.9201000000 0.3611000000
4.7483000000 1.7035000000 0.7982000000
4.7476000000 2.9390000000 1.5425000000
4.5164000000 5.7703000000 1.2838000000
4.5123000000 5.5730000000 1.4005000000
4.5109000000 5.9976000000 1.1519000000
4.5106000000 3.5976000000 2.1723000000
4.5100000000 3.0301000000 1.8367000000
4.5094000000 1.7485000000 1.0698000000
4.5091000000 3.7703000000 2.2779000000
4.5089000000 6.0465000000 1.1238000000
4.5085000000 5.5748000000 1.4093000000
4.5083000000 1.1025000000 0.6871000000
4.5080000000 4.3112000000 2.1659000000
4.5079000000 4.5107000000 2.0417000000
4.5076000000 6.2046000000 1.0301000000
4.5073000000 4.1310000000 2.2656000000
4.5071000000 7.8838000000 0.0428000000
4.5069000000 6.2664000000 0.9920000000
4.5067000000 5.7039000000 1.3323000000
4.5063000000 1.3415000000 0.8382000000
4.5062000000 3.0614000000 1.8520000000
4.5059000000 5.9821000000 1.1626000000
4.5057000000 7.0338000000 0.5431000000
4.5055000000 5.4349000000 1.4910000000
4.5054000000 4.1191000000 2.2747000000
4.5052000000 1.8048000000 1.1135000000
4.5049000000 6.9133000000 0.6086000000
4.5048000000 4.8609000000 1.8290000000
4.5046000000 0.7826000000 0.5034000000
4.5044000000 0.3835000000 0.2633000000
4.5042000000 5.7067000000 1.3301000000
4.5038000000 6.8214000000 0.6710000000
4.5036000000 4.7057000000 1.9279000000
4.5034000000 1.7375000000 1.0670000000
4.5031000000 7.1192000000 0.4923000000
4.5027000000 2.9565000000 1.8001000000
4.5025000000 2.8602000000 1.7406000000
4.5022000000 2.8516000000 1.7354000000
4.5019000000 6.2294000000 1.0183000000
4.5013000000 0.4307000000 0.2948000000
4.5010000000 1.8205000000 1.1221000000
4.5008000000 3.5509000000 2.1498000000
4.5003000000 2.9476000000 1.8018000000
4.5000000000 2.7241000000 1.6659000000
4.4998000000 1.1580000000 0.7295000000
4.4993000000 1.3266000000 0.8356000000
4.4990000000 1.4604000000 0.9099000000
4.4987000000 2.5464000000 1.5583000000
4.2645000000 5.7866000000 1.5290000000
4.2611000000 2.9912000000 2.0647000000
4.2600000000 2.7494000000 1.9271000000
4.2597000000 4.1146000000 2.5301000000
4.2591000000 5.9479000000 1.4441000000
4.2582000000 5.3062000000 1.8229000000
4.2578000000 5.5194000000 1.6994000000
4.2576000000 6.9330000000 0.8482000000
4.2572000000 7.1503000000 0.7253000000
4.2569000000 6.9046000000 0.8780000000
4.2568000000 7.8840000000 0.0654000000
4.2565000000 2.4182000000 1.7351000000
4.2562000000 5.2216000000 1.8805000000
4.2560000000 4.4939000000 2.3115000000
4.2556000000 6.8868000000 0.8828000000
4.2553000000 1.9524000000 1.4571000000
4.2551000000 3.8216000000 2.5759000000
4.2548000000 3.3888000000 2.3046000000
4.2547000000 7.6681000000 0.2428000000
4.2542000000 4.5339000000 2.2827000000
4.2539000000 0.2284000000 0.2658000000
4.2537000000 2.1033000000 1.5443000000
4.2533000000 3.4794000000 2.3649000000
4.2529000000 2.8848000000 2.0120000000
4.2526000000 5.2831000000 1.8408000000
4.2525000000 1.0453000000 0.9184000000
4.2522000000 7.1279000000 0.7468000000
4.2520000000 3.9262000000 2.6206000000
4.2518000000 0.1012000000 0.1113000000
4.2515000000 6.7334000000 0.9849000000
4.2514000000 1.3070000000 1.0767000000
4.2510000000 6.7586000000 0.9665000000
4.2506000000 0.6209000000 0.6609000000
4.2502000000 7.8887000000 0.0502000000
4.2498000000 3.4999000000 2.3818000000
4.2497000000 0.3250000000 0.3803000000
4.2493000000 2.1288000000 1.5699000000
4.2489000000 1.8487000000 1.4004000000
4.2482000000 0.2016000000 0.2335000000
4.2465000000 2.1568000000 1.5914000000
4.2446000000 0.2917000000 0.3386000000
4.0125000000 7.4879000000 0.4578000000
4.0107000000 6.6256000000 1.2908000000
4.0099000000 4.8112000000 2.3746000000
4.0096000000 6.2327000000 1.5300000000
4.0092000000 6.6958000000 1.2558000000
4.0085000000 7.5321000000 0.4132000000
4.0082000000 5.8778000000 1.7459000000
4.0078000000 7.4895000000 0.4577000000
4.0071000000 4.6613000000 2.4646000000
4.0070000000 4.1951000000 2.7458000000
4.0068000000 7.6990000000 0.2078000000
4.0065000000 2.7635000000 2.1932000000
4.0061000000 1.1085000000 1.2118000000
4.0055000000 0.0057000000 0.0709000000
4.0052000000 2.4832000000 2.0281000000
4.0050000000 3.0821000000 2.3859000000
4.0049000000 6.6669000000 1.2752000000
4.0046000000 2.5445000000 2.0621000000
4.0043000000 5.9301000000 1.7149000000
4.0039000000 2.6864000000 2.1550000000
4.0037000000 1.6381000000 1.5275000000
4.0034000000 3.4951000000 2.6332000000
4.0032000000 3.0848000000 2.3944000000
4.0029000000 1.0036000000 1.1310000000
4.0028000000 3.0903000000 2.3922000000
4.0022000000 3.2385000000 2.4755000000
4.0020000000 1.7170000000 1.5790000000
4.0019000000 1.2525000000 1.2992000000
4.0017000000 7.4817000000 0.4619000000
4.0015000000 6.8384000000 1.1619000000
4.0008000000 2.8204000000 2.2332000000
4.0006000000 0.8517000000 0.9962000000
3.9998000000 3.8598000000 2.8554000000
3.9997000000 2.5734000000 2.0900000000
3.9994000000 3.3841000000 2.5714000000
3.9988000000 6.0651000000 1.6407000000
3.9981000000 4.4629000000 2.5961000000
3.9959000000 4.7037000000 2.4483000000
3.7635000000 4.3035000000 2.9313000000
3.7620000000 7.7540000000 0.1406000000
3.7609000000 7.9328000000 0.0780000000
3.7595000000 1.3816000000 1.6114000000
3.7583000000 3.9012000000 3.1150000000
3.7580000000 2.9444000000 2.5600000000
3.7577000000 2.5351000000 2.3169000000
3.7573000000 7.9036000000 0.0346000000
3.7571000000 5.9741000000 1.9446000000
3.7570000000 5.6532000000 2.1309000000
3.7568000000 4.5088000000 2.8138000000
3.7565000000 7.0854000000 0.9380000000
3.7563000000 5.2041000000 2.4010000000
3.7559000000 5.2606000000 2.3656000000
3.7556000000 5.5949000000 2.1697000000
3.7554000000 7.1523000000 0.8575000000
3.7551000000 0.8092000000 0.9594000000
3.7548000000 5.8593000000 2.0132000000
3.7547000000 7.4895000000 0.4548000000
3.7545000000 3.0809000000 2.6442000000
3.7543000000 5.0818000000 2.4764000000
3.7541000000 1.3269000000 1.5525000000
3.7539000000 7.9338000000 0.0791000000
3.7537000000 1.4496000000 1.6538000000
3.7535000000 6.9549000000 1.0914000000
3.7534000000 2.2891000000 2.1762000000
3.7532000000 1.2108000000 1.4343000000
3.7530000000 0.9859000000 1.1633000000
3.7529000000 1.0098000000 1.1976000000
3.7523000000 4.4225000000 2.8707000000
3.7522000000 1.6576000000 1.8051000000
3.7520000000 2.4234000000 2.2528000000
3.7517000000 5.6537000000 2.1384000000
3.7510000000 2.7827000000 2.4737000000
3.7508000000 1.9491000000 1.9763000000
3.7507000000 1.0294000000 1.2177000000
3.7500000000 0.5449000000 0.6441000000
3.7495000000 1.8823000000 1.9345000000
3.7493000000 2.1249000000 2.0834000000
3.7485000000 2.4914000000 2.3021000000
3.7454000000 0.6005000000 0.7083000000
3.5144000000 5.1859000000 2.6605000000
3.5120000000 3.8285000000 3.3442000000
3.5117000000 3.4655000000 3.1264000000
3.5111000000 7.9108000000 0.0270000000
3.5105000000 5.6862000000 2.3676000000
3.5101000000 2.7001000000 2.6721000000
3.5093000000 7.2989000000 0.6835000000
3.5086000000 3.9089000000 3.3760000000
3.5081000000 2.6490000000 2.6452000000
3.5082000000 5.1045000000 2.7184000000
3.5075000000 7.1825000000 0.8232000000
3.5073000000 1.7325000000 2.0394000000
3.5071000000 4.3462000000 3.1634000000
3.5069000000 7.1797000000 0.8244000000
3.5064000000 3.6791000000 3.2595000000
3.5059000000 2.5820000000 2.6078000000
3.5058000000 3.9702000000 3.3757000000
3.5057000000 5.4076000000 2.5452000000
3.5054000000 1.1120000000 1.3183000000
3.5050000000 4.6045000000 3.0209000000
3.5048000000 4.1338000000 3.2970000000
3.5044000000 0.4168000000 0.4903000000
3.5042000000 2.6645000000 2.6537000000
3.5040000000 2.0620000000 2.2919000000
3.5037000000 1.7831000000 2.0983000000
3.5033000000 5.1470000000 2.6987000000
3.5031000000 2.2814000000 2.4294000000
3.5030000000 5.2440000000 2.6423000000
3.5025000000 3.2047000000 2.9851000000
3.5021000000 7.7412000000 0.1642000000
3.5015000000 0.8981000000 1.0640000000
3.5009000000 1.8259000000 2.1388000000
3.5007000000 4.7059000000 2.9588000000
3.4998000000 3.9386000000 3.3957000000
3.4992000000 0.3213000000 0.3740000000
3.4989000000 2.4560000000 2.5419000000
3.4974000000 0.2449000000 0.2821000000
3.4940000000 1.1458000000 1.3596000000
3.2615000000 1.8949000000 2.2512000000
3.2601000000 5.4006000000 2.8035000000
3.2597000000 3.9867000000 3.6272000000
3.2593000000 7.4562000000 0.4954000000
3.2585000000 7.6002000000 0.3274000000
3.2582000000 6.6477000000 1.4574000000
3.2580000000 7.8970000000 0.0439000000
3.2578000000 4.4226000000 3.3786000000
3.2573000000 7.5952000000 0.3294000000
3.2570000000 6.4660000000 1.6753000000
3.2567000000 6.8426000000 1.2324000000
3.2564000000 6.8554000000 1.2150000000
3.2560000000 3.6441000000 3.4944000000
3.2559000000 2.2793000000 2.6619000000
3.2556000000 7.8987000000 0.0413000000
3.2555000000 1.0741000000 1.2714000000
3.2552000000 3.6297000000 3.4864000000
3.2550000000 4.1835000000 3.5272000000
3.2548000000 4.3082000000 3.4505000000
3.2546000000 1.1465000000 1.3620000000
3.2541000000 2.3265000000 2.6954000000
3.2537000000 7.6669000000 0.2439000000
3.2535000000 1.4856000000 1.7673000000
3.2534000000 0.5355000000 0.6326000000
3.2531000000 2.3740000000 2.7400000000
3.2527000000 0.8673000000 1.0238000000
3.2525000000 2.9747000000 3.0994000000
3.2524000000 2.4642000000 2.7899000000
3.2522000000 5.2113000000 2.9179000000
3.2518000000 3.4576000000 3.3853000000
3.2515000000 6.0209000000 2.2063000000
3.2512000000 1.7265000000 2.0472000000
3.2511000000 1.0928000000 1.2939000000
3.2507000000 2.5219000000 2.8343000000
3.2503000000 5.3192000000 2.8572000000
3.2500000000 4.0540000000 3.6068000000
3.2498000000 3.1313000000 3.1951000000
3.2493000000 5.8427000000 2.4166000000
3.2490000000 0.1726000000 0.1995000000
3.2482000000 0.3871000000 0.4543000000
3.2478000000 4.9753000000 3.0647000000
3.2475000000 0.2349000000 0.2742000000
3.2455000000 1.0034000000 1.1941000000
3.0134000000 7.7043000000 0.2036000000
3.0108000000 5.1711000000 3.1686000000
3.0093000000 1.8821000000 2.2392000000
3.0087000000 5.2790000000 3.0688000000
3.0084000000 1.0315000000 1.2216000000
3.0081000000 4.2740000000 3.7314000000
3.0076000000 3.7827000000 3.8327000000
3.0073000000 3.3172000000 3.5622000000
3.0069000000 4.1857000000 3.7796000000
3.0067000000 3.1802000000 3.4810000000
3.0062000000 5.8755000000 2.3824000000
3.0058000000 4.4838000000 3.6034000000
3.0054000000 0.4967000000 0.5818000000
3.0050000000 1.1696000000 1.3886000000
3.0047000000 3.9496000000 3.9047000000
3.0041000000 4.6572000000 3.4950000000
3.0039000000 2.7099000000 3.1765000000
3.0037000000 1.2444000000 1.4784000000
3.0036000000 6.3476000000 1.8183000000
3.0032000000 6.5756000000 1.5427000000
3.0030000000 1.6047000000 1.9071000000
3.0024000000 1.2986000000 1.5374000000
3.0021000000 2.1495000000 2.5526000000
3.0015000000 4.9338000000 3.3384000000
3.0013000000 0.7216000000 0.8576000000
3.0010000000 0.7020000000 0.8311000000
3.0006000000 5.6589000000 2.6403000000
3.0004000000 2.3148000000 2.7529000000
2.9993000000 2.8104000000 3.2576000000
2.9987000000 4.2274000000 3.7616000000
2.9979000000 0.1983000000 0.2313000000
2.9973000000 1.4071000000 1.6678000000
2.9967000000 1.0589000000 1.2523000000
2.9903000000 0.3705000000 0.4360000000
2.7625000000 6.2273000000 1.9624000000
2.7610000000 5.5815000000 2.7300000000
2.7604000000 4.4375000000 3.8823000000
2.7599000000 6.4372000000 1.7117000000
2.7591000000 6.6596000000 1.4451000000
2.7590000000 7.4536000000 0.5001000000
2.7581000000 0.6044000000 0.7119000000
2.7575000000 6.0796000000 2.1354000000
2.7574000000 4.0835000000 4.0995000000
2.7571000000 7.4248000000 0.5323000000
2.7569000000 2.1325000000 2.5293000000
2.7566000000 0.5529000000 0.6510000000
2.7563000000 3.4366000000 3.8853000000
2.7560000000 0.8928000000 1.0582000000
2.7555000000 6.3043000000 1.8713000000
2.7552000000 1.5262000000 1.8095000000
2.7549000000 0.3949000000 0.4610000000
2.7546000000 0.3194000000 0.3753000000
2.7542000000 6.6818000000 1.4231000000
2.7540000000 6.6648000000 1.4350000000
2.7537000000 1.9562000000 2.3228000000
2.7535000000 1.0331000000 1.2251000000
2.7531000000 5.8997000000 2.3442000000
2.7529000000 2.6592000000 3.1602000000
2.7527000000 2.3308000000 2.7682000000
2.7524000000 0.0085000000 0.0736000000
2.7521000000 4.4408000000 3.8940000000
2.7517000000 0.2668000000 0.3083000000
2.7512000000 2.1572000000 2.5625000000
2.7508000000 2.1153000000 2.5103000000
2.7504000000 0.3173000000 0.3694000000
2.7503000000 1.2112000000 1.4350000000
2.7500000000 1.1772000000 1.3950000000
2.7491000000 3.6856000000 4.0413000000
2.7484000000 2.8120000000 3.3435000000
2.7478000000 2.6725000000 3.1716000000
2.7475000000 0.6651000000 0.7797000000
2.7468000000 5.9500000000 2.2930000000
2.5129000000 4.8040000000 3.6562000000
2.5122000000 7.8029000000 0.0826000000
2.5112000000 7.1374000000 0.8773000000
2.5101000000 5.4281000000 2.9132000000
2.5094000000 5.1593000000 3.2348000000
2.5088000000 6.2491000000 1.9344000000
2.5083000000 4.1961000000 4.2850000000
2.5080000000 0.6585000000 0.7726000000
2.5074000000 6.3049000000 1.8699000000
2.5074000000 7.4939000000 0.4577000000
2.5070000000 4.8935000000 3.5422000000
2.5068000000 4.7473000000 3.7202000000
2.5063000000 5.7100000000 2.5723000000
2.5059000000 6.8280000000 1.2444000000
2.5058000000 2.8884000000 3.4325000000
2.5056000000 1.0655000000 1.2658000000
2.5055000000 2.4050000000 2.8521000000
2.5052000000 0.9149000000 1.0818000000
2.5048000000 1.6705000000 1.9838000000
2.5045000000 0.5120000000 0.6015000000
2.5043000000 7.5770000000 0.3559000000
2.5040000000 2.8062000000 3.3376000000
2.5037000000 0.7271000000 0.8595000000
2.5034000000 5.0372000000 3.3815000000
2.5030000000 0.3796000000 0.4450000000
2.5029000000 5.7050000000 2.5856000000
2.5027000000 6.5852000000 1.5345000000
2.5023000000 3.2316000000 3.8409000000
2.5018000000 3.9707000000 4.4140000000
2.5015000000 0.7775000000 0.9159000000
2.5011000000 4.3225000000 4.2060000000
2.5008000000 6.4842000000 1.6538000000
2.5005000000 0.6596000000 0.7822000000
2.5000000000 2.3922000000 2.8409000000
2.4997000000 3.5811000000 4.2148000000
2.4994000000 6.3554000000 1.8102000000
2.4989000000 0.8532000000 1.0090000000
2.4985000000 1.1251000000 1.3348000000
2.4965000000 0.2480000000 0.2875000000
2.4958000000 1.8382000000 2.1826000000
2.2653000000 3.9386000000 4.6094000000
2.2619000000 5.3860000000 2.9642000000
2.2609000000 6.4885000000 1.6546000000
2.2603000000 7.8357000000 0.1152000000
2.2595000000 5.1628000000 3.2274000000
2.2586000000 3.8436000000 4.5101000000
2.2584000000 3.7724000000 4.4856000000
2.2582000000 2.5924000000 3.0846000000
2.2578000000 1.5195000000 1.8008000000
2.2577000000 4.4619000000 4.0581000000
2.2573000000 4.0591000000 4.5233000000
2.2571000000 6.5835000000 1.5338000000
2.2570000000 1.9321000000 2.2889000000
2.2569000000 2.0301000000 2.4114000000
2.2567000000 5.7910000000 2.4741000000
2.2563000000 5.7122000000 2.5700000000
2.2562000000 7.0613000000 0.9722000000
2.2558000000 0.9696000000 1.1445000000
2.2555000000 4.6717000000 3.8180000000
2.2553000000 7.5410000000 0.3939000000
2.2557000000 0.1210000000 0.1418000000
2.2550000000 2.8840000000 3.4246000000
2.2549000000 2.7744000000 3.2977000000
2.2545000000 5.3450000000 3.0140000000
2.2542000000 3.6322000000 4.3158000000
2.2539000000 1.9689000000 2.3402000000
2.2537000000 3.8805000000 4.5982000000
2.2534000000 0.2436000000 0.2888000000
2.2532000000 0.3203000000 0.3768000000
2.2530000000 3.9696000000 4.5881000000
2.2528000000 6.0650000000 2.1580000000
2.2526000000 2.2784000000 2.7091000000
2.2523000000 7.1033000000 0.9214000000
2.2520000000 7.0626000000 0.9712000000
2.2517000000 0.5464000000 0.6445000000
2.2514000000 1.6339000000 1.9406000000
2.2513000000 1.4193000000 1.6821000000
2.2506000000 3.0113000000 3.5770000000
2.2499000000 1.0000000000 1.1818000000
2.2488000000 4.1192000000 4.4724000000
2.2479000000 1.2053000000 1.4291000000
2.2468000000 1.4944000000 1.7732000000
2.2449000000 2.7697000000 3.2836000000
2.0138000000 5.9077000000 2.3471000000
2.0123000000 6.2057000000 1.9832000000
2.0102000000 1.6218000000 1.9231000000
2.0098000000 3.1992000000 3.8010000000
2.0090000000 7.8738000000 0.0772000000
2.0088000000 2.8843000000 3.4319000000
2.0082000000 3.8094000000 4.3354000000
2.0080000000 6.8785000000 1.1848000000
2.0073000000 6.7993000000 1.2835000000
2.0070000000 2.3665000000 2.8144000000
2.0067000000 3.1810000000 3.7853000000
2.0064000000 3.4389000000 4.0703000000
2.0063000000 3.6915000000 4.2633000000
2.0059000000 4.4621000000 4.0415000000
2.0058000000 1.9609000000 2.3296000000
2.0052000000 4.7807000000 3.6838000000
2.0050000000 3.6487000000 4.2372000000
2.0048000000 1.4897000000 1.7648000000
2.0047000000 3.3577000000 3.9873000000
2.0042000000 0.4628000000 0.5433000000
2.0039000000 5.2245000000 3.1556000000
2.0037000000 3.1662000000 3.7622000000
2.0035000000 0.0530000000 0.1324000000
2.0032000000 7.7840000000 0.1037000000
2.0029000000 3.3478000000 3.9764000000
2.0025000000 4.2123000000 4.2376000000
2.0023000000 1.2207000000 1.4425000000
2.0022000000 5.2529000000 3.1184000000
2.0015000000 1.6893000000 2.0066000000
2.0013000000 1.2981000000 1.5401000000
2.0006000000 2.9149000000 3.4615000000
2.0005000000 2.9041000000 3.4496000000
1.9998000000 5.5875000000 2.7200000000
1.9990000000 1.6437000000 1.9493000000
1.9988000000 0.2452000000 0.2845000000
1.9986000000 6.7048000000 1.3885000000
1.9978000000 0.2808000000 0.3243000000
1.9951000000 2.3127000000 2.7476000000
1.7620000000 7.2312000000 0.7685000000
1.7605000000 5.6859000000 2.6042000000
1.7597000000 6.9635000000 1.0826000000
1.7596000000 5.7902000000 2.4828000000
1.7587000000 5.8247000000 2.4411000000
1.7583000000 4.8828000000 3.5427000000
1.7581000000 5.8873000000 2.3657000000
1.7578000000 3.6070000000 3.9542000000
1.7576000000 7.3148000000 0.6685000000
1.7575000000 4.6499000000 3.7256000000
1.7571000000 6.1162000000 2.0886000000
1.7568000000 1.2295000000 1.4626000000
1.7564000000 7.9314000000 0.0772000000
1.7562000000 2.6418000000 3.1379000000
1.7557000000 2.6358000000 3.1320000000
1.7556000000 4.3733000000 3.8924000000
1.7553000000 1.7056000000 2.0287000000
1.7550000000 3.3384000000 3.7856000000
1.7548000000 6.9326000000 1.1205000000
1.7546000000 2.7999000000 3.3257000000
1.7543000000 7.3869000000 0.5749000000
1.7541000000 1.8367000000 2.1872000000
1.7535000000 1.3371000000 1.5858000000
1.7533000000 3.4122000000 3.8355000000
1.7530000000 7.7689000000 0.1217000000
1.7529000000 1.8739000000 2.2180000000
1.7528000000 3.6896000000 4.0007000000
1.7526000000 3.1953000000 3.7040000000
1.7524000000 3.8799000000 4.1121000000
1.7523000000 6.8928000000 1.1658000000
1.7520000000 4.1222000000 4.0437000000
1.7514000000 4.0707000000 4.0654000000
1.7512000000 3.3700000000 3.8073000000
1.7508000000 1.3494000000 1.6070000000
1.7505000000 0.8199000000 0.9686000000
1.7502000000 1.5012000000 1.7790000000
1.7500000000 1.1759000000 1.3899000000
1.7495000000 3.1938000000 3.6972000000
1.7490000000 0.6026000000 0.7138000000
1.7480000000 6.3063000000 1.8639000000
1.7459000000 0.2628000000 0.3090000000
1.5112000000 6.6892000000 1.4075000000
1.5110000000 4.9478000000 3.2955000000
1.5099000000 2.8607000000 3.2553000000
1.5088000000 5.1258000000 3.1911000000
1.5083000000 7.8613000000 0.0841000000
1.5080000000 6.8076000000 1.2714000000
1.5078000000 1.6946000000 2.0146000000
1.5073000000 0.0520000000 0.1341000000
1.5072000000 7.0470000000 0.9822000000
1.5064000000 7.5490000000 0.3858000000
1.5062000000 6.3154000000 1.8511000000
1.5058000000 3.0631000000 3.3697000000
1.5055000000 5.0746000000 3.2133000000
1.5053000000 6.0887000000 2.1248000000
1.5051000000 2.9114000000 3.2771000000
1.5048000000 3.1865000000 3.4425000000
1.5048000000 6.6514000000 1.4549000000
1.5045000000 3.3840000000 3.5623000000
1.5043000000 5.5123000000 2.8121000000
1.5042000000 2.0544000000 2.4365000000
1.5038000000 6.4597000000 1.6831000000
1.5036000000 1.1000000000 1.2959000000
1.5035000000 6.6413000000 1.4697000000
1.5034000000 4.2584000000 3.6980000000
1.5032000000 1.5663000000 1.8597000000
1.5027000000 2.3726000000 2.8205000000
1.5025000000 1.9282000000 2.2896000000
1.5023000000 7.3942000000 0.5704000000
1.5018000000 6.4949000000 1.6437000000
1.5016000000 6.8536000000 1.2139000000
1.5013000000 4.5324000000 3.5365000000
1.5007000000 2.5913000000 3.0563000000
1.5004000000 0.0613000000 0.0648000000
1.5003000000 0.4827000000 0.5709000000
1.5000000000 5.6551000000 2.6405000000
1.4997000000 0.6520000000 0.7721000000
1.4993000000 2.6649000000 3.1083000000
1.4989000000 6.6861000000 1.4094000000
1.4985000000 2.1230000000 2.5238000000
1.4978000000 0.1910000000 0.2224000000
1.4970000000 3.0040000000 3.3283000000
1.4958000000 4.0561000000 3.8121000000
1.4929000000 0.7221000000 0.8524000000
1.2620000000 5.5481000000 2.6848000000
1.2608000000 2.7353000000 2.9259000000
1.2600000000 6.7227000000 1.3699000000
1.2587000000 1.0510000000 1.2468000000
1.2582000000 1.0623000000 1.2620000000
1.2573000000 2.1876000000 2.5764000000
1.2572000000 2.1673000000 2.5583000000
1.2569000000 6.5015000000 1.6363000000
1.2567000000 6.9258000000 1.1314000000
1.2563000000 7.5635000000 0.3736000000
1.2562000000 1.3085000000 1.5493000000
1.2557000000 4.5907000000 3.2434000000
1.2556000000 4.4095000000 3.3587000000
1.2553000000 6.8157000000 1.2609000000
1.2550000000 6.0343000000 2.1967000000
1.2549000000 5.3200000000 2.8157000000
1.2547000000 2.9358000000 3.0396000000
1.2543000000 0.2117000000 0.2420000000
1.2540000000 4.5229000000 3.2880000000
1.2538000000 5.3462000000 2.7941000000
1.2537000000 4.9251000000 3.0453000000
1.2534000000 0.6815000000 0.8047000000
1.2531000000 2.0490000000 2.4335000000
1.2527000000 1.3440000000 1.5919000000
1.2523000000 5.4923000000 2.7032000000
1.2522000000 4.4128000000 3.3529000000
1.2519000000 6.1425000000 2.0627000000
1.2518000000 1.7702000000 2.1071000000
1.2508000000 5.4901000000 2.7007000000
1.2503000000 5.3048000000 2.8165000000
1.2501000000 1.7523000000 2.0822000000
1.2500000000 7.3672000000 0.5993000000
1.2498000000 1.0743000000 1.2729000000
1.2485000000 2.8155000000 2.9580000000
1.2475000000 1.4288000000 1.6889000000
1.0135000000 5.2629000000 2.6016000000
1.0111000000 7.3941000000 0.5684000000
1.0104000000 7.0395000000 1.0014000000
1.0091000000 6.5377000000 1.5909000000
1.0080000000 5.8430000000 2.2417000000
1.0074000000 4.5522000000 3.0149000000
1.0070000000 5.7349000000 2.3085000000
1.0063000000 1.4165000000 1.6808000000
1.0060000000 7.4435000000 0.5105000000
1.0057000000 3.7203000000 3.2506000000
1.0056000000 4.8971000000 2.8061000000
1.0051000000 2.2974000000 2.4026000000
1.0050000000 4.3007000000 3.1615000000
1.0048000000 2.2108000000 2.3509000000
1.0045000000 4.1973000000 3.2211000000
1.0041000000 6.8795000000 1.1840000000
1.0039000000 5.5713000000 2.4031000000
1.0037000000 3.6477000000 3.2035000000
1.0034000000 3.2574000000 2.9668000000
1.0032000000 6.4625000000 1.6752000000
1.0028000000 4.6113000000 2.9717000000
1.0025000000 0.9924000000 1.1787000000
1.0023000000 4.0041000000 3.3337000000
1.0020000000 0.3739000000 0.4378000000
1.0015000000 5.9101000000 2.2002000000
1.0014000000 5.3246000000 2.5496000000
1.0010000000 7.2879000000 0.6960000000
1.0007000000 0.3727000000 0.4367000000
1.0002000000 3.0277000000 2.8321000000
1.0000000000 2.9382000000 2.7761000000
0.9995000000 4.4246000000 3.0812000000
0.9987000000 2.1265000000 2.2881000000
0.9982000000 0.0593000000 0.1364000000
0.9975000000 0.9419000000 1.1121000000
0.9966000000 3.7923000000 3.2764000000
0.7629000000 4.2952000000 2.9146000000
0.7600000000 0.6902000000 0.8103000000
0.7594000000 7.6697000000 0.2454000000
0.7590000000 6.6451000000 1.4429000000
0.7587000000 1.8247000000 1.8614000000
0.7581000000 3.6051000000 2.9188000000
0.7576000000 3.4525000000 2.8252000000
0.7576000000 5.8087000000 2.0052000000
0.7574000000 4.7294000000 2.6458000000
0.7568000000 2.4961000000 2.2625000000
0.7566000000 6.4689000000 1.5983000000
0.7565000000 4.1826000000 2.9735000000
0.7561000000 2.4088000000 2.2102000000
0.7558000000 3.7727000000 3.0214000000
0.7556000000 6.2393000000 1.7468000000
0.7553000000 2.2363000000 2.1056000000
0.7548000000 2.9441000000 2.5291000000
0.7546000000 1.4102000000 1.5963000000
0.7544000000 2.5378000000 2.2839000000
0.7541000000 6.1551000000 1.7957000000
0.7539000000 7.0213000000 1.0170000000
0.7538000000 4.2372000000 2.9435000000
0.7536000000 6.9890000000 1.0570000000
0.7534000000 2.0440000000 1.9864000000
0.7532000000 0.6105000000 0.7214000000
0.7526000000 5.8120000000 2.0041000000
0.7524000000 7.5462000000 0.3956000000
0.7521000000 0.7864000000 0.9311000000
0.7519000000 4.0908000000 3.0303000000
0.7517000000 2.8403000000 2.4592000000
0.7513000000 5.9489000000 1.9177000000
0.7509000000 1.2363000000 1.4494000000
0.7505000000 2.1850000000 2.0723000000
0.7504000000 3.6514000000 2.9382000000
0.7501000000 0.7366000000 0.8689000000
0.7496000000 7.1664000000 0.8416000000
0.7479000000 0.2525000000 0.2914000000
0.7470000000 1.4955000000 1.6576000000
0.7453000000 0.1784000000 0.2060000000
0.7433000000 1.2997000000 1.5160000000
0.5120000000 7.3109000000 0.6730000000
0.5104000000 5.2486000000 2.0856000000
0.5096000000 1.2498000000 1.2612000000
0.5089000000 5.3241000000 2.0424000000
0.5085000000 3.4341000000 2.5617000000
0.5083000000 5.7405000000 1.7921000000
0.5078000000 5.4419000000 1.9651000000
0.5072000000 7.0177000000 1.0064000000
0.5069000000 6.9848000000 1.0326000000
0.5065000000 2.8128000000 2.1864000000
0.5062000000 7.2438000000 0.7457000000
0.5058000000 0.4428000000 0.5160000000
0.5052000000 4.6679000000 2.4275000000
0.5049000000 5.4510000000 1.9586000000
0.5047000000 2.0504000000 1.7335000000
0.5045000000 7.3188000000 0.6588000000
0.5042000000 5.7384000000 1.7938000000
0.5039000000 1.0009000000 1.1096000000
0.5037000000 3.5832000000 2.6434000000
0.5035000000 7.1955000000 0.8061000000
0.5033000000 1.7990000000 1.5863000000
0.5028000000 4.8606000000 2.3069000000
0.5026000000 2.7868000000 2.1702000000
0.5024000000 0.2701000000 0.3147000000
0.5023000000 6.9312000000 1.0592000000
0.5018000000 0.0596000000 0.1391000000
0.5016000000 3.0219000000 2.3105000000
0.5014000000 5.9541000000 1.6569000000
0.5008000000 3.6100000000 2.6581000000
0.5003000000 3.9733000000 2.8137000000
0.4999000000 0.6624000000 0.7836000000
0.4993000000 5.2672000000 2.0658000000
0.4989000000 0.2690000000 0.3084000000
0.4985000000 1.4076000000 1.3437000000
0.4973000000 6.6067000000 1.2633000000
0.4920000000 2.5234000000 2.0012000000
0.2603000000 3.6087000000 2.4058000000
0.2594000000 4.0917000000 2.5202000000
0.2589000000 5.5129000000 1.6695000000
0.2582000000 7.0334000000 0.7615000000
0.2575000000 3.7737000000 2.5007000000
0.2572000000 2.1706000000 1.5509000000
0.2568000000 5.8442000000 1.4708000000
0.2566000000 3.0832000000 2.0864000000
0.2564000000 3.3618000000 2.2647000000
0.2559000000 5.8873000000 1.4470000000
0.2558000000 6.0009000000 1.3776000000
0.2553000000 6.1967000000 1.2538000000
0.2550000000 5.3012000000 1.7883000000
0.2545000000 3.0409000000 2.0692000000
0.2539000000 5.1330000000 1.8891000000
0.2534000000 5.0887000000 1.9165000000
0.2530000000 4.8129000000 2.0763000000
0.2528000000 4.7439000000 2.1238000000
0.2526000000 0.5400000000 0.5617000000
0.2525000000 1.7471000000 1.2919000000
0.2522000000 3.7765000000 2.5011000000
0.2520000000 0.1511000000 0.1752000000
0.2518000000 1.0618000000 0.8867000000
0.2516000000 2.7736000000 1.9045000000
0.2514000000 0.1885000000 0.2179000000
0.2505000000 2.6267000000 1.8175000000
0.2501000000 2.8790000000 1.9614000000
0.2498000000 5.1638000000 1.8695000000
0.2495000000 5.9815000000 1.3852000000
0.2493000000 2.7107000000 1.8636000000
0.2475000000 4.0859000000 2.5040000000
0.2467000000 0.8398000000 0.7468000000
0.0106000000 7.0758000000 0.4855000000
0.0096000000 3.1830000000 1.9009000000
0.0090000000 2.8701000000 1.7127000000
0.0084000000 6.5837000000 0.7717000000
0.0078000000 4.5828000000 1.9657000000
0.0073000000 6.5638000000 0.7875000000
0.0068000000 5.0053000000 1.7098000000
0.0065000000 4.4515000000 2.0389000000
0.0065000000 4.1511000000 2.2180000000
0.0061000000 7.8952000000 0.0320000000
0.0058000000 3.5518000000 2.1116000000
0.0054000000 6.8871000000 0.5917000000
0.0052000000 5.9179000000 1.1734000000
0.0050000000 3.3706000000 2.0068000000
0.0049000000 6.6703000000 0.7167000000
0.0046000000 6.1153000000 1.0443000000
0.0044000000 6.2394000000 0.9764000000
0.0041000000 5.7884000000 1.2410000000
0.0039000000 5.8456000000 1.2074000000
0.0038000000 6.2362000000 0.9724000000
0.0036000000 3.9549000000 2.3160000000
0.0035000000 2.3711000000 1.4062000000
0.0031000000 0.9555000000 0.5675000000
0.0029000000 3.1770000000 1.8843000000
0.0026000000 5.4195000000 1.4598000000
0.0025000000 4.8360000000 1.8122000000
0.0024000000 0.8986000000 0.5338000000
0.0019000000 3.6474000000 2.1680000000
0.0017000000 6.4762000000 0.8296000000
0.0012000000 1.2901000000 0.7691000000
0.0008000000 6.4555000000 0.8394000000
0.0001000000 1.1520000000 0.6804000000
-0.0001000000 4.6482000000 1.9159000000
-0.0006000000 1.9668000000 1.1668000000
-0.0013000000 2.9780000000 1.7622000000
-0.0020000000 6.0627000000 1.0728000000
-0.0022000000 0.4861000000 0.2811000000
-0.0031000000 0.3884000000 0.2204000000
-0.0042000000 1.0579000000 0.6194000000
-0.0061000000 0.0353000000 0.0666000000
-0.2395000000 4.5828000000 1.7114000000
-0.2402000000 3.3528000000 1.7406000000
-0.2408000000 5.8675000000 0.9409000000
-0.2417000000 3.9676000000 2.0508000000
-0.2420000000 7.1729000000 0.1658000000
-0.2422000000 5.1124000000 1.3906000000
-0.2427000000 1.2839000000 0.5036000000
-0.2430000000 2.9516000000 1.5004000000
-0.2432000000 7.2838000000 0.0986000000
-0.2436000000 6.0340000000 0.8403000000
-0.2441000000 5.2616000000 1.2999000000
-0.2443000000 7.5292000000 0.1019000000
-0.2448000000 7.2543000000 0.1078000000
-0.2449000000 4.3196000000 1.8646000000
-0.2452000000 5.7229000000 1.0242000000
-0.2453000000 6.0824000000 0.8148000000
-0.2455000000 1.9068000000 0.8760000000
-0.2457000000 4.5585000000 1.7166000000
-0.2461000000 3.0481000000 1.5521000000
-0.2465000000 6.3919000000 0.6237000000
-0.2465000000 5.4738000000 1.1763000000
-0.2467000000 4.0935000000 1.9907000000
-0.2470000000 1.9122000000 0.8762000000
-0.2472000000 3.4821000000 1.8125000000
-0.2476000000 3.7257000000 1.9542000000
-0.2477000000 4.8302000000 1.5540000000
-0.2479000000 1.6997000000 0.7528000000
-0.2482000000 3.2789000000 1.6935000000
-0.2486000000 0.5628000000 0.0691000000
-0.2488000000 0.4315000000 0.0722000000
-0.2495000000 6.4354000000 0.6007000000
-0.2496000000 7.0430000000 0.2305000000
-0.2500000000 4.7231000000 1.6166000000
-0.2503000000 3.7820000000 1.9874000000
-0.2507000000 3.9364000000 2.0600000000
-0.2510000000 4.1371000000 1.9654000000
-0.2513000000 3.3920000000 1.7578000000
-0.2522000000 3.3519000000 1.7287000000
-0.2550000000 5.0953000000 1.3861000000
-0.4884000000 1.9205000000 0.6246000000
-0.4904000000 7.2234000000 0.0290000000
-0.4912000000 7.2620000000 0.0018000000
-0.4924000000 7.1986000000 0.0424000000
-0.4925000000 6.0425000000 0.5762000000
-0.4931000000 6.2374000000 0.4583000000
-0.4934000000 7.2523000000 0.0103000000
-0.4937000000 4.9546000000 1.2248000000
-0.4939000000 6.8390000000 0.1033000000
-0.4950000000 6.9269000000 0.1224000000
-0.4955000000 0.7206000000 0.0596000000
-0.4956000000 1.5711000000 0.4166000000
-0.4959000000 4.2221000000 1.6619000000
-0.4962000000 1.3111000000 0.2668000000
-0.4964000000 1.7563000000 0.5228000000
-0.4967000000 6.1170000000 0.5322000000
-0.4970000000 2.6855000000 1.0804000000
-0.4973000000 2.5966000000 1.0286000000
-0.4975000000 3.4061000000 1.5061000000
-0.4978000000 5.1475000000 1.1021000000
-0.4983000000 1.4644000000 0.3543000000
-0.4989000000 3.5454000000 1.5854000000
-0.5016000000 2.1156000000 0.7363000000
-0.5032000000 3.8054000000 1.7437000000
-0.7378000000 6.8300000000 0.0023000000
-0.7387000000 1.6473000000 0.2107000000
-0.7402000000 6.6769000000 0.0871000000
-0.7408000000 4.1729000000 1.4340000000
-0.7413000000 6.7582000000 0.0415000000
-0.7417000000 2.7373000000 0.8560000000
-0.7418000000 1.9205000000 0.3755000000
-0.7423000000 6.3802000000 0.1193000000
-0.7430000000 1.7445000000 0.2646000000
-0.7435000000 6.2215000000 0.2123000000
-0.7441000000 1.2904000000 0.0687000000
-0.7446000000 1.5902000000 0.1658000000
-0.7451000000 6.2551000000 0.1909000000
-0.7453000000 5.9069000000 0.3980000000
-0.7456000000 5.1252000000 0.8629000000
-0.7462000000 5.0175000000 0.9331000000
-0.7465000000 5.2186000000 0.8097000000
-0.7467000000 5.5432000000 0.6112000000
-0.7471000000 2.9811000000 0.9992000000
-0.7475000000 6.1231000000 0.2674000000
-0.7476000000 3.4759000000 1.2926000000
-0.7478000000 6.4982000000 0.1205000000
-0.7482000000 1.1332000000 0.0507000000
-0.7487000000 1.0650000000 0.0110000000
-0.7491000000 1.6431000000 0.1991000000
-0.7499000000 4.8177000000 1.0425000000
-0.7506000000 4.1107000000 1.4633000000
-0.7515000000 1.8228000000 0.2991000000
-0.7527000000 2.3214000000 0.5983000000
-0.7546000000 1.3347000000 0.0864000000
-0.9887000000 4.4383000000 1.0220000000
-0.9907000000 4.9203000000 0.7333000000
-0.9912000000 2.0602000000 0.1983000000
-0.9921000000 4.2575000000 1.1264000000
-0.9928000000 4.7422000000 0.8418000000
-0.9932000000 2.2759000000 0.3221000000
-0.9935000000 5.5968000000 0.3257000000
-0.9936000000 6.1971000000 0.0447000000
-0.9945000000 5.6429000000 0.2942000000
-0.9946000000 3.7432000000 1.1961000000
-0.9952000000 5.1709000000 0.5802000000
-0.9956000000 5.5288000000 0.3678000000
-0.9960000000 4.2704000000 1.1126000000
-0.9963000000 2.7813000000 0.6226000000
-0.9968000000 3.4474000000 1.0170000000
-0.9973000000 1.8077000000 0.1162000000
-0.9984000000 6.2037000000 0.0311000000
-0.9993000000 3.5240000000 1.0581000000
-1.0002000000 2.9665000000 0.7291000000
-1.0009000000 2.4403000000 0.4215000000
-1.0018000000 4.0220000000 1.2580000000
-1.0044000000 3.1386000000 0.8269000000
-1.2387000000 3.4850000000 0.7928000000
-1.2397000000 5.8511000000 0.0694000000
-1.2405000000 2.8564000000 0.4151000000
-1.2415000000 3.0474000000 0.5237000000
-1.2420000000 4.8092000000 0.5433000000
-1.2428000000 3.2638000000 0.6582000000
-1.2434000000 5.0079000000 0.4211000000
-1.2438000000 4.1282000000 0.9377000000
-1.2442000000 5.2693000000 0.2630000000
-1.2447000000 2.6550000000 0.2867000000
-1.2452000000 2.5075000000 0.2016000000
-1.2456000000 5.7528000000 0.0470000000
-1.2460000000 3.7960000000 0.9683000000
-1.2462000000 3.1770000000 0.5953000000
-1.2464000000 2.5331000000 0.2145000000
-1.2468000000 5.8742000000 0.0546000000
-1.2477000000 3.4277000000 0.7440000000
-1.2482000000 5.5467000000 0.0892000000
-1.2487000000 4.5080000000 0.7162000000
-1.2491000000 2.7069000000 0.3187000000
-1.2495000000 4.6584000000 0.6201000000
-1.2502000000 3.5251000000 0.7974000000
-1.2505000000 5.8862000000 0.0379000000
-1.2512000000 3.5216000000 0.8014000000
-1.2520000000 5.0870000000 0.3674000000
-1.4902000000 3.2943000000 0.4184000000
-1.4904000000 5.3097000000 0.0606000000
-1.4915000000 5.4596000000 0.0489000000
-1.4926000000 5.0742000000 0.1274000000
-1.4938000000 3.2179000000 0.3671000000
-1.4943000000 3.3678000000 0.4539000000
-1.4947000000 5.4329000000 0.0551000000
-1.4955000000 5.0545000000 0.1318000000
-1.4957000000 4.4052000000 0.5150000000
-1.4963000000 4.2069000000 0.6359000000
-1.4965000000 3.9427000000 0.7743000000
-1.4973000000 2.7667000000 0.0991000000
-1.4980000000 3.7695000000 0.6959000000
-1.4994000000 3.8266000000 0.7260000000
-1.5001000000 2.6788000000 0.1197000000
-1.5015000000 2.9723000000 0.2093000000
-1.5036000000 3.5119000000 0.5299000000
-1.7392000000 4.5929000000 0.1598000000
-1.7407000000 3.1478000000 0.0699000000
-1.7434000000 3.9499000000 0.5148000000
-1.7442000000 4.5366000000 0.1913000000
-1.7457000000 3.0197000000 0.0673000000
-1.7467000000 4.8762000000 0.0544000000
-1.7470000000 5.0312000000 0.0387000000
-1.7477000000 3.5950000000 0.3286000000
-1.7486000000 4.9330000000 0.0922000000
-1.7497000000 3.6462000000 0.3633000000
-1.7507000000 3.5457000000 0.2939000000
-1.7518000000 4.7386000000 0.1332000000
-1.7561000000 3.9194000000 0.4943000000
-1.9927000000 4.3134000000 0.1376000000
-1.9941000000 4.6568000000 0.0033000000
-1.9967000000 3.5047000000 0.0962000000
-1.9981000000 3.7844000000 0.1847000000
