3.7573000000 3.0321000000 0.5347000000
3.7572000000 4.3965000000 0.0477000000
3.7568000000 3.5396000000 0.2940000000
3.7567000000 1.6525000000 0.2061000000
3.7566000000 1.3398000000 0.1426000000
3.7566000000 2.2138000000 0.4626000000
3.7563000000 1.1135000000 0.0392000000
3.7562000000 1.0934000000 0.0214000000
3.7559000000 2.5385000000 0.6184000000
3.7558000000 3.8799000000 0.1387000000
3.7557000000 3.2455000000 0.4362000000
3.7556000000 2.0494000000 0.3885000000
3.7555000000 1.9680000000 0.3562000000
3.7555000000 4.2113000000 0.0694000000
3.7550000000 3.9080000000 0.1349000000
3.7550000000 2.1067000000 0.4179000000
3.7549000000 3.5189000000 0.3115000000
3.7548000000 3.2673000000 0.4279000000
3.7546000000 1.5969000000 0.1821000000
3.7543000000 2.9751000000 0.5613000000
3.7533000000 2.9704000000 0.5691000000
3.7533000000 2.8985000000 0.5949000000
3.7529000000 3.0421000000 0.5322000000
3.7527000000 2.4408000000 0.5720000000
3.7525000000 3.0527000000 0.5289000000
3.7522000000 3.5458000000 0.3007000000
3.7520000000 1.1114000000 0.0387000000
3.7518000000 2.4087000000 0.5540000000
3.7511000000 2.0160000000 0.3815000000
3.7509000000 2.3403000000 0.5252000000
3.7509000000 2.7547000000 0.6662000000
3.7505000000 1.9087000000 0.3328000000
3.7502000000 2.0196000000 0.3853000000
3.7501000000 1.7169000000 0.2465000000
3.7500000000 3.7556000000 0.2114000000
3.7496000000 0.9539000000 0.0416000000
3.7495000000 1.5733000000 0.1744000000
3.7497000000 1.8545000000 0.3031000000
3.7489000000 1.9270000000 0.3394000000
3.7488000000 1.7587000000 0.2707000000
3.7482000000 3.5643000000 0.2946000000
3.7470000000 1.6661000000 0.2246000000
3.7462000000 1.0921000000 0.0284000000
3.5131000000 3.1064000000 0.6960000000
3.5130000000 2.6452000000 0.8489000000
3.5104000000 1.2986000000 0.2381000000
3.5103000000 4.9366000000 0.0041000000
3.5101000000 2.5280000000 0.8059000000
3.5092000000 0.8744000000 0.1167000000
3.5079000000 3.4269000000 0.5499000000
3.5077000000 3.0272000000 0.7341000000
3.5074000000 2.0304000000 0.5814000000
3.5073000000 2.3033000000 0.6991000000
3.5072000000 2.1853000000 0.6514000000
3.5071000000 3.6662000000 0.4424000000
3.5068000000 4.0129000000 0.2845000000
3.5067000000 4.0645000000 0.2604000000
3.5066000000 4.8918000000 0.0274000000
3.5064000000 1.5228000000 0.3477000000
3.5063000000 4.4551000000 0.0804000000
3.5063000000 4.4683000000 0.1481000000
3.5060000000 3.1802000000 0.6666000000
3.5058000000 4.0289000000 0.2682000000
3.5057000000 4.2685000000 0.1664000000
3.5055000000 4.8301000000 0.0554000000
3.5055000000 1.4643000000 0.3228000000
3.5050000000 3.2054000000 0.6634000000
3.5049000000 2.7901000000 0.8454000000
3.5047000000 1.5914000000 0.3770000000
3.5046000000 2.2200000000 0.6696000000
3.5044000000 1.5978000000 0.3832000000
3.5039000000 2.2060000000 0.6614000000
3.5038000000 1.5202000000 0.3462000000
3.5038000000 2.0566000000 0.5983000000
3.5037000000 4.5118000000 0.1254000000
3.5036000000 1.8941000000 0.5167000000
3.5032000000 3.7050000000 0.4280000000
3.5027000000 0.7066000000 0.0456000000
3.5027000000 3.9054000000 0.3361000000
3.5026000000 2.5111000000 0.8078000000
3.5023000000 4.3411000000 0.1315000000
3.5020000000 2.2015000000 0.6680000000
3.5017000000 4.0569000000 0.2706000000
3.5015000000 4.9136000000 0.0198000000
3.5014000000 4.9022000000 0.0220000000
3.5009000000 3.4574000000 0.5385000000
3.5002000000 1.7756000000 0.4681000000
3.5001000000 0.9204000000 0.0764000000
3.5000000000 4.1278000000 0.2354000000
3.5000000000 2.6267000000 0.8665000000
3.4994000000 3.2122000000 0.6572000000
3.4991000000 1.6546000000 0.4134000000
3.4988000000 1.4895000000 0.3382000000
3.4985000000 3.2325000000 0.6445000000
3.4970000000 2.0915000000 0.6245000000
3.4965000000 0.7665000000 0.0857000000
3.2617000000 2.4902000000 0.9911000000
3.2612000000 2.6303000000 1.0574000000
3.2610000000 3.5625000000 0.6890000000
3.2603000000 1.6856000000 0.6216000000
3.2598000000 5.0299000000 0.0834000000
3.2593000000 5.3490000000 0.0127000000
3.2591000000 1.2225000000 0.4058000000
3.2591000000 3.7254000000 0.6129000000
3.2590000000 0.9766000000 0.2917000000
3.2583000000 3.8952000000 0.5304000000
3.2575000000 3.6289000000 0.6551000000
3.2574000000 2.6166000000 1.0505000000
3.2572000000 3.7302000000 0.6116000000
3.2570000000 2.6035000000 1.0424000000
3.2565000000 3.9788000000 0.4997000000
3.2563000000 0.0406000000 0.0167000000
3.2561000000 3.8674000000 0.5509000000
3.2559000000 4.3603000000 0.3232000000
3.2557000000 3.0304000000 0.9333000000
3.2556000000 0.4985000000 0.0694000000
3.2555000000 2.7358000000 1.0541000000
3.2554000000 4.9620000000 0.1198000000
3.2553000000 5.0296000000 0.0832000000
3.2553000000 3.8762000000 0.5447000000
3.2551000000 2.6209000000 1.0563000000
3.2550000000 1.3699000000 0.4784000000
3.2548000000 4.4288000000 0.2943000000
3.2548000000 4.3909000000 0.3079000000
3.2544000000 0.1705000000 0.0755000000
3.2543000000 2.2588000000 0.8840000000
3.2541000000 4.3512000000 0.3215000000
3.2540000000 2.3068000000 0.9096000000
3.2537000000 4.5698000000 0.2255000000
3.2537000000 0.2872000000 0.0492000000
3.2530000000 1.4047000000 0.4914000000
3.2530000000 2.1305000000 0.8269000000
3.2529000000 4.7736000000 0.1357000000
3.2527000000 1.2844000000 0.4392000000
3.2526000000 2.0761000000 0.8057000000
3.2526000000 2.3225000000 0.9187000000
3.2525000000 4.8512000000 0.0972000000
3.2523000000 4.0406000000 0.4704000000
3.2520000000 0.3820000000 0.0966000000
3.2520000000 3.9732000000 0.5113000000
3.2519000000 3.9025000000 0.5353000000
3.2514000000 0.7996000000 0.2180000000
3.2513000000 0.4916000000 0.0773000000
3.2510000000 2.9673000000 0.9662000000
3.2509000000 3.2430000000 0.8369000000
3.2510000000 4.0673000000 0.4563000000
3.2508000000 0.2329000000 0.0329000000
3.2506000000 2.5960000000 1.0462000000
3.2502000000 0.3160000000 0.0758000000
3.2500000000 2.2583000000 0.8903000000
3.2500000000 1.6652000000 0.6211000000
3.2499000000 0.9137000000 0.2674000000
3.2498000000 3.3849000000 0.7718000000
3.2497000000 3.9065000000 0.5356000000
3.2495000000 2.9132000000 0.9913000000
3.2495000000 1.0282000000 0.3240000000
3.2494000000 2.6536000000 1.0601000000
3.2490000000 2.7912000000 1.0503000000
3.2490000000 2.3593000000 0.9357000000
3.2489000000 1.5583000000 0.5715000000
3.2488000000 2.6587000000 1.0624000000
3.2488000000 0.4605000000 0.1307000000
3.2483000000 1.4914000000 0.5370000000
3.2481000000 1.2826000000 0.4435000000
3.2479000000 0.7527000000 0.2012000000
3.2478000000 4.7149000000 0.1640000000
3.2477000000 4.2846000000 0.3637000000
3.2474000000 3.5461000000 0.7044000000
3.2473000000 0.5758000000 0.1177000000
3.2471000000 1.4344000000 0.5121000000
3.2468000000 1.5278000000 0.5582000000
3.2466000000 0.3259000000 0.0784000000
3.2463000000 1.9123000000 0.7373000000
3.2460000000 1.7924000000 0.6774000000
3.2451000000 1.5797000000 0.5801000000
3.2410000000 0.5493000000 0.1089000000
3.0120000000 5.1977000000 0.1215000000
3.0110000000 4.7348000000 0.3449000000
3.0088000000 1.4630000000 0.7159000000
3.0087000000 2.1554000000 1.0370000000
3.0082000000 1.0907000000 0.5487000000
3.0078000000 0.9932000000 0.4999000000
3.0076000000 4.0414000000 0.6675000000
3.0075000000 4.1834000000 0.6022000000
3.0074000000 1.6477000000 0.8068000000
3.0073000000 0.9920000000 0.4996000000
3.0069000000 0.2770000000 0.1724000000
3.0068000000 3.0381000000 1.1279000000
3.0066000000 3.0276000000 1.1352000000
3.0065000000 1.4226000000 0.7005000000
3.0064000000 5.0184000000 0.2182000000
3.0063000000 5.3324000000 0.0908000000
3.0062000000 4.4973000000 0.4560000000
3.0060000000 2.3877000000 1.1472000000
3.0058000000 2.4463000000 1.1719000000
3.0055000000 1.6563000000 0.8082000000
3.0052000000 2.6787000000 1.2670000000
3.0052000000 5.1380000000 0.1532000000
3.0051000000 1.3434000000 0.6638000000
3.0051000000 4.6587000000 0.3822000000
3.0050000000 2.7742000000 1.2552000000
3.0050000000 3.8446000000 0.7611000000
3.0048000000 4.2245000000 0.5847000000
3.0048000000 3.1856000000 1.0613000000
3.0047000000 2.4360000000 1.1720000000
3.0040000000 2.6488000000 1.2510000000
3.0039000000 4.0338000000 0.6688000000
3.0037000000 0.4108000000 0.2389000000
3.0036000000 0.6729000000 0.3611000000
3.0035000000 1.5023000000 0.7389000000
3.0035000000 1.8410000000 0.8993000000
3.0034000000 3.9058000000 0.7279000000
3.0033000000 1.1277000000 0.5662000000
3.0032000000 3.2466000000 1.0328000000
3.0028000000 4.8971000000 0.2781000000
3.0025000000 2.5511000000 1.2244000000
3.0025000000 3.3476000000 0.9907000000
3.0024000000 4.5403000000 0.4427000000
3.0024000000 1.6041000000 0.7842000000
3.0022000000 2.2401000000 1.0806000000
3.0021000000 4.6747000000 0.3771000000
3.0020000000 3.3758000000 0.9761000000
3.0020000000 1.4895000000 0.7331000000
3.0020000000 1.1100000000 0.5582000000
3.0019000000 0.1559000000 0.0833000000
3.0018000000 3.4575000000 0.9411000000
3.0018000000 2.4067000000 1.1600000000
3.0018000000 1.4941000000 0.7336000000
3.0017000000 3.9582000000 0.7121000000
3.0016000000 0.0905000000 0.1077000000
3.0015000000 3.6336000000 0.8559000000
3.0013000000 3.6374000000 0.8596000000
3.0005000000 0.7481000000 0.3962000000
3.0003000000 2.7993000000 1.2458000000
3.0002000000 0.9206000000 0.4717000000
3.0002000000 1.7875000000 0.8715000000
2.9999000000 1.0598000000 0.5407000000
2.9995000000 3.2013000000 1.0569000000
2.9993000000 2.0610000000 0.9974000000
2.9992000000 4.0700000000 0.6632000000
2.9991000000 0.2813000000 0.1691000000
2.9986000000 2.9033000000 1.1987000000
2.9984000000 4.0992000000 0.6428000000
2.9978000000 1.4749000000 0.7300000000
2.9975000000 4.1397000000 0.6330000000
2.9970000000 2.8157000000 1.2404000000
2.9969000000 0.9357000000 0.4894000000
2.9967000000 3.0942000000 1.1104000000
2.9959000000 1.2695000000 0.6385000000
2.7614000000 4.5702000000 0.6165000000
2.7600000000 3.1294000000 1.2816000000
2.7600000000 3.3427000000 1.1835000000
2.7592000000 3.5283000000 1.1010000000
2.7584000000 3.8016000000 0.9765000000
2.7584000000 4.0053000000 0.8851000000
2.7581000000 3.3692000000 1.1740000000
2.7574000000 1.0622000000 0.7347000000
2.7573000000 1.2066000000 0.7984000000
2.7571000000 1.8341000000 1.0900000000
2.7571000000 3.9315000000 0.9221000000
2.7570000000 4.8132000000 0.4820000000
2.7569000000 3.1661000000 1.2657000000
2.7568000000 1.7146000000 1.0346000000
2.7565000000 1.5466000000 0.9580000000
2.7565000000 2.2588000000 1.2817000000
2.7562000000 0.8831000000 0.6535000000
2.7560000000 2.4322000000 1.3689000000
2.7557000000 3.1122000000 1.2996000000
2.7554000000 2.9626000000 1.3650000000
2.7551000000 1.4642000000 0.9221000000
2.7550000000 5.3034000000 0.1146000000
2.7548000000 4.3795000000 0.7124000000
2.7548000000 4.9487000000 0.3759000000
2.7547000000 1.4543000000 0.9143000000
2.7545000000 1.2147000000 0.8068000000
2.7544000000 0.8004000000 0.6125000000
2.7543000000 5.2934000000 0.1269000000
2.7541000000 3.9296000000 0.9235000000
2.7539000000 0.2325000000 0.1712000000
2.7538000000 4.9501000000 0.3713000000
2.7538000000 1.5988000000 0.9822000000
2.7538000000 2.2113000000 1.2667000000
2.7536000000 0.9892000000 0.6987000000
2.7535000000 0.9580000000 0.6925000000
2.7534000000 5.3388000000 0.0836000000
2.7533000000 3.0514000000 1.3250000000
2.7532000000 1.4335000000 0.9069000000
2.7530000000 1.5096000000 0.9446000000
2.7529000000 5.3704000000 0.0524000000
2.7529000000 4.3026000000 0.7499000000
2.7528000000 3.0111000000 1.3431000000
2.7527000000 5.2483000000 0.0957000000
2.7526000000 1.0439000000 0.7306000000
2.7525000000 4.0976000000 0.8478000000
2.7519000000 1.0205000000 0.7203000000
2.7519000000 2.3706000000 1.3419000000
2.7518000000 4.2921000000 0.7573000000
2.7518000000 4.2799000000 0.7558000000
2.7516000000 1.1601000000 0.7872000000
2.7514000000 2.3131000000 1.3142000000
2.7513000000 5.2772000000 0.1443000000
2.7512000000 0.9113000000 0.6683000000
2.7512000000 1.0004000000 0.7110000000
2.7511000000 0.3896000000 0.3166000000
2.7510000000 0.1274000000 0.0795000000
2.7510000000 4.2700000000 0.7670000000
2.7508000000 3.5672000000 1.0876000000
2.7507000000 4.8899000000 0.4244000000
2.7507000000 1.9667000000 1.1577000000
2.7506000000 4.1653000000 0.8142000000
2.7504000000 1.4405000000 0.9154000000
2.7503000000 0.0328000000 0.0668000000
2.7502000000 5.3405000000 0.0792000000
2.7500000000 1.1635000000 0.7875000000
2.7499000000 5.4120000000 0.0167000000
2.7498000000 0.5716000000 0.4725000000
2.7496000000 3.7397000000 1.0121000000
2.7494000000 2.0030000000 1.1743000000
2.7493000000 1.1116000000 0.7599000000
2.7492000000 3.8957000000 0.9440000000
2.7486000000 3.9847000000 0.8998000000
2.7483000000 2.5386000000 1.4215000000
2.7481000000 0.0832000000 0.1179000000
2.7479000000 4.8109000000 0.4767000000
2.7473000000 0.0583000000 0.0877000000
2.7468000000 1.3690000000 0.8819000000
2.5112000000 2.4131000000 1.5546000000
2.5111000000 3.1363000000 1.4826000000
2.5104000000 4.3953000000 0.8627000000
2.5103000000 4.6705000000 0.6325000000
2.5101000000 1.3727000000 1.0730000000
2.5100000000 2.9747000000 1.5580000000
2.5099000000 5.0837000000 0.2465000000
2.5095000000 4.7552000000 0.5437000000
2.5092000000 4.6852000000 0.6160000000
2.5090000000 2.1409000000 1.4254000000
2.5080000000 1.1801000000 0.9888000000
2.5080000000 4.5230000000 0.7651000000
2.5078000000 5.1757000000 0.1579000000
2.5078000000 2.7914000000 1.6490000000
2.5075000000 4.5803000000 0.7142000000
2.5073000000 0.9112000000 0.8023000000
2.5071000000 0.4990000000 0.4172000000
2.5071000000 0.1895000000 0.1307000000
2.5068000000 2.9358000000 1.5767000000
2.5070000000 1.6094000000 1.1793000000
2.5065000000 3.4867000000 1.3186000000
2.5064000000 4.3690000000 0.8874000000
2.5058000000 1.7090000000 1.2333000000
2.5058000000 4.8316000000 0.4863000000
2.5057000000 0.2551000000 0.2062000000
2.5056000000 1.9240000000 1.3295000000
2.5056000000 3.8996000000 1.1295000000
2.5054000000 0.0385000000 0.0766000000
2.5052000000 1.1582000000 0.9743000000
2.5051000000 2.9036000000 1.5884000000
2.5050000000 0.3253000000 0.2624000000
2.5050000000 3.3734000000 1.3736000000
2.5049000000 3.3506000000 1.3910000000
2.5048000000 5.1077000000 0.2240000000
2.5047000000 2.9774000000 1.5575000000
2.5047000000 4.2090000000 0.9878000000
2.5046000000 2.1986000000 1.4611000000
2.5044000000 2.2819000000 1.4989000000
2.5041000000 2.5031000000 1.5992000000
2.5036000000 3.1367000000 1.4804000000
2.5035000000 0.5316000000 0.4524000000
2.5035000000 5.3039000000 0.1149000000
2.5035000000 2.1002000000 1.4124000000
2.5034000000 3.3745000000 1.3779000000
2.5033000000 1.2741000000 1.0295000000
2.5032000000 1.2473000000 1.0208000000
2.5029000000 4.8333000000 0.4753000000
2.5026000000 0.8018000000 0.6989000000
2.5023000000 5.2122000000 0.1232000000
2.5024000000 4.6255000000 0.6719000000
2.5026000000 1.9572000000 1.3462000000
2.5023000000 1.3000000000 1.0492000000
2.5021000000 2.8648000000 1.6143000000
2.5020000000 4.2659000000 0.9560000000
2.5020000000 1.6389000000 1.2022000000
2.5020000000 4.6274000000 0.6642000000
2.5019000000 0.1004000000 0.1329000000
2.5018000000 1.0792000000 0.9316000000
2.5017000000 4.3127000000 0.9279000000
2.5017000000 2.1594000000 1.4409000000
2.5015000000 0.8331000000 0.7350000000
2.5014000000 2.1807000000 1.4529000000
2.5012000000 4.1176000000 1.0428000000
2.5009000000 1.8338000000 1.2899000000
2.5008000000 3.0599000000 1.5252000000
2.5007000000 4.2214000000 0.9827000000
2.5005000000 3.1428000000 1.4826000000
2.5004000000 1.8578000000 1.3083000000
2.5003000000 2.1781000000 1.4547000000
2.4998000000 1.7801000000 1.2718000000
2.4997000000 0.2008000000 0.1423000000
2.4994000000 2.3622000000 1.5385000000
2.4992000000 0.8224000000 0.7153000000
2.4991000000 5.3503000000 0.0782000000
2.4990000000 3.9083000000 1.1344000000
2.4990000000 1.2135000000 1.0046000000
2.4990000000 2.9961000000 1.5593000000
2.4983000000 4.1501000000 1.0198000000
2.4982000000 1.9955000000 1.3672000000
2.4971000000 0.2016000000 0.1519000000
2.4954000000 2.4415000000 1.5798000000
2.4935000000 4.2759000000 0.9525000000
2.2623000000 4.6777000000 0.6154000000
2.2611000000 5.3564000000 0.0689000000
2.2601000000 3.4016000000 1.5613000000
2.2580000000 2.3103000000 1.7054000000
2.2575000000 1.1373000000 1.0129000000
2.2574000000 1.2460000000 1.1090000000
2.2573000000 0.6469000000 0.5597000000
2.2571000000 3.5454000000 1.4998000000
2.2570000000 3.0531000000 1.7220000000
2.2570000000 0.7997000000 0.6951000000
2.2569000000 2.6076000000 1.8420000000
2.2567000000 0.9690000000 0.8599000000
2.2565000000 5.0067000000 0.3128000000
2.2565000000 3.0751000000 1.7071000000
2.2562000000 0.1785000000 0.1314000000
2.2560000000 2.4218000000 1.7567000000
2.2559000000 0.4145000000 0.3391000000
2.2558000000 5.1273000000 0.2058000000
2.2558000000 3.5668000000 1.4915000000
2.2554000000 0.9213000000 0.8105000000
2.2553000000 0.5581000000 0.4741000000
2.2551000000 2.6531000000 1.8519000000
2.2550000000 2.4790000000 1.7810000000
2.2549000000 3.7701000000 1.3951000000
2.2548000000 4.3431000000 0.9259000000
2.2546000000 5.3910000000 0.0357000000
2.2545000000 1.2667000000 1.1263000000
2.2544000000 3.8109000000 1.3559000000
2.2543000000 5.4085000000 0.0200000000
2.2544000000 4.9273000000 0.3868000000
2.2543000000 1.5467000000 1.3427000000
2.2542000000 3.2163000000 1.6504000000
2.2541000000 4.5005000000 0.7841000000
2.2538000000 4.3905000000 0.8794000000
2.2538000000 3.9763000000 1.2459000000
2.2537000000 3.8850000000 1.3304000000
2.2535000000 0.0470000000 0.0789000000
2.2534000000 3.2010000000 1.6556000000
2.2533000000 1.1163000000 0.9889000000
2.2532000000 2.2278000000 1.6714000000
2.2530000000 4.3600000000 0.9146000000
2.2530000000 2.5988000000 1.8410000000
2.2530000000 3.6705000000 1.4357000000
2.2528000000 3.0042000000 1.7446000000
2.2527000000 2.0094000000 1.5658000000
2.2527000000 2.6058000000 1.8470000000
2.2529000000 2.5562000000 1.8290000000
2.2524000000 2.9985000000 1.7531000000
2.2524000000 3.9539000000 1.2735000000
2.2523000000 4.5580000000 0.7284000000
2.2523000000 2.9977000000 1.7498000000
2.2521000000 2.8022000000 1.8386000000
2.2520000000 3.3012000000 1.6115000000
2.2519000000 2.6494000000 1.8568000000
2.2517000000 1.0895000000 0.9630000000
2.2515000000 4.3825000000 0.8853000000
2.2515000000 0.3806000000 0.3116000000
2.2510000000 4.5573000000 0.7313000000
2.2508000000 0.5603000000 0.4716000000
2.2505000000 2.3163000000 1.7111000000
2.2505000000 1.6945000000 1.4293000000
2.2503000000 5.2992000000 0.1146000000
2.2501000000 2.1921000000 1.6547000000
2.2499000000 0.4782000000 0.4009000000
2.2495000000 3.7646000000 1.4053000000
2.2492000000 2.4823000000 1.7930000000
2.2488000000 2.9477000000 1.7741000000
2.2484000000 3.5267000000 1.5172000000
2.2481000000 0.4653000000 0.3895000000
2.2481000000 2.5822000000 1.8458000000
2.2478000000 3.3681000000 1.5889000000
2.2474000000 0.3160000000 0.2576000000
2.0102000000 3.7379000000 1.4877000000
2.0093000000 5.2736000000 0.1454000000
2.0093000000 3.5071000000 1.6832000000
2.0091000000 1.6885000000 1.5188000000
2.0086000000 3.8340000000 1.3957000000
2.0086000000 1.5511000000 1.3863000000
2.0083000000 0.4152000000 0.3404000000
2.0081000000 5.2126000000 0.1272000000
2.0080000000 5.1588000000 0.1769000000
2.0077000000 3.5248000000 1.6645000000
2.0069000000 4.2560000000 1.0059000000
2.0068000000 2.3303000000 1.9134000000
2.0067000000 1.0671000000 0.9453000000
2.0065000000 0.5312000000 0.4512000000
2.0064000000 3.0702000000 1.9132000000
2.0062000000 1.4938000000 1.3347000000
2.0062000000 3.2278000000 1.8400000000
2.0060000000 2.6274000000 2.0536000000
2.0060000000 0.9539000000 0.8408000000
2.0059000000 2.9084000000 1.9879000000
2.0059000000 3.3262000000 1.7937000000
2.0058000000 1.9372000000 1.7140000000
2.0057000000 2.4450000000 1.9693000000
2.0053000000 4.1433000000 1.1156000000
2.0053000000 2.9992000000 1.9441000000
2.0052000000 4.2611000000 1.0035000000
2.0051000000 4.5041000000 0.7810000000
2.0050000000 4.8729000000 0.4396000000
2.0050000000 0.3442000000 0.2782000000
2.0048000000 1.5224000000 1.3609000000
2.0047000000 0.9344000000 0.8186000000
2.0047000000 4.4834000000 0.7997000000
2.0046000000 4.4038000000 0.8688000000
2.0043000000 2.6856000000 2.0704000000
2.0042000000 3.5489000000 1.6454000000
2.0041000000 5.2484000000 0.0974000000
2.0038000000 2.7628000000 2.0581000000
2.0039000000 3.3455000000 1.7874000000
2.0038000000 1.8738000000 1.6721000000
2.0037000000 4.9570000000 0.3560000000
2.0036000000 5.2074000000 0.1285000000
2.0035000000 1.5153000000 1.3543000000
2.0035000000 3.7721000000 1.4553000000
2.0035000000 3.9287000000 1.3080000000
2.0033000000 1.0813000000 0.9610000000
2.0033000000 1.7936000000 1.6089000000
2.0033000000 0.3863000000 0.3126000000
2.0032000000 1.0976000000 0.9727000000
2.0030000000 1.7264000000 1.5509000000
2.0030000000 4.0078000000 1.2355000000
2.0029000000 3.2373000000 1.8382000000
2.0028000000 0.5365000000 0.4593000000
2.0028000000 3.5191000000 1.6752000000
2.0026000000 1.5091000000 1.3469000000
2.0025000000 0.0050000000 0.0392000000
2.0025000000 4.8062000000 0.4984000000
2.0024000000 0.2733000000 0.2089000000
2.0023000000 2.9377000000 1.9755000000
2.0020000000 3.5577000000 1.6439000000
2.0019000000 2.3838000000 1.9440000000
2.0014000000 2.3262000000 1.9136000000
2.0013000000 5.4103000000 0.0249000000
2.0012000000 1.6052000000 1.4372000000
2.0010000000 0.6904000000 0.5978000000
2.0009000000 4.7512000000 0.5514000000
2.0010000000 2.3797000000 1.9428000000
2.0008000000 0.3691000000 0.3016000000
2.0007000000 3.1826000000 1.8583000000
2.0005000000 0.8356000000 0.7343000000
2.0005000000 2.1935000000 1.8575000000
2.0004000000 2.3932000000 1.9507000000
2.0003000000 4.2057000000 1.0553000000
2.0000000000 1.0873000000 0.9636000000
1.9999000000 4.4555000000 0.8279000000
1.9998000000 2.8482000000 2.0258000000
1.9995000000 1.6769000000 1.5017000000
1.9992000000 1.1398000000 1.0119000000
1.9992000000 1.1298000000 1.0012000000
1.9991000000 5.1382000000 0.1979000000
1.9990000000 2.4962000000 2.0004000000
1.9988000000 4.7877000000 0.5219000000
1.9981000000 0.2352000000 0.1727000000
1.9960000000 0.7633000000 0.6630000000
1.9953000000 0.8353000000 0.7289000000
1.7635000000 4.6572000000 0.6363000000
1.7600000000 5.0027000000 0.3250000000
1.7590000000 4.8512000000 0.4598000000
1.7586000000 4.7796000000 0.5270000000
1.7584000000 1.3366000000 1.1931000000
1.7582000000 5.3777000000 0.0492000000
1.7579000000 5.1797000000 0.1541000000
1.7579000000 5.1948000000 0.1469000000
1.7576000000 2.9021000000 2.1890000000
1.7573000000 4.6673000000 0.6283000000
1.7573000000 5.2845000000 0.1392000000
1.7573000000 0.1743000000 0.1204000000
1.7568000000 0.0542000000 0.0849000000
1.7565000000 1.8680000000 1.6739000000
1.7562000000 4.0640000000 1.1825000000
1.7561000000 0.1797000000 0.1292000000
1.7560000000 0.1891000000 0.1305000000
1.7560000000 1.2007000000 1.0691000000
1.7559000000 3.2883000000 1.8956000000
1.7558000000 3.4582000000 1.7400000000
1.7558000000 1.8993000000 1.7063000000
1.7557000000 3.3531000000 1.8400000000
1.7557000000 0.4973000000 0.4181000000
1.7555000000 4.4761000000 0.8067000000
1.7554000000 4.6427000000 0.6496000000
1.7553000000 1.5057000000 1.3463000000
1.7553000000 5.0373000000 0.2907000000
1.7551000000 4.8244000000 0.4826000000
1.7550000000 3.7294000000 1.4930000000
1.7549000000 5.3928000000 0.0312000000
1.7548000000 3.1339000000 2.0308000000
1.7548000000 1.8406000000 1.6618000000
1.7547000000 2.4789000000 2.1850000000
1.7544000000 1.1420000000 1.0117000000
1.7543000000 3.3585000000 1.8375000000
1.7542000000 0.8292000000 0.7235000000
1.7540000000 2.1573000000 1.9467000000
1.7540000000 0.9730000000 0.8585000000
1.7539000000 3.5474000000 1.6647000000
1.7539000000 5.2277000000 0.1146000000
1.7538000000 1.8182000000 1.6355000000
1.7537000000 3.5625000000 1.6507000000
1.7535000000 4.3475000000 0.9254000000
1.7534000000 2.4605000000 2.1724000000
1.7533000000 5.2976000000 0.1200000000
1.7530000000 1.3737000000 1.2243000000
1.7528000000 2.6345000000 2.2601000000
1.7526000000 4.4411000000 0.8442000000
1.7523000000 2.7856000000 2.2499000000
1.7523000000 4.5738000000 0.7186000000
1.7521000000 4.4253000000 0.8552000000
1.7519000000 3.8516000000 1.3835000000
1.7518000000 2.9042000000 2.1943000000
1.7518000000 2.2769000000 2.0485000000
1.7517000000 3.6361000000 1.5806000000
1.7515000000 2.0257000000 1.8296000000
1.7513000000 1.9846000000 1.7879000000
1.7512000000 1.5654000000 1.4006000000
1.7511000000 0.4910000000 0.4146000000
1.7510000000 3.9318000000 1.3043000000
1.7507000000 0.5777000000 0.4904000000
1.7505000000 4.0180000000 1.2300000000
1.7505000000 0.9048000000 0.7924000000
1.7503000000 0.9924000000 0.8771000000
1.7503000000 0.5002000000 0.4253000000
1.7499000000 0.6727000000 0.5770000000
1.7498000000 5.0677000000 0.2562000000
1.7495000000 3.0513000000 2.1008000000
1.7487000000 1.0356000000 0.9179000000
1.7486000000 2.0367000000 1.8362000000
1.7475000000 2.6731000000 2.2685000000
1.7448000000 2.6777000000 2.2621000000
1.7422000000 3.2499000000 1.9373000000
1.5131000000 1.7459000000 1.5713000000
1.5105000000 0.0669000000 0.0956000000
1.5100000000 4.0979000000 1.1584000000
1.5096000000 3.9827000000 1.2625000000
1.5094000000 4.9856000000 0.3365000000
1.5091000000 4.4232000000 0.8609000000
1.5090000000 1.2103000000 1.0699000000
1.5089000000 3.9049000000 1.3319000000
1.5082000000 3.4208000000 1.7777000000
1.5079000000 4.9853000000 0.3367000000
1.5077000000 0.6197000000 0.5311000000
1.5074000000 1.9873000000 1.7915000000
1.5068000000 3.4272000000 1.7759000000
1.5068000000 4.6429000000 0.6481000000
1.5065000000 4.1479000000 1.1064000000
1.5065000000 5.2902000000 0.1281000000
1.5057000000 4.9368000000 0.3779000000
1.5056000000 3.9171000000 1.3180000000
1.5055000000 3.1854000000 1.9952000000
1.5055000000 1.3289000000 1.1851000000
1.5053000000 5.0321000000 0.2984000000
1.5051000000 0.8133000000 0.7083000000
1.5049000000 1.8057000000 1.6238000000
1.5048000000 2.0128000000 1.8129000000
1.5047000000 3.5158000000 1.6924000000
1.5046000000 1.4897000000 1.3338000000
1.5045000000 0.9895000000 0.8687000000
1.5045000000 3.2951000000 1.8932000000
1.5044000000 3.4716000000 1.7286000000
1.5043000000 0.9823000000 0.8649000000
1.5041000000 3.1652000000 2.0175000000
1.5041000000 3.4512000000 1.7491000000
1.5040000000 1.8486000000 1.6657000000
1.5040000000 1.1922000000 1.0653000000
1.5039000000 0.8193000000 0.7173000000
1.5038000000 2.1062000000 1.9029000000
1.5037000000 0.5554000000 0.4741000000
1.5037000000 3.1964000000 1.9787000000
1.5033000000 0.3599000000 0.2906000000
1.5032000000 3.5428000000 1.6616000000
1.5032000000 0.1961000000 0.1384000000
1.5030000000 1.4013000000 1.2520000000
1.5030000000 0.7186000000 0.6237000000
1.5029000000 0.8055000000 0.6994000000
1.5028000000 0.9788000000 0.8610000000
1.5028000000 2.2276000000 2.0141000000
1.5026000000 3.0071000000 2.1642000000
1.5025000000 3.8686000000 1.3647000000
1.5023000000 0.7387000000 0.6403000000
1.5023000000 0.9404000000 0.8267000000
1.5022000000 4.6987000000 0.5941000000
1.5021000000 4.1918000000 1.0634000000
1.5021000000 2.8337000000 2.3036000000
1.5020000000 5.2416000000 0.1053000000
1.5020000000 4.0858000000 1.1648000000
1.5015000000 1.2390000000 1.0965000000
1.5015000000 1.7780000000 1.5951000000
1.5013000000 0.6569000000 0.5622000000
1.5012000000 0.3637000000 0.2959000000
1.5012000000 0.9196000000 0.8087000000
1.5011000000 1.1055000000 0.9809000000
1.5010000000 0.4397000000 0.3662000000
1.5009000000 4.0592000000 1.1910000000
1.5008000000 0.1753000000 0.1194000000
1.5002000000 1.2937000000 1.1536000000
1.5000000000 3.3308000000 1.8574000000
1.4999000000 0.9796000000 0.8628000000
1.4998000000 2.4827000000 2.2490000000
1.4996000000 2.7543000000 2.3856000000
1.4996000000 1.9418000000 1.7481000000
1.4995000000 3.2100000000 1.9706000000
1.4993000000 3.0738000000 2.0956000000
1.4990000000 1.9052000000 1.7164000000
1.4984000000 0.2568000000 0.1982000000
1.4980000000 1.8847000000 1.6924000000
1.4978000000 1.2311000000 1.0934000000
1.4971000000 2.1617000000 1.9528000000
1.4953000000 1.3122000000 1.1693000000
1.4948000000 3.3812000000 1.8177000000
1.2600000000 1.8429000000 1.6587000000
1.2597000000 2.3348000000 2.0419000000
1.2587000000 4.3540000000 0.9168000000
1.2586000000 5.2841000000 0.1380000000
1.2585000000 4.1591000000 1.0992000000
1.2580000000 3.2031000000 1.9622000000
1.2580000000 4.4515000000 0.8262000000
1.2578000000 1.0086000000 0.8912000000
1.2576000000 4.4291000000 0.8456000000
1.2573000000 5.2693000000 0.1516000000
1.2573000000 3.8498000000 1.3876000000
1.2572000000 2.2097000000 1.9667000000
1.2569000000 4.9141000000 0.4025000000
1.2568000000 5.2863000000 0.1327000000
1.2567000000 2.4480000000 2.0889000000
1.2567000000 5.2970000000 0.1257000000
1.2566000000 4.7821000000 0.5220000000
1.2566000000 4.2255000000 1.0410000000
1.2564000000 2.3143000000 2.0301000000
1.2563000000 2.2010000000 1.9627000000
1.2562000000 4.9453000000 0.3764000000
1.2555000000 3.4305000000 1.7687000000
1.2552000000 0.1319000000 0.0830000000
1.2549000000 5.2670000000 0.0779000000
1.2548000000 1.8465000000 1.6613000000
1.2545000000 2.4516000000 2.0993000000
1.2544000000 0.8766000000 0.7665000000
1.2543000000 2.4397000000 2.0836000000
1.2542000000 1.8724000000 1.6860000000
1.2541000000 4.6640000000 0.6321000000
1.2540000000 0.2282000000 0.1682000000
1.2540000000 0.5665000000 0.4853000000
1.2537000000 0.8519000000 0.7467000000
1.2536000000 1.1653000000 1.0318000000
1.2535000000 2.6393000000 2.1745000000
1.2535000000 1.1545000000 1.0220000000
1.2533000000 3.8332000000 1.4001000000
1.2533000000 4.4711000000 0.8078000000
1.2532000000 1.6908000000 1.5194000000
1.2530000000 0.0370000000 0.0689000000
1.2530000000 5.3538000000 0.0695000000
1.2531000000 3.4689000000 1.7293000000
1.2528000000 4.0619000000 1.1892000000
1.2528000000 1.6967000000 1.5269000000
1.2527000000 1.9809000000 1.7864000000
1.2523000000 0.6900000000 0.5980000000
1.2523000000 1.2305000000 1.0994000000
1.2522000000 1.9518000000 1.7577000000
1.2522000000 0.7266000000 0.6275000000
1.2520000000 2.4232000000 2.0780000000
1.2518000000 3.9651000000 1.2714000000
1.2515000000 1.3387000000 1.1916000000
1.2514000000 4.8399000000 0.4681000000
1.2512000000 2.1590000000 1.9363000000
1.2513000000 0.8837000000 0.7763000000
1.2508000000 1.7378000000 1.5584000000
1.2506000000 1.0354000000 0.9187000000
1.2505000000 0.1004000000 0.1223000000
1.2503000000 4.3993000000 0.8773000000
1.2503000000 2.6770000000 2.1783000000
1.2500000000 3.7765000000 1.4521000000
1.2498000000 1.2028000000 1.0698000000
1.2497000000 0.8263000000 0.7186000000
1.2493000000 3.5404000000 1.6681000000
1.2493000000 3.1199000000 1.9967000000
1.2491000000 1.7230000000 1.5457000000
1.2490000000 2.5466000000 2.1318000000
1.2486000000 0.5585000000 0.4764000000
1.2484000000 3.4005000000 1.7949000000
1.2483000000 4.6963000000 0.5975000000
1.2483000000 2.3094000000 2.0196000000
1.2481000000 2.2547000000 1.9828000000
1.2481000000 1.5449000000 1.3873000000
1.2478000000 4.2516000000 1.0121000000
1.2475000000 1.0319000000 0.9114000000
1.2474000000 0.3200000000 0.2606000000
1.2473000000 4.5090000000 0.7765000000
1.2469000000 4.9040000000 0.4129000000
1.2467000000 0.4229000000 0.3459000000
1.2465000000 0.8119000000 0.7081000000
1.2455000000 1.3745000000 1.2259000000
1.0119000000 3.8850000000 1.3420000000
1.0103000000 4.2878000000 0.9795000000
1.0100000000 4.3751000000 0.8990000000
1.0098000000 2.7823000000 1.9715000000
1.0096000000 4.7267000000 0.5786000000
1.0087000000 2.5595000000 1.9422000000
1.0085000000 3.7831000000 1.4424000000
1.0083000000 3.9525000000 1.2861000000
1.0077000000 4.8893000000 0.4235000000
1.0076000000 2.0022000000 1.6897000000
1.0075000000 2.4985000000 1.9134000000
1.0074000000 0.9450000000 0.8374000000
1.0068000000 4.8296000000 0.4808000000
1.0068000000 1.4723000000 1.3186000000
1.0067000000 2.9793000000 1.8717000000
1.0063000000 5.3246000000 0.0916000000
1.0059000000 1.8900000000 1.6373000000
1.0056000000 0.2820000000 0.2200000000
1.0054000000 0.4881000000 0.4048000000
1.0053000000 5.0820000000 0.2451000000
1.0051000000 3.8462000000 1.3846000000
1.0051000000 0.9438000000 0.8279000000
1.0049000000 1.3672000000 1.2266000000
1.0048000000 2.0679000000 1.7102000000
1.0047000000 1.7211000000 1.5971000000
1.0047000000 4.6740000000 0.6193000000
1.0046000000 5.0830000000 0.2484000000
1.0046000000 3.1960000000 1.7757000000
1.0045000000 3.4147000000 1.6721000000
1.0045000000 0.4041000000 0.3360000000
1.0040000000 0.5887000000 0.5019000000
1.0036000000 0.4787000000 0.4020000000
1.0035000000 1.9235000000 1.6492000000
1.0033000000 5.3766000000 0.0497000000
1.0033000000 3.2389000000 1.7520000000
1.0033000000 3.3610000000 1.6944000000
1.0032000000 4.1960000000 1.0637000000
1.0031000000 0.4101000000 0.3432000000
1.0028000000 0.0115000000 0.0512000000
1.0028000000 4.2700000000 0.9904000000
1.0025000000 3.7936000000 1.4302000000
1.0025000000 2.1036000000 1.7263000000
1.0024000000 1.4525000000 1.3025000000
1.0023000000 2.7144000000 1.9837000000
1.0023000000 2.1704000000 1.7587000000
1.0021000000 0.2431000000 0.1857000000
1.0018000000 1.1028000000 0.9775000000
1.0018000000 0.5376000000 0.4595000000
1.0017000000 2.9643000000 1.8732000000
1.0017000000 0.8519000000 0.7447000000
1.0010000000 3.1915000000 1.7758000000
1.0009000000 4.0204000000 1.2244000000
1.0009000000 2.5586000000 1.9399000000
1.0008000000 1.2937000000 1.1563000000
1.0008000000 1.1466000000 1.0160000000
1.0004000000 3.5258000000 1.6218000000
0.9997000000 0.9396000000 0.8248000000
0.9996000000 1.6171000000 1.4453000000
0.9996000000 3.2683000000 1.7339000000
0.9995000000 0.9474000000 0.8330000000
0.9993000000 3.1477000000 1.7951000000
0.9993000000 1.5465000000 1.3842000000
0.9992000000 2.8128000000 1.9518000000
0.9992000000 2.2517000000 1.7967000000
0.9991000000 4.6668000000 0.6293000000
0.9990000000 3.0099000000 1.8591000000
0.9981000000 4.2835000000 0.9853000000
0.9978000000 3.1226000000 1.8074000000
0.9974000000 2.2691000000 1.8041000000
0.9973000000 0.8221000000 0.7161000000
0.9972000000 2.6820000000 2.0501000000
0.9962000000 0.5580000000 0.4778000000
0.9938000000 4.0205000000 1.2220000000
0.7636000000 2.3217000000 1.6390000000
0.7619000000 5.0211000000 0.2995000000
0.7611000000 4.9866000000 0.3298000000
0.7604000000 4.9636000000 0.3565000000
0.7602000000 3.6159000000 1.3902000000
0.7594000000 4.6717000000 0.6275000000
0.7593000000 4.5501000000 0.7438000000
0.7591000000 3.2902000000 1.5331000000
0.7590000000 5.0430000000 0.2856000000
0.7588000000 3.1244000000 1.6065000000
0.7579000000 3.1369000000 1.6020000000
0.7578000000 1.8837000000 1.4340000000
0.7577000000 5.0444000000 0.2841000000
0.7574000000 1.4219000000 1.2216000000
0.7573000000 4.9505000000 0.3671000000
0.7571000000 4.2653000000 1.0010000000
0.7568000000 1.3060000000 1.2202000000
0.7567000000 1.5282000000 1.2644000000
0.7565000000 4.0183000000 1.1833000000
0.7565000000 1.3080000000 1.2261000000
0.7564000000 3.9676000000 1.2133000000
0.7559000000 1.0602000000 0.9391000000
0.7559000000 4.9843000000 0.3353000000
0.7558000000 1.5226000000 1.2600000000
0.7558000000 4.9981000000 0.3237000000
0.7556000000 3.2238000000 1.5620000000
0.7555000000 5.0524000000 0.2738000000
0.7555000000 1.4455000000 1.2300000000
0.7554000000 0.5055000000 0.4262000000
0.7553000000 3.5391000000 1.4170000000
0.7553000000 4.2561000000 1.0035000000
0.7551000000 2.6890000000 1.8610000000
0.7550000000 2.7397000000 1.7730000000
0.7545000000 3.0427000000 1.6437000000
0.7544000000 4.1841000000 1.0618000000
0.7544000000 3.9602000000 1.2211000000
0.7543000000 4.4895000000 0.7929000000
0.7542000000 4.4488000000 0.8356000000
0.7543000000 0.9442000000 0.8293000000
0.7541000000 3.4456000000 1.4602000000
0.7540000000 2.8891000000 1.7162000000
0.7538000000 3.8476000000 1.2748000000
0.7538000000 1.6795000000 1.3309000000
0.7538000000 2.1555000000 1.5522000000
0.7536000000 2.2712000000 1.6124000000
0.7535000000 3.1277000000 1.6075000000
0.7532000000 1.6960000000 1.3464000000
0.7531000000 4.3287000000 0.9407000000
0.7530000000 4.0935000000 1.1417000000
0.7530000000 1.2628000000 1.1082000000
0.7528000000 3.9203000000 1.2447000000
0.7527000000 2.7327000000 1.7687000000
0.7527000000 1.7815000000 1.3813000000
0.7525000000 3.8760000000 1.2659000000
0.7525000000 3.9951000000 1.1962000000
0.7523000000 0.6253000000 0.5344000000
0.7522000000 4.1917000000 1.0616000000
0.7517000000 0.7524000000 0.6539000000
0.7516000000 1.6471000000 1.3223000000
0.7514000000 2.2746000000 1.6053000000
0.7512000000 1.2950000000 1.1434000000
0.7510000000 3.4830000000 1.4414000000
0.7509000000 2.4915000000 1.7047000000
0.7508000000 2.1432000000 1.5505000000
0.7507000000 3.7167000000 1.3285000000
0.7502000000 3.7676000000 1.3049000000
0.7501000000 4.1149000000 1.1214000000
0.7500000000 5.3687000000 0.0551000000
0.7498000000 0.8283000000 0.7306000000
0.7496000000 4.2417000000 1.0204000000
0.7483000000 4.6204000000 0.6732000000
0.7479000000 2.6719000000 1.8486000000
0.7479000000 3.4883000000 1.4317000000
0.7458000000 4.4276000000 0.8440000000
0.7450000000 1.3565000000 1.1670000000
0.7448000000 1.8549000000 1.4091000000
0.7445000000 2.0112000000 1.4851000000
0.5109000000 3.4583000000 1.2611000000
0.5103000000 1.8012000000 1.1958000000
0.5102000000 5.3196000000 0.1105000000
0.5095000000 4.4089000000 0.8109000000
0.5093000000 4.9522000000 0.3738000000
0.5093000000 0.6524000000 0.5646000000
0.5084000000 3.9986000000 1.0096000000
0.5084000000 4.1383000000 0.9485000000
0.5083000000 4.4108000000 0.8078000000
0.5076000000 0.2491000000 0.1858000000
0.5070000000 4.5774000000 0.7002000000
0.5067000000 0.3508000000 0.2867000000
0.5066000000 2.6266000000 1.5834000000
0.5066000000 2.1780000000 1.3649000000
0.5063000000 0.4578000000 0.3812000000
0.5062000000 4.3498000000 0.8393000000
0.5060000000 3.9387000000 1.0337000000
0.5059000000 4.1065000000 0.9508000000
0.5056000000 2.1114000000 1.3339000000
0.5053000000 1.6379000000 1.1192000000
0.5052000000 1.9804000000 1.2766000000
0.5053000000 1.7511000000 1.1688000000
0.5050000000 4.2207000000 0.9030000000
0.5049000000 3.5433000000 1.2094000000
0.5048000000 4.2289000000 0.8991000000
0.5047000000 2.8652000000 1.5267000000
0.5046000000 4.0105000000 0.9986000000
0.5043000000 4.6315000000 0.6594000000
0.5042000000 4.1565000000 0.9335000000
0.5041000000 3.9115000000 1.0444000000
0.5040000000 3.1377000000 1.4065000000
0.5039000000 4.4096000000 0.8133000000
0.5038000000 5.3137000000 0.1035000000
0.5037000000 4.1638000000 0.9320000000
0.5037000000 2.5153000000 1.5229000000
0.5036000000 3.7206000000 1.1349000000
0.5035000000 2.8195000000 1.5424000000
0.5034000000 4.6604000000 0.6412000000
0.5034000000 0.3723000000 0.3048000000
0.5033000000 2.1826000000 1.3684000000
0.5033000000 3.6674000000 1.1569000000
0.5030000000 1.0998000000 0.8647000000
0.5029000000 3.6685000000 1.1536000000
0.5027000000 4.7749000000 0.5347000000
0.5026000000 0.6795000000 0.5870000000
0.5026000000 1.9665000000 1.2698000000
0.5023000000 2.5746000000 1.5450000000
0.5020000000 4.0217000000 0.9912000000
0.5019000000 1.1393000000 0.8898000000
0.5019000000 4.1111000000 0.9504000000
0.5018000000 4.4038000000 0.8128000000
0.5016000000 0.4801000000 0.4038000000
0.5015000000 0.4253000000 0.3507000000
0.5014000000 3.3433000000 1.3081000000
0.5014000000 3.9314000000 1.0340000000
0.5013000000 3.4592000000 1.2562000000
0.5012000000 5.1519000000 0.1815000000
0.5010000000 4.7341000000 0.5684000000
0.5010000000 4.6403000000 0.6533000000
0.5008000000 5.0061000000 0.3171000000
0.5008000000 0.9429000000 0.7763000000
0.5008000000 3.4753000000 1.2437000000
0.5005000000 3.6810000000 1.1461000000
0.5005000000 3.2361000000 1.3571000000
0.5004000000 0.8022000000 0.6798000000
0.5003000000 2.6162000000 1.5688000000
0.5002000000 4.0759000000 0.9727000000
0.5002000000 2.3900000000 1.4635000000
0.5000000000 3.2489000000 1.3508000000
0.5000000000 2.9374000000 1.4929000000
0.4999000000 2.4671000000 1.4944000000
0.4998000000 2.4379000000 1.4835000000
0.4996000000 2.5577000000 1.5322000000
0.4995000000 0.2012000000 0.1486000000
0.4994000000 4.7697000000 0.5418000000
0.4993000000 3.4785000000 1.2426000000
0.4993000000 2.2583000000 1.3993000000
0.4991000000 1.7253000000 1.1509000000
0.4990000000 2.4545000000 1.4880000000
0.4987000000 4.7676000000 0.5394000000
0.4986000000 2.8680000000 1.5222000000
0.4980000000 0.3019000000 0.2361000000
0.4975000000 0.6315000000 0.5391000000
0.4965000000 3.5140000000 1.2188000000
0.4964000000 4.3408000000 0.8376000000
0.4963000000 0.3510000000 0.2903000000
0.4962000000 0.7084000000 0.6148000000
0.4950000000 1.6164000000 1.1030000000
0.4939000000 1.1364000000 0.8770000000
0.2603000000 1.1918000000 0.7189000000
0.2603000000 4.6348000000 0.5145000000
0.2593000000 4.3950000000 0.6261000000
0.2589000000 4.9186000000 0.3643000000
0.2587000000 2.4054000000 1.2751000000
0.2585000000 0.5485000000 0.4135000000
0.2583000000 0.4876000000 0.3792000000
0.2580000000 1.7353000000 0.9660000000
0.2577000000 2.5833000000 1.3546000000
0.2575000000 0.4080000000 0.3257000000
0.2571000000 1.2408000000 0.7364000000
0.2568000000 3.4127000000 1.0808000000
0.2564000000 3.2307000000 1.1610000000
0.2563000000 1.7930000000 0.9925000000
0.2561000000 0.2419000000 0.1837000000
0.2560000000 4.6201000000 0.5251000000
0.2560000000 2.9729000000 1.2776000000
0.2559000000 0.0370000000 0.0689000000
0.2556000000 3.6641000000 0.9582000000
0.2555000000 3.9155000000 0.8458000000
0.2554000000 4.5022000000 0.5731000000
0.2553000000 3.8023000000 0.9024000000
0.2552000000 4.9526000000 0.3545000000
0.2551000000 2.1595000000 1.1547000000
0.2546000000 3.5479000000 1.0150000000
0.2545000000 1.3061000000 0.7618000000
0.2545000000 0.8710000000 0.5668000000
0.2544000000 3.7394000000 0.9277000000
0.2542000000 3.2638000000 1.1423000000
0.2538000000 0.1127000000 0.1373000000
0.2534000000 0.0432000000 0.0731000000
0.2533000000 0.7527000000 0.5090000000
0.2532000000 1.8638000000 1.0160000000
0.2529000000 1.8847000000 1.0353000000
0.2528000000 3.3427000000 1.1095000000
0.2526000000 5.3844000000 0.0385000000
0.2527000000 1.1087000000 0.6707000000
0.2525000000 2.4727000000 1.3041000000
0.2526000000 4.8595000000 0.4003000000
0.2525000000 2.0715000000 1.1119000000
0.2523000000 4.9627000000 0.3438000000
0.2523000000 2.9559000000 1.2818000000
0.2521000000 0.9721000000 0.6104000000
0.2520000000 2.2386000000 1.1888000000
0.2519000000 1.7443000000 0.9674000000
0.2516000000 1.7696000000 0.9769000000
0.2515000000 1.5090000000 0.8571000000
0.2514000000 3.8825000000 0.8576000000
0.2513000000 4.8218000000 0.4257000000
0.2510000000 4.4313000000 0.6057000000
0.2508000000 0.0968000000 0.1227000000
0.2508000000 1.5855000000 0.8839000000
0.2507000000 0.6926000000 0.4765000000
0.2504000000 3.1583000000 1.1908000000
0.2497000000 1.0930000000 0.6610000000
0.2495000000 2.6353000000 1.3772000000
0.2492000000 4.2955000000 0.6678000000
0.2475000000 2.7729000000 1.3650000000
0.2467000000 2.0294000000 1.0929000000
0.2465000000 0.5560000000 0.4129000000
0.2445000000 3.8237000000 0.8768000000
0.0133000000 4.2623000000 0.4909000000
0.0119000000 2.5845000000 1.1644000000
0.0115000000 4.9820000000 0.1599000000
0.0104000000 1.8219000000 0.8025000000
0.0100000000 3.3893000000 0.8882000000
0.0098000000 3.5677000000 0.8082000000
0.0094000000 0.4593000000 0.1818000000
0.0093000000 2.9948000000 1.0727000000
0.0090000000 5.0160000000 0.1436000000
0.0079000000 5.0426000000 0.1261000000
0.0077000000 3.3723000000 0.8967000000
0.0075000000 4.9447000000 0.1767000000
0.0075000000 0.9223000000 0.3913000000
0.0070000000 1.4473000000 0.6323000000
0.0067000000 1.8214000000 0.8064000000
0.0065000000 0.9713000000 0.4148000000
0.0065000000 4.8757000000 0.2083000000
0.0064000000 4.3678000000 0.4428000000
0.0063000000 0.3970000000 0.1489000000
0.0061000000 4.6216000000 0.3145000000
0.0060000000 4.4219000000 0.4141000000
0.0059000000 0.4687000000 0.1784000000
0.0057000000 4.8881000000 0.1960000000
0.0055000000 0.6687000000 0.2671000000
0.0055000000 2.6628000000 1.1764000000
0.0053000000 4.0099000000 0.6001000000
0.0045000000 1.1964000000 0.5115000000
0.0045000000 0.1771000000 0.1276000000
0.0044000000 1.1144000000 0.4765000000
0.0040000000 1.1107000000 0.4808000000
0.0039000000 4.5492000000 0.3521000000
0.0038000000 4.2747000000 0.4764000000
0.0038000000 1.2834000000 0.5514000000
0.0036000000 0.1358000000 0.0992000000
0.0035000000 1.9368000000 0.8579000000
0.0034000000 3.0634000000 1.0311000000
0.0032000000 3.4922000000 0.8402000000
0.0033000000 1.2515000000 0.5402000000
0.0031000000 5.1813000000 0.1387000000
0.0030000000 0.2079000000 0.1369000000
0.0028000000 3.5859000000 0.7981000000
0.0027000000 3.3719000000 0.8961000000
0.0026000000 5.1424000000 0.0777000000
0.0025000000 1.3630000000 0.5849000000
0.0025000000 3.3967000000 0.8872000000
0.0024000000 3.1949000000 0.9716000000
0.0023000000 0.0191000000 0.0333000000
0.0022000000 4.1143000000 0.5530000000
0.0021000000 1.7424000000 0.7634000000
0.0021000000 1.3909000000 0.6021000000
0.0019000000 0.0217000000 0.0362000000
0.0018000000 2.8481000000 1.1379000000
0.0016000000 5.3308000000 0.0524000000
0.0017000000 3.3352000000 0.9037000000
0.0015000000 3.6830000000 0.7505000000
0.0015000000 5.0401000000 0.1236000000
0.0015000000 4.2398000000 0.4938000000
0.0014000000 1.9723000000 0.8722000000
0.0013000000 2.6958000000 1.1895000000
0.0013000000 0.2031000000 0.1306000000
0.0011000000 0.2253000000 0.1396000000
0.0007000000 3.7401000000 0.7224000000
0.0002000000 0.7056000000 0.2898000000
-0.0002000000 3.8894000000 0.6536000000
-0.0004000000 5.3886000000 0.0233000000
-0.0003000000 1.9799000000 0.8791000000
-0.0005000000 0.2782000000 0.0880000000
-0.0009000000 3.3371000000 0.9156000000
-0.0010000000 0.7482000000 0.3048000000
-0.0012000000 0.3921000000 0.1419000000
-0.0019000000 0.0401000000 0.0370000000
-0.0020000000 4.1875000000 0.5119000000
-0.0027000000 2.2365000000 0.9847000000
-0.0030000000 0.2154000000 0.1386000000
-0.0034000000 4.7333000000 0.2618000000
-0.0037000000 0.6234000000 0.2461000000
-0.0038000000 0.6372000000 0.2526000000
-0.0061000000 0.6734000000 0.2598000000
-0.2357000000 4.9876000000 0.0378000000
-0.2379000000 2.4351000000 0.8919000000
-0.2388000000 2.4830000000 0.9155000000
-0.2397000000 3.8245000000 0.4910000000
-0.2405000000 3.5178000000 0.6346000000
-0.2412000000 5.0840000000 0.0590000000
-0.2413000000 4.6998000000 0.0915000000
-0.2415000000 3.0151000000 0.8677000000
-0.2416000000 4.4284000000 0.2130000000
-0.2417000000 4.7551000000 0.1338000000
-0.2417000000 0.4725000000 0.0609000000
-0.2426000000 2.3099000000 0.8281000000
-0.2429000000 3.3274000000 0.7209000000
-0.2430000000 3.7995000000 0.5035000000
-0.2431000000 0.3117000000 0.0609000000
-0.2434000000 1.7109000000 0.5546000000
-0.2435000000 5.0474000000 0.0752000000
-0.2437000000 4.1767000000 0.3242000000
-0.2437000000 4.1201000000 0.3476000000
-0.2438000000 4.3098000000 0.2676000000
-0.2440000000 3.2506000000 0.7524000000
-0.2440000000 0.4359000000 0.0446000000
-0.2441000000 4.6594000000 0.1047000000
-0.2441000000 2.2585000000 0.8050000000
-0.2444000000 4.6327000000 0.1118000000
-0.2446000000 2.0530000000 0.7106000000
-0.2445000000 1.1615000000 0.3032000000
-0.2447000000 0.8422000000 0.1544000000
-0.2448000000 1.0124000000 0.2309000000
-0.2450000000 1.1939000000 0.3188000000
-0.2450000000 3.1049000000 0.8135000000
-0.2452000000 4.4907000000 0.1809000000
-0.2452000000 1.3471000000 0.3845000000
-0.2453000000 3.0216000000 0.8579000000
-0.2454000000 5.0742000000 0.0592000000
-0.2457000000 1.8876000000 0.6317000000
-0.2458000000 3.1764000000 0.7861000000
-0.2459000000 2.6463000000 0.9696000000
-0.2460000000 4.4950000000 0.1772000000
-0.2460000000 2.4554000000 0.8948000000
-0.2462000000 2.9556000000 0.8872000000
-0.2465000000 0.2879000000 0.0551000000
-0.2464000000 4.3353000000 0.2510000000
-0.2465000000 4.9136000000 0.0625000000
-0.2466000000 4.1985000000 0.3123000000
-0.2467000000 0.5689000000 0.1010000000
-0.2470000000 0.3207000000 0.0629000000
-0.2473000000 2.5515000000 0.9403000000
-0.2475000000 3.0932000000 0.8212000000
-0.2474000000 1.0047000000 0.2280000000
-0.2477000000 4.8532000000 0.0868000000
-0.2477000000 1.2864000000 0.3547000000
-0.2480000000 1.6557000000 0.5268000000
-0.2480000000 0.9657000000 0.2103000000
