6.5111000000 3.4863000000 0.0793000000
6.5078000000 3.3820000000 0.0414000000
6.5070000000 3.8186000000 0.1368000000
6.5053000000 3.7919000000 0.1312000000
6.5045000000 4.1637000000 0.0542000000
6.5014000000 3.7614000000 0.1255000000
6.2596000000 4.7141000000 0.0723000000
6.2589000000 3.5548000000 0.2125000000
6.2581000000 4.4919000000 0.0931000000
6.2558000000 4.1544000000 0.2301000000
6.2545000000 4.2793000000 0.1780000000
6.2535000000 4.6368000000 0.0391000000
6.2528000000 3.2307000000 0.0848000000
6.2513000000 3.5687000000 0.2201000000
6.2481000000 4.1966000000 0.2173000000
6.0120000000 4.8651000000 0.1149000000
6.0096000000 5.0733000000 0.0293000000
6.0088000000 5.0238000000 0.0496000000
6.0082000000 2.9076000000 0.1227000000
6.0078000000 3.9800000000 0.4729000000
6.0070000000 4.7716000000 0.1519000000
6.0064000000 2.9043000000 0.1258000000
6.0055000000 3.3544000000 0.3078000000
6.0041000000 2.5785000000 0.0684000000
6.0035000000 3.7890000000 0.4824000000
6.0029000000 2.5688000000 0.0664000000
6.0025000000 3.0978000000 0.2061000000
6.0016000000 4.5273000000 0.2547000000
6.0007000000 3.2021000000 0.2462000000
5.9995000000 3.9934000000 0.4699000000
5.9980000000 3.4991000000 0.3693000000
5.7610000000 5.4203000000 0.0630000000
5.7595000000 4.3878000000 0.4886000000
5.7591000000 4.9123000000 0.2646000000
5.7580000000 2.3300000000 0.0627000000
5.7576000000 4.7530000000 0.3383000000
5.7571000000 3.0319000000 0.3487000000
5.7569000000 5.7087000000 0.0275000000
5.7566000000 5.0507000000 0.2166000000
5.7562000000 2.4660000000 0.1208000000
5.7560000000 4.2831000000 0.5267000000
5.7548000000 2.9824000000 0.3335000000
5.7545000000 5.1270000000 0.1900000000
5.7541000000 5.4028000000 0.0784000000
5.7535000000 3.1852000000 0.4148000000
5.7532000000 5.2311000000 0.1410000000
5.7518000000 5.2134000000 0.1487000000
5.7512000000 3.6897000000 0.6154000000
5.7503000000 4.5351000000 0.4277000000
5.7495000000 3.6611000000 0.6035000000
5.7479000000 4.2820000000 0.5375000000
5.5113000000 5.5144000000 0.1984000000
5.5104000000 3.3250000000 0.6393000000
5.5094000000 5.3429000000 0.2714000000
5.5089000000 5.8959000000 0.0507000000
5.5083000000 1.9361000000 0.0790000000
5.5080000000 4.5905000000 0.5737000000
5.5076000000 6.0064000000 0.0775000000
5.5068000000 4.1103000000 0.7689000000
5.5065000000 4.0332000000 0.8013000000
5.5060000000 5.2063000000 0.3306000000
5.5058000000 4.3845000000 0.6644000000
5.5053000000 1.9689000000 0.0934000000
5.5051000000 3.1142000000 0.5530000000
5.5048000000 3.6771000000 0.7836000000
5.5046000000 2.3254000000 0.2465000000
5.5043000000 3.3234000000 0.6477000000
5.5041000000 2.9498000000 0.4923000000
5.5037000000 5.4020000000 0.2478000000
5.5034000000 4.0461000000 0.8042000000
5.5033000000 5.2233000000 0.3208000000
5.5028000000 3.1311000000 0.5684000000
5.5018000000 5.9352000000 0.0419000000
5.5012000000 4.3382000000 0.6824000000
5.5010000000 4.1201000000 0.7698000000
5.5001000000 5.2193000000 0.3293000000
5.4991000000 5.8555000000 0.0783000000
5.4977000000 5.1957000000 0.3360000000
5.4955000000 2.2259000000 0.2081000000
5.2640000000 1.2380000000 0.0434000000
5.2601000000 3.7686000000 0.9912000000
5.2595000000 1.2455000000 0.0555000000
5.2585000000 1.4685000000 0.0625000000
5.2573000000 3.6528000000 0.9554000000
5.2569000000 6.4717000000 0.0673000000
5.2566000000 3.3593000000 0.8281000000
5.2563000000 5.1889000000 0.5068000000
5.2557000000 2.8786000000 0.6441000000
5.2553000000 4.0821000000 0.9568000000
5.2549000000 5.5907000000 0.3451000000
5.2547000000 3.4684000000 0.8791000000
5.2542000000 5.2494000000 0.4878000000
5.2536000000 3.2070000000 0.7662000000
5.2532000000 4.8879000000 0.6294000000
5.2530000000 3.2223000000 0.7863000000
5.2527000000 3.6312000000 0.9459000000
5.2519000000 3.2000000000 0.7709000000
5.2517000000 1.8929000000 0.2435000000
5.2514000000 4.5688000000 0.7666000000
5.2505000000 1.8383000000 0.2205000000
5.2501000000 4.6738000000 0.7265000000
5.2494000000 4.5936000000 0.7554000000
5.2480000000 2.8179000000 0.6182000000
5.2468000000 1.5536000000 0.1125000000
5.0133000000 7.0378000000 0.0071000000
5.0102000000 4.7912000000 0.8431000000
5.0087000000 5.6632000000 0.4913000000
5.0083000000 4.5619000000 0.9429000000
5.0081000000 3.2692000000 0.9627000000
5.0077000000 2.2437000000 0.5500000000
5.0075000000 6.7402000000 0.0605000000
5.0072000000 5.9696000000 0.3679000000
5.0070000000 4.3395000000 1.0223000000
5.0065000000 6.2890000000 0.2420000000
5.0061000000 1.8987000000 0.4178000000
5.0058000000 6.7911000000 0.0425000000
5.0053000000 3.6545000000 1.1264000000
5.0045000000 5.8155000000 0.4369000000
5.0043000000 6.2569000000 0.2586000000
5.0041000000 6.0386000000 0.3446000000
5.0038000000 7.0311000000 0.0190000000
5.0036000000 2.6031000000 0.7036000000
5.0032000000 5.9843000000 0.3659000000
5.0028000000 2.4768000000 0.6542000000
5.0025000000 1.5986000000 0.2963000000
5.0022000000 4.7153000000 0.8763000000
5.0011000000 5.3297000000 0.6304000000
5.0004000000 2.2979000000 0.5842000000
4.9991000000 0.7469000000 0.0349000000
4.9983000000 4.2334000000 1.0771000000
4.9969000000 0.7200000000 0.0254000000
4.7645000000 5.9482000000 0.5460000000
4.7617000000 5.6641000000 0.6666000000
4.7600000000 3.9521000000 1.3607000000
4.7595000000 2.9534000000 1.0129000000
4.7588000000 3.2641000000 1.1380000000
4.7584000000 5.5856000000 0.6977000000
4.7583000000 4.4384000000 1.1628000000
4.7579000000 3.6510000000 1.2983000000
4.7574000000 5.6795000000 0.6613000000
4.7571000000 1.3650000000 0.3779000000
4.7568000000 7.0097000000 0.1233000000
4.7565000000 3.1741000000 1.1071000000
4.7563000000 1.6652000000 0.4969000000
4.7561000000 3.2164000000 1.1259000000
4.7557000000 2.6187000000 0.8873000000
4.7555000000 3.3359000000 1.1717000000
4.7551000000 1.3356000000 0.3632000000
4.7550000000 5.3510000000 0.8018000000
4.7548000000 3.2610000000 1.1448000000
4.7545000000 3.7280000000 1.3321000000
4.7541000000 6.9787000000 0.1366000000
4.7539000000 0.9912000000 0.2240000000
4.7537000000 0.9060000000 0.1915000000
4.7535000000 3.7185000000 1.3302000000
4.7532000000 2.0731000000 0.6601000000
4.7529000000 1.0756000000 0.2605000000
4.7525000000 1.4885000000 0.4259000000
4.7523000000 1.0087000000 0.2344000000
4.7518000000 6.0496000000 0.5154000000
4.7515000000 3.1192000000 1.0820000000
4.7512000000 1.0276000000 0.2403000000
4.7509000000 5.5222000000 0.7336000000
4.7498000000 1.2871000000 0.3471000000
4.7493000000 0.5319000000 0.0475000000
4.7465000000 1.0623000000 0.2593000000
4.7439000000 1.0532000000 0.2610000000
4.5134000000 3.7568000000 1.5108000000
4.5120000000 6.5510000000 0.4779000000
4.5106000000 6.9651000000 0.3124000000
4.5098000000 6.4693000000 0.5128000000
4.5090000000 0.2123000000 0.0832000000
4.5088000000 7.2078000000 0.2187000000
4.5082000000 2.6461000000 1.0640000000
4.5078000000 7.7517000000 0.0592000000
4.5073000000 5.4577000000 0.9292000000
4.5070000000 3.7462000000 1.5128000000
4.5068000000 5.5431000000 0.8948000000
4.5067000000 2.0826000000 0.8368000000
4.5064000000 4.3879000000 1.3523000000
4.5063000000 4.6628000000 1.2470000000
4.5060000000 6.7451000000 0.4049000000
4.5059000000 0.3696000000 0.1534000000
4.5056000000 4.3960000000 1.3575000000
4.5055000000 4.5802000000 1.2822000000
4.5053000000 3.1668000000 1.2786000000
4.5051000000 6.9286000000 0.3341000000
4.5049000000 5.0336000000 1.0980000000
4.5046000000 4.0776000000 1.4889000000
4.5044000000 4.4311000000 1.3447000000
4.5043000000 5.8017000000 0.7866000000
4.5040000000 0.8119000000 0.3273000000
4.5037000000 4.4301000000 1.3430000000
4.5036000000 3.0668000000 1.2414000000
4.5033000000 6.6807000000 0.4389000000
4.5031000000 0.4269000000 0.1767000000
4.5028000000 6.8058000000 0.3843000000
4.5025000000 3.5048000000 1.4165000000
4.5023000000 4.5873000000 1.2836000000
4.5020000000 0.9262000000 0.3787000000
4.5017000000 0.1128000000 0.0480000000
4.5015000000 5.1408000000 1.0581000000
4.5010000000 4.3429000000 1.3772000000
4.4995000000 1.0364000000 0.4221000000
4.4990000000 6.0720000000 0.6826000000
4.4979000000 6.2402000000 0.6169000000
4.2633000000 3.6485000000 1.6384000000
4.2621000000 6.8886000000 0.5175000000
4.2612000000 2.9797000000 1.3722000000
4.2605000000 0.8546000000 0.5211000000
4.2597000000 7.1294000000 0.4208000000
4.2592000000 3.6397000000 1.6458000000
4.2585000000 5.5426000000 1.0674000000
4.2582000000 0.1042000000 0.1066000000
4.2575000000 7.7326000000 0.0399000000
4.2573000000 1.1263000000 0.6318000000
4.2570000000 2.3897000000 1.1406000000
4.2566000000 4.9202000000 1.3151000000
4.2565000000 7.5702000000 0.1701000000
4.2563000000 3.6632000000 1.6534000000
4.2559000000 6.2205000000 0.7945000000
4.2558000000 2.6054000000 1.2199000000
4.2553000000 2.3649000000 1.1299000000
4.2550000000 5.1183000000 1.2400000000
4.2548000000 7.7391000000 0.0341000000
4.2547000000 4.9932000000 1.2932000000
4.2543000000 4.0804000000 1.6608000000
4.2541000000 0.0289000000 0.0454000000
4.2539000000 0.5234000000 0.3866000000
4.2536000000 1.2661000000 0.6846000000
4.2535000000 3.8129000000 1.7142000000
4.2533000000 3.0891000000 1.4200000000
4.2531000000 2.1360000000 1.0372000000
4.2529000000 6.9114000000 0.5170000000
4.2526000000 2.4602000000 1.1673000000
4.2522000000 3.3008000000 1.5098000000
4.2516000000 4.0562000000 1.6691000000
4.2514000000 1.1971000000 0.6614000000
4.2510000000 3.0201000000 1.3973000000
4.2507000000 0.4725000000 0.3536000000
4.2503000000 2.6168000000 1.2370000000
4.2501000000 5.5911000000 1.0461000000
4.2493000000 7.0798000000 0.4576000000
4.2490000000 4.2149000000 1.6062000000
4.2486000000 3.5016000000 1.5957000000
4.2481000000 0.8248000000 0.5095000000
4.2466000000 0.7074000000 0.4649000000
4.0138000000 7.7501000000 0.0936000000
4.0103000000 6.2349000000 0.9591000000
4.0093000000 6.6791000000 0.7856000000
4.0089000000 6.6343000000 0.8024000000
4.0086000000 3.9863000000 1.8713000000
4.0081000000 1.9652000000 1.1419000000
4.0075000000 2.8112000000 1.4814000000
4.0073000000 5.8502000000 1.1156000000
4.0070000000 5.1918000000 1.3856000000
4.0067000000 5.8565000000 1.1188000000
4.0065000000 6.0584000000 1.0341000000
4.0062000000 0.1205000000 0.1211000000
4.0059000000 0.4785000000 0.4114000000
4.0058000000 5.3790000000 1.3099000000
4.0054000000 2.1108000000 1.2019000000
4.0052000000 5.8364000000 1.1235000000
4.0051000000 3.9405000000 1.8950000000
4.0050000000 5.1153000000 1.4195000000
4.0048000000 3.6915000000 1.8409000000
4.0045000000 1.3324000000 0.8884000000
4.0040000000 5.4480000000 1.2807000000
4.0036000000 4.2350000000 1.7689000000
4.0034000000 2.1550000000 1.2214000000
4.0032000000 1.4725000000 0.9490000000
4.0030000000 6.7329000000 0.7643000000
4.0026000000 7.5163000000 0.2160000000
4.0025000000 4.2689000000 1.7577000000
4.0022000000 4.4486000000 1.6867000000
4.0018000000 6.5432000000 0.8375000000
4.0015000000 2.6753000000 1.4344000000
4.0013000000 6.1566000000 0.9985000000
4.0008000000 0.3894000000 0.3343000000
4.0003000000 6.6056000000 0.8233000000
3.9998000000 1.1153000000 0.8010000000
3.9992000000 4.2073000000 1.7846000000
3.9988000000 3.2411000000 1.6588000000
3.9968000000 0.8573000000 0.6879000000
3.7628000000 6.8511000000 0.7473000000
3.7610000000 7.7187000000 0.0482000000
3.7601000000 5.7547000000 1.3304000000
3.7600000000 2.4982000000 1.5280000000
3.7593000000 5.6288000000 1.3817000000
3.7585000000 4.0557000000 2.0175000000
3.7583000000 1.6099000000 1.1736000000
3.7579000000 0.1147000000 0.1118000000
3.7577000000 2.0775000000 1.3670000000
3.7574000000 6.2655000000 1.1235000000
3.7571000000 3.0140000000 1.7396000000
3.7568000000 2.0457000000 1.3418000000
3.7566000000 3.5992000000 1.9738000000
3.7565000000 3.6012000000 1.9705000000
3.7559000000 6.6545000000 0.9099000000
3.7557000000 6.7415000000 0.8424000000
3.7555000000 6.3077000000 1.1073000000
3.7552000000 5.3556000000 1.4931000000
3.7550000000 2.7700000000 1.6393000000
3.7543000000 7.7651000000 0.0876000000
3.7539000000 6.7524000000 0.8316000000
3.7536000000 0.0259000000 0.0447000000
3.7530000000 1.7080000000 1.2186000000
3.7528000000 2.0181000000 1.3361000000
3.7526000000 2.3208000000 1.4631000000
3.7523000000 1.5586000000 1.1562000000
3.7521000000 3.2283000000 1.8322000000
3.7519000000 1.7344000000 1.2221000000
3.7515000000 2.6447000000 1.5960000000
3.7513000000 0.0251000000 0.0390000000
3.7510000000 3.3494000000 1.8799000000
3.7505000000 2.6794000000 1.6143000000
3.7498000000 1.0287000000 0.8553000000
3.7494000000 5.6103000000 1.3948000000
3.7478000000 1.6510000000 1.2017000000
3.7467000000 2.4763000000 1.5372000000
3.5120000000 4.8578000000 1.8637000000
3.5118000000 7.3380000000 0.3632000000
3.5105000000 1.5947000000 1.2982000000
3.5099000000 0.8321000000 0.6881000000
3.5089000000 5.3761000000 1.6540000000
3.5086000000 6.7757000000 0.8153000000
3.5083000000 6.5659000000 0.9810000000
3.5078000000 6.2002000000 1.2769000000
3.5075000000 7.1918000000 0.4743000000
3.5073000000 3.5677000000 2.1437000000
3.5069000000 6.0558000000 1.3665000000
3.5068000000 0.7079000000 0.5940000000
3.5065000000 5.2003000000 1.7310000000
3.5061000000 6.4118000000 1.1053000000
3.5058000000 0.0837000000 0.0852000000
3.5055000000 4.4124000000 2.0524000000
3.5053000000 4.2415000000 2.1214000000
3.5050000000 3.2984000000 2.0366000000
3.5048000000 3.6819000000 2.1877000000
3.5041000000 2.1764000000 1.5775000000
3.5039000000 0.2403000000 0.2125000000
3.5035000000 2.6782000000 1.7789000000
3.5033000000 7.0872000000 0.5601000000
3.5029000000 5.2037000000 1.7317000000
3.5027000000 0.2948000000 0.2550000000
3.5025000000 4.9856000000 1.8198000000
3.5020000000 0.0912000000 0.0964000000
3.5016000000 0.2452000000 0.2191000000
3.5013000000 2.7976000000 1.8291000000
3.5008000000 3.2292000000 2.0068000000
3.5000000000 4.1320000000 2.1668000000
3.4985000000 3.5212000000 2.1254000000
3.4979000000 6.6682000000 0.9026000000
3.4976000000 2.5900000000 1.7453000000
3.4971000000 3.0320000000 1.9273000000
3.4918000000 2.4465000000 1.6990000000
3.2633000000 2.9798000000 2.0713000000
3.2606000000 7.0194000000 0.6176000000
3.2598000000 3.8267000000 2.4018000000
3.2591000000 6.7178000000 0.8617000000
3.2584000000 4.1175000000 2.3378000000
3.2577000000 5.4051000000 1.8236000000
3.2572000000 4.2452000000 2.2872000000
3.2568000000 3.0438000000 2.1036000000
3.2565000000 4.5866000000 2.1469000000
3.2563000000 6.0432000000 1.4058000000
3.2562000000 4.7992000000 2.0600000000
3.2556000000 6.2343000000 1.2499000000
3.2553000000 1.1881000000 0.9785000000
3.2551000000 2.0359000000 1.6507000000
3.2550000000 0.1494000000 0.1419000000
3.2548000000 2.2406000000 1.7825000000
3.2546000000 1.6761000000 1.3731000000
3.2543000000 2.8125000000 2.0110000000
3.2540000000 2.0876000000 1.6940000000
3.2538000000 5.4055000000 1.8198000000
3.2534000000 2.9834000000 2.0794000000
3.2531000000 0.9604000000 0.7963000000
3.2528000000 1.0579000000 0.8773000000
3.2524000000 3.8938000000 2.4178000000
3.2522000000 2.9082000000 2.0489000000
3.2520000000 4.2917000000 2.2757000000
3.2517000000 2.8203000000 2.0104000000
3.2515000000 2.1504000000 1.7332000000
3.2510000000 1.1824000000 0.9769000000
3.2505000000 0.8347000000 0.6952000000
3.2499000000 1.5180000000 1.2413000000
3.2494000000 1.3071000000 1.0770000000
3.2491000000 0.2540000000 0.2315000000
3.2487000000 2.1287000000 1.7261000000
3.2478000000 1.4607000000 1.2010000000
3.2474000000 3.5368000000 2.2994000000
3.2450000000 2.0072000000 1.6409000000
3.0143000000 7.7148000000 0.0524000000
3.0126000000 2.7441000000 2.1523000000
3.0100000000 4.3100000000 2.4349000000
3.0092000000 0.3675000000 0.3221000000
3.0087000000 7.1535000000 0.5059000000
3.0085000000 0.4845000000 0.4133000000
3.0076000000 6.1937000000 1.2784000000
3.0072000000 4.6595000000 2.2968000000
3.0070000000 5.7939000000 1.6044000000
3.0069000000 3.4908000000 2.4489000000
3.0066000000 6.6426000000 0.9218000000
3.0062000000 3.1013000000 2.2996000000
3.0060000000 6.3955000000 1.1203000000
3.0059000000 4.8271000000 2.2321000000
3.0055000000 4.1116000000 2.5199000000
3.0053000000 5.6760000000 1.7055000000
3.0050000000 6.8342000000 0.7604000000
3.0048000000 4.4998000000 2.3624000000
3.0046000000 6.9628000000 0.6622000000
3.0045000000 4.9765000000 2.1711000000
3.0043000000 2.2404000000 1.8308000000
3.0040000000 1.6186000000 1.3310000000
3.0037000000 2.7327000000 2.1515000000
3.0031000000 3.7996000000 2.5815000000
3.0029000000 0.9024000000 0.7554000000
3.0026000000 2.4106000000 1.9697000000
3.0022000000 3.1092000000 2.3029000000
3.0020000000 7.0965000000 0.5442000000
3.0018000000 7.1364000000 0.5197000000
3.0013000000 6.5115000000 1.0239000000
3.0008000000 5.3600000000 1.9565000000
3.0002000000 0.7066000000 0.5923000000
2.9997000000 1.0786000000 0.8920000000
2.9994000000 7.3489000000 0.3485000000
2.9990000000 6.9067000000 0.7014000000
2.9983000000 0.0099000000 0.0309000000
2.9971000000 1.7543000000 1.4388000000
2.9950000000 2.7814000000 2.1835000000
2.7610000000 5.1949000000 2.0826000000
2.7603000000 7.5715000000 0.1684000000
2.7598000000 2.2746000000 1.8629000000
2.7593000000 5.7057000000 1.6781000000
2.7586000000 5.4474000000 1.8823000000
2.7581000000 1.9244000000 1.5765000000
2.7578000000 0.9069000000 0.7549000000
2.7573000000 7.6311000000 0.1193000000
2.7572000000 6.9028000000 0.7083000000
2.7570000000 6.9836000000 0.6434000000
2.7568000000 7.5052000000 0.2233000000
2.7566000000 5.9729000000 1.4563000000
2.7563000000 2.8572000000 2.3331000000
2.7559000000 7.6387000000 0.1165000000
2.7557000000 0.2294000000 0.2120000000
2.7554000000 5.8020000000 1.5939000000
2.7553000000 0.4428000000 0.3763000000
2.7550000000 1.8675000000 1.5272000000
2.7546000000 1.3550000000 1.1152000000
2.7545000000 5.0228000000 2.2292000000
2.7543000000 3.4071000000 2.5969000000
2.7539000000 0.9975000000 0.8260000000
2.7536000000 4.5432000000 2.5207000000
2.7536000000 3.0574000000 2.4486000000
2.7534000000 4.9725000000 2.2676000000
2.7531000000 2.3683000000 1.9331000000
2.7528000000 5.7288000000 1.6528000000
2.7525000000 3.3356000000 2.5707000000
2.7523000000 5.2693000000 2.0293000000
2.7520000000 4.2487000000 2.6432000000
2.7516000000 5.0255000000 2.2246000000
2.7514000000 2.1017000000 1.7238000000
2.7513000000 4.7394000000 2.4341000000
2.7509000000 4.7298000000 2.4313000000
2.7502000000 6.2092000000 1.2673000000
2.7495000000 5.9580000000 1.4721000000
2.7492000000 6.4920000000 1.0450000000
2.7486000000 2.9236000000 2.3672000000
2.7480000000 0.0191000000 0.0307000000
2.7466000000 4.4690000000 2.5566000000
2.5140000000 7.7361000000 0.0284000000
2.5112000000 7.6991000000 0.0637000000
2.5109000000 0.0193000000 0.0345000000
2.5101000000 4.1996000000 2.8364000000
2.5096000000 5.3294000000 1.9791000000
2.5091000000 6.9319000000 0.6829000000
2.5088000000 7.1057000000 0.5408000000
2.5083000000 7.5959000000 0.1504000000
2.5073000000 7.5438000000 0.1913000000
2.5067000000 1.4415000000 1.1829000000
2.5064000000 7.6303000000 0.1214000000
2.5062000000 3.8004000000 2.9339000000
2.5060000000 1.7233000000 1.4118000000
2.5057000000 6.1307000000 1.3304000000
2.5055000000 7.7373000000 0.0413000000
2.5055000000 3.9449000000 2.9349000000
2.5053000000 7.3120000000 0.3813000000
2.5051000000 7.1499000000 0.5067000000
2.5048000000 1.0128000000 0.8431000000
2.5045000000 1.1825000000 0.9785000000
2.5044000000 6.9444000000 0.6759000000
2.5042000000 4.8728000000 2.3467000000
2.5040000000 2.2922000000 1.8704000000
2.5037000000 5.4710000000 1.8737000000
2.5035000000 4.9602000000 2.2783000000
2.5030000000 4.4591000000 2.6755000000
2.5028000000 0.7581000000 0.6371000000
2.5025000000 6.5256000000 1.0175000000
2.5021000000 4.8843000000 2.3424000000
2.5015000000 0.6259000000 0.5297000000
2.5013000000 3.4527000000 2.7818000000
2.5011000000 3.6951000000 2.8928000000
2.5009000000 0.5424000000 0.4597000000
2.5005000000 1.7571000000 1.4332000000
2.5003000000 1.9529000000 1.5980000000
2.4991000000 1.3101000000 1.0795000000
2.4987000000 1.2506000000 1.0307000000
2.4931000000 1.9829000000 1.6175000000
2.2605000000 7.4978000000 0.2251000000
2.2598000000 7.4089000000 0.3016000000
2.2592000000 0.5791000000 0.4895000000
2.2588000000 3.8377000000 3.0277000000
2.2585000000 4.7520000000 2.4492000000
2.2581000000 5.2612000000 2.0345000000
2.2577000000 7.4819000000 0.2422000000
2.2575000000 2.1362000000 1.7446000000
2.2574000000 3.8072000000 3.0366000000
2.2571000000 3.8325000000 3.0399000000
2.2569000000 4.7597000000 2.4362000000
2.2566000000 7.3489000000 0.3521000000
2.2564000000 7.7510000000 0.0227000000
2.2562000000 3.1728000000 2.5849000000
2.2558000000 4.7411000000 2.4576000000
2.2555000000 7.6156000000 0.1356000000
2.2550000000 7.1095000000 0.5382000000
2.2547000000 6.1461000000 1.3210000000
2.2545000000 1.9873000000 1.6222000000
2.2543000000 7.0405000000 0.5986000000
2.2541000000 0.2280000000 0.2086000000
2.2540000000 3.7801000000 3.0302000000
2.2536000000 3.0681000000 2.4998000000
2.2533000000 7.3763000000 0.3282000000
2.2532000000 4.2606000000 2.8402000000
2.2528000000 3.9946000000 3.0500000000
2.2526000000 2.4855000000 2.0280000000
2.2520000000 2.5441000000 2.0718000000
2.2518000000 5.3652000000 1.9481000000
2.2511000000 4.7575000000 2.4426000000
2.2509000000 4.8001000000 2.4061000000
2.2505000000 0.6684000000 0.5616000000
2.2502000000 1.2860000000 1.0602000000
2.2500000000 1.5436000000 1.2645000000
2.2496000000 4.4852000000 2.6578000000
2.2480000000 0.2625000000 0.2319000000
2.2476000000 1.1855000000 0.9789000000
2.0119000000 2.2721000000 1.8535000000
2.0110000000 7.6369000000 0.1179000000
2.0094000000 6.9240000000 0.6957000000
2.0089000000 2.1258000000 1.7343000000
2.0083000000 7.3181000000 0.3734000000
2.0078000000 6.9258000000 0.6891000000
2.0073000000 5.0167000000 2.2317000000
2.0071000000 6.4614000000 1.0665000000
2.0068000000 7.0421000000 0.5950000000
2.0065000000 6.2835000000 1.2098000000
2.0064000000 1.9731000000 1.6188000000
2.0062000000 5.5359000000 1.8125000000
2.0060000000 4.7077000000 2.4804000000
2.0055000000 7.4024000000 0.3070000000
2.0051000000 7.1589000000 0.4982000000
2.0050000000 4.3345000000 2.7710000000
2.0048000000 1.1940000000 0.9864000000
2.0048000000 7.1299000000 0.5272000000
2.0045000000 1.2356000000 1.0171000000
2.0043000000 2.9784000000 2.4293000000
2.0042000000 0.8617000000 0.7203000000
2.0040000000 1.0294000000 0.8522000000
2.0038000000 4.4165000000 2.7145000000
2.0036000000 1.0565000000 0.8762000000
2.0033000000 6.4310000000 1.0887000000
2.0031000000 6.2982000000 1.1927000000
2.0028000000 0.7927000000 0.6599000000
2.0025000000 1.5640000000 1.2857000000
2.0023000000 0.6360000000 0.5322000000
2.0020000000 1.6311000000 1.3362000000
2.0018000000 4.6162000000 2.5586000000
2.0015000000 2.4880000000 2.0258000000
2.0012000000 1.1874000000 0.9811000000
2.0008000000 1.5429000000 1.2673000000
2.0006000000 6.8458000000 0.7540000000
2.0002000000 4.6611000000 2.5153000000
1.9998000000 0.0244000000 0.0386000000
1.9995000000 7.6473000000 0.1103000000
1.9979000000 5.8285000000 1.5759000000
1.9959000000 1.2471000000 1.0285000000
1.7623000000 1.8214000000 1.4947000000
1.7604000000 0.8695000000 0.7196000000
1.7598000000 3.8428000000 2.7899000000
1.7587000000 4.7028000000 2.4714000000
1.7581000000 7.3518000000 0.3452000000
1.7576000000 0.5667000000 0.4818000000
1.7572000000 2.5400000000 2.0675000000
1.7570000000 5.2977000000 2.0023000000
1.7568000000 2.8136000000 2.2927000000
1.7564000000 3.3058000000 2.5861000000
1.7561000000 2.0607000000 1.6787000000
1.7557000000 3.1598000000 2.5212000000
1.7555000000 5.8578000000 1.5536000000
1.7549000000 0.9269000000 0.7716000000
1.7547000000 7.6913000000 0.0708000000
1.7545000000 0.0559000000 0.0720000000
1.7543000000 5.3573000000 1.9574000000
1.7540000000 4.7379000000 2.4454000000
1.7537000000 2.6870000000 2.1861000000
1.7531000000 5.2297000000 2.0597000000
1.7528000000 1.4908000000 1.2282000000
1.7525000000 4.6666000000 2.4760000000
1.7523000000 3.0083000000 2.4349000000
1.7521000000 2.2058000000 1.8024000000
1.7519000000 0.6639000000 0.5590000000
1.7514000000 4.8539000000 2.3665000000
1.7511000000 2.3264000000 1.8975000000
1.7510000000 3.8844000000 2.7913000000
1.7506000000 4.2238000000 2.6717000000
1.7494000000 7.0266000000 0.6149000000
1.7492000000 0.9746000000 0.8033000000
1.7487000000 5.8977000000 1.5196000000
1.7479000000 6.1874000000 1.2858000000
1.7471000000 1.3864000000 1.1415000000
1.7464000000 2.4667000000 2.0162000000
1.5112000000 6.0228000000 1.4179000000
1.5096000000 6.6834000000 0.8804000000
1.5088000000 4.2180000000 2.5053000000
1.5082000000 2.9412000000 2.2667000000
1.5078000000 6.0082000000 1.4295000000
1.5076000000 7.7725000000 0.0101000000
1.5075000000 0.1593000000 0.1528000000
1.5071000000 7.5010000000 0.2236000000
1.5068000000 0.8137000000 0.6839000000
1.5065000000 4.2481000000 2.4890000000
1.5063000000 5.7547000000 1.6351000000
1.5060000000 2.9671000000 2.2745000000
1.5058000000 0.8471000000 0.7092000000
1.5053000000 6.8724000000 0.7280000000
1.5051000000 5.9637000000 1.4587000000
1.5048000000 5.8282000000 1.5746000000
1.5047000000 5.3262000000 1.9824000000
1.5045000000 5.6082000000 1.7569000000
1.5044000000 2.9684000000 2.2708000000
1.5041000000 3.7104000000 2.5715000000
1.5037000000 5.6590000000 1.7148000000
1.5034000000 1.5848000000 1.3045000000
1.5031000000 3.9741000000 2.5935000000
1.5028000000 3.4901000000 2.4802000000
1.5025000000 3.6623000000 2.5504000000
1.5021000000 0.0545000000 0.0634000000
1.5018000000 5.0239000000 2.1767000000
1.5013000000 4.1550000000 2.5237000000
1.5011000000 0.1419000000 0.1379000000
1.5008000000 0.7050000000 0.5926000000
1.5003000000 0.6257000000 0.5189000000
1.5002000000 1.4980000000 1.2274000000
1.5001000000 0.5662000000 0.4745000000
1.4998000000 1.1878000000 0.9806000000
1.4995000000 1.6697000000 1.3676000000
1.4988000000 1.6407000000 1.3429000000
1.4984000000 5.2870000000 2.0170000000
1.4970000000 1.0046000000 0.8356000000
1.4941000000 0.6338000000 0.5362000000
1.2608000000 7.0155000000 0.6237000000
1.2602000000 2.8490000000 2.0500000000
1.2590000000 4.6490000000 2.1566000000
1.2585000000 3.0894000000 2.1527000000
1.2580000000 2.2997000000 1.8294000000
1.2578000000 4.4209000000 2.2511000000
1.2573000000 7.5624000000 0.1695000000
1.2568000000 6.2031000000 1.2690000000
1.2565000000 5.4424000000 1.8328000000
1.2561000000 1.4520000000 1.1974000000
1.2559000000 0.6401000000 0.5398000000
1.2555000000 6.9414000000 0.6766000000
1.2554000000 7.1093000000 0.5414000000
1.2551000000 4.0592000000 2.3916000000
1.2550000000 3.6905000000 2.3888000000
1.2548000000 3.4506000000 2.2883000000
1.2545000000 1.3119000000 1.0823000000
1.2543000000 2.3620000000 1.8547000000
1.2540000000 2.9503000000 2.0862000000
1.2538000000 7.6625000000 0.0966000000
1.2535000000 2.6200000000 1.9592000000
1.2533000000 3.2699000000 2.2203000000
1.2531000000 4.2818000000 2.2952000000
1.2529000000 2.8248000000 2.0383000000
1.2525000000 3.0293000000 2.1180000000
1.2522000000 2.3401000000 1.8450000000
1.2517000000 5.1641000000 1.9418000000
1.2512000000 5.5627000000 1.7744000000
1.2510000000 1.6118000000 1.3265000000
1.2505000000 5.7808000000 1.6145000000
1.2495000000 2.2017000000 1.7715000000
1.2488000000 2.6799000000 1.9768000000
1.2483000000 3.6983000000 2.3836000000
1.2471000000 0.3318000000 0.2938000000
1.0114000000 7.7730000000 0.0050000000
1.0103000000 3.2994000000 2.0597000000
1.0091000000 5.5033000000 1.6308000000
1.0087000000 7.2189000000 0.4541000000
1.0083000000 6.9021000000 0.7108000000
1.0077000000 1.8912000000 1.4860000000
1.0075000000 7.2036000000 0.4697000000
1.0069000000 2.7461000000 1.8338000000
1.0065000000 1.5564000000 1.2801000000
1.0061000000 6.5059000000 1.0293000000
1.0057000000 1.1055000000 0.9213000000
1.0054000000 2.4539000000 1.7171000000
1.0046000000 1.2729000000 1.0509000000
1.0043000000 6.1315000000 1.3256000000
1.0037000000 2.2277000000 1.6280000000
1.0034000000 7.1684000000 0.4943000000
1.0029000000 7.6168000000 0.1319000000
1.0026000000 4.5251000000 2.0237000000
1.0024000000 3.5060000000 2.1408000000
1.0020000000 3.7795000000 2.2496000000
1.0017000000 6.4552000000 1.0668000000
1.0013000000 3.3549000000 2.0710000000
1.0011000000 3.8178000000 2.2623000000
1.0008000000 0.7433000000 0.6232000000
1.0005000000 3.0753000000 1.9621000000
1.0000000000 5.1731000000 1.7650000000
0.9993000000 1.4904000000 1.2228000000
0.9990000000 5.9024000000 1.4662000000
0.9986000000 2.1223000000 1.5789000000
0.9968000000 3.1172000000 1.9785000000
0.9951000000 1.9027000000 1.4861000000
0.7638000000 7.4858000000 0.2332000000
0.7625000000 4.1816000000 1.9972000000
0.7614000000 1.7782000000 1.2747000000
0.7601000000 7.2365000000 0.4452000000
0.7591000000 7.1673000000 0.4951000000
0.7585000000 5.4923000000 1.4600000000
0.7580000000 6.1771000000 1.1885000000
0.7578000000 5.6416000000 1.4040000000
0.7571000000 5.0833000000 1.6301000000
0.7570000000 6.9956000000 0.6354000000
0.7565000000 3.9608000000 2.0868000000
0.7561000000 6.3652000000 1.0964000000
0.7559000000 2.6450000000 1.6149000000
0.7557000000 0.2333000000 0.2105000000
0.7555000000 6.4270000000 1.0744000000
0.7553000000 5.3684000000 1.5133000000
0.7549000000 3.9572000000 2.0853000000
0.7546000000 0.6489000000 0.5443000000
0.7545000000 6.6807000000 0.8917000000
0.7540000000 1.5326000000 1.1675000000
0.7538000000 1.0645000000 0.8881000000
0.7535000000 3.7261000000 2.0496000000
0.7532000000 5.3765000000 1.5040000000
0.7529000000 5.7976000000 1.3386000000
0.7525000000 0.9587000000 0.7994000000
0.7523000000 0.5819000000 0.4876000000
0.7521000000 3.8112000000 2.0838000000
0.7518000000 4.1131000000 2.0167000000
0.7515000000 2.5873000000 1.5943000000
0.7512000000 1.4732000000 1.1393000000
0.7507000000 6.3747000000 1.0997000000
0.7500000000 3.1297000000 1.8102000000
0.7492000000 3.3775000000 1.9065000000
0.7479000000 0.7821000000 0.6540000000
0.7474000000 2.9751000000 1.7436000000
0.5117000000 5.7748000000 1.1780000000
0.5111000000 6.2553000000 0.9805000000
0.5105000000 5.6744000000 1.2188000000
0.5095000000 4.2215000000 1.8054000000
0.5091000000 5.9212000000 1.1186000000
0.5089000000 7.4781000000 0.2455000000
0.5085000000 6.9940000000 0.6342000000
0.5081000000 7.1475000000 0.5092000000
0.5080000000 4.7127000000 1.6025000000
0.5077000000 1.0560000000 0.8040000000
0.5074000000 3.0611000000 1.6148000000
0.5071000000 5.2536000000 1.3863000000
0.5068000000 6.9797000000 0.6416000000
0.5063000000 5.4638000000 1.3051000000
0.5061000000 4.4498000000 1.7103000000
0.5058000000 5.4677000000 1.2995000000
0.5056000000 5.7814000000 1.1686000000
0.5053000000 7.1873000000 0.4784000000
0.5048000000 5.9764000000 1.0958000000
0.5046000000 4.3454000000 1.7448000000
0.5044000000 2.5795000000 1.4174000000
0.5041000000 7.0142000000 0.6253000000
0.5039000000 7.3183000000 0.3724000000
0.5035000000 4.0118000000 1.8834000000
0.5033000000 6.0493000000 1.0581000000
0.5031000000 4.0080000000 1.8846000000
0.5027000000 2.8094000000 1.5034000000
0.5025000000 1.3020000000 0.8938000000
0.5022000000 6.4478000000 0.8986000000
0.5020000000 4.6414000000 1.6265000000
0.5018000000 3.5646000000 1.8195000000
0.5013000000 0.0692000000 0.0782000000
0.5011000000 0.4693000000 0.3994000000
0.5007000000 6.6112000000 0.8304000000
0.5002000000 2.1055000000 1.2260000000
0.4994000000 2.2404000000 1.2783000000
0.4982000000 3.6810000000 1.8596000000
0.4975000000 3.9753000000 1.8975000000
0.2646000000 7.1659000000 0.4446000000
0.2594000000 5.6268000000 1.0633000000
0.2587000000 7.3310000000 0.3509000000
0.2584000000 2.7081000000 1.2967000000
0.2579000000 5.3295000000 1.1796000000
0.2573000000 7.6434000000 0.1107000000
0.2570000000 5.0938000000 1.2821000000
0.2568000000 5.6773000000 1.0392000000
0.2566000000 5.4540000000 1.1239000000
0.2564000000 7.3185000000 0.3604000000
0.2561000000 1.2043000000 0.6877000000
0.2558000000 3.3561000000 1.5538000000
0.2555000000 3.1464000000 1.4719000000
0.2553000000 5.8917000000 0.9520000000
0.2551000000 3.5779000000 1.6407000000
0.2549000000 0.1373000000 0.1332000000
0.2545000000 7.4954000000 0.2290000000
0.2540000000 1.8198000000 0.9309000000
0.2538000000 7.7279000000 0.0386000000
0.2536000000 3.4414000000 1.5845000000
0.2533000000 0.1978000000 0.1780000000
0.2531000000 3.1921000000 1.4893000000
0.2530000000 5.9208000000 0.9372000000
0.2526000000 0.2691000000 0.2333000000
0.2520000000 5.0744000000 1.2778000000
0.2513000000 3.3488000000 1.5482000000
0.2510000000 6.9354000000 0.5297000000
0.2507000000 6.0833000000 0.8696000000
0.2504000000 0.3358000000 0.2836000000
0.2498000000 1.6865000000 0.8802000000
0.2493000000 1.4506000000 0.7813000000
0.2488000000 3.2036000000 1.4842000000
0.2485000000 5.7227000000 1.0131000000
0.2472000000 0.0795000000 0.0837000000
0.0119000000 6.8384000000 0.4051000000
0.0099000000 4.9532000000 1.1617000000
0.0092000000 7.0972000000 0.2883000000
0.0082000000 6.1156000000 0.6867000000
0.0077000000 6.3868000000 0.5857000000
0.0074000000 6.2427000000 0.6369000000
0.0072000000 6.6036000000 0.4968000000
0.0069000000 6.5175000000 0.5240000000
0.0065000000 7.1335000000 0.2697000000
0.0063000000 3.9263000000 1.5621000000
0.0059000000 4.6498000000 1.2772000000
0.0057000000 5.1441000000 1.0793000000
0.0054000000 7.0097000000 0.3264000000
0.0052000000 6.5498000000 0.5058000000
0.0048000000 5.9876000000 0.7384000000
0.0043000000 5.2686000000 1.0302000000
0.0041000000 7.6077000000 0.0857000000
0.0039000000 6.0641000000 0.7060000000
0.0037000000 7.2890000000 0.2120000000
0.0035000000 4.2578000000 1.4339000000
0.0033000000 0.7120000000 0.3105000000
0.0031000000 5.3714000000 0.9819000000
0.0028000000 1.9993000000 0.8309000000
0.0024000000 6.4960000000 0.5386000000
0.0020000000 7.2538000000 0.2207000000
0.0020000000 4.2895000000 1.4250000000
0.0016000000 7.7802000000 0.0661000000
0.0013000000 7.0856000000 0.2929000000
0.0009000000 0.2225000000 0.1115000000
0.0003000000 1.8246000000 0.7586000000
-0.0001000000 2.3395000000 0.9636000000
-0.0005000000 4.5019000000 1.3353000000
-0.0012000000 0.5463000000 0.2370000000
-0.0018000000 2.8301000000 1.1660000000
-0.0025000000 2.7359000000 1.1275000000
-0.0027000000 2.9557000000 1.2125000000
-0.0030000000 5.3067000000 1.0098000000
-0.0051000000 3.0422000000 1.2460000000
-0.2377000000 7.3401000000 0.0945000000
-0.2393000000 5.5729000000 0.7329000000
-0.2402000000 4.2585000000 1.2647000000
-0.2404000000 5.2398000000 0.8662000000
-0.2413000000 5.3136000000 0.8365000000
-0.2422000000 5.4988000000 0.7612000000
-0.2426000000 0.5230000000 0.0659000000
-0.2430000000 3.9908000000 1.3670000000
-0.2433000000 4.2000000000 1.2849000000
-0.2436000000 3.0760000000 1.0953000000
-0.2438000000 6.9160000000 0.1857000000
-0.2440000000 6.6573000000 0.2972000000
-0.2441000000 6.0357000000 0.5457000000
-0.2443000000 4.8858000000 1.0143000000
-0.2446000000 3.8418000000 1.3871000000
-0.2449000000 2.1033000000 0.6957000000
-0.2451000000 1.9807000000 0.6504000000
-0.2457000000 3.4614000000 1.2459000000
-0.2458000000 2.8022000000 0.9831000000
-0.2461000000 5.7417000000 0.6666000000
-0.2463000000 6.1894000000 0.4781000000
-0.2465000000 3.6612000000 1.3267000000
-0.2468000000 1.0406000000 0.2728000000
-0.2471000000 0.9933000000 0.2516000000
-0.2472000000 2.8152000000 0.9868000000
-0.2475000000 4.9444000000 0.9849000000
-0.2478000000 5.6826000000 0.6791000000
-0.2480000000 1.8645000000 0.6040000000
-0.2482000000 1.2832000000 0.3563000000
-0.2487000000 1.7191000000 0.5430000000
-0.2489000000 2.2990000000 0.7767000000
-0.2492000000 0.2063000000 0.0093000000
-0.2497000000 1.4726000000 0.4426000000
-0.2501000000 5.5075000000 0.7530000000
-0.2506000000 3.1765000000 1.1299000000
-0.2536000000 2.3213000000 0.7795000000
-0.2560000000 4.0126000000 1.3511000000
-0.2574000000 1.4242000000 0.4145000000
-0.4907000000 4.9965000000 0.7863000000
-0.4914000000 5.3384000000 0.6503000000
-0.4927000000 2.2725000000 0.5938000000
-0.4930000000 4.6983000000 0.9150000000
-0.4933000000 6.2016000000 0.3009000000
-0.4935000000 6.2777000000 0.2712000000
-0.4940000000 2.4149000000 0.6526000000
-0.4942000000 6.3760000000 0.2248000000
-0.4947000000 6.5230000000 0.1736000000
-0.4952000000 6.2411000000 0.2904000000
-0.4953000000 0.7132000000 0.0394000000
-0.4955000000 3.4842000000 1.0859000000
-0.4958000000 1.7904000000 0.3982000000
-0.4960000000 3.4720000000 1.0800000000
-0.4962000000 3.1901000000 0.9634000000
-0.4964000000 6.2435000000 0.2836000000
-0.4966000000 1.7756000000 0.3939000000
-0.4970000000 1.2944000000 0.1997000000
-0.4972000000 2.2767000000 0.5931000000
-0.4975000000 1.1821000000 0.1539000000
-0.4982000000 2.4397000000 0.6639000000
-0.4986000000 1.2561000000 0.1780000000
-0.4989000000 1.4874000000 0.2760000000
-0.4993000000 1.2784000000 0.1939000000
-0.4996000000 4.5310000000 0.9735000000
-0.5000000000 2.4499000000 0.6619000000
-0.5002000000 1.6685000000 0.3405000000
-0.5008000000 2.5019000000 0.6807000000
-0.5029000000 1.0806000000 0.1003000000
-0.5086000000 1.1612000000 0.1335000000
-0.7397000000 2.0466000000 0.3306000000
-0.7412000000 3.6362000000 0.9738000000
-0.7422000000 3.6971000000 0.9959000000
-0.7431000000 2.9363000000 0.6847000000
-0.7435000000 6.4469000000 0.0336000000
-0.7437000000 3.0816000000 0.7453000000
-0.7438000000 5.4810000000 0.4189000000
-0.7445000000 5.7626000000 0.3019000000
-0.7450000000 2.4507000000 0.4885000000
-0.7453000000 2.6276000000 0.5590000000
-0.7457000000 4.2879000000 0.8982000000
-0.7462000000 2.8799000000 0.6589000000
-0.7465000000 2.0200000000 0.3095000000
-0.7466000000 5.8609000000 0.2601000000
-0.7469000000 6.4679000000 0.0941000000
-0.7472000000 5.4067000000 0.4466000000
-0.7475000000 4.6600000000 0.7515000000
-0.7477000000 5.6629000000 0.3456000000
-0.7482000000 1.1641000000 0.0403000000
-0.7485000000 3.7165000000 0.9945000000
-0.7488000000 3.2589000000 0.8147000000
-0.7496000000 5.7133000000 0.3220000000
-0.7499000000 3.0663000000 0.7394000000
-0.7507000000 3.8458000000 1.0378000000
-0.7513000000 5.4017000000 0.4517000000
-0.7517000000 3.4089000000 0.8716000000
-0.9871000000 6.0572000000 0.0931000000
-0.9904000000 3.1872000000 0.6152000000
-0.9923000000 4.6289000000 0.5855000000
-0.9927000000 5.7874000000 0.1175000000
-0.9931000000 3.7274000000 0.8314000000
-0.9936000000 4.3250000000 0.7136000000
-0.9941000000 5.1716000000 0.3665000000
-0.9945000000 2.0884000000 0.1701000000
-0.9948000000 3.9196000000 0.8628000000
-0.9951000000 2.0750000000 0.1663000000
-0.9955000000 3.2844000000 0.6511000000
-0.9960000000 2.4381000000 0.3143000000
-0.9964000000 5.3179000000 0.3078000000
-0.9967000000 2.0754000000 0.1666000000
-0.9971000000 1.6192000000 0.0545000000
-0.9974000000 1.5597000000 0.0324000000
-0.9976000000 2.0030000000 0.1334000000
-0.9981000000 4.8194000000 0.5040000000
-0.9988000000 5.5944000000 0.1991000000
-0.9996000000 2.9874000000 0.5267000000
-1.0001000000 3.7734000000 0.8468000000
-1.0006000000 3.3461000000 0.6742000000
-1.0015000000 2.6118000000 0.3763000000
-1.0021000000 2.3371000000 0.2641000000
-1.0030000000 1.8170000000 0.0523000000
-1.2401000000 3.0285000000 0.3759000000
-1.2417000000 4.2849000000 0.5580000000
-1.2422000000 4.9949000000 0.2660000000
-1.2424000000 3.7921000000 0.6814000000
-1.2432000000 3.9477000000 0.6906000000
-1.2437000000 2.0207000000 0.0393000000
-1.2441000000 2.6659000000 0.2304000000
-1.2442000000 4.6444000000 0.4002000000
-1.2446000000 1.9228000000 0.0047000000
-1.2452000000 5.7378000000 0.0393000000
-1.2459000000 5.4661000000 0.0765000000
-1.2465000000 5.0724000000 0.2350000000
-1.2472000000 5.1074000000 0.2199000000
-1.2480000000 4.5292000000 0.4517000000
-1.2486000000 4.4519000000 0.4858000000
-1.2489000000 3.9027000000 0.6915000000
-1.2492000000 4.1794000000 0.5927000000
-1.2496000000 2.2742000000 0.0644000000
-1.2500000000 3.1189000000 0.4146000000
-1.2515000000 2.1879000000 0.0318000000
-1.4879000000 5.2781000000 0.0573000000
-1.4920000000 4.8514000000 0.1489000000
-1.4930000000 4.1836000000 0.4175000000
-1.4941000000 3.0369000000 0.2024000000
-1.4945000000 4.0224000000 0.4828000000
-1.4952000000 5.0149000000 0.0844000000
-1.4960000000 3.7368000000 0.4860000000
-1.4964000000 4.6426000000 0.2251000000
-1.4969000000 4.2395000000 0.3944000000
-1.4973000000 3.9259000000 0.5097000000
-1.4983000000 2.6237000000 0.0352000000
-1.4995000000 2.5791000000 0.0889000000
-1.5000000000 2.5195000000 0.0628000000
-1.5014000000 4.0426000000 0.4774000000
-1.5024000000 2.4211000000 0.0169000000
-1.7410000000 2.7891000000 0.0075000000
-1.7424000000 3.6758000000 0.2830000000
-1.7431000000 3.0466000000 0.0320000000
-1.7441000000 3.4765000000 0.2053000000
-1.7456000000 4.0614000000 0.2841000000
-1.7466000000 4.3018000000 0.1942000000
-1.7473000000 3.5120000000 0.2248000000
-1.7477000000 4.1858000000 0.2372000000
-1.7490000000 2.8770000000 0.0392000000
-1.7495000000 3.1304000000 0.0630000000
-1.7499000000 4.0909000000 0.2787000000
-1.7521000000 3.2408000000 0.1008000000
-1.9895000000 3.6238000000 0.0953000000
-1.9941000000 3.4507000000 0.0945000000
-1.9963000000 3.4671000000 0.0230000000
-1.9970000000 4.0447000000 0.1227000000
-1.9985000000 3.4453000000 0.0917000000
