7.0148000000 4.3896000000 0.0348000000
7.0090000000 4.1294000000 0.0712000000
7.0058000000 4.2716000000 0.0208000000
7.0031000000 4.3328000000 0.0728000000
6.7608000000 4.8907000000 0.0064000000
6.7582000000 3.6402000000 0.0975000000
6.7564000000 4.6409000000 0.0542000000
6.7558000000 4.5278000000 0.1044000000
6.7553000000 3.8697000000 0.1327000000
6.7537000000 4.2016000000 0.1945000000
6.7519000000 3.6266000000 0.0935000000
6.7440000000 3.6436000000 0.1092000000
6.5108000000 5.1249000000 0.0220000000
6.5091000000 3.6241000000 0.2123000000
6.5076000000 3.9942000000 0.4004000000
6.5071000000 4.8611000000 0.1522000000
6.5065000000 4.9892000000 0.0985000000
6.5061000000 3.4621000000 0.1436000000
6.5048000000 3.3748000000 0.1033000000
6.5043000000 4.9818000000 0.0953000000
6.5041000000 2.9502000000 0.0517000000
6.5033000000 4.6597000000 0.1879000000
6.5024000000 3.7160000000 0.2655000000
6.5018000000 2.8514000000 0.0008000000
6.5015000000 3.5315000000 0.1803000000
6.5007000000 4.2886000000 0.3621000000
6.4982000000 3.5865000000 0.2108000000
6.2616000000 3.0671000000 0.1656000000
6.2606000000 4.7606000000 0.3294000000
6.2583000000 4.9803000000 0.2312000000
6.2573000000 4.5532000000 0.4333000000
6.2569000000 2.9964000000 0.1271000000
6.2568000000 4.4864000000 0.4639000000
6.2561000000 3.6367000000 0.4348000000
6.2558000000 5.6828000000 0.0472000000
6.2543000000 2.5809000000 0.0820000000
6.2534000000 4.9103000000 0.2613000000
6.2528000000 4.3936000000 0.5177000000
6.2520000000 3.2033000000 0.2306000000
6.2515000000 4.9050000000 0.2699000000
6.2507000000 3.6666000000 0.4511000000
6.2494000000 3.0436000000 0.1553000000
6.0142000000 5.3922000000 0.2393000000
6.0113000000 4.2900000000 0.7604000000
6.0103000000 5.1082000000 0.3759000000
6.0098000000 4.8855000000 0.4828000000
6.0091000000 3.0687000000 0.3678000000
6.0081000000 3.6532000000 0.6464000000
6.0067000000 3.2596000000 0.4601000000
6.0063000000 3.1673000000 0.4199000000
6.0056000000 2.1643000000 0.0212000000
6.0054000000 5.4896000000 0.1906000000
6.0047000000 5.4070000000 0.2357000000
6.0042000000 2.7984000000 0.2414000000
6.0038000000 5.0846000000 0.3856000000
6.0033000000 2.0903000000 0.0576000000
6.0029000000 3.4617000000 0.5579000000
6.0027000000 5.4584000000 0.2093000000
6.0022000000 4.1385000000 0.8293000000
6.0018000000 3.1403000000 0.4102000000
6.0013000000 3.5447000000 0.6041000000
5.9995000000 5.0030000000 0.4314000000
5.9982000000 4.5896000000 0.6275000000
5.7661000000 3.3587000000 0.7038000000
5.7622000000 4.8107000000 0.7240000000
5.7600000000 6.2077000000 0.1333000000
5.7594000000 6.2106000000 0.1268000000
5.7586000000 4.3143000000 0.9572000000
5.7584000000 4.3708000000 0.9292000000
5.7570000000 2.3957000000 0.2585000000
5.7566000000 1.7433000000 0.0207000000
5.7559000000 3.8778000000 0.9587000000
5.7556000000 2.9949000000 0.5405000000
5.7555000000 3.1305000000 0.6075000000
5.7548000000 5.5998000000 0.3448000000
5.7544000000 4.1602000000 1.0327000000
5.7540000000 4.1249000000 1.0397000000
5.7537000000 5.4233000000 0.4344000000
5.7533000000 2.6891000000 0.3962000000
5.7530000000 5.5523000000 0.3708000000
5.7525000000 3.2273000000 0.6502000000
5.7522000000 5.4285000000 0.4262000000
5.7518000000 1.8123000000 0.0564000000
5.7515000000 5.9255000000 0.1957000000
5.7509000000 2.1468000000 0.1427000000
5.7496000000 4.0596000000 1.0350000000
5.5125000000 2.6970000000 0.5992000000
5.5101000000 6.8833000000 0.0169000000
5.5096000000 3.4748000000 0.9687000000
5.5085000000 1.2083000000 0.0473000000
5.5082000000 3.9641000000 1.2082000000
5.5077000000 6.2200000000 0.2569000000
5.5073000000 3.6398000000 1.0550000000
5.5067000000 5.3563000000 0.6761000000
5.5063000000 5.5954000000 0.5602000000
5.5059000000 1.7197000000 0.1385000000
5.5055000000 2.4267000000 0.4810000000
5.5053000000 2.1523000000 0.3488000000
5.5051000000 5.8225000000 0.4476000000
5.5049000000 2.7833000000 0.6442000000
5.5046000000 4.5983000000 1.0365000000
5.5040000000 2.7306000000 0.6218000000
5.5037000000 5.0270000000 0.8249000000
5.5035000000 2.2788000000 0.4048000000
5.5031000000 1.1661000000 0.0271000000
5.5029000000 1.1681000000 0.0315000000
5.5022000000 3.0083000000 0.7570000000
5.5013000000 1.7664000000 0.1664000000
5.5008000000 2.8646000000 0.6895000000
5.5006000000 4.4866000000 1.0926000000
5.4994000000 1.6866000000 0.1305000000
5.4991000000 6.1687000000 0.2906000000
5.4984000000 3.1157000000 0.8105000000
5.4937000000 1.5197000000 0.1326000000
5.2616000000 3.8359000000 1.3470000000
5.2606000000 2.7268000000 0.8255000000
5.2600000000 4.4314000000 1.3117000000
5.2598000000 5.6309000000 0.7399000000
5.2589000000 6.1386000000 0.4977000000
5.2585000000 5.5714000000 0.7764000000
5.2577000000 2.5795000000 0.7556000000
5.2575000000 6.5614000000 0.3015000000
5.2563000000 3.0892000000 0.9957000000
5.2560000000 2.3674000000 0.6605000000
5.2557000000 1.4376000000 0.2068000000
5.2555000000 2.2934000000 0.6200000000
5.2553000000 4.8205000000 1.1317000000
5.2552000000 7.4269000000 0.0419000000
5.2550000000 0.8175000000 0.0671000000
5.2548000000 4.6138000000 1.2293000000
5.2545000000 1.6251000000 0.3084000000
5.2541000000 5.2623000000 0.9200000000
5.2540000000 6.3868000000 0.3885000000
5.2537000000 6.2095000000 0.4663000000
5.2536000000 6.1130000000 0.5174000000
5.2533000000 3.9533000000 1.4080000000
5.2530000000 4.0218000000 1.4423000000
5.2527000000 1.7936000000 0.3843000000
5.2525000000 0.6714000000 -0.0021000000
5.2518000000 2.2424000000 0.6021000000
5.2516000000 2.9177000000 0.9234000000
5.2510000000 1.4847000000 0.2390000000
5.2502000000 2.9675000000 0.9441000000
5.2496000000 3.7838000000 1.3398000000
5.2485000000 1.5745000000 0.2801000000
5.0128000000 6.1284000000 0.7103000000
5.0115000000 4.6248000000 1.4285000000
5.0105000000 4.8784000000 1.3027000000
5.0096000000 7.3093000000 0.1520000000
5.0091000000 7.7015000000 0.0361000000
5.0087000000 5.4365000000 1.0392000000
5.0083000000 7.7221000000 0.0304000000
5.0081000000 1.6257000000 0.5051000000
5.0075000000 6.7050000000 0.4443000000
5.0073000000 3.1390000000 1.2235000000
5.0069000000 6.0625000000 0.7489000000
5.0067000000 7.9216000000 0.0077000000
5.0063000000 6.5709000000 0.5017000000
5.0060000000 1.2817000000 0.3413000000
5.0058000000 2.1074000000 0.7424000000
5.0055000000 7.2495000000 0.1766000000
5.0051000000 7.4797000000 0.1439000000
5.0050000000 5.5651000000 0.9819000000
5.0049000000 6.6867000000 0.4464000000
5.0046000000 1.8066000000 0.5968000000
5.0044000000 2.5996000000 0.9732000000
5.0042000000 3.2323000000 1.2787000000
5.0040000000 7.0144000000 0.2988000000
5.0038000000 1.2131000000 0.3143000000
5.0037000000 1.3820000000 0.3926000000
5.0033000000 4.1134000000 1.6636000000
5.0030000000 6.9074000000 0.3463000000
5.0029000000 4.1937000000 1.6398000000
5.0027000000 1.0258000000 0.2324000000
5.0023000000 5.6145000000 0.9593000000
5.0020000000 2.4351000000 0.8979000000
5.0018000000 5.1496000000 1.1805000000
5.0013000000 2.7294000000 1.0408000000
5.0011000000 1.0377000000 0.2254000000
5.0009000000 4.4359000000 1.5235000000
4.9998000000 1.8870000000 0.6306000000
4.9988000000 4.6675000000 1.4164000000
4.9979000000 1.9803000000 0.6861000000
4.9970000000 7.4148000000 0.1081000000
4.9956000000 3.1521000000 1.2468000000
4.7628000000 8.0964000000 0.0507000000
4.7615000000 6.3323000000 0.8255000000
4.7608000000 1.4371000000 0.6156000000
4.7601000000 3.6827000000 1.6898000000
4.7593000000 3.3704000000 1.5370000000
4.7590000000 5.2642000000 1.3215000000
4.7583000000 2.6480000000 1.2005000000
4.7580000000 6.9134000000 0.5433000000
4.7578000000 8.1177000000 0.0513000000
4.7572000000 2.2823000000 1.0263000000
4.7569000000 3.4833000000 1.5962000000
4.7567000000 1.3886000000 0.6003000000
4.7563000000 3.2394000000 1.4835000000
4.7560000000 1.6057000000 0.7000000000
4.7558000000 4.6653000000 1.6201000000
4.7555000000 8.0426000000 0.0816000000
4.7552000000 7.2917000000 0.3673000000
4.7550000000 5.0471000000 1.4334000000
4.7546000000 6.7092000000 0.6497000000
4.7543000000 5.2828000000 1.3217000000
4.7537000000 5.9303000000 1.0199000000
4.7536000000 7.7627000000 0.1437000000
4.7534000000 7.0800000000 0.4687000000
4.7532000000 0.4278000000 0.1518000000
4.7529000000 3.1210000000 1.4288000000
4.7527000000 0.4890000000 0.1773000000
4.7524000000 3.5965000000 1.6559000000
4.7521000000 2.4252000000 1.0981000000
4.7517000000 1.4246000000 0.6235000000
4.7515000000 2.7012000000 1.2303000000
4.7511000000 6.2213000000 0.8734000000
4.7508000000 4.6677000000 1.6179000000
4.7504000000 4.2679000000 1.8126000000
4.7502000000 6.4323000000 0.7819000000
4.7498000000 0.7006000000 0.2771000000
4.7488000000 2.8730000000 1.3129000000
4.7482000000 0.4750000000 0.1742000000
4.7460000000 0.9803000000 0.4188000000
4.5103000000 7.1485000000 0.6383000000
4.5096000000 6.8776000000 0.7732000000
4.5092000000 2.3469000000 1.2584000000
4.5087000000 7.6639000000 0.3956000000
4.5084000000 7.8411000000 0.2821000000
4.5080000000 5.6824000000 1.3388000000
4.5077000000 0.9453000000 0.5964000000
4.5076000000 5.7289000000 1.3160000000
4.5072000000 5.8912000000 1.2358000000
4.5068000000 2.5085000000 1.3364000000
4.5066000000 8.1155000000 0.1114000000
4.5062000000 7.8960000000 0.2260000000
4.5060000000 6.7916000000 0.8088000000
4.5058000000 4.1039000000 2.0767000000
4.5055000000 8.0822000000 0.1455000000
4.5054000000 6.1524000000 1.1164000000
4.5050000000 6.4273000000 0.9823000000
4.5048000000 8.0364000000 0.1158000000
4.5045000000 5.3061000000 1.5149000000
4.5044000000 4.0727000000 2.0678000000
4.5043000000 7.1230000000 0.6650000000
4.5040000000 1.8131000000 1.0076000000
4.5038000000 1.4005000000 0.8183000000
4.5037000000 2.7945000000 1.4775000000
4.5033000000 4.0620000000 2.0701000000
4.5031000000 2.8191000000 1.4851000000
4.5026000000 4.3967000000 1.9553000000
4.5024000000 3.9232000000 2.0169000000
4.5020000000 0.5219000000 0.3949000000
4.5018000000 8.1411000000 0.0851000000
4.5015000000 5.4087000000 1.4756000000
4.5012000000 1.0806000000 0.6657000000
4.5010000000 3.1532000000 1.6556000000
4.5008000000 2.7154000000 1.4405000000
4.5003000000 1.1518000000 0.6956000000
4.5001000000 4.4412000000 1.9294000000
4.4980000000 2.5777000000 1.3784000000
4.4965000000 0.3756000000 0.3041000000
4.4934000000 3.6588000000 1.8995000000
4.2625000000 6.4752000000 1.1647000000
4.2616000000 6.9448000000 0.9357000000
4.2603000000 4.4053000000 2.1476000000
4.2600000000 6.4482000000 1.1803000000
4.2596000000 2.6867000000 1.6271000000
4.2590000000 5.8759000000 1.4565000000
4.2587000000 2.9371000000 1.7473000000
4.2582000000 7.4772000000 0.6345000000
4.2579000000 7.2139000000 0.8126000000
4.2576000000 6.3430000000 1.2334000000
4.2573000000 5.2250000000 1.7625000000
4.2570000000 5.6578000000 1.5596000000
4.2569000000 1.0670000000 0.8559000000
4.2563000000 8.2230000000 0.0813000000
4.2562000000 6.3517000000 1.2283000000
4.2559000000 0.9815000000 0.8142000000
4.2556000000 3.8559000000 2.1872000000
4.2553000000 6.9031000000 0.9654000000
4.2550000000 4.0870000000 2.2860000000
4.2548000000 2.8739000000 1.7221000000
4.2545000000 6.5375000000 1.1422000000
4.2544000000 3.9904000000 2.2487000000
4.2538000000 4.2390000000 2.2300000000
4.2535000000 2.3398000000 1.4676000000
4.2532000000 5.7720000000 1.5016000000
4.2529000000 1.4172000000 1.0290000000
4.2526000000 1.2995000000 0.9785000000
4.2524000000 3.5045000000 2.0188000000
4.2521000000 6.2340000000 1.2806000000
4.2519000000 6.7833000000 1.0287000000
4.2515000000 2.0446000000 1.3306000000
4.2505000000 7.3492000000 0.7479000000
4.2493000000 0.5159000000 0.4514000000
4.2486000000 0.5262000000 0.4621000000
4.2465000000 2.4954000000 1.5505000000
4.2458000000 1.9961000000 1.3085000000
4.0114000000 4.1657000000 2.4702000000
4.0104000000 5.0267000000 2.0591000000
4.0095000000 3.1017000000 2.0262000000
4.0091000000 1.5973000000 1.3141000000
4.0087000000 7.3369000000 0.7781000000
4.0085000000 3.9136000000 2.4211000000
4.0081000000 2.8327000000 1.9114000000
4.0079000000 2.0233000000 1.5234000000
4.0075000000 3.9337000000 2.4323000000
4.0071000000 8.0448000000 0.1017000000
4.0068000000 1.8590000000 1.4404000000
4.0066000000 5.0645000000 2.0470000000
4.0064000000 6.0784000000 1.5620000000
4.0062000000 1.4493000000 1.2426000000
4.0058000000 2.4425000000 1.7205000000
4.0054000000 5.0140000000 2.0723000000
4.0053000000 3.9978000000 2.4614000000
4.0051000000 5.4192000000 1.8762000000
4.0048000000 1.8987000000 1.4633000000
4.0045000000 4.9722000000 2.0869000000
4.0042000000 6.4515000000 1.3893000000
4.0039000000 1.4231000000 1.2404000000
4.0036000000 2.8179000000 1.8995000000
4.0033000000 1.5916000000 1.3180000000
4.0028000000 2.9674000000 1.9720000000
4.0027000000 6.8156000000 1.2108000000
4.0024000000 1.1449000000 1.0520000000
4.0018000000 1.3995000000 1.2225000000
4.0015000000 2.1373000000 1.5863000000
4.0011000000 5.5788000000 1.8063000000
4.0008000000 1.3358000000 1.1816000000
4.0004000000 2.3785000000 1.6933000000
3.9996000000 2.2585000000 1.6347000000
3.9993000000 0.5386000000 0.4849000000
3.9985000000 3.4804000000 2.2138000000
3.9981000000 0.6093000000 0.5448000000
3.9971000000 2.2924000000 1.6521000000
3.9945000000 2.5613000000 1.7884000000
3.7644000000 4.9012000000 2.3219000000
3.7619000000 3.3922000000 2.3764000000
3.7616000000 7.8008000000 0.3370000000
3.7608000000 6.7133000000 1.3703000000
3.7601000000 2.0546000000 1.7368000000
3.7598000000 8.1365000000 0.0857000000
3.7596000000 3.3853000000 2.3766000000
3.7592000000 5.3716000000 2.1080000000
3.7591000000 6.1946000000 1.7111000000
3.7586000000 6.0008000000 1.8035000000
3.7583000000 2.4428000000 1.9191000000
3.7582000000 1.6609000000 1.5350000000
3.7577000000 8.1356000000 0.0901000000
3.7575000000 3.1659000000 2.2693000000
3.7570000000 0.6629000000 0.5930000000
3.7568000000 7.3231000000 0.7907000000
3.7565000000 4.3114000000 2.6140000000
3.7563000000 3.7509000000 2.5469000000
3.7558000000 7.5950000000 0.5340000000
3.7553000000 3.5095000000 2.4330000000
3.7551000000 0.1358000000 0.0876000000
3.7550000000 2.0001000000 1.7088000000
3.7548000000 3.8817000000 2.6055000000
3.7546000000 2.3994000000 1.9027000000
3.7545000000 5.9186000000 1.8475000000
3.7541000000 6.1704000000 1.7288000000
3.7539000000 3.0766000000 2.2255000000
3.7537000000 3.6820000000 2.5217000000
3.7535000000 4.0575000000 2.6868000000
3.7533000000 2.2092000000 1.8172000000
3.7531000000 4.8030000000 2.3796000000
3.7528000000 1.2165000000 1.1195000000
3.7524000000 0.2081000000 0.1616000000
3.7520000000 3.7275000000 2.5454000000
3.7518000000 7.4236000000 0.6901000000
3.7515000000 1.9814000000 1.7058000000
3.7511000000 3.9122000000 2.6313000000
3.7510000000 5.1194000000 2.2288000000
3.7508000000 0.2596000000 0.2164000000
3.7492000000 6.7266000000 1.3565000000
3.7462000000 2.1397000000 1.7951000000
3.5124000000 7.3467000000 0.7684000000
3.5103000000 7.6973000000 0.4321000000
3.5099000000 2.3608000000 2.0868000000
3.5089000000 7.7492000000 0.3841000000
3.5086000000 6.6359000000 1.4443000000
3.5083000000 1.5957000000 1.4864000000
3.5079000000 4.0102000000 2.8792000000
3.5076000000 6.4981000000 1.5752000000
3.5073000000 3.6564000000 2.7126000000
3.5067000000 5.9867000000 2.0056000000
3.5061000000 3.7808000000 2.7691000000
3.5060000000 7.2432000000 0.8671000000
3.5058000000 1.8199000000 1.6949000000
3.5057000000 7.4742000000 0.6453000000
3.5055000000 7.7848000000 0.3505000000
3.5053000000 1.1771000000 1.0862000000
3.5050000000 7.8516000000 0.2853000000
3.5048000000 0.4836000000 0.4231000000
3.5044000000 1.1866000000 1.0985000000
3.5041000000 0.0246000000 0.0610000000
3.5036000000 5.6723000000 2.1676000000
3.5032000000 7.9199000000 0.2253000000
3.5031000000 4.2408000000 2.8523000000
3.5025000000 3.2553000000 2.5260000000
3.5023000000 7.7292000000 0.4014000000
3.5019000000 6.9233000000 1.1719000000
3.5015000000 0.8653000000 0.7880000000
3.5010000000 7.4026000000 0.7098000000
3.5007000000 5.0416000000 2.4690000000
3.5001000000 2.2865000000 2.0651000000
3.4996000000 1.0514000000 0.9685000000
3.4991000000 4.6616000000 2.6583000000
3.4985000000 1.3012000000 1.1994000000
3.4974000000 4.2854000000 2.8331000000
3.4962000000 5.6739000000 2.1789000000
3.2646000000 6.6413000000 1.4410000000
3.2618000000 5.2714000000 2.5577000000
3.2606000000 4.1634000000 3.0883000000
3.2596000000 4.6278000000 2.8669000000
3.2594000000 6.8926000000 1.2036000000
3.2587000000 1.9274000000 1.8013000000
3.2582000000 0.9972000000 0.9096000000
3.2579000000 2.1833000000 2.0408000000
3.2576000000 0.8825000000 0.8016000000
3.2570000000 4.1127000000 3.1004000000
3.2566000000 4.3920000000 2.9818000000
3.2564000000 4.4627000000 2.9480000000
3.2558000000 6.7703000000 1.3117000000
3.2555000000 4.8872000000 2.7480000000
3.2553000000 7.9165000000 0.2270000000
3.2552000000 0.8728000000 0.7966000000
3.2550000000 6.5613000000 1.5084000000
3.2548000000 2.3807000000 2.2340000000
3.2545000000 2.6855000000 2.4546000000
3.2543000000 4.0048000000 3.0852000000
3.2539000000 5.9096000000 2.1359000000
3.2537000000 0.3579000000 0.3036000000
3.2533000000 2.7211000000 2.4770000000
3.2532000000 3.5501000000 2.8681000000
3.2529000000 4.2742000000 3.0436000000
3.2527000000 1.6257000000 1.5146000000
3.2523000000 2.5263000000 2.3551000000
3.2521000000 4.4330000000 2.9692000000
3.2518000000 0.9567000000 0.8767000000
3.2513000000 1.1112000000 1.0189000000
3.2511000000 5.9479000000 2.1026000000
3.2508000000 0.1391000000 0.0957000000
3.2505000000 0.8685000000 0.7882000000
3.2503000000 2.3418000000 2.1985000000
3.2500000000 2.1548000000 2.0166000000
3.2495000000 3.1900000000 2.7008000000
3.2486000000 2.6879000000 2.4594000000
3.2467000000 1.6003000000 1.4862000000
3.0113000000 5.6531000000 2.3834000000
3.0105000000 7.0233000000 1.0755000000
3.0093000000 6.2972000000 1.7675000000
3.0089000000 5.4759000000 2.5427000000
3.0085000000 3.8843000000 3.2267000000
3.0079000000 7.5110000000 0.6068000000
3.0075000000 7.7900000000 0.3467000000
3.0074000000 6.7242000000 1.3607000000
3.0072000000 4.2149000000 3.2737000000
3.0068000000 4.1787000000 3.2907000000
3.0062000000 6.3836000000 1.6845000000
3.0059000000 4.5845000000 3.0958000000
3.0058000000 3.8544000000 3.2213000000
3.0054000000 6.7080000000 1.3764000000
3.0051000000 2.3370000000 2.1857000000
3.0049000000 6.6050000000 1.4743000000
3.0047000000 4.4177000000 3.1808000000
3.0045000000 0.5062000000 0.4445000000
3.0041000000 0.5163000000 0.4587000000
3.0039000000 7.6080000000 0.5192000000
3.0037000000 6.2599000000 1.7999000000
3.0033000000 0.6969000000 0.6288000000
3.0031000000 1.8723000000 1.7476000000
3.0028000000 6.4472000000 1.6236000000
3.0024000000 1.2512000000 1.1541000000
3.0022000000 7.4680000000 0.6539000000
3.0019000000 2.2174000000 2.0742000000
3.0015000000 5.5560000000 2.4737000000
3.0011000000 3.0023000000 2.7993000000
3.0009000000 2.7446000000 2.5751000000
3.0005000000 6.7054000000 1.3753000000
3.0003000000 7.8971000000 0.2409000000
2.9996000000 7.1758000000 0.9287000000
2.9986000000 0.4774000000 0.4176000000
2.9970000000 2.1568000000 2.0156000000
2.7626000000 3.6644000000 3.3294000000
2.7618000000 4.5281000000 3.3257000000
2.7605000000 5.8489000000 2.1925000000
2.7594000000 5.6688000000 2.3648000000
2.7591000000 5.1669000000 2.8413000000
2.7586000000 6.2933000000 1.7709000000
2.7583000000 4.7464000000 3.2156000000
2.7578000000 5.9782000000 2.0702000000
2.7573000000 3.6442000000 3.3218000000
2.7572000000 4.9528000000 3.0415000000
2.7569000000 6.5990000000 1.4790000000
2.7565000000 1.2325000000 1.1365000000
2.7559000000 4.0877000000 3.5233000000
2.7556000000 4.9266000000 3.0688000000
2.7554000000 3.6222000000 3.3141000000
2.7551000000 5.6010000000 2.4318000000
2.7550000000 1.4809000000 1.3772000000
2.7546000000 7.5573000000 0.5689000000
2.7544000000 4.2268000000 3.4759000000
2.7543000000 7.6448000000 0.4857000000
2.7537000000 4.7366000000 3.2263000000
2.7534000000 1.9071000000 1.7830000000
2.7531000000 1.1612000000 1.0680000000
2.7528000000 4.7448000000 3.2203000000
2.7523000000 3.8925000000 3.4498000000
2.7520000000 4.0934000000 3.5273000000
2.7514000000 7.3971000000 0.7197000000
2.7505000000 2.9512000000 2.7721000000
2.7504000000 5.0016000000 3.0005000000
2.7502000000 2.2296000000 2.0890000000
2.7498000000 4.0800000000 3.5201000000
2.7491000000 7.7204000000 0.4095000000
2.7488000000 5.6502000000 2.3881000000
2.7478000000 3.2191000000 3.0279000000
2.7466000000 5.7016000000 2.3314000000
2.5133000000 3.4425000000 3.2472000000
2.5104000000 3.5043000000 3.3011000000
2.5099000000 6.3986000000 1.6705000000
2.5090000000 1.8169000000 1.6954000000
2.5086000000 3.0680000000 2.8812000000
2.5080000000 4.2119000000 3.6902000000
2.5078000000 5.6273000000 2.3985000000
2.5073000000 5.6619000000 2.3732000000
2.5070000000 5.5455000000 2.4808000000
2.5067000000 7.0333000000 1.0649000000
2.5063000000 6.3497000000 1.7186000000
2.5060000000 2.9203000000 2.7438000000
2.5057000000 7.9632000000 0.1808000000
2.5055000000 2.2071000000 2.0660000000
2.5052000000 7.0131000000 1.0897000000
2.5050000000 7.7354000000 0.3981000000
2.5049000000 2.7646000000 2.5960000000
2.5048000000 5.9308000000 2.1086000000
2.5044000000 0.1504000000 0.1125000000
2.5042000000 4.1732000000 3.7089000000
2.5040000000 5.9565000000 2.0942000000
2.5036000000 7.0485000000 1.0467000000
2.5034000000 4.7291000000 3.2671000000
2.5031000000 3.7397000000 3.5194000000
2.5030000000 5.6578000000 2.3736000000
2.5028000000 2.6780000000 2.5112000000
2.5024000000 1.3285000000 1.2314000000
2.5021000000 0.7652000000 0.6894000000
2.5017000000 3.7386000000 3.5228000000
2.5012000000 0.3180000000 0.2652000000
2.5008000000 0.6125000000 0.5505000000
2.4995000000 0.4264000000 0.3723000000
2.4985000000 6.0057000000 2.0426000000
2.4982000000 1.8204000000 1.7003000000
2.4960000000 5.8163000000 2.2213000000
2.2630000000 6.4447000000 1.6256000000
2.2622000000 3.9294000000 3.6837000000
2.2608000000 7.9423000000 0.1994000000
2.2605000000 5.3272000000 2.6897000000
2.2598000000 3.3463000000 3.1506000000
2.2596000000 7.3571000000 0.7534000000
2.2589000000 5.3258000000 2.6895000000
2.2580000000 5.6031000000 2.4264000000
2.2577000000 7.4116000000 0.7085000000
2.2575000000 4.6661000000 3.3228000000
2.2573000000 4.6120000000 3.3688000000
2.2570000000 2.8472000000 2.6794000000
2.2568000000 3.3089000000 3.1109000000
2.2563000000 5.7884000000 2.2466000000
2.2563000000 7.1107000000 0.9935000000
2.2561000000 3.3721000000 3.1746000000
2.2557000000 5.5497000000 2.4797000000
2.2555000000 4.4429000000 3.5340000000
2.2553000000 7.1449000000 0.9659000000
2.2551000000 0.9739000000 0.8912000000
2.2549000000 1.2419000000 1.1499000000
2.2548000000 5.7533000000 2.2832000000
2.2546000000 8.0231000000 0.1251000000
2.2542000000 0.8890000000 0.8122000000
2.2540000000 2.2974000000 2.1541000000
2.2539000000 1.3832000000 1.2804000000
2.2538000000 7.6811000000 0.4523000000
2.2536000000 2.1775000000 2.0395000000
2.2533000000 5.8235000000 2.2213000000
2.2530000000 0.9022000000 0.8222000000
2.2528000000 5.2405000000 2.7721000000
2.2526000000 0.9414000000 0.8555000000
2.2525000000 3.5294000000 3.3248000000
2.2523000000 0.1445000000 0.1032000000
2.2520000000 3.2563000000 3.0705000000
2.2518000000 3.5125000000 3.3080000000
2.2514000000 0.0193000000 0.0627000000
2.2511000000 3.6488000000 3.4330000000
2.2508000000 3.5897000000 3.3839000000
2.2506000000 4.6042000000 3.3741000000
2.2502000000 4.0472000000 3.7369000000
2.2500000000 3.8353000000 3.5985000000
2.2498000000 0.6688000000 0.6017000000
2.2492000000 1.8861000000 1.7627000000
2.2485000000 0.5066000000 0.4449000000
2.2450000000 0.1956000000 0.1547000000
2.0113000000 7.4927000000 0.6314000000
2.0108000000 2.0718000000 1.9394000000
2.0100000000 6.6518000000 1.4237000000
2.0093000000 8.1095000000 0.1130000000
2.0086000000 5.4481000000 2.5771000000
2.0080000000 3.9329000000 3.4893000000
2.0077000000 2.1391000000 2.0025000000
2.0073000000 4.4198000000 3.4179000000
2.0070000000 5.4838000000 2.5399000000
2.0069000000 4.1772000000 3.5288000000
2.0067000000 5.1133000000 2.8962000000
2.0060000000 2.4496000000 2.2950000000
2.0058000000 7.2292000000 0.8805000000
2.0055000000 4.4002000000 3.4215000000
2.0053000000 1.3204000000 1.2229000000
2.0051000000 2.5136000000 2.3532000000
2.0050000000 5.2867000000 2.7307000000
2.0049000000 3.0162000000 2.8355000000
2.0048000000 7.2389000000 0.8704000000
2.0045000000 3.9680000000 3.5055000000
2.0044000000 5.6796000000 2.3576000000
2.0042000000 4.1657000000 3.5341000000
2.0040000000 5.3771000000 2.6433000000
2.0037000000 1.6523000000 1.5379000000
2.0035000000 0.8160000000 0.7390000000
2.0033000000 5.8055000000 2.2353000000
2.0031000000 0.5090000000 0.4501000000
2.0028000000 7.7284000000 0.4066000000
2.0026000000 0.6174000000 0.5542000000
2.0025000000 1.7920000000 1.6737000000
2.0023000000 4.7385000000 3.2317000000
2.0019000000 0.1421000000 0.1033000000
2.0017000000 7.7091000000 0.4234000000
2.0014000000 5.5480000000 2.4769000000
2.0009000000 6.5896000000 1.4907000000
2.0007000000 0.9865000000 0.9043000000
2.0002000000 2.2581000000 2.1154000000
1.9997000000 6.0961000000 1.9615000000
1.9993000000 1.4460000000 1.3371000000
1.9990000000 0.6447000000 0.5771000000
1.9985000000 2.7098000000 2.5393000000
1.9979000000 2.2784000000 2.1337000000
1.9968000000 0.2744000000 0.2261000000
1.9960000000 0.9459000000 0.8673000000
1.9950000000 1.0086000000 0.9249000000
1.7621000000 3.8127000000 3.2277000000
1.7612000000 4.9567000000 2.9500000000
1.7603000000 6.3961000000 1.6691000000
1.7597000000 4.5935000000 3.1272000000
1.7588000000 6.5780000000 1.4996000000
1.7585000000 4.0469000000 3.3340000000
1.7578000000 1.1619000000 1.0690000000
1.7574000000 7.9279000000 0.2217000000
1.7570000000 1.6031000000 1.4933000000
1.7569000000 2.1848000000 2.0469000000
1.7568000000 0.3255000000 0.2829000000
1.7565000000 6.7570000000 1.3338000000
1.7563000000 6.4766000000 1.5970000000
1.7561000000 4.7365000000 3.0555000000
1.7558000000 5.3969000000 2.6200000000
1.7555000000 3.8956000000 3.2677000000
1.7553000000 1.9850000000 1.8573000000
1.7552000000 7.1204000000 0.9784000000
1.7547000000 3.6551000000 3.1537000000
1.7545000000 0.0227000000 0.0641000000
1.7544000000 0.8005000000 0.7282000000
1.7541000000 3.9538000000 3.2910000000
1.7538000000 4.1830000000 3.3173000000
1.7533000000 3.9700000000 3.2948000000
1.7531000000 5.3152000000 2.7019000000
1.7529000000 0.2976000000 0.2424000000
1.7525000000 3.9739000000 3.3025000000
1.7523000000 3.1691000000 2.9140000000
1.7518000000 7.8844000000 0.2540000000
1.7515000000 0.8895000000 0.8154000000
1.7511000000 2.2051000000 2.0652000000
1.7506000000 1.9881000000 1.8590000000
1.7501000000 3.5900000000 3.1210000000
1.7500000000 3.8920000000 3.2613000000
1.7484000000 2.3860000000 2.2345000000
1.7474000000 1.5148000000 1.4050000000
1.7466000000 1.6301000000 1.5134000000
1.7454000000 1.1385000000 1.0515000000
1.5118000000 6.8015000000 1.2864000000
1.5104000000 6.8470000000 1.2421000000
1.5098000000 7.6446000000 0.4891000000
1.5090000000 7.0406000000 1.0620000000
1.5087000000 7.9776000000 0.1652000000
1.5085000000 7.4694000000 0.6468000000
1.5081000000 7.5715000000 0.5552000000
1.5078000000 3.9605000000 3.0926000000
1.5075000000 5.3816000000 2.5475000000
1.5072000000 6.7967000000 1.2901000000
1.5067000000 0.4032000000 0.3510000000
1.5062000000 4.4132000000 3.0081000000
1.5058000000 7.6298000000 0.4948000000
1.5055000000 2.9372000000 2.6068000000
1.5053000000 7.0876000000 1.0102000000
1.5048000000 3.0034000000 2.6375000000
1.5046000000 5.7827000000 2.2568000000
1.5044000000 2.4136000000 2.2574000000
1.5042000000 4.7228000000 2.8589000000
1.5040000000 7.7903000000 0.3443000000
1.5038000000 4.7983000000 2.8204000000
1.5036000000 3.4028000000 2.8251000000
1.5034000000 2.1794000000 2.0326000000
1.5031000000 3.0428000000 2.6525000000
1.5028000000 3.4658000000 2.8505000000
1.5022000000 7.0195000000 1.0839000000
1.5019000000 1.7524000000 1.6291000000
1.5015000000 1.5311000000 1.4202000000
1.5010000000 4.1587000000 3.1207000000
1.5007000000 5.5678000000 2.4354000000
1.5002000000 2.1339000000 1.9948000000
1.4996000000 2.8762000000 2.5726000000
1.4990000000 3.2777000000 2.7609000000
1.4984000000 5.7815000000 2.2594000000
1.4975000000 7.6849000000 0.4484000000
1.4970000000 1.4978000000 1.3862000000
1.2620000000 5.5581000000 2.2588000000
1.2609000000 2.3796000000 2.1377000000
1.2601000000 7.3982000000 0.7183000000
1.2591000000 7.0571000000 1.0414000000
1.2589000000 4.1107000000 2.9276000000
1.2580000000 6.8947000000 1.1934000000
1.2576000000 2.9843000000 2.4221000000
1.2573000000 7.3214000000 0.7940000000
1.2568000000 2.1325000000 1.9747000000
1.2565000000 2.5248000000 2.2058000000
1.2563000000 1.6392000000 1.5208000000
1.2560000000 4.5456000000 2.7325000000
1.2558000000 3.7905000000 2.8049000000
1.2555000000 7.1033000000 0.9985000000
1.2553000000 5.1828000000 2.4248000000
1.2548000000 3.8523000000 2.8297000000
1.2544000000 4.4220000000 2.7946000000
1.2543000000 4.5438000000 2.7356000000
1.2541000000 0.2035000000 0.1529000000
1.2538000000 4.2074000000 2.8970000000
1.2536000000 2.0085000000 1.8754000000
1.2534000000 3.2515000000 2.5451000000
1.2532000000 7.5772000000 0.5460000000
1.2528000000 3.5629000000 2.6911000000
1.2525000000 1.8427000000 1.7217000000
1.2525000000 2.1459000000 1.9894000000
1.2520000000 1.5091000000 1.3986000000
1.2517000000 4.5577000000 2.7279000000
1.2513000000 3.5347000000 2.6761000000
1.2510000000 7.8312000000 0.3069000000
1.2506000000 7.0266000000 1.0743000000
1.2500000000 0.9387000000 0.8602000000
1.2498000000 1.7994000000 1.6771000000
1.2492000000 1.0189000000 0.9291000000
1.2475000000 0.5974000000 0.5320000000
1.0124000000 7.2894000000 0.8234000000
1.0116000000 7.6380000000 0.4940000000
1.0103000000 7.3853000000 0.7303000000
1.0093000000 6.7037000000 1.3783000000
1.0088000000 0.6440000000 0.5732000000
1.0085000000 6.9442000000 1.1463000000
1.0079000000 5.0494000000 2.2916000000
1.0075000000 5.2302000000 2.2036000000
1.0072000000 1.5365000000 1.4213000000
1.0068000000 1.3476000000 1.2516000000
1.0065000000 7.7513000000 0.3809000000
1.0062000000 6.3340000000 1.6729000000
1.0059000000 7.3349000000 0.7787000000
1.0055000000 0.9106000000 0.8320000000
1.0052000000 6.6362000000 1.4434000000
1.0049000000 3.9683000000 2.6771000000
1.0043000000 0.6642000000 0.5941000000
1.0040000000 6.2829000000 1.6989000000
1.0038000000 0.0950000000 0.1328000000
1.0037000000 7.5118000000 0.6060000000
1.0035000000 7.5476000000 0.5822000000
1.0034000000 3.2133000000 2.3190000000
1.0030000000 6.0260000000 1.8211000000
1.0028000000 0.1065000000 0.1410000000
1.0025000000 5.6662000000 1.9872000000
1.0023000000 4.4473000000 2.5719000000
1.0021000000 6.7061000000 1.3777000000
1.0018000000 5.9510000000 1.8552000000
1.0016000000 0.7589000000 0.6843000000
1.0013000000 4.3761000000 2.6058000000
1.0011000000 4.3601000000 2.6137000000
1.0007000000 4.8818000000 2.3586000000
1.0005000000 0.1233000000 0.0836000000
1.0001000000 4.1111000000 2.7145000000
0.9999000000 0.5995000000 0.5351000000
0.9995000000 6.0184000000 1.8163000000
0.9987000000 1.9125000000 1.6957000000
0.9981000000 2.5340000000 1.9893000000
0.9975000000 1.4249000000 1.3204000000
0.9948000000 5.4506000000 2.0931000000
0.7613000000 4.8080000000 2.1987000000
0.7595000000 3.3300000000 2.1758000000
0.7587000000 4.8113000000 2.1941000000
0.7580000000 3.9286000000 2.4600000000
0.7577000000 7.5660000000 0.5639000000
0.7575000000 1.8279000000 1.4583000000
0.7570000000 3.3218000000 2.1679000000
0.7569000000 6.8121000000 1.2280000000
0.7565000000 4.6280000000 2.2841000000
0.7559000000 3.0246000000 2.0278000000
0.7555000000 1.6011000000 1.3453000000
0.7553000000 4.2419000000 2.4668000000
0.7548000000 7.2299000000 0.8763000000
0.7545000000 0.7561000000 0.6858000000
0.7543000000 3.8627000000 2.4277000000
0.7540000000 3.1420000000 2.0745000000
0.7538000000 7.2887000000 0.8257000000
0.7537000000 4.0071000000 2.4947000000
0.7535000000 2.4156000000 1.7320000000
0.7533000000 7.3436000000 0.7703000000
0.7530000000 3.2567000000 2.1361000000
0.7528000000 1.5215000000 1.3130000000
0.7525000000 3.9029000000 2.4461000000
0.7523000000 5.1506000000 2.0355000000
0.7519000000 6.9340000000 1.1401000000
0.7517000000 4.5286000000 2.3267000000
0.7511000000 2.5711000000 1.8117000000
0.7509000000 2.2336000000 1.6443000000
0.7507000000 5.2259000000 1.9935000000
0.7503000000 6.3407000000 1.4666000000
0.7498000000 0.7387000000 0.6669000000
0.7493000000 0.0556000000 0.0963000000
0.7486000000 2.5256000000 1.7845000000
0.7483000000 6.0223000000 1.6122000000
0.7477000000 5.9332000000 1.6565000000
0.5145000000 5.7262000000 1.5612000000
0.5119000000 4.8122000000 1.9982000000
0.5103000000 4.6161000000 2.0913000000
0.5095000000 6.5360000000 1.1711000000
0.5087000000 8.1972000000 0.0315000000
0.5083000000 8.1909000000 0.0368000000
0.5080000000 1.1723000000 0.9355000000
0.5076000000 4.1132000000 2.3052000000
0.5073000000 5.1001000000 1.8536000000
0.5068000000 3.6552000000 2.1246000000
0.5062000000 6.8321000000 1.0286000000
0.5058000000 1.5984000000 1.1430000000
0.5055000000 7.3806000000 0.7188000000
0.5053000000 7.5174000000 0.5954000000
0.5050000000 3.4775000000 2.0326000000
0.5048000000 2.1607000000 1.4159000000
0.5045000000 4.2661000000 2.2468000000
0.5043000000 0.7726000000 0.6921000000
0.5040000000 6.7627000000 1.0625000000
0.5037000000 7.4484000000 0.6695000000
0.5035000000 5.5336000000 1.6438000000
0.5032000000 5.5498000000 1.6375000000
0.5031000000 0.6330000000 0.5704000000
0.5027000000 7.3525000000 0.7467000000
0.5025000000 2.6493000000 1.6379000000
0.5023000000 2.3715000000 1.5061000000
0.5020000000 0.9566000000 0.8226000000
0.5017000000 0.8667000000 0.7721000000
0.5015000000 1.4137000000 1.0493000000
0.5011000000 2.1107000000 1.3860000000
0.5007000000 2.8216000000 1.7155000000
0.5001000000 4.6272000000 2.0735000000
0.4998000000 0.6904000000 0.6202000000
0.4996000000 1.0634000000 0.8799000000
0.4989000000 7.5987000000 0.5279000000
0.4985000000 3.2199000000 1.9092000000
0.4975000000 2.9619000000 1.7883000000
0.4957000000 0.4712000000 0.4075000000
0.2630000000 7.3424000000 0.5812000000
0.2600000000 3.7505000000 1.9659000000
0.2595000000 5.7631000000 1.3362000000
0.2586000000 1.4183000000 0.8546000000
0.2582000000 1.0496000000 0.6790000000
0.2578000000 6.1055000000 1.1722000000
0.2575000000 6.1528000000 1.1440000000
0.2573000000 8.1193000000 0.1065000000
0.2571000000 7.1907000000 0.6557000000
0.2568000000 0.6908000000 0.5098000000
0.2566000000 1.0522000000 0.6753000000
0.2564000000 4.6360000000 1.8647000000
0.2561000000 7.1248000000 0.6843000000
0.2558000000 2.0362000000 1.1479000000
0.2556000000 4.5578000000 1.9095000000
0.2553000000 6.3456000000 1.0540000000
0.2550000000 7.0041000000 0.7439000000
0.2547000000 5.2297000000 1.5897000000
0.2545000000 1.2133000000 0.7508000000
0.2541000000 6.6215000000 0.9210000000
0.2540000000 0.3373000000 0.2733000000
0.2535000000 2.5723000000 1.4042000000
0.2533000000 4.2493000000 2.0471000000
0.2529000000 1.8259000000 1.0416000000
0.2527000000 0.2357000000 0.1929000000
0.2524000000 7.9210000000 0.2212000000
0.2522000000 6.8194000000 0.8263000000
0.2519000000 5.6055000000 1.3999000000
0.2517000000 0.7791000000 0.5379000000
0.2515000000 6.7305000000 0.8656000000
0.2511000000 4.6666000000 1.8478000000
0.2509000000 1.8684000000 1.0610000000
0.2507000000 0.7018000000 0.5030000000
0.2502000000 2.6959000000 1.4544000000
0.2498000000 1.5061000000 0.8876000000
0.2494000000 1.5205000000 0.8938000000
0.2490000000 2.2020000000 1.2177000000
0.2485000000 6.5287000000 0.9633000000
0.2480000000 5.2918000000 1.5458000000
0.2470000000 0.2803000000 0.2288000000
0.0107000000 0.9517000000 0.4288000000
0.0096000000 3.4797000000 1.6233000000
0.0092000000 4.0210000000 1.8832000000
0.0083000000 6.4805000000 0.7894000000
0.0079000000 6.5317000000 0.7581000000
0.0075000000 6.4842000000 0.7829000000
0.0071000000 4.4505000000 1.7504000000
0.0067000000 6.9963000000 0.5305000000
0.0063000000 6.9198000000 0.5748000000
0.0061000000 6.1327000000 0.9480000000
0.0056000000 6.4597000000 0.7968000000
0.0053000000 8.0836000000 0.0825000000
0.0047000000 2.6214000000 1.2145000000
0.0046000000 2.8429000000 1.3194000000
0.0042000000 7.3745000000 0.3595000000
0.0039000000 0.7645000000 0.3348000000
0.0036000000 2.4913000000 1.1557000000
0.0035000000 1.7360000000 0.7857000000
0.0033000000 3.7545000000 1.7561000000
0.0031000000 7.7531000000 0.1759000000
0.0029000000 0.5854000000 0.2414000000
0.0026000000 0.7529000000 0.3273000000
0.0025000000 5.1814000000 1.3995000000
0.0023000000 0.5285000000 0.2206000000
0.0021000000 4.8074000000 1.5769000000
0.0018000000 6.8119000000 0.6265000000
0.0016000000 5.6802000000 1.1594000000
0.0011000000 0.7558000000 0.3298000000
0.0008000000 1.1061000000 0.4878000000
0.0001000000 1.0496000000 0.4581000000
-0.0017000000 7.3913000000 0.3431000000
-0.0023000000 2.2808000000 1.0444000000
-0.0032000000 1.4302000000 0.6418000000
-0.0055000000 0.1770000000 0.1184000000
-0.2380000000 4.0248000000 1.6857000000
-0.2391000000 6.3923000000 0.6263000000
-0.2407000000 2.2853000000 0.8523000000
-0.2414000000 5.2881000000 1.1446000000
-0.2420000000 0.9656000000 0.2264000000
-0.2421000000 6.0899000000 0.7678000000
-0.2423000000 6.5002000000 0.5746000000
-0.2429000000 5.6759000000 0.9625000000
-0.2431000000 3.7162000000 1.5329000000
-0.2433000000 2.9735000000 1.1737000000
-0.2436000000 3.9888000000 1.6630000000
-0.2438000000 6.4689000000 0.5779000000
-0.2439000000 7.2199000000 0.2218000000
-0.2442000000 5.0614000000 1.2582000000
-0.2445000000 4.6909000000 1.4309000000
-0.2447000000 0.3325000000 0.0729000000
-0.2449000000 4.0413000000 1.6791000000
-0.2451000000 2.4092000000 0.9051000000
-0.2453000000 7.6299000000 0.1036000000
-0.2455000000 2.7433000000 1.0732000000
-0.2456000000 4.3265000000 1.6009000000
-0.2457000000 5.3272000000 1.1245000000
-0.2459000000 3.0576000000 1.2161000000
-0.2462000000 1.8294000000 0.6319000000
-0.2464000000 0.4881000000 0.0701000000
-0.2466000000 7.9472000000 0.0274000000
-0.2469000000 4.1175000000 1.6856000000
-0.2471000000 5.1527000000 1.2049000000
-0.2475000000 1.5953000000 0.5176000000
-0.2480000000 3.0964000000 1.2318000000
-0.2482000000 0.4449000000 0.0456000000
-0.2485000000 4.7628000000 1.3914000000
-0.2489000000 6.3182000000 0.6480000000
-0.2490000000 3.1380000000 1.2570000000
-0.2497000000 4.3142000000 1.6071000000
-0.2501000000 2.4165000000 0.9088000000
-0.2507000000 2.8112000000 1.0993000000
-0.2509000000 0.4446000000 0.0465000000
-0.2515000000 2.3494000000 0.8778000000
-0.2523000000 6.6371000000 0.5024000000
-0.2534000000 0.3721000000 0.0833000000
-0.2545000000 1.4414000000 0.4426000000
-0.2578000000 3.5737000000 1.4582000000
-0.4850000000 3.6839000000 1.3222000000
-0.4882000000 5.9578000000 0.6232000000
-0.4895000000 2.5517000000 0.7735000000
-0.4908000000 5.0297000000 1.0624000000
-0.4911000000 5.0386000000 1.0581000000
-0.4918000000 3.9282000000 1.4288000000
-0.4924000000 6.2857000000 0.4588000000
-0.4929000000 6.7573000000 0.2370000000
-0.4932000000 1.1212000000 0.0908000000
-0.4936000000 4.9707000000 1.0907000000
-0.4937000000 2.8456000000 0.9101000000
-0.4939000000 4.4320000000 1.3454000000
-0.4943000000 6.8348000000 0.1998000000
-0.4946000000 5.2412000000 0.9629000000
-0.4947000000 1.0488000000 0.1279000000
-0.4949000000 3.0579000000 1.0141000000
-0.4952000000 4.1009000000 1.4881000000
-0.4956000000 4.2507000000 1.4294000000
-0.4958000000 5.2384000000 0.9577000000
-0.4960000000 3.2821000000 1.1136000000
-0.4962000000 2.5592000000 0.7730000000
-0.4964000000 1.8419000000 0.4330000000
-0.4966000000 5.5338000000 0.8180000000
-0.4967000000 5.9743000000 0.6076000000
-0.4970000000 1.3786000000 0.2097000000
-0.4973000000 5.7070000000 0.7317000000
-0.4977000000 6.7914000000 0.2212000000
-0.4979000000 4.3354000000 1.3887000000
-0.4983000000 2.8000000000 0.8865000000
-0.4985000000 0.9849000000 0.0986000000
-0.4987000000 3.0144000000 0.9843000000
-0.4991000000 5.0749000000 1.0337000000
-0.4993000000 3.4018000000 1.1708000000
-0.4999000000 3.4935000000 1.2198000000
-0.5004000000 5.1977000000 0.9751000000
-0.5008000000 1.5032000000 0.2654000000
-0.5013000000 0.8955000000 0.0563000000
-0.5026000000 4.8934000000 1.1158000000
-0.5045000000 5.2448000000 0.9476000000
-0.5063000000 1.7066000000 0.3602000000
-0.7396000000 6.3408000000 0.2352000000
-0.7413000000 5.5134000000 0.6263000000
-0.7417000000 1.1300000000 0.0454000000
-0.7419000000 6.3199000000 0.2395000000
-0.7423000000 4.8702000000 0.9282000000
-0.7431000000 7.0931000000 0.0199000000
-0.7433000000 6.5487000000 0.1358000000
-0.7438000000 6.7261000000 0.1208000000
-0.7444000000 2.5666000000 0.5698000000
-0.7445000000 2.4293000000 0.5060000000
-0.7447000000 2.0814000000 0.3354000000
-0.7451000000 5.8052000000 0.4845000000
-0.7454000000 6.5529000000 0.1307000000
-0.7455000000 5.7061000000 0.5303000000
-0.7460000000 3.6169000000 1.0682000000
-0.7462000000 6.5160000000 0.1499000000
-0.7463000000 2.6962000000 0.6325000000
-0.7466000000 1.7658000000 0.1873000000
-0.7470000000 2.3163000000 0.4486000000
-0.7473000000 3.3201000000 0.9321000000
-0.7476000000 1.3919000000 0.0919000000
-0.7487000000 4.3391000000 1.1834000000
-0.7493000000 1.2051000000 0.0687000000
-0.7495000000 2.7382000000 0.6516000000
-0.7496000000 1.1906000000 0.0605000000
-0.7502000000 4.0143000000 1.2568000000
-0.7510000000 1.7275000000 0.1662000000
-0.7527000000 1.1471000000 0.0452000000
-0.7549000000 1.5586000000 0.0827000000
-0.9880000000 2.9795000000 0.5687000000
-0.9891000000 2.5815000000 0.3751000000
-0.9907000000 3.0412000000 0.5995000000
-0.9911000000 5.7714000000 0.3003000000
-0.9917000000 5.2665000000 0.5346000000
-0.9919000000 3.7418000000 0.9298000000
-0.9922000000 3.8912000000 1.0014000000
-0.9926000000 5.4650000000 0.4424000000
-0.9929000000 3.9694000000 1.0367000000
-0.9932000000 4.5072000000 0.8990000000
-0.9934000000 5.5572000000 0.3952000000
-0.9938000000 4.7601000000 0.7766000000
-0.9947000000 3.0494000000 0.5941000000
-0.9949000000 2.2004000000 0.1901000000
-0.9951000000 3.0305000000 0.5899000000
-0.9954000000 4.0280000000 1.0586000000
-0.9961000000 2.7078000000 0.4309000000
-0.9964000000 4.1671000000 1.0617000000
-0.9967000000 4.6146000000 0.8418000000
-0.9971000000 3.8819000000 0.9873000000
-0.9974000000 2.2679000000 0.2258000000
-0.9978000000 4.1434000000 1.0556000000
-0.9986000000 5.5226000000 0.4085000000
-0.9995000000 6.6171000000 0.0390000000
-0.9999000000 2.3942000000 0.2811000000
-1.0001000000 3.6873000000 0.8909000000
-1.0018000000 3.1164000000 0.6229000000
-1.0024000000 1.7376000000 0.0419000000
-1.0042000000 3.4665000000 0.7845000000
-1.2409000000 5.2892000000 0.3241000000
-1.2418000000 2.6890000000 0.2179000000
-1.2427000000 4.2631000000 0.8080000000
-1.2428000000 3.0750000000 0.3994000000
-1.2434000000 6.2255000000 0.0188000000
-1.2437000000 2.7522000000 0.2460000000
-1.2446000000 4.8543000000 0.5252000000
-1.2451000000 3.6536000000 0.6796000000
-1.2454000000 5.6469000000 0.1494000000
-1.2457000000 6.0133000000 0.0518000000
-1.2464000000 3.9317000000 0.8079000000
-1.2468000000 2.9408000000 0.3404000000
-1.2473000000 5.4916000000 0.2221000000
-1.2477000000 3.8405000000 0.7657000000
-1.2480000000 5.4526000000 0.2427000000
-1.2482000000 5.2173000000 0.3484000000
-1.2486000000 2.0600000000 0.0664000000
-1.2487000000 5.2470000000 0.3364000000
-1.2492000000 5.2368000000 0.3364000000
-1.2502000000 5.1231000000 0.3928000000
-1.2510000000 2.3841000000 0.1453000000
-1.2560000000 3.2286000000 0.4685000000
-1.4892000000 5.1744000000 0.1699000000
-1.4911000000 5.5689000000 0.0575000000
-1.4917000000 5.1022000000 0.2025000000
-1.4932000000 4.4250000000 0.5321000000
-1.4942000000 3.6471000000 0.4676000000
-1.4947000000 3.2538000000 0.2878000000
-1.4950000000 4.0299000000 0.6527000000
-1.4952000000 4.6669000000 0.4109000000
-1.4955000000 5.6830000000 0.0733000000
-1.4957000000 3.8750000000 0.5744000000
-1.4965000000 2.4605000000 0.0515000000
-1.4970000000 5.1302000000 0.1825000000
-1.4973000000 2.5367000000 0.0070000000
-1.4975000000 4.1262000000 0.6467000000
-1.4983000000 2.9742000000 0.1417000000
-1.4988000000 5.7684000000 0.0302000000
-1.4996000000 4.0867000000 0.6525000000
-1.5008000000 3.8631000000 0.5639000000
-1.5015000000 5.0522000000 0.2184000000
-1.5025000000 3.7641000000 0.5186000000
-1.5058000000 3.1185000000 0.2016000000
-1.7412000000 3.1082000000 0.0835000000
-1.7420000000 3.6963000000 0.2912000000
-1.7437000000 3.5703000000 0.2292000000
-1.7448000000 3.3439000000 0.1209000000
-1.7454000000 3.6954000000 0.2863000000
-1.7458000000 2.9399000000 0.0771000000
-1.7473000000 2.8358000000 0.0229000000
-1.7485000000 4.9739000000 0.1277000000
-1.7494000000 3.9448000000 0.3963000000
-1.7499000000 2.9685000000 0.0855000000
-1.7522000000 2.9858000000 0.0191000000
-1.9938000000 3.7354000000 0.0967000000
-1.9946000000 4.0634000000 0.2400000000
-1.9957000000 3.2617000000 0.0200000000
-1.9962000000 4.8741000000 0.0455000000
-1.9974000000 4.0352000000 0.2372000000
-1.9985000000 3.6661000000 0.1404000000
