2.7582000000 4.7975000000 1.0250000000
2.7581000000 3.4007000000 1.5885000000
2.7579000000 3.2372000000 1.6570000000
2.7577000000 3.2115000000 1.6648000000
2.7576000000 0.2074000000 0.1814000000
2.7573000000 1.5144000000 1.1294000000
2.7571000000 1.7238000000 1.2104000000
2.7571000000 3.5264000000 1.5423000000
2.7567000000 4.0868000000 1.3150000000
2.7565000000 4.9268000000 0.9307000000
2.7564000000 0.4464000000 0.3700000000
2.7562000000 6.0516000000 0.0507000000
2.7561000000 0.6984000000 0.5703000000
2.7558000000 4.1619000000 1.2959000000
2.7556000000 5.4594000000 0.5191000000
2.7555000000 6.0227000000 0.0729000000
2.7555000000 3.7129000000 1.4742000000
2.7554000000 2.1935000000 1.4022000000
2.7553000000 2.4037000000 1.4829000000
2.7553000000 4.8231000000 1.0099000000
2.7552000000 3.7948000000 1.4375000000
2.7552000000 4.5194000000 1.1531000000
2.7550000000 4.1374000000 1.3000000000
2.7549000000 4.8895000000 0.9549000000
2.7545000000 4.8464000000 0.9865000000
2.7544000000 0.0426000000 0.0519000000
2.7543000000 5.4840000000 0.5023000000
2.7542000000 1.2934000000 1.0212000000
2.7535000000 3.7535000000 1.4599000000
2.7534000000 3.5604000000 1.5298000000
2.7534000000 5.6264000000 0.3857000000
2.7532000000 3.9682000000 1.3704000000
2.7532000000 1.1058000000 0.8861000000
2.7530000000 2.3716000000 1.4702000000
2.7530000000 2.7340000000 1.6159000000
2.7529000000 1.4216000000 1.0880000000
2.7528000000 3.2819000000 1.6415000000
2.7527000000 1.6105000000 1.1741000000
2.7526000000 0.5622000000 0.4556000000
2.7525000000 4.3769000000 1.2157000000
2.7525000000 1.1825000000 0.9502000000
2.7523000000 3.5141000000 1.5472000000
2.7517000000 3.5941000000 1.5231000000
2.7515000000 3.0634000000 1.7146000000
2.7513000000 4.2306000000 1.2652000000
2.7513000000 3.4501000000 1.5768000000
2.7512000000 5.0461000000 0.8384000000
2.7510000000 3.3454000000 1.6164000000
2.7510000000 1.6837000000 1.2000000000
2.7509000000 6.0218000000 0.0729000000
2.7506000000 1.1595000000 0.9313000000
2.7505000000 1.9973000000 1.3271000000
2.7505000000 5.6857000000 0.3354000000
2.7503000000 0.7339000000 0.5917000000
2.7502000000 4.5805000000 1.1387000000
2.7500000000 4.0368000000 1.3528000000
2.7499000000 1.3523000000 1.0600000000
2.7498000000 1.0934000000 0.8811000000
2.7497000000 4.0648000000 1.3331000000
2.7495000000 2.4739000000 1.5123000000
2.7493000000 4.8341000000 0.9959000000
2.7489000000 1.1375000000 0.9137000000
2.7488000000 3.9381000000 1.3873000000
2.7478000000 0.7113000000 0.5724000000
2.7476000000 2.5375000000 1.5359000000
2.7474000000 3.2165000000 1.6718000000
2.7461000000 0.8108000000 0.6568000000
2.7433000000 5.1173000000 0.7836000000
2.5130000000 4.6053000000 1.1850000000
2.5111000000 5.1980000000 0.7144000000
2.5105000000 4.4266000000 1.3129000000
2.5105000000 0.9796000000 0.7928000000
2.5099000000 5.3858000000 0.5755000000
2.5089000000 3.4293000000 1.7453000000
2.5086000000 0.2043000000 0.1735000000
2.5086000000 4.8249000000 1.0171000000
2.5085000000 5.5183000000 0.4645000000
2.5085000000 4.5692000000 1.2125000000
2.5083000000 3.2544000000 1.8185000000
2.5080000000 5.8575000000 0.2025000000
2.5079000000 4.3649000000 1.3607000000
2.5077000000 5.0651000000 0.8208000000
2.5073000000 5.4098000000 0.5507000000
2.5067000000 5.2879000000 0.6520000000
2.5065000000 2.0119000000 1.4954000000
2.5064000000 4.7181000000 1.1001000000
2.5063000000 5.8505000000 0.2040000000
2.5063000000 4.0050000000 1.5272000000
2.5062000000 1.9723000000 1.4821000000
2.5062000000 6.1010000000 0.0863000000
2.5061000000 4.6588000000 1.1456000000
2.5061000000 5.8808000000 0.1871000000
2.5059000000 4.3481000000 1.3740000000
2.5058000000 4.6515000000 1.1484000000
2.5058000000 0.9460000000 0.7586000000
2.5057000000 4.0687000000 1.5007000000
2.5055000000 2.7836000000 1.8033000000
2.5054000000 5.1139000000 0.7866000000
2.5053000000 6.0318000000 0.0654000000
2.5053000000 1.8460000000 1.4260000000
2.5052000000 3.0348000000 1.8810000000
2.5051000000 3.3676000000 1.7804000000
2.5050000000 1.4824000000 1.1857000000
2.5049000000 3.3858000000 1.7751000000
2.5049000000 4.2200000000 1.4429000000
2.5047000000 2.7656000000 1.7979000000
2.5046000000 0.4431000000 0.3678000000
2.5045000000 2.5591000000 1.7100000000
2.5045000000 5.9530000000 0.1258000000
2.5043000000 5.2831000000 0.6558000000
2.5043000000 4.2121000000 1.4429000000
2.5041000000 0.0449000000 0.0563000000
2.5041000000 2.4522000000 1.6672000000
2.5040000000 4.4083000000 1.3250000000
2.5037000000 2.0464000000 1.5109000000
2.5035000000 5.6725000000 0.3513000000
2.5034000000 0.8445000000 0.6767000000
2.5034000000 1.7168000000 1.3529000000
2.5033000000 3.5850000000 1.6939000000
2.5033000000 5.2283000000 0.6958000000
2.5031000000 0.4270000000 0.3555000000
2.5028000000 3.6162000000 1.6823000000
2.5025000000 3.2469000000 1.8254000000
2.5027000000 4.2512000000 1.4223000000
2.5024000000 0.8376000000 0.6764000000
2.5023000000 0.3187000000 0.2727000000
2.5021000000 5.2501000000 0.6712000000
2.5020000000 3.0388000000 1.8920000000
2.5020000000 1.4722000000 1.1767000000
2.5019000000 1.5677000000 1.2479000000
2.5018000000 0.6940000000 0.5714000000
2.5017000000 3.2702000000 1.8134000000
2.5017000000 4.6565000000 1.1511000000
2.5016000000 0.1160000000 0.1110000000
2.5015000000 0.7312000000 0.5982000000
2.5015000000 0.6250000000 0.5070000000
2.5014000000 1.1666000000 0.9360000000
2.5012000000 1.5622000000 1.2456000000
2.5010000000 1.1504000000 0.9227000000
2.5009000000 4.6606000000 1.1378000000
2.5004000000 1.4082000000 1.1298000000
2.5003000000 3.3338000000 1.7896000000
2.5003000000 3.9764000000 1.5438000000
2.5000000000 2.8328000000 1.8248000000
2.4999000000 4.6669000000 1.1465000000
2.4999000000 0.5404000000 0.4472000000
2.4998000000 4.6301000000 1.1673000000
2.4998000000 0.9995000000 0.8028000000
2.4995000000 0.9761000000 0.7883000000
2.4994000000 3.2978000000 1.8083000000
2.4990000000 1.7626000000 1.3839000000
2.4987000000 0.3833000000 0.3262000000
2.4980000000 2.1189000000 1.5427000000
2.4971000000 2.4592000000 1.6817000000
2.4968000000 1.3499000000 1.0810000000
2.4927000000 0.0197000000 0.0348000000
2.2628000000 4.6878000000 1.1213000000
2.2627000000 4.8147000000 1.0182000000
2.2616000000 3.7851000000 1.7734000000
2.2615000000 1.1240000000 0.9036000000
2.2610000000 1.6452000000 1.3146000000
2.2608000000 1.1641000000 0.9344000000
2.2600000000 5.9224000000 0.1467000000
2.2599000000 1.2808000000 1.0277000000
2.2596000000 2.7708000000 1.9631000000
2.2595000000 1.0548000000 0.8457000000
2.2593000000 0.2653000000 0.2306000000
2.2583000000 2.1220000000 1.6726000000
2.2582000000 6.0002000000 0.0954000000
2.2581000000 4.7416000000 1.0799000000
2.2577000000 4.9842000000 0.8881000000
2.2576000000 3.6312000000 1.8385000000
2.2576000000 1.0704000000 0.8648000000
2.2575000000 2.6814000000 1.9239000000
2.2569000000 1.1198000000 0.8977000000
2.2568000000 0.7203000000 0.5846000000
2.2568000000 1.2235000000 0.9765000000
2.2567000000 5.3949000000 0.5640000000
2.2565000000 1.9467000000 1.5528000000
2.2565000000 4.4465000000 1.3100000000
2.2564000000 3.4149000000 1.9302000000
2.2561000000 4.1904000000 1.5086000000
2.2561000000 4.4090000000 1.3388000000
2.2560000000 2.3907000000 1.8124000000
2.2560000000 2.0382000000 1.6260000000
2.2560000000 0.3528000000 0.3030000000
2.2559000000 4.7324000000 1.0850000000
2.2554000000 4.7747000000 1.0515000000
2.2553000000 5.4668000000 0.5126000000
2.2553000000 3.2591000000 1.9859000000
2.2550000000 1.8103000000 1.4393000000
2.2550000000 1.0972000000 0.8806000000
2.2548000000 4.3665000000 1.3705000000
2.2545000000 5.4522000000 0.5191000000
2.2545000000 0.8908000000 0.7176000000
2.2543000000 1.7353000000 1.3831000000
2.2543000000 3.0830000000 2.0418000000
2.2542000000 5.3287000000 0.6153000000
2.2541000000 3.3667000000 1.9498000000
2.2539000000 6.0751000000 0.0294000000
2.2538000000 3.7105000000 1.8157000000
2.2538000000 2.6481000000 1.9158000000
2.2535000000 1.5594000000 1.2459000000
2.2533000000 2.9251000000 2.0271000000
2.2532000000 3.4039000000 1.9284000000
2.2531000000 3.4016000000 1.9365000000
2.2530000000 4.1444000000 1.5465000000
2.2527000000 3.9480000000 1.6871000000
2.2526000000 1.3334000000 1.0658000000
2.2524000000 1.2548000000 1.0039000000
2.2519000000 4.3781000000 1.3641000000
2.2517000000 1.0862000000 0.8739000000
2.2516000000 5.8470000000 0.2099000000
2.2515000000 0.3102000000 0.2625000000
2.2515000000 3.0964000000 2.0529000000
2.2513000000 1.7317000000 1.3821000000
2.2513000000 6.0877000000 0.0981000000
2.2512000000 5.9396000000 0.1328000000
2.2511000000 1.4338000000 1.1441000000
2.2511000000 4.8476000000 0.9960000000
2.2510000000 1.1489000000 0.9235000000
2.2509000000 3.3342000000 1.9594000000
2.2508000000 3.7768000000 1.7900000000
2.2508000000 0.5658000000 0.4612000000
2.2505000000 0.2186000000 0.1870000000
2.2503000000 0.8215000000 0.6655000000
2.2502000000 2.6681000000 1.9299000000
2.2499000000 5.3108000000 0.6312000000
2.2496000000 2.1819000000 1.7173000000
2.2496000000 1.7086000000 1.3630000000
2.2493000000 4.1092000000 1.5744000000
2.2487000000 0.7901000000 0.6389000000
2.2485000000 0.7856000000 0.6361000000
2.2483000000 2.2204000000 1.7499000000
2.2483000000 0.1228000000 0.1166000000
2.2482000000 3.7981000000 1.7671000000
2.2482000000 3.7569000000 1.7971000000
2.2479000000 3.4917000000 1.9031000000
2.2478000000 4.4597000000 1.3013000000
2.2469000000 1.4450000000 1.1529000000
2.2467000000 0.1177000000 0.1139000000
2.2466000000 2.7076000000 1.9422000000
2.2464000000 2.4133000000 1.8316000000
2.2458000000 1.0025000000 0.8031000000
2.2443000000 1.0941000000 0.8830000000
2.0142000000 5.7258000000 0.3059000000
2.0130000000 5.3985000000 0.5624000000
2.0128000000 4.7221000000 1.1006000000
2.0110000000 2.8919000000 2.1848000000
2.0109000000 5.7424000000 0.2929000000
2.0106000000 5.9272000000 0.1440000000
2.0100000000 4.4335000000 1.3203000000
2.0098000000 4.2984000000 1.4263000000
2.0096000000 5.3304000000 0.6152000000
2.0090000000 4.7890000000 1.0426000000
2.0087000000 3.4212000000 2.0828000000
2.0083000000 3.1304000000 2.2078000000
2.0082000000 0.8243000000 0.6626000000
2.0080000000 5.6975000000 0.3252000000
2.0079000000 0.5681000000 0.4688000000
2.0078000000 1.0351000000 0.8317000000
2.0073000000 5.2024000000 0.7147000000
2.0073000000 1.4657000000 1.1731000000
2.0071000000 5.1361000000 0.7681000000
2.0068000000 2.2895000000 1.8198000000
2.0066000000 1.2362000000 0.9955000000
2.0066000000 2.4321000000 1.9333000000
2.0065000000 5.5118000000 0.4702000000
2.0063000000 4.9862000000 0.8861000000
2.0061000000 0.2900000000 0.2502000000
2.0061000000 5.1232000000 0.7793000000
2.0058000000 5.4106000000 0.5530000000
2.0058000000 4.1662000000 1.5338000000
2.0057000000 5.9251000000 0.1472000000
2.0057000000 4.3653000000 1.3766000000
2.0055000000 4.2953000000 1.4282000000
2.0054000000 1.0600000000 0.8579000000
2.0053000000 2.4871000000 1.9758000000
2.0053000000 3.1290000000 2.2086000000
2.0052000000 3.7517000000 1.8584000000
2.0050000000 1.2423000000 0.9975000000
2.0048000000 1.2890000000 1.0347000000
2.0048000000 4.6241000000 1.1775000000
2.0044000000 2.8604000000 2.1732000000
2.0042000000 3.3922000000 2.0993000000
2.0042000000 0.0780000000 0.0845000000
2.0043000000 5.3536000000 0.5962000000
2.0041000000 0.6647000000 0.5398000000
2.0040000000 3.2290000000 2.1719000000
2.0040000000 5.2563000000 0.6731000000
2.0040000000 3.4878000000 2.0480000000
2.0038000000 0.6692000000 0.5403000000
2.0037000000 0.8742000000 0.7083000000
2.0038000000 3.2291000000 2.1687000000
2.0036000000 6.0444000000 0.0564000000
2.0034000000 5.5936000000 0.4111000000
2.0033000000 6.0238000000 0.0763000000
2.0033000000 0.3170000000 0.2731000000
2.0032000000 3.5262000000 2.0209000000
2.0032000000 3.2322000000 2.1731000000
2.0031000000 4.2899000000 1.4367000000
2.0030000000 4.4065000000 1.3471000000
2.0029000000 1.1030000000 0.8865000000
2.0027000000 0.6119000000 0.5013000000
2.0026000000 2.1502000000 1.7103000000
2.0025000000 2.0525000000 1.6347000000
2.0026000000 0.0739000000 0.0747000000
2.0025000000 3.4641000000 2.0673000000
2.0023000000 1.6688000000 1.3309000000
2.0022000000 2.0713000000 1.6480000000
2.0022000000 2.1299000000 1.6910000000
2.0021000000 3.0048000000 2.2185000000
2.0021000000 1.6689000000 1.3271000000
2.0019000000 3.6776000000 1.9152000000
2.0018000000 0.3424000000 0.2908000000
2.0018000000 3.7809000000 1.8346000000
2.0018000000 3.8952000000 1.7452000000
2.0017000000 2.1827000000 1.7375000000
2.0014000000 1.9237000000 1.5260000000
2.0013000000 3.9844000000 1.6800000000
2.0012000000 2.2266000000 1.7666000000
2.0010000000 0.3956000000 0.3282000000
2.0010000000 0.0997000000 0.0960000000
2.0009000000 0.8456000000 0.6795000000
2.0009000000 5.4482000000 0.5254000000
2.0005000000 0.4228000000 0.3513000000
2.0004000000 1.4162000000 1.1358000000
2.0003000000 4.8212000000 1.0160000000
1.9999000000 4.4400000000 1.3205000000
1.9996000000 0.4734000000 0.3908000000
1.9995000000 1.2421000000 0.9954000000
1.9990000000 2.4125000000 1.9107000000
1.9989000000 3.4498000000 2.0732000000
1.9988000000 1.8700000000 1.4888000000
1.9985000000 1.1766000000 0.9469000000
1.9984000000 0.2009000000 0.1708000000
1.9983000000 2.8880000000 2.1838000000
1.9977000000 2.0178000000 1.6037000000
1.9975000000 0.8660000000 0.7011000000
1.9972000000 4.9154000000 0.9425000000
1.9970000000 1.7823000000 1.4209000000
1.9962000000 2.9484000000 2.2197000000
1.9929000000 2.0853000000 1.6608000000
1.7613000000 3.1349000000 2.2903000000
1.7610000000 5.2965000000 0.6482000000
1.7604000000 2.2928000000 1.8174000000
1.7597000000 4.6781000000 1.1288000000
1.7592000000 4.9837000000 0.8926000000
1.7588000000 2.0501000000 1.6348000000
1.7586000000 5.2119000000 0.7091000000
1.7583000000 4.7607000000 1.0614000000
1.7580000000 2.7566000000 2.1821000000
1.7579000000 0.6267000000 0.5087000000
1.7574000000 2.0577000000 1.6389000000
1.7573000000 2.3317000000 1.8508000000
1.7573000000 3.7234000000 1.8830000000
1.7572000000 4.7108000000 1.1037000000
1.7568000000 3.4320000000 2.1119000000
1.7568000000 4.4428000000 1.3116000000
1.7566000000 4.4802000000 1.2824000000
1.7565000000 4.9224000000 0.9363000000
1.7564000000 3.9782000000 1.6811000000
1.7563000000 4.9980000000 0.8832000000
1.7562000000 3.3396000000 2.1807000000
1.7560000000 5.7241000000 0.3121000000
1.7559000000 4.4847000000 1.2812000000
1.7558000000 4.4024000000 1.3484000000
1.7557000000 0.2038000000 0.1862000000
1.7556000000 1.1126000000 0.8919000000
1.7555000000 3.2771000000 2.2248000000
1.7552000000 0.8191000000 0.6596000000
1.7551000000 2.1266000000 1.6874000000
1.7550000000 3.4907000000 2.0623000000
1.7549000000 3.8565000000 1.7777000000
1.7548000000 1.8874000000 1.4953000000
1.7548000000 3.1521000000 2.3089000000
1.7546000000 1.2089000000 0.9696000000
1.7544000000 4.5730000000 1.2160000000
1.7543000000 5.1849000000 0.7245000000
1.7540000000 5.4539000000 0.5216000000
1.7540000000 1.1618000000 0.9360000000
1.7538000000 4.5251000000 1.2523000000
1.7538000000 2.9419000000 2.3041000000
1.7536000000 4.7514000000 1.0665000000
1.7535000000 6.0317000000 0.0651000000
1.7536000000 2.6194000000 2.0787000000
1.7534000000 0.7851000000 0.6393000000
1.7534000000 3.0523000000 2.3106000000
1.7533000000 2.4144000000 1.9187000000
1.7532000000 4.8873000000 0.9618000000
1.7532000000 5.7261000000 0.3056000000
1.7531000000 2.5473000000 2.0190000000
1.7530000000 4.5082000000 1.2633000000
1.7530000000 1.2833000000 1.0223000000
1.7529000000 0.2043000000 0.1827000000
1.7528000000 4.1889000000 1.5114000000
1.7528000000 4.2176000000 1.4900000000
1.7526000000 3.7559000000 1.8540000000
1.7524000000 0.3658000000 0.3111000000
1.7523000000 1.7533000000 1.4038000000
1.7523000000 3.5710000000 1.9985000000
1.7522000000 2.3901000000 1.8922000000
1.7522000000 0.1906000000 0.1719000000
1.7521000000 5.3957000000 0.5656000000
1.7519000000 0.3530000000 0.2983000000
1.7518000000 5.2707000000 0.6668000000
1.7518000000 2.4886000000 1.9747000000
1.7515000000 6.0303000000 0.0625000000
1.7515000000 3.4769000000 2.0709000000
1.7513000000 5.6075000000 0.4021000000
1.7511000000 1.1586000000 0.9310000000
1.7510000000 0.1156000000 0.1116000000
1.7510000000 2.4718000000 1.9653000000
1.7504000000 1.0347000000 0.8323000000
1.7495000000 5.0908000000 0.8032000000
1.7495000000 0.0362000000 0.0456000000
1.7494000000 4.0197000000 1.6473000000
1.7493000000 0.1485000000 0.1331000000
1.7491000000 4.6923000000 1.1175000000
1.7490000000 2.4836000000 1.9670000000
1.7490000000 2.7015000000 2.1395000000
1.7490000000 3.9380000000 1.7111000000
1.7482000000 0.1986000000 0.1766000000
1.7480000000 0.5054000000 0.4157000000
1.7475000000 0.0491000000 0.0572000000
1.5153000000 4.9856000000 0.8914000000
1.5136000000 3.7806000000 1.8344000000
1.5116000000 2.5923000000 2.0453000000
1.5105000000 2.7566000000 2.1361000000
1.5101000000 5.7599000000 0.2797000000
1.5097000000 0.7200000000 0.5860000000
1.5094000000 5.2092000000 0.7109000000
1.5081000000 3.4431000000 2.0701000000
1.5079000000 4.9485000000 0.9146000000
1.5075000000 3.3920000000 2.0979000000
1.5074000000 3.2115000000 2.1770000000
1.5074000000 4.3865000000 1.3558000000
1.5069000000 4.3346000000 1.4015000000
1.5069000000 2.7115000000 2.1002000000
1.5064000000 3.2544000000 2.1585000000
1.5063000000 3.0562000000 2.2270000000
1.5062000000 2.2083000000 1.7493000000
1.5060000000 5.4932000000 0.4951000000
1.5056000000 4.5426000000 1.2340000000
1.5055000000 5.3385000000 0.6088000000
1.5055000000 4.3895000000 1.3551000000
1.5054000000 3.5727000000 1.9838000000
1.5052000000 4.7453000000 1.0727000000
1.5051000000 2.4667000000 1.9575000000
1.5050000000 1.8818000000 1.4995000000
1.5048000000 3.9071000000 1.7405000000
1.5046000000 5.1348000000 0.7756000000
1.5045000000 4.7237000000 1.0881000000
1.5044000000 3.1728000000 2.1890000000
1.5041000000 0.9019000000 0.7289000000
1.5041000000 0.0830000000 0.0863000000
1.5040000000 0.5552000000 0.4583000000
1.5040000000 2.3142000000 1.8483000000
1.5036000000 2.6432000000 2.0711000000
1.5035000000 2.0780000000 1.6489000000
1.5034000000 3.3717000000 2.1138000000
1.5033000000 4.2520000000 1.4574000000
1.5033000000 4.6750000000 1.1335000000
1.5032000000 4.5404000000 1.2376000000
1.5029000000 4.4711000000 1.2920000000
1.5028000000 2.4724000000 1.9652000000
1.5027000000 4.7990000000 1.0327000000
1.5023000000 1.9639000000 1.5594000000
1.5022000000 3.5832000000 1.9732000000
1.5021000000 3.7935000000 1.8242000000
1.5020000000 2.4085000000 1.9097000000
1.5019000000 5.5304000000 0.4571000000
1.5018000000 3.7096000000 1.8916000000
1.5018000000 2.8319000000 2.1549000000
1.5012000000 4.1126000000 1.5769000000
1.5012000000 1.8465000000 1.4669000000
1.5009000000 2.2079000000 1.7502000000
1.5008000000 3.1626000000 2.1875000000
1.5007000000 4.7950000000 1.0344000000
1.5005000000 1.8757000000 1.4939000000
1.5003000000 0.0373000000 0.0486000000
1.5002000000 3.2868000000 2.1379000000
1.4999000000 2.4107000000 1.9173000000
1.4997000000 2.0845000000 1.6598000000
1.4991000000 2.0031000000 1.6020000000
1.4990000000 1.7348000000 1.3798000000
1.4989000000 2.8785000000 2.1728000000
1.4988000000 3.6451000000 1.9424000000
1.4984000000 2.2807000000 1.8100000000
1.4978000000 4.7213000000 1.0955000000
1.4974000000 1.2487000000 1.0047000000
1.4971000000 2.1533000000 1.7094000000
1.4970000000 3.0140000000 2.2081000000
1.4960000000 6.0965000000 0.0863000000
1.4953000000 0.3719000000 0.3187000000
1.4953000000 0.9740000000 0.7821000000
1.4943000000 0.5766000000 0.4729000000
1.2608000000 0.6488000000 0.5307000000
1.2604000000 3.7367000000 1.8035000000
1.2603000000 4.7762000000 1.0566000000
1.2595000000 5.0873000000 0.8118000000
1.2593000000 4.1598000000 1.5375000000
1.2590000000 5.0187000000 0.8608000000
1.2589000000 2.1115000000 1.6635000000
1.2586000000 5.4435000000 0.5225000000
1.2585000000 0.8288000000 0.6714000000
1.2585000000 4.4598000000 1.3013000000
1.2580000000 5.3848000000 0.5756000000
1.2579000000 4.9814000000 0.8901000000
1.2576000000 1.8557000000 1.4789000000
1.2576000000 3.5986000000 1.8504000000
1.2572000000 4.7955000000 1.0380000000
1.2571000000 1.0897000000 0.8770000000
1.2571000000 2.6816000000 1.9255000000
1.2570000000 2.6449000000 1.9106000000
1.2569000000 3.7843000000 1.7813000000
1.2569000000 1.6764000000 1.3361000000
1.2567000000 5.5715000000 0.4272000000
1.2566000000 5.8724000000 0.1914000000
1.2565000000 1.5937000000 1.2725000000
1.2560000000 2.8492000000 1.9930000000
1.2558000000 4.7201000000 1.0957000000
1.2557000000 2.0233000000 1.6053000000
1.2556000000 4.3337000000 1.4001000000
1.2556000000 0.2873000000 0.2396000000
1.2555000000 1.8164000000 1.4460000000
1.2555000000 2.3082000000 1.7852000000
1.2554000000 2.6549000000 1.9191000000
1.2553000000 4.9560000000 0.9117000000
1.2552000000 4.3677000000 1.3686000000
1.2549000000 1.1312000000 0.9049000000
1.2548000000 2.1545000000 1.6996000000
1.2546000000 4.9495000000 0.9161000000
1.2545000000 1.3924000000 1.1105000000
1.2543000000 4.6543000000 1.1444000000
1.2543000000 5.8329000000 0.2207000000
1.2542000000 3.1388000000 2.0374000000
1.2541000000 5.3720000000 0.5852000000
1.2541000000 0.4267000000 0.3544000000
1.2540000000 4.4933000000 1.2757000000
1.2540000000 4.3280000000 1.4012000000
1.2538000000 3.6007000000 1.8509000000
1.2536000000 3.3650000000 1.9406000000
1.2535000000 1.0545000000 0.8429000000
1.2535000000 3.0540000000 2.0488000000
1.2534000000 3.1343000000 2.0329000000
1.2532000000 0.7259000000 0.5926000000
1.2531000000 3.6686000000 1.8220000000
1.2533000000 3.4579000000 1.9088000000
1.2530000000 5.6740000000 0.3448000000
1.2530000000 3.0666000000 2.0497000000
1.2530000000 1.3838000000 1.1095000000
1.2528000000 1.2975000000 1.0459000000
1.2528000000 0.7569000000 0.6167000000
1.2526000000 4.6476000000 1.1548000000
1.2524000000 0.3128000000 0.2670000000
1.2523000000 2.2706000000 1.7560000000
1.2524000000 1.6438000000 1.3129000000
1.2523000000 3.9494000000 1.6900000000
1.2522000000 0.3626000000 0.3069000000
1.2522000000 5.0862000000 0.8084000000
1.2521000000 3.7896000000 1.7767000000
1.2520000000 1.4716000000 1.1819000000
1.2520000000 3.2455000000 1.9921000000
1.2517000000 3.0490000000 2.0512000000
1.2517000000 1.4051000000 1.1197000000
1.2514000000 1.1783000000 0.9520000000
1.2514000000 5.8537000000 0.2084000000
1.2513000000 2.3070000000 1.7767000000
1.2512000000 3.2500000000 1.9873000000
1.2510000000 4.4676000000 1.2918000000
1.2511000000 1.6695000000 1.3324000000
1.2510000000 0.8428000000 0.6855000000
1.2509000000 4.0669000000 1.6086000000
1.2508000000 0.9301000000 0.7476000000
1.2508000000 2.3649000000 1.7960000000
1.2508000000 0.8016000000 0.6479000000
1.2505000000 0.2552000000 0.2212000000
1.2505000000 1.8750000000 1.4953000000
1.2503000000 4.3844000000 1.3562000000
1.2503000000 0.4754000000 0.3977000000
1.2502000000 3.6261000000 1.8363000000
1.2500000000 3.3602000000 1.9340000000
1.2500000000 1.3177000000 1.0551000000
1.2498000000 4.8796000000 0.9701000000
1.2496000000 2.7546000000 1.9522000000
1.2494000000 0.7784000000 0.6311000000
1.2491000000 2.0456000000 1.6257000000
1.2490000000 0.2424000000 0.2106000000
1.2488000000 0.9256000000 0.7447000000
1.2485000000 5.2269000000 0.7008000000
1.2481000000 5.3721000000 0.5813000000
1.2480000000 5.5764000000 0.4242000000
1.2473000000 2.0922000000 1.6493000000
1.2457000000 4.1630000000 1.5365000000
1.2431000000 0.4141000000 0.3478000000
1.2430000000 3.8637000000 1.7236000000
1.0143000000 5.9937000000 0.0957000000
1.0100000000 4.3869000000 1.3438000000
1.0093000000 4.2046000000 1.4443000000
1.0088000000 3.0495000000 1.8887000000
1.0086000000 5.3420000000 0.6120000000
1.0084000000 5.9161000000 0.1575000000
1.0080000000 3.1710000000 1.8444000000
1.0078000000 1.2075000000 0.9731000000
1.0080000000 0.7441000000 0.6061000000
1.0075000000 4.4172000000 1.3231000000
1.0075000000 5.1365000000 0.7666000000
1.0071000000 2.2954000000 1.6038000000
1.0063000000 4.4488000000 1.3059000000
1.0063000000 1.4145000000 1.1317000000
1.0062000000 1.7932000000 1.4030000000
1.0061000000 5.8571000000 0.2054000000
1.0060000000 2.7208000000 1.7722000000
1.0059000000 0.1620000000 0.1452000000
1.0057000000 5.2350000000 0.6967000000
1.0057000000 1.6798000000 1.3252000000
1.0055000000 2.5221000000 1.6953000000
1.0053000000 3.0259000000 1.8809000000
1.0048000000 0.9921000000 0.8025000000
1.0048000000 4.9799000000 0.8952000000
1.0045000000 5.2186000000 0.7053000000
1.0043000000 3.8764000000 1.5737000000
1.0043000000 3.9832000000 1.5296000000
1.0042000000 1.9026000000 1.4537000000
1.0041000000 2.4255000000 1.6576000000
1.0040000000 3.3802000000 1.7627000000
1.0039000000 0.4658000000 0.3802000000
1.0037000000 6.0756000000 0.0295000000
1.0038000000 4.4412000000 1.3052000000
1.0037000000 0.0927000000 0.0893000000
1.0036000000 5.0802000000 0.8131000000
1.0035000000 3.6519000000 1.6632000000
1.0035000000 0.8409000000 0.6718000000
1.0034000000 1.0608000000 0.8537000000
1.0034000000 4.4860000000 1.2782000000
1.0033000000 1.1887000000 0.9493000000
1.0032000000 1.5409000000 1.2366000000
1.0032000000 2.0006000000 1.4878000000
1.0031000000 5.8381000000 0.2151000000
1.0030000000 0.8631000000 0.6968000000
1.0028000000 1.5719000000 1.2565000000
1.0026000000 0.1800000000 0.1637000000
1.0027000000 5.0364000000 0.8455000000
1.0020000000 0.2069000000 0.1784000000
1.0019000000 5.0931000000 0.8075000000
1.0019000000 3.5814000000 1.6911000000
1.0020000000 5.7029000000 0.3219000000
1.0018000000 2.9001000000 1.8395000000
1.0017000000 4.2660000000 1.4018000000
1.0015000000 1.3542000000 1.0860000000
1.0015000000 0.2839000000 0.2390000000
1.0014000000 3.3472000000 1.7800000000
1.0011000000 1.2408000000 0.9954000000
1.0010000000 4.6442000000 1.1497000000
1.0007000000 6.0838000000 0.0266000000
1.0007000000 5.6830000000 0.3407000000
1.0004000000 1.4470000000 1.1581000000
0.9999000000 2.5600000000 1.7056000000
0.9998000000 4.9310000000 0.9336000000
0.9995000000 1.5494000000 1.2365000000
0.9993000000 1.4264000000 1.1432000000
0.9992000000 0.7553000000 0.6102000000
0.9991000000 3.5420000000 1.7052000000
0.9990000000 2.8300000000 1.8115000000
0.9989000000 2.5631000000 1.7045000000
0.9988000000 0.0777000000 0.0746000000
0.9988000000 2.9345000000 1.8518000000
0.9985000000 5.4851000000 0.4992000000
0.9983000000 1.8106000000 1.3994000000
0.9971000000 1.1573000000 0.9219000000
0.9970000000 1.5154000000 1.2049000000
0.9969000000 1.3864000000 1.1138000000
0.9945000000 5.4783000000 0.5027000000
0.9934000000 4.6399000000 1.1575000000
0.9927000000 0.1108000000 0.1084000000
0.7634000000 5.8679000000 0.1984000000
0.7612000000 5.3410000000 0.6135000000
0.7602000000 5.4683000000 0.5066000000
0.7598000000 4.5082000000 1.1601000000
0.7598000000 4.7058000000 1.0619000000
0.7597000000 5.8351000000 0.2185000000
0.7595000000 4.8262000000 1.0043000000
0.7589000000 3.5547000000 1.5302000000
0.7588000000 6.0319000000 0.0649000000
0.7582000000 3.8158000000 1.4310000000
0.7580000000 5.7342000000 0.2941000000
0.7578000000 0.9585000000 0.7708000000
0.7578000000 5.0978000000 0.8007000000
0.7577000000 5.4858000000 0.4946000000
0.7574000000 5.9415000000 0.1364000000
0.7571000000 3.4553000000 1.5637000000
0.7570000000 4.0178000000 1.3463000000
0.7569000000 3.3772000000 1.6025000000
0.7565000000 5.8672000000 0.1926000000
0.7563000000 2.1882000000 1.3907000000
0.7563000000 4.3103000000 1.2320000000
0.7559000000 5.6953000000 0.3293000000
0.7558000000 4.6314000000 1.1048000000
0.7556000000 5.7623000000 0.2736000000
0.7555000000 1.3642000000 1.0579000000
0.7553000000 1.1013000000 0.8915000000
0.7551000000 2.8574000000 1.6570000000
0.7550000000 4.8910000000 0.9568000000
0.7550000000 0.8677000000 0.7010000000
0.7549000000 3.3900000000 1.6007000000
0.7548000000 4.3562000000 1.2090000000
0.7547000000 1.6907000000 1.1997000000
0.7547000000 0.2997000000 0.2581000000
0.7546000000 0.0744000000 0.0793000000
0.7546000000 0.8945000000 0.7218000000
0.7545000000 3.3645000000 1.6030000000
0.7540000000 1.0250000000 0.8218000000
0.7539000000 1.6224000000 1.1720000000
0.7538000000 2.7843000000 1.6271000000
0.7537000000 2.6442000000 1.5713000000
0.7536000000 5.8815000000 0.1789000000
0.7535000000 1.0730000000 0.8587000000
0.7534000000 0.0108000000 0.0286000000
0.7534000000 4.9669000000 0.9009000000
0.7533000000 0.3223000000 0.2719000000
0.7532000000 5.7796000000 0.2570000000
0.7531000000 3.9892000000 1.3531000000
0.7530000000 1.9794000000 1.3070000000
0.7530000000 5.1365000000 0.7619000000
0.7529000000 2.0007000000 1.3175000000
0.7528000000 2.6727000000 1.5781000000
0.7528000000 0.3292000000 0.2788000000
0.7527000000 4.5041000000 1.1520000000
0.7526000000 1.5059000000 1.1228000000
0.7525000000 0.8507000000 0.6863000000
0.7523000000 1.4297000000 1.0934000000
0.7521000000 0.6782000000 0.5525000000
0.7521000000 0.5992000000 0.4923000000
0.7520000000 4.7249000000 1.0555000000
0.7518000000 1.6933000000 1.2000000000
0.7517000000 2.1356000000 1.3681000000
0.7516000000 0.1572000000 0.1418000000
0.7514000000 4.0608000000 1.3240000000
0.7513000000 2.2990000000 1.4304000000
0.7513000000 3.7537000000 1.4508000000
0.7512000000 0.4434000000 0.3669000000
0.7510000000 1.7043000000 1.2034000000
0.7509000000 0.1201000000 0.1178000000
0.7507000000 2.7496000000 1.6126000000
0.7506000000 5.6114000000 0.4005000000
0.7505000000 3.9915000000 1.3542000000
0.7505000000 0.0886000000 0.0911000000
0.7503000000 2.6197000000 1.5615000000
0.7502000000 0.2752000000 0.2306000000
0.7501000000 1.1111000000 0.8924000000
0.7500000000 1.5691000000 1.1421000000
0.7498000000 0.4396000000 0.3643000000
0.7498000000 5.7186000000 0.3165000000
0.7497000000 1.1538000000 0.9276000000
0.7495000000 5.1942000000 0.7216000000
0.7490000000 2.4658000000 1.4961000000
0.7487000000 0.2323000000 0.2027000000
0.7475000000 3.3128000000 1.6206000000
0.7462000000 2.3853000000 1.4628000000
0.7461000000 1.2100000000 0.9610000000
0.7456000000 1.5293000000 1.1283000000
0.7443000000 0.3281000000 0.2767000000
0.7438000000 0.0238000000 0.0354000000
0.5116000000 5.3166000000 0.6193000000
0.5095000000 4.2497000000 1.0872000000
0.5094000000 5.0083000000 0.7889000000
0.5092000000 4.6684000000 0.9221000000
0.5087000000 1.1571000000 0.8216000000
0.5086000000 3.2715000000 1.4731000000
0.5085000000 3.8244000000 1.2623000000
0.5083000000 4.7846000000 0.8814000000
0.5081000000 5.3154000000 0.6249000000
0.5080000000 5.0384000000 0.7810000000
0.5075000000 2.8910000000 1.4961000000
0.5075000000 4.5583000000 0.9660000000
0.5072000000 4.9843000000 0.7994000000
0.5070000000 3.7047000000 1.3033000000
0.5068000000 5.5725000000 0.4214000000
0.5068000000 4.6477000000 0.9303000000
0.5063000000 4.8940000000 0.8316000000
0.5062000000 1.1148000000 0.7993000000
0.5061000000 1.6608000000 1.0192000000
0.5060000000 3.7472000000 1.2874000000
0.5058000000 5.3900000000 0.5717000000
0.5058000000 0.9047000000 0.7039000000
0.5057000000 5.7696000000 0.2704000000
0.5056000000 2.0584000000 1.1739000000
0.5055000000 1.4890000000 0.9495000000
0.5053000000 5.7237000000 0.3083000000
0.5052000000 2.4932000000 1.3451000000
0.5053000000 0.3380000000 0.2869000000
0.5050000000 0.5560000000 0.4550000000
0.5049000000 3.8457000000 1.2395000000
0.5048000000 2.1784000000 1.2151000000
0.5048000000 2.2231000000 1.2362000000
0.5048000000 4.3806000000 1.0339000000
0.5047000000 1.9764000000 1.1441000000
0.5046000000 0.6644000000 0.5443000000
0.5044000000 1.6593000000 1.0100000000
0.5043000000 1.8557000000 1.0871000000
0.5043000000 3.2326000000 1.4826000000
0.5042000000 3.9747000000 1.1896000000
0.5041000000 0.9377000000 0.7190000000
0.5042000000 2.8516000000 1.4831000000
0.5038000000 2.8325000000 1.4774000000
0.5038000000 2.7979000000 1.4595000000
0.5037000000 5.6730000000 0.3459000000
0.5037000000 1.4474000000 0.9313000000
0.5036000000 1.7761000000 1.0603000000
0.5035000000 2.7414000000 1.4431000000
0.5035000000 5.9195000000 0.1558000000
0.5033000000 2.2378000000 1.2414000000
0.5032000000 1.0302000000 0.7721000000
0.5032000000 2.7922000000 1.4558000000
0.5031000000 2.2488000000 1.2409000000
0.5027000000 0.4847000000 0.4033000000
0.5026000000 2.1761000000 1.2134000000
0.5024000000 2.0098000000 1.1537000000
0.5024000000 3.4904000000 1.3864000000
0.5023000000 3.3520000000 1.4356000000
0.5023000000 1.5377000000 0.9652000000
0.5023000000 4.1460000000 1.1231000000
0.5022000000 5.3801000000 0.5775000000
0.5021000000 5.6689000000 0.3475000000
0.5020000000 3.5217000000 1.3675000000
0.5018000000 3.8126000000 1.2495000000
0.5018000000 3.1373000000 1.5181000000
0.5017000000 5.4544000000 0.5209000000
0.5016000000 0.3366000000 0.2835000000
0.5014000000 1.6589000000 1.0141000000
0.5015000000 4.1047000000 1.1331000000
0.5013000000 0.2405000000 0.2085000000
0.5012000000 3.6784000000 1.3024000000
0.5011000000 4.2796000000 1.0747000000
0.5010000000 0.6677000000 0.5423000000
0.5008000000 5.1521000000 0.7141000000
0.5007000000 0.7566000000 0.6107000000
0.5008000000 2.6713000000 1.4089000000
0.5006000000 0.4593000000 0.3782000000
0.5004000000 0.0019000000 0.0221000000
0.5003000000 4.5550000000 0.9642000000
0.4999000000 2.2968000000 1.2641000000
0.4994000000 2.8333000000 1.4744000000
0.4988000000 0.4014000000 0.3341000000
0.4983000000 0.9828000000 0.7411000000
0.4980000000 4.9681000000 0.8004000000
0.4979000000 0.0787000000 0.0831000000
0.4980000000 0.9039000000 0.7039000000
0.4978000000 0.2332000000 0.1971000000
0.4976000000 0.7998000000 0.6298000000
0.4968000000 1.0692000000 0.7736000000
0.4968000000 5.5762000000 0.4231000000
0.4963000000 0.0587000000 0.0606000000
0.4953000000 4.1861000000 1.1047000000
0.2638000000 1.8732000000 0.9339000000
0.2615000000 5.9309000000 0.1385000000
0.2612000000 3.1417000000 1.3599000000
0.2610000000 5.9493000000 0.1338000000
0.2596000000 1.2342000000 0.6824000000
0.2590000000 3.2767000000 1.3029000000
0.2583000000 1.7024000000 0.8624000000
0.2582000000 0.3167000000 0.2677000000
0.2581000000 4.6936000000 0.7369000000
0.2580000000 3.6964000000 1.1336000000
0.2579000000 3.4892000000 1.2203000000
0.2579000000 4.9551000000 0.6330000000
0.2578000000 5.1296000000 0.5751000000
0.2578000000 0.4246000000 0.3415000000
0.2568000000 3.5202000000 1.2048000000
0.2567000000 3.9787000000 1.0272000000
0.2566000000 4.8886000000 0.6675000000
0.2565000000 0.4244000000 0.3381000000
0.2564000000 5.4954000000 0.4267000000
0.2562000000 0.2132000000 0.1871000000
0.2560000000 2.4286000000 1.1467000000
0.2559000000 2.0808000000 1.0122000000
0.2556000000 3.4571000000 1.2258000000
0.2555000000 3.8089000000 1.0890000000
0.2553000000 0.4002000000 0.3194000000
0.2553000000 4.0283000000 1.0008000000
0.2552000000 0.2391000000 0.2102000000
0.2548000000 4.7774000000 0.7080000000
0.2547000000 3.6346000000 1.1581000000
0.2545000000 2.0765000000 1.0077000000
0.2543000000 0.4397000000 0.3519000000
0.2542000000 5.5674000000 0.3802000000
0.2540000000 4.0718000000 0.9841000000
0.2540000000 2.1201000000 1.0232000000
0.2537000000 2.0013000000 0.9731000000
0.2536000000 3.0062000000 1.3535000000
0.2536000000 3.9542000000 1.0343000000
0.2535000000 2.7749000000 1.2801000000
0.2535000000 2.6442000000 1.2274000000
0.2531000000 5.2092000000 0.5316000000
0.2531000000 0.6066000000 0.4233000000
0.2526000000 4.8362000000 0.6819000000
0.2525000000 1.3493000000 0.7217000000
0.2525000000 1.4798000000 0.7733000000
0.2524000000 3.8168000000 1.0831000000
0.2524000000 2.0118000000 0.9815000000
0.2523000000 1.4851000000 0.7749000000
0.2523000000 2.1207000000 1.0234000000
0.2522000000 4.4746000000 0.8220000000
0.2521000000 3.1857000000 1.3305000000
0.2520000000 1.9693000000 0.9656000000
0.2520000000 3.5321000000 1.1978000000
0.2519000000 1.0708000000 0.6123000000
0.2517000000 0.2297000000 0.1948000000
0.2517000000 1.2788000000 0.6923000000
0.2516000000 4.9293000000 0.6456000000
0.2516000000 3.6191000000 1.1599000000
0.2515000000 0.2520000000 0.2164000000
0.2515000000 1.1483000000 0.6418000000
0.2510000000 1.5806000000 0.8150000000
0.2507000000 0.5001000000 0.3710000000
0.2505000000 1.7591000000 0.8824000000
0.2499000000 0.3883000000 0.3124000000
0.2495000000 0.0812000000 0.0880000000
0.2489000000 1.2544000000 0.6793000000
0.2488000000 1.0075000000 0.5871000000
0.2482000000 1.5320000000 0.7929000000
0.2477000000 0.7301000000 0.4729000000
0.2469000000 2.8390000000 1.3010000000
0.2459000000 0.8066000000 0.5079000000
0.0109000000 3.5536000000 1.0257000000
0.0106000000 3.0996000000 1.1944000000
0.0105000000 4.1290000000 0.7990000000
0.0103000000 2.5074000000 1.0076000000
0.0098000000 1.1759000000 0.4873000000
0.0094000000 3.7894000000 0.9287000000
0.0085000000 4.2470000000 0.7481000000
0.0085000000 3.4837000000 1.0481000000
0.0077000000 2.3646000000 0.9503000000
0.0076000000 4.3454000000 0.7085000000
0.0073000000 2.6348000000 1.0609000000
0.0071000000 0.7703000000 0.3265000000
0.0070000000 1.7475000000 0.7118000000
0.0066000000 0.8775000000 0.3681000000
0.0066000000 5.2138000000 0.3666000000
0.0063000000 5.0016000000 0.4525000000
0.0062000000 1.2595000000 0.5150000000
0.0062000000 0.4716000000 0.2147000000
0.0059000000 3.7215000000 0.9475000000
0.0059000000 2.7623000000 1.1148000000
0.0058000000 2.2941000000 0.9242000000
0.0058000000 0.6820000000 0.2947000000
0.0056000000 1.1780000000 0.4875000000
0.0055000000 0.0577000000 0.0338000000
0.0054000000 3.5029000000 1.0403000000
0.0053000000 1.2816000000 0.5250000000
0.0053000000 2.7954000000 1.1217000000
0.0052000000 5.4786000000 0.2609000000
0.0051000000 3.8179000000 0.9127000000
0.0050000000 4.3195000000 0.7240000000
0.0049000000 0.1251000000 0.0645000000
0.0046000000 0.3291000000 0.1488000000
0.0044000000 5.5837000000 0.2272000000
0.0042000000 2.5644000000 1.0297000000
0.0041000000 6.0163000000 0.0406000000
0.0040000000 4.3782000000 0.6942000000
0.0040000000 2.4772000000 0.9963000000
0.0039000000 4.0262000000 0.8351000000
0.0038000000 5.2024000000 0.3691000000
0.0037000000 4.9778000000 0.4596000000
0.0036000000 0.6804000000 0.2894000000
0.0035000000 5.6164000000 0.2089000000
0.0034000000 5.9746000000 0.0668000000
0.0033000000 1.7348000000 0.7093000000
0.0031000000 4.1318000000 0.7951000000
0.0030000000 5.6899000000 0.1795000000
0.0030000000 2.4434000000 0.9849000000
0.0029000000 5.6098000000 0.2083000000
0.0027000000 3.4607000000 1.0558000000
0.0025000000 0.7091000000 0.3041000000
0.0025000000 3.8598000000 0.8928000000
0.0025000000 5.3299000000 0.3187000000
0.0023000000 2.0467000000 0.8307000000
0.0022000000 3.7300000000 0.9430000000
0.0021000000 0.0423000000 0.0264000000
0.0020000000 4.3011000000 0.7239000000
0.0020000000 5.7804000000 0.1421000000
0.0018000000 2.9185000000 1.1662000000
0.0017000000 2.3462000000 0.9467000000
0.0017000000 1.6320000000 0.6639000000
0.0016000000 0.1561000000 0.0837000000
0.0015000000 2.6352000000 1.0606000000
0.0013000000 3.6448000000 0.9804000000
0.0012000000 4.7787000000 0.5351000000
0.0012000000 2.1465000000 0.8592000000
0.0011000000 4.2431000000 0.7399000000
0.0008000000 1.3296000000 0.5383000000
0.0006000000 4.1396000000 0.7879000000
0.0005000000 1.5278000000 0.6212000000
0.0004000000 0.2475000000 0.1198000000
0.0003000000 3.5764000000 1.0018000000
0.0003000000 4.0908000000 0.8025000000
0.0001000000 0.0266000000 0.0150000000
0.0001000000 1.4279000000 0.5835000000
-0.0004000000 3.4764000000 1.0482000000
-0.0006000000 1.7976000000 0.7237000000
-0.0007000000 1.2270000000 0.4944000000
-0.0007000000 3.8962000000 0.8826000000
-0.0009000000 2.6786000000 1.0723000000
-0.0010000000 0.8318000000 0.3483000000
-0.0013000000 4.4030000000 0.6780000000
-0.0014000000 4.3929000000 0.6899000000
-0.0015000000 2.3520000000 0.9395000000
-0.0015000000 1.4981000000 0.6043000000
-0.0018000000 0.6860000000 0.2861000000
-0.0023000000 2.3402000000 0.9370000000
-0.0025000000 3.3847000000 1.0832000000
-0.0028000000 2.7435000000 1.0885000000
-0.0043000000 4.9024000000 0.4857000000
-0.0050000000 2.9411000000 1.1675000000
-0.0058000000 3.6685000000 0.9657000000
-0.0062000000 0.0009000000 0.0817000000
-0.2358000000 2.2909000000 0.7603000000
-0.2380000000 4.8304000000 0.3579000000
-0.2382000000 4.9216000000 0.3100000000
-0.2383000000 4.2434000000 0.5816000000
-0.2390000000 2.0979000000 0.6815000000
-0.2400000000 4.9623000000 0.3003000000
-0.2406000000 3.2225000000 0.9805000000
-0.2408000000 2.8052000000 0.9593000000
-0.2410000000 5.4316000000 0.1146000000
-0.2412000000 1.8375000000 0.5767000000
-0.2414000000 0.6233000000 0.1015000000
-0.2416000000 3.7565000000 0.7677000000
-0.2416000000 2.2404000000 0.7337000000
-0.2417000000 5.5368000000 0.0693000000
-0.2421000000 5.5759000000 0.0542000000
-0.2421000000 3.5200000000 0.8616000000
-0.2424000000 2.1893000000 0.7213000000
-0.2425000000 5.0825000000 0.2511000000
-0.2425000000 5.0421000000 0.2630000000
-0.2428000000 1.5028000000 0.4453000000
-0.2430000000 1.4723000000 0.4340000000
-0.2432000000 2.6599000000 0.9025000000
-0.2439000000 3.6137000000 0.8248000000
-0.2439000000 4.9934000000 0.2836000000
-0.2441000000 2.1175000000 0.6821000000
-0.2442000000 0.3433000000 0.0610000000
-0.2446000000 5.4531000000 0.1003000000
-0.2447000000 5.4544000000 0.0997000000
-0.2446000000 4.2679000000 0.5691000000
-0.2448000000 5.3570000000 0.1334000000
-0.2450000000 1.9763000000 0.6335000000
-0.2449000000 3.5054000000 0.8636000000
-0.2452000000 4.7735000000 0.3718000000
-0.2454000000 1.1007000000 0.2823000000
-0.2454000000 2.3289000000 0.7693000000
-0.2455000000 0.7762000000 0.1575000000
-0.2455000000 1.3163000000 0.3657000000
-0.2457000000 1.9121000000 0.6059000000
-0.2458000000 3.0770000000 1.0216000000
-0.2461000000 0.8173000000 0.1782000000
-0.2461000000 1.8504000000 0.5778000000
-0.2463000000 5.6157000000 0.0399000000
-0.2464000000 2.2594000000 0.7374000000
-0.2464000000 4.3500000000 0.5390000000
-0.2468000000 1.1885000000 0.3221000000
-0.2468000000 1.4940000000 0.4438000000
-0.2469000000 0.9911000000 0.2411000000
-0.2471000000 3.6756000000 0.8041000000
-0.2472000000 5.3125000000 0.1570000000
-0.2473000000 0.2404000000 0.0224000000
-0.2475000000 1.5461000000 0.4602000000
-0.2478000000 3.7131000000 0.7888000000
-0.2479000000 1.9229000000 0.6033000000
-0.2481000000 3.6984000000 0.7896000000
-0.2482000000 1.5713000000 0.4668000000
-0.2483000000 4.9408000000 0.2998000000
-0.2484000000 4.2660000000 0.5664000000
-0.2485000000 3.7512000000 0.7698000000
-0.2485000000 0.7215000000 0.1303000000
-0.2488000000 1.3980000000 0.3986000000
-0.2489000000 0.3845000000 0.0726000000
-0.2489000000 4.6593000000 0.4093000000
-0.2490000000 0.5367000000 0.0599000000
-0.2492000000 4.8924000000 0.3183000000
-0.2494000000 0.2848000000 0.0333000000
-0.2494000000 3.3344000000 0.9344000000
-0.2495000000 1.1306000000 0.2909000000
-0.2496000000 0.4177000000 0.0908000000
-0.2496000000 0.5640000000 0.0718000000
-0.2497000000 3.5221000000 0.8597000000
-0.2499000000 4.5935000000 0.4320000000
-0.2500000000 3.2678000000 0.9542000000
-0.2500000000 1.4844000000 0.4388000000
-0.2505000000 3.3984000000 0.9111000000
-0.2507000000 5.7066000000 0.0758000000
-0.2508000000 1.7985000000 0.5530000000
-0.2510000000 4.1342000000 0.6132000000
-0.2513000000 1.4553000000 0.4231000000
-0.2514000000 0.5808000000 0.0755000000
-0.2515000000 4.8191000000 0.3455000000
-0.2518000000 2.0916000000 0.6695000000
-0.2520000000 0.5595000000 0.0655000000
-0.2522000000 0.4848000000 0.0360000000
-0.2525000000 1.0163000000 0.2445000000
-0.2527000000 1.3131000000 0.3669000000
-0.2529000000 0.6589000000 0.1085000000
-0.2530000000 1.1631000000 0.2992000000
-0.2534000000 0.5444000000 0.0621000000
-0.2535000000 1.4422000000 0.4166000000
-0.2546000000 0.6063000000 0.0838000000
-0.2554000000 0.4673000000 0.0298000000
-0.4854000000 5.1897000000 0.0428000000
-0.4867000000 4.0248000000 0.5037000000
-0.4894000000 2.2642000000 0.5729000000
-0.4900000000 4.5747000000 0.2852000000
-0.4902000000 4.3715000000 0.3630000000
-0.4902000000 4.5685000000 0.2843000000
-0.4920000000 1.8936000000 0.4310000000
-0.4921000000 2.5027000000 0.6682000000
-0.4925000000 1.1153000000 0.1242000000
-0.4926000000 4.1463000000 0.4509000000
-0.4927000000 4.4305000000 0.3364000000
-0.4929000000 4.1111000000 0.4675000000
-0.4930000000 4.5913000000 0.2747000000
-0.4931000000 1.5727000000 0.3010000000
-0.4932000000 1.4785000000 0.2648000000
-0.4935000000 2.9837000000 0.8576000000
-0.4936000000 2.2438000000 0.5655000000
-0.4937000000 2.7513000000 0.7631000000
-0.4937000000 5.0828000000 0.0801000000
-0.4940000000 4.8221000000 0.1785000000
-0.4941000000 3.5188000000 0.6916000000
-0.4943000000 2.1041000000 0.5110000000
-0.4945000000 2.0106000000 0.4738000000
-0.4945000000 4.7390000000 0.2092000000
-0.4947000000 3.6983000000 0.6251000000
-0.4947000000 5.1785000000 0.0440000000
-0.4951000000 2.9356000000 0.8370000000
-0.4952000000 1.5340000000 0.2781000000
-0.4952000000 0.7912000000 0.0651000000
-0.4957000000 1.4805000000 0.2644000000
-0.4959000000 4.2757000000 0.3936000000
-0.4960000000 3.3248000000 0.7715000000
-0.4962000000 1.7764000000 0.3763000000
-0.4963000000 4.5043000000 0.3078000000
-0.4964000000 1.3206000000 0.1998000000
-0.4968000000 2.7694000000 0.7706000000
-0.4970000000 4.5234000000 0.2967000000
-0.4970000000 1.6961000000 0.3464000000
-0.4971000000 4.0228000000 0.4914000000
-0.4972000000 1.7265000000 0.3628000000
-0.4975000000 5.4371000000 0.0139000000
-0.4975000000 2.9843000000 0.8566000000
-0.4977000000 3.1496000000 0.8375000000
-0.4977000000 4.6085000000 0.2659000000
-0.4978000000 4.7108000000 0.2235000000
-0.4978000000 3.0454000000 0.8627000000
-0.4980000000 2.9832000000 0.8562000000
-0.4980000000 1.9206000000 0.4355000000
-0.4983000000 2.5392000000 0.6753000000
-0.4985000000 4.3097000000 0.3765000000
-0.4986000000 5.1815000000 0.0385000000
-0.4987000000 2.0542000000 0.4873000000
-0.4988000000 0.8005000000 0.0667000000
-0.4990000000 1.5974000000 0.3113000000
-0.4994000000 3.8370000000 0.5594000000
-0.4995000000 5.3373000000 0.0497000000
-0.4996000000 4.0706000000 0.4677000000
-0.4997000000 3.3523000000 0.7548000000
-0.4997000000 1.4461000000 0.2457000000
-0.4998000000 3.2469000000 0.7930000000
-0.4999000000 2.6973000000 0.7433000000
-0.5002000000 4.9169000000 0.1458000000
-0.5003000000 2.5209000000 0.6661000000
-0.5014000000 2.8647000000 0.8008000000
-0.5015000000 2.2406000000 0.5579000000
-0.5015000000 2.5093000000 0.6680000000
-0.5024000000 2.1635000000 0.5282000000
-0.5026000000 2.3710000000 0.6055000000
-0.5027000000 2.1270000000 0.5147000000
-0.5028000000 3.3118000000 0.7654000000
-0.5032000000 2.4515000000 0.6409000000
-0.5036000000 1.2209000000 0.1581000000
-0.5037000000 1.6052000000 0.3089000000
-0.5042000000 3.1794000000 0.8205000000
-0.5058000000 1.7202000000 0.3455000000
-0.7392000000 3.9377000000 0.3553000000
-0.7412000000 3.4604000000 0.5442000000
-0.7420000000 4.8887000000 0.0622000000
-0.7424000000 3.3862000000 0.5739000000
-0.7425000000 3.1503000000 0.6717000000
-0.7433000000 1.7121000000 0.1850000000
-0.7433000000 2.1011000000 0.3393000000
-0.7435000000 3.6529000000 0.4710000000
-0.7440000000 2.7998000000 0.6167000000
-0.7442000000 4.3294000000 0.2025000000
-0.7444000000 3.8424000000 0.3961000000
-0.7447000000 3.4186000000 0.5615000000
-0.7449000000 4.3002000000 0.2099000000
-0.7452000000 4.2492000000 0.2366000000
-0.7453000000 2.5760000000 0.5218000000
-0.7453000000 1.3419000000 0.0331000000
-0.7455000000 4.0379000000 0.3175000000
-0.7456000000 3.5236000000 0.5187000000
-0.7456000000 4.5593000000 0.1192000000
-0.7457000000 4.8219000000 0.0839000000
-0.7458000000 2.4328000000 0.4693000000
-0.7460000000 1.0710000000 0.0105000000
-0.7462000000 2.3346000000 0.4297000000
-0.7462000000 4.4012000000 0.1750000000
-0.7463000000 3.4825000000 0.5316000000
-0.7465000000 3.9684000000 0.3475000000
-0.7466000000 4.8982000000 0.0549000000
-0.7467000000 3.7699000000 0.4259000000
-0.7469000000 3.7451000000 0.4360000000
-0.7469000000 2.6925000000 0.5696000000
-0.7471000000 2.3586000000 0.4352000000
-0.7471000000 4.0801000000 0.2997000000
-0.7472000000 2.4758000000 0.4850000000
-0.7472000000 3.9429000000 0.3545000000
-0.7474000000 4.7989000000 0.0886000000
-0.7475000000 2.2946000000 0.4097000000
-0.7475000000 4.0506000000 0.3118000000
-0.7480000000 1.5929000000 0.1342000000
-0.7480000000 3.1520000000 0.6681000000
-0.7481000000 2.9822000000 0.6809000000
-0.7481000000 3.6779000000 0.4667000000
