5.0069000000 5.7152000000 0.4481000000
5.0068000000 4.6732000000 0.9724000000
5.0066000000 3.2637000000 1.1063000000
5.0064000000 3.3272000000 1.1319000000
5.0063000000 1.4522000000 0.2014000000
5.0061000000 4.8789000000 0.8671000000
5.0057000000 2.9335000000 0.9399000000
5.0055000000 2.7790000000 0.8606000000
5.0054000000 0.9683000000 0.0259000000
5.0052000000 4.5403000000 1.0415000000
5.0050000000 5.0968000000 0.7590000000
5.0049000000 1.3059000000 0.1287000000
5.0046000000 2.7513000000 0.8467000000
5.0045000000 3.9846000000 1.3228000000
5.0044000000 5.5658000000 0.5269000000
5.0039000000 5.0561000000 0.7853000000
5.0036000000 4.4231000000 1.1016000000
5.0033000000 4.3735000000 1.1255000000
5.0033000000 3.6663000000 1.3108000000
5.0031000000 4.8933000000 0.8676000000
5.0029000000 0.7945000000 0.0178000000
5.0028000000 1.7792000000 0.3565000000
5.0028000000 3.0151000000 0.9794000000
5.0024000000 2.1109000000 0.5270000000
5.0018000000 4.0587000000 1.2889000000
5.0014000000 2.4036000000 0.6727000000
5.0012000000 4.0928000000 1.2651000000
5.0010000000 2.1925000000 0.5677000000
5.0002000000 2.5527000000 0.7478000000
4.9996000000 1.8244000000 0.3840000000
4.9980000000 1.6060000000 0.2817000000
4.7628000000 6.9762000000 0.1042000000
4.7622000000 7.0251000000 0.0826000000
4.7616000000 5.9411000000 0.5535000000
4.7610000000 2.5390000000 0.9513000000
4.7603000000 4.3135000000 1.3676000000
4.7596000000 5.5308000000 0.7579000000
4.7591000000 3.2301000000 1.2976000000
4.7587000000 2.2494000000 0.8053000000
4.7583000000 1.7539000000 0.5587000000
4.7581000000 1.7411000000 0.5563000000
4.7578000000 3.9137000000 1.5677000000
4.7574000000 4.5066000000 1.2748000000
4.7573000000 5.2452000000 0.9031000000
4.7571000000 4.1645000000 1.4405000000
4.7565000000 4.1208000000 1.4655000000
4.7564000000 7.0927000000 0.0513000000
4.7563000000 3.6183000000 1.4966000000
4.7562000000 2.0335000000 0.7078000000
4.7560000000 3.5057000000 1.4443000000
4.7557000000 2.5126000000 0.9438000000
4.7552000000 1.6100000000 0.4976000000
4.7550000000 5.6549000000 0.6991000000
4.7548000000 4.9841000000 1.0366000000
4.7548000000 2.2240000000 0.8036000000
4.7546000000 2.1145000000 0.7486000000
4.7543000000 4.4889000000 1.2828000000
4.7541000000 0.8433000000 0.1110000000
4.7541000000 4.8117000000 1.1218000000
4.7539000000 3.7793000000 1.5760000000
4.7538000000 3.0748000000 1.2221000000
4.7537000000 5.2949000000 0.8820000000
4.7536000000 2.9456000000 1.1653000000
4.7531000000 1.6750000000 0.5339000000
4.7530000000 0.7823000000 0.0792000000
4.7527000000 2.3308000000 0.8642000000
4.7525000000 0.5624000000 0.0530000000
4.7522000000 5.8861000000 0.5846000000
4.7520000000 4.7046000000 1.1794000000
4.7515000000 2.8565000000 1.1151000000
4.7515000000 5.5185000000 0.7677000000
4.7509000000 6.2833000000 0.3898000000
4.7508000000 4.0240000000 1.5236000000
4.7502000000 2.6105000000 0.9955000000
4.7500000000 3.9027000000 1.5814000000
4.7485000000 1.3940000000 0.3933000000
4.7478000000 3.9853000000 1.5418000000
4.7470000000 1.2164000000 0.3068000000
4.7465000000 4.1385000000 1.4687000000
4.7458000000 2.7645000000 1.0799000000
4.5143000000 4.7022000000 1.3815000000
4.5113000000 6.3954000000 0.5393000000
4.5109000000 3.6273000000 1.7148000000
4.5104000000 5.2020000000 1.1290000000
4.5091000000 5.8190000000 0.8320000000
4.5090000000 2.7908000000 1.3008000000
4.5087000000 5.5583000000 0.9588000000
4.5085000000 1.4405000000 0.6178000000
4.5085000000 5.4613000000 1.0124000000
4.5078000000 5.5996000000 0.9414000000
4.5076000000 5.1892000000 1.1436000000
4.5070000000 6.0731000000 0.7092000000
4.5069000000 7.1494000000 0.1636000000
4.5067000000 0.0643000000 0.0143000000
4.5065000000 0.5630000000 0.1861000000
4.5064000000 5.5344000000 0.9786000000
4.5063000000 4.4889000000 1.4946000000
4.5060000000 3.5562000000 1.6862000000
4.5059000000 3.2457000000 1.5290000000
4.5058000000 7.3956000000 0.0418000000
4.5055000000 0.1001000000 0.0300000000
4.5054000000 0.3418000000 0.0782000000
4.5053000000 0.2056000000 0.0844000000
4.5051000000 7.6963000000 0.0369000000
4.5050000000 3.8668000000 1.7941000000
4.5048000000 1.0929000000 0.4528000000
4.5045000000 6.7240000000 0.3852000000
4.5044000000 6.4388000000 0.5237000000
4.5040000000 4.6139000000 1.4374000000
4.5038000000 4.1357000000 1.6759000000
4.5037000000 2.3075000000 1.0562000000
4.5035000000 1.3405000000 0.5792000000
4.5033000000 3.9070000000 1.7908000000
4.5031000000 4.0186000000 1.7365000000
4.5029000000 1.4327000000 0.6250000000
4.5024000000 5.0191000000 1.2343000000
4.5022000000 5.2315000000 1.1343000000
4.5019000000 4.4549000000 1.5180000000
4.5018000000 5.6774000000 0.9082000000
4.5015000000 1.5420000000 0.6835000000
4.5013000000 6.1723000000 0.6609000000
4.5011000000 3.1382000000 1.4796000000
4.5006000000 0.6633000000 0.2418000000
4.4998000000 2.7170000000 1.2741000000
4.4996000000 1.5224000000 0.6726000000
4.4993000000 3.1628000000 1.4881000000
4.4985000000 1.2064000000 0.5140000000
4.4982000000 0.8177000000 0.3201000000
4.4977000000 0.0101000000 0.0670000000
4.4970000000 4.4441000000 1.5282000000
4.2640000000 6.3394000000 0.7858000000
4.2625000000 3.4120000000 1.8264000000
4.2615000000 6.0531000000 0.9263000000
4.2600000000 6.5254000000 0.6907000000
4.2596000000 1.2179000000 0.7293000000
4.2593000000 1.8334000000 1.0337000000
4.2590000000 5.2852000000 1.3159000000
4.2585000000 6.7211000000 0.5984000000
4.2581000000 2.0473000000 1.1465000000
4.2579000000 5.7818000000 1.0690000000
4.2576000000 2.7953000000 1.5209000000
4.2573000000 3.1530000000 1.7018000000
4.2569000000 3.4330000000 1.8429000000
4.2566000000 2.3160000000 1.2835000000
4.2565000000 2.9906000000 1.6183000000
4.2563000000 4.5099000000 1.7040000000
4.2561000000 4.1705000000 1.8780000000
4.2560000000 1.2055000000 0.7220000000
4.2557000000 5.3228000000 1.3036000000
4.2553000000 3.3762000000 1.8118000000
4.2549000000 3.6380000000 1.9433000000
4.2546000000 1.7416000000 0.9949000000
4.2544000000 4.4785000000 1.7238000000
4.2541000000 6.1687000000 0.8760000000
4.2540000000 3.9113000000 2.0081000000
4.2538000000 2.8497000000 1.5531000000
4.2534000000 4.3385000000 1.7962000000
4.2532000000 7.3371000000 0.2753000000
4.2528000000 0.3326000000 0.2684000000
4.2526000000 6.4831000000 0.7244000000
4.2525000000 2.2063000000 1.2305000000
4.2524000000 0.5631000000 0.4044000000
4.2522000000 4.5485000000 1.6893000000
4.2520000000 5.6515000000 1.1366000000
4.2518000000 0.2966000000 0.2493000000
4.2516000000 6.7333000000 0.5951000000
4.2514000000 3.5004000000 1.8747000000
4.2513000000 6.6361000000 0.6435000000
4.2511000000 0.7610000000 0.5067000000
4.2510000000 2.5479000000 1.4000000000
4.2509000000 3.1335000000 1.6974000000
4.2499000000 0.0991000000 0.0731000000
4.2488000000 1.1804000000 0.7263000000
4.2485000000 1.6923000000 0.9766000000
4.2481000000 3.4741000000 1.8647000000
4.2479000000 2.3904000000 1.3220000000
4.2465000000 0.5245000000 0.3902000000
4.2433000000 1.7770000000 1.0240000000
4.0126000000 3.8815000000 2.2150000000
4.0119000000 4.1169000000 2.1090000000
4.0115000000 6.2408000000 1.0536000000
4.0100000000 3.6628000000 2.1732000000
4.0098000000 4.0022000000 2.1735000000
4.0096000000 3.9226000000 2.2137000000
4.0093000000 6.9477000000 0.6812000000
4.0090000000 4.8984000000 1.7296000000
4.0087000000 7.3524000000 0.2948000000
4.0080000000 1.5077000000 1.0931000000
4.0078000000 5.8125000000 1.2617000000
4.0075000000 2.4916000000 1.5867000000
4.0073000000 6.7048000000 0.8153000000
4.0070000000 2.5762000000 1.6242000000
4.0069000000 4.3290000000 2.0118000000
4.0068000000 0.1561000000 0.1299000000
4.0066000000 0.7527000000 0.6941000000
4.0065000000 3.6287000000 2.1505000000
4.0063000000 2.7724000000 1.7257000000
4.0062000000 5.2612000000 1.5486000000
4.0059000000 6.6688000000 0.8448000000
4.0057000000 1.5284000000 1.1024000000
4.0055000000 0.5992000000 0.5729000000
4.0053000000 6.4236000000 0.9618000000
4.0052000000 7.4707000000 0.1743000000
4.0050000000 1.0587000000 0.8679000000
4.0052000000 7.0868000000 0.5565000000
4.0048000000 3.6322000000 2.1554000000
4.0044000000 4.2818000000 2.0399000000
4.0043000000 2.4100000000 1.5462000000
4.0041000000 0.6207000000 0.5925000000
4.0038000000 1.3567000000 1.0244000000
4.0039000000 0.9739000000 0.8261000000
4.0036000000 3.1192000000 1.9010000000
4.0035000000 5.9693000000 1.1919000000
4.0033000000 0.6995000000 0.6548000000
4.0031000000 1.8380000000 1.2590000000
4.0030000000 2.0634000000 1.3724000000
4.0028000000 2.2326000000 1.4640000000
4.0026000000 0.5564000000 0.5292000000
4.0023000000 5.5190000000 1.4196000000
4.0023000000 6.8570000000 0.7360000000
4.0020000000 0.0976000000 0.0651000000
4.0016000000 1.4133000000 1.0459000000
4.0014000000 6.3393000000 1.0123000000
4.0013000000 4.4908000000 1.9349000000
4.0006000000 2.1470000000 1.4213000000
4.0005000000 2.8636000000 1.7724000000
4.0001000000 1.0779000000 0.8821000000
3.9999000000 4.0551000000 2.1502000000
3.9995000000 1.3117000000 1.0030000000
3.9992000000 3.1384000000 1.9132000000
3.9980000000 1.0485000000 0.8733000000
3.9973000000 0.0817000000 0.0539000000
3.9964000000 0.4352000000 0.4043000000
3.9948000000 3.3621000000 2.0266000000
3.7626000000 5.9944000000 1.3850000000
3.7611000000 6.9497000000 0.7001000000
3.7600000000 6.4355000000 1.1524000000
3.7598000000 6.3440000000 1.2163000000
3.7597000000 5.4770000000 1.6488000000
3.7590000000 2.6354000000 1.8697000000
3.7588000000 3.3327000000 2.2246000000
3.7587000000 3.5198000000 2.3170000000
3.7586000000 5.7148000000 1.5344000000
3.7583000000 6.7333000000 0.9165000000
3.7578000000 3.5785000000 2.3511000000
3.7571000000 6.4422000000 1.1587000000
3.7568000000 3.0895000000 2.1042000000
3.7568000000 4.8547000000 1.9660000000
3.7567000000 4.9967000000 1.8929000000
3.7564000000 6.7325000000 0.9120000000
3.7562000000 4.8371000000 1.9736000000
3.7561000000 3.1997000000 2.1579000000
3.7558000000 3.0235000000 2.0689000000
3.7557000000 5.7233000000 1.5307000000
3.7555000000 1.1393000000 1.1008000000
3.7554000000 4.1727000000 2.3104000000
3.7550000000 2.3274000000 1.7251000000
3.7546000000 3.7523000000 2.4352000000
3.7545000000 4.9768000000 1.9081000000
3.7544000000 3.4215000000 2.2647000000
3.7542000000 7.5093000000 0.1437000000
3.7540000000 7.3122000000 0.3434000000
3.7540000000 0.6048000000 0.5779000000
3.7538000000 7.2997000000 0.3470000000
3.7537000000 0.3006000000 0.2733000000
3.7535000000 7.0231000000 0.6258000000
3.7533000000 4.3714000000 2.2106000000
3.7532000000 3.3460000000 2.2244000000
3.7531000000 5.3657000000 1.7132000000
3.7528000000 4.9950000000 1.8932000000
3.7527000000 1.3165000000 1.2182000000
3.7523000000 5.5237000000 1.6351000000
3.7521000000 0.5274000000 0.4964000000
3.7518000000 6.1370000000 1.3297000000
3.7515000000 5.5000000000 1.6445000000
3.7512000000 2.1712000000 1.6461000000
3.7511000000 5.3076000000 1.7496000000
3.7505000000 4.3692000000 2.2151000000
3.7503000000 6.6168000000 1.0314000000
3.7500000000 1.9837000000 1.5536000000
3.7495000000 2.8573000000 1.9922000000
3.7487000000 1.6204000000 1.3738000000
3.7479000000 4.6939000000 2.0565000000
3.7455000000 0.9927000000 0.9699000000
3.5150000000 3.9944000000 2.6075000000
3.5124000000 4.7598000000 2.2239000000
3.5124000000 6.5949000000 1.0501000000
3.5096000000 2.5521000000 2.0446000000
3.5088000000 0.7372000000 0.7112000000
3.5084000000 5.0006000000 2.1063000000
3.5082000000 3.2734000000 2.4093000000
3.5080000000 5.4150000000 1.9011000000
3.5078000000 7.5743000000 0.0722000000
3.5076000000 4.7657000000 2.2267000000
3.5075000000 5.0974000000 2.0639000000
3.5080000000 6.1381000000 1.4985000000
3.5073000000 0.2424000000 0.2186000000
3.5072000000 5.9751000000 1.6098000000
3.5070000000 7.2498000000 0.3975000000
3.5069000000 7.1743000000 0.4744000000
3.5066000000 2.6567000000 2.1007000000
3.5062000000 3.7326000000 2.6422000000
3.5061000000 2.9027000000 2.2247000000
3.5059000000 4.4205000000 2.4018000000
3.5057000000 5.7396000000 1.7407000000
3.5054000000 4.4934000000 2.3664000000
3.5053000000 5.2170000000 2.0054000000
3.5052000000 3.5636000000 2.5578000000
3.5051000000 5.0090000000 2.1039000000
3.5050000000 4.1057000000 2.5591000000
3.5048000000 0.8801000000 0.8569000000
3.5047000000 3.2097000000 2.3806000000
3.5046000000 3.8497000000 2.6693000000
3.5045000000 3.9229000000 2.6571000000
3.5044000000 1.1429000000 1.1119000000
3.5042000000 6.8715000000 0.7761000000
3.5040000000 4.5181000000 2.3570000000
3.5037000000 0.8572000000 0.8312000000
3.5034000000 0.1217000000 0.0864000000
3.5032000000 5.8338000000 1.6935000000
3.5030000000 7.2368000000 0.4122000000
3.5028000000 1.7971000000 1.6674000000
3.5028000000 7.1976000000 0.4462000000
3.5027000000 1.5692000000 1.5263000000
3.5026000000 0.9172000000 0.8901000000
3.5025000000 1.9487000000 1.7501000000
3.5023000000 4.7406000000 2.2441000000
3.5023000000 3.6948000000 2.6247000000
3.5021000000 2.8085000000 2.1811000000
3.5019000000 0.1041000000 0.0719000000
3.5016000000 4.9305000000 2.1552000000
3.5011000000 3.9671000000 2.6312000000
3.5010000000 1.2254000000 1.1916000000
3.5006000000 6.7080000000 0.9365000000
3.5002000000 3.8944000000 2.6689000000
3.5000000000 1.3507000000 1.3266000000
3.4994000000 2.0113000000 1.7867000000
3.4983000000 0.8579000000 0.8322000000
3.4980000000 1.0605000000 1.0327000000
3.4965000000 3.1601000000 2.3637000000
3.2611000000 4.0392000000 2.8028000000
3.2604000000 6.3955000000 1.2492000000
3.2600000000 7.6268000000 0.0944000000
3.2599000000 0.0072000000 0.0535000000
3.2595000000 4.7601000000 2.4479000000
3.2592000000 4.3477000000 2.6496000000
3.2588000000 3.1719000000 2.5744000000
3.2584000000 5.4005000000 2.1245000000
3.2583000000 5.1024000000 2.2795000000
3.2578000000 7.6330000000 0.0851000000
3.2574000000 6.1654000000 1.4798000000
3.2572000000 0.8120000000 0.7823000000
3.2570000000 4.1137000000 2.7716000000
3.2568000000 2.8198000000 2.3972000000
3.2568000000 3.7708000000 2.8749000000
3.2565000000 2.0002000000 1.9548000000
3.2562000000 4.0469000000 2.8152000000
3.2560000000 0.7382000000 0.7123000000
3.2559000000 7.4980000000 0.1458000000
3.2557000000 3.8437000000 2.8888000000
3.2555000000 5.0204000000 2.3164000000
3.2553000000 0.6018000000 0.5784000000
3.2552000000 2.3043000000 2.1451000000
3.2551000000 4.2774000000 2.6931000000
3.2549000000 0.0959000000 0.0670000000
3.2546000000 7.0464000000 0.6002000000
3.2542000000 3.9960000000 2.8379000000
3.2540000000 1.2514000000 1.2201000000
3.2539000000 4.7026000000 2.4737000000
3.2538000000 2.2777000000 2.1366000000
3.2536000000 4.9961000000 2.3278000000
3.2535000000 4.2930000000 2.6895000000
3.2534000000 4.7456000000 2.4576000000
3.2533000000 7.3641000000 0.2775000000
3.2532000000 4.1103000000 2.7688000000
3.2531000000 3.7312000000 2.8614000000
3.2529000000 2.3962000000 2.1893000000
3.2525000000 1.9909000000 1.9506000000
3.2523000000 2.5434000000 2.2656000000
3.2521000000 0.3459000000 0.3143000000
3.2520000000 2.0780000000 2.0109000000
3.2518000000 2.0427000000 1.9996000000
3.2516000000 2.7119000000 2.3460000000
3.2515000000 0.5346000000 0.5085000000
3.2510000000 3.0601000000 2.5246000000
3.2508000000 2.1011000000 2.0321000000
3.2507000000 3.0993000000 2.5438000000
3.2504000000 2.9674000000 2.4832000000
3.2504000000 1.8489000000 1.8266000000
3.2501000000 5.4804000000 2.0930000000
3.2490000000 1.0393000000 1.0112000000
3.2486000000 5.0562000000 2.3092000000
3.2477000000 4.0011000000 2.8296000000
3.2466000000 1.1877000000 1.1560000000
3.2463000000 1.5473000000 1.5210000000
3.0139000000 7.1950000000 0.4493000000
3.0127000000 3.9772000000 3.0474000000
3.0117000000 5.0603000000 2.5104000000
3.0111000000 6.3206000000 1.3285000000
3.0108000000 7.3975000000 0.2439000000
3.0107000000 7.1218000000 0.5218000000
3.0104000000 4.0156000000 3.0345000000
3.0103000000 7.2483000000 0.3992000000
3.0100000000 3.3733000000 2.8893000000
3.0095000000 5.1850000000 2.4311000000
3.0095000000 7.5800000000 0.0717000000
3.0090000000 6.6306000000 1.0182000000
3.0088000000 2.2985000000 2.2742000000
3.0085000000 6.4797000000 1.1726000000
3.0081000000 2.8453000000 2.6277000000
3.0079000000 0.9680000000 0.9438000000
3.0078000000 7.5481000000 0.0972000000
3.0076000000 1.9843000000 1.9564000000
3.0073000000 6.1654000000 1.4842000000
3.0071000000 2.4543000000 2.4103000000
3.0071000000 1.2340000000 1.2019000000
3.0065000000 5.5250000000 2.1239000000
3.0063000000 5.0673000000 2.5100000000
3.0058000000 5.1213000000 2.4706000000
3.0058000000 4.4119000000 2.8387000000
3.0056000000 6.5658000000 1.0808000000
3.0054000000 6.8334000000 0.8151000000
3.0053000000 4.0239000000 3.0368000000
3.0053000000 7.1059000000 0.5371000000
3.0050000000 4.2901000000 2.9049000000
3.0047000000 4.7689000000 2.6583000000
3.0045000000 2.9718000000 2.6971000000
3.0044000000 0.9908000000 0.9580000000
3.0042000000 1.0280000000 0.9991000000
3.0040000000 4.2977000000 2.9013000000
3.0039000000 3.3438000000 2.8828000000
3.0038000000 2.5209000000 2.4544000000
3.0037000000 4.6913000000 2.7020000000
3.0035000000 1.0329000000 1.0047000000
3.0033000000 6.9108000000 0.7335000000
3.0031000000 7.7139000000 0.0810000000
3.0031000000 3.2889000000 2.8561000000
3.0030000000 7.1398000000 0.5130000000
3.0028000000 2.0591000000 2.0316000000
3.0027000000 7.2533000000 0.3940000000
3.0025000000 4.7077000000 2.6882000000
3.0023000000 2.4296000000 2.3843000000
3.0022000000 3.0892000000 2.7547000000
3.0020000000 1.3840000000 1.3535000000
3.0016000000 1.8118000000 1.7839000000
3.0013000000 1.5014000000 1.4771000000
3.0012000000 2.0638000000 2.0339000000
3.0010000000 5.5667000000 2.0840000000
3.0008000000 0.1088000000 0.0756000000
3.0008000000 2.3483000000 2.3199000000
3.0005000000 0.8986000000 0.8733000000
3.0000000000 0.0736000000 0.0485000000
2.9998000000 4.2454000000 2.9318000000
2.9996000000 0.2374000000 0.2104000000
2.9994000000 0.2851000000 0.2600000000
2.9990000000 4.2629000000 2.9237000000
2.9988000000 4.7119000000 2.6941000000
2.9982000000 0.9412000000 0.9119000000
2.9976000000 1.3104000000 1.2871000000
2.9968000000 2.7761000000 2.6056000000
2.7676000000 7.1688000000 0.4710000000
2.7647000000 6.2660000000 1.3778000000
2.7627000000 4.9976000000 2.6540000000
2.7610000000 4.1445000000 3.1890000000
2.7607000000 7.1182000000 0.5311000000
2.7600000000 7.1074000000 0.5392000000
2.7592000000 2.5043000000 2.4808000000
2.7588000000 6.7614000000 0.8839000000
2.7583000000 4.9887000000 2.6600000000
2.7581000000 7.0741000000 0.5797000000
2.7577000000 6.8985000000 0.7451000000
2.7573000000 2.1764000000 2.1518000000
2.7572000000 7.2174000000 0.4262000000
2.7571000000 7.6955000000 0.0279000000
2.7570000000 4.3912000000 3.0663000000
2.7569000000 2.8835000000 2.8413000000
2.7568000000 6.6590000000 0.9922000000
2.7566000000 3.5002000000 3.1750000000
2.7565000000 5.3936000000 2.2569000000
2.7563000000 2.9941000000 2.9060000000
2.7562000000 6.9564000000 0.6931000000
2.7561000000 4.4261000000 3.0529000000
2.7558000000 1.6106000000 1.5824000000
2.7557000000 4.7550000000 2.8726000000
2.7555000000 0.1946000000 0.1687000000
2.7555000000 4.8456000000 2.7845000000
2.7553000000 2.6161000000 2.5878000000
2.7551000000 5.0310000000 2.6176000000
2.7548000000 0.3492000000 0.3234000000
2.7547000000 4.6930000000 2.9050000000
2.7546000000 6.5559000000 1.0917000000
2.7545000000 2.0813000000 2.0537000000
2.7544000000 2.8082000000 2.7681000000
2.7542000000 1.9925000000 1.9609000000
2.7540000000 0.8792000000 0.8552000000
2.7536000000 1.1795000000 1.1487000000
2.7534000000 4.9474000000 2.6986000000
2.7532000000 6.4651000000 1.1810000000
2.7531000000 4.7890000000 2.8497000000
2.7530000000 6.4431000000 1.2027000000
2.7529000000 3.9330000000 3.2981000000
2.7528000000 0.9609000000 0.9348000000
2.7526000000 6.2608000000 1.3789000000
2.7525000000 2.7952000000 2.7617000000
2.7524000000 3.3073000000 3.0832000000
2.7522000000 5.6545000000 1.9954000000
2.7517000000 6.7330000000 0.9138000000
2.7516000000 1.0540000000 1.0295000000
2.7515000000 0.0793000000 0.0515000000
2.7515000000 5.6080000000 2.0415000000
2.7512000000 2.0636000000 2.0443000000
2.7506000000 0.2932000000 0.2657000000
2.7505000000 1.2184000000 1.1871000000
2.7500000000 2.2876000000 2.2606000000
2.7494000000 5.8056000000 1.8434000000
2.7494000000 7.5438000000 0.0982000000
2.7486000000 4.7618000000 2.8726000000
2.7478000000 0.8207000000 0.7910000000
2.7469000000 6.7784000000 0.8675000000
2.7457000000 0.5196000000 0.4918000000
2.5168000000 6.2628000000 1.3818000000
2.5132000000 5.4920000000 2.1505000000
2.5117000000 7.2925000000 0.3539000000
2.5106000000 6.2514000000 1.3963000000
2.5101000000 4.3643000000 3.2761000000
2.5098000000 4.0354000000 3.4594000000
2.5096000000 3.6236000000 3.4569000000
2.5090000000 3.0360000000 3.0120000000
2.5084000000 3.9704000000 3.4936000000
2.5079000000 7.0250000000 0.6268000000
2.5077000000 7.4344000000 0.2119000000
2.5074000000 5.3773000000 2.2754000000
2.5073000000 6.2439000000 1.4044000000
2.5070000000 1.5261000000 1.4982000000
2.5069000000 5.7674000000 1.8808000000
2.5065000000 5.7574000000 1.8941000000
2.5064000000 5.5290000000 2.1197000000
2.5060000000 4.1793000000 3.3938000000
2.5059000000 1.3116000000 1.2800000000
2.5058000000 3.0809000000 3.0628000000
2.5056000000 0.5532000000 0.5277000000
2.5052000000 7.5186000000 0.1344000000
2.5050000000 0.9061000000 0.8815000000
2.5046000000 6.2425000000 1.4045000000
2.5044000000 6.0584000000 1.5909000000
2.5043000000 6.0496000000 1.5978000000
2.5041000000 5.8469000000 1.7985000000
2.5039000000 7.6119000000 0.1064000000
2.5035000000 2.6616000000 2.6353000000
2.5033000000 3.3562000000 3.3050000000
2.5031000000 1.2030000000 1.1752000000
2.5030000000 5.1111000000 2.5403000000
2.5027000000 4.7206000000 2.9281000000
2.5025000000 7.0118000000 0.6415000000
2.5022000000 1.0096000000 0.9834000000
2.5019000000 3.8405000000 3.5479000000
2.5016000000 6.5595000000 1.0787000000
2.5014000000 7.7188000000 0.0724000000
2.5012000000 6.1830000000 1.4671000000
2.5009000000 0.4632000000 0.4326000000
2.5007000000 4.1812000000 3.3973000000
2.5005000000 0.4475000000 0.4130000000
2.5001000000 0.5467000000 0.5199000000
2.5000000000 0.8490000000 0.8201000000
2.4999000000 4.6481000000 3.0056000000
2.4995000000 4.5739000000 3.0765000000
2.4991000000 2.1291000000 2.1007000000
2.4987000000 0.4719000000 0.4420000000
2.4985000000 5.6607000000 1.9900000000
2.4978000000 2.0980000000 2.0764000000
2.4975000000 2.6750000000 2.6491000000
2.4972000000 2.8777000000 2.8531000000
2.2639000000 7.6205000000 0.0958000000
2.2608000000 7.6936000000 0.0281000000
2.2605000000 4.5242000000 3.1226000000
2.2598000000 7.1235000000 0.5207000000
2.2595000000 4.6789000000 2.9754000000
2.2592000000 2.1852000000 2.1610000000
2.2585000000 7.4591000000 0.1834000000
2.2584000000 4.2672000000 3.3869000000
2.2580000000 0.2679000000 0.2426000000
2.2578000000 5.8447000000 1.8019000000
2.2576000000 3.1447000000 3.1173000000
2.2573000000 4.0718000000 3.5799000000
2.2566000000 3.4223000000 3.3997000000
2.2565000000 5.3215000000 2.3242000000
2.2564000000 2.5659000000 2.5410000000
2.2562000000 1.4521000000 1.4238000000
2.2561000000 3.7158000000 3.6720000000
2.2559000000 5.3535000000 2.2980000000
2.2556000000 5.7308000000 1.9145000000
2.2555000000 6.7831000000 0.8646000000
2.2554000000 6.5648000000 1.0872000000
2.2552000000 0.2741000000 0.2459000000
2.2551000000 1.7282000000 1.7001000000
2.2548000000 3.1123000000 3.0811000000
2.2547000000 5.8843000000 1.7631000000
2.2546000000 3.3804000000 3.3567000000
2.2544000000 4.9961000000 2.6600000000
2.2542000000 2.6351000000 2.6072000000
2.2540000000 1.8336000000 1.8051000000
2.2538000000 6.3063000000 1.3429000000
2.2538000000 6.9773000000 0.6727000000
2.2536000000 5.0457000000 2.6021000000
2.2534000000 5.3203000000 2.3269000000
2.2533000000 4.7113000000 2.9390000000
2.2531000000 1.5257000000 1.4999000000
2.2530000000 5.5810000000 2.0674000000
2.2529000000 3.4299000000 3.4029000000
2.2528000000 7.4687000000 0.1796000000
2.2526000000 5.9461000000 1.7044000000
2.2524000000 2.4773000000 2.4517000000
2.2521000000 2.8687000000 2.8415000000
2.2520000000 7.5649000000 0.0823000000
2.2518000000 2.5452000000 2.5140000000
2.2517000000 2.7192000000 2.7004000000
2.2516000000 7.2564000000 0.3888000000
2.2512000000 3.2417000000 3.2263000000
2.2510000000 0.8004000000 0.7771000000
2.2507000000 1.9229000000 1.8964000000
2.2504000000 7.7019000000 0.0894000000
2.2501000000 0.9079000000 0.8778000000
2.2498000000 0.6400000000 0.6126000000
2.2493000000 3.3099000000 3.2881000000
2.2491000000 5.4431000000 2.2068000000
2.2490000000 4.3689000000 3.2826000000
2.2482000000 0.7071000000 0.6798000000
2.2473000000 6.9363000000 0.7066000000
2.2440000000 3.5964000000 3.5750000000
2.0120000000 7.2521000000 0.3941000000
2.0113000000 3.9198000000 3.5965000000
2.0108000000 6.3395000000 1.3124000000
2.0105000000 1.4656000000 1.4336000000
2.0097000000 6.5355000000 1.1119000000
2.0091000000 0.3888000000 0.3646000000
2.0086000000 6.3168000000 1.3302000000
2.0083000000 1.9698000000 1.9394000000
2.0081000000 5.7172000000 1.9298000000
2.0076000000 3.6898000000 3.5630000000
2.0071000000 3.0199000000 2.9954000000
2.0066000000 5.7927000000 1.8560000000
2.0064000000 2.5019000000 2.4786000000
2.0062000000 1.1457000000 1.1199000000
2.0059000000 3.4188000000 3.3722000000
2.0058000000 7.0024000000 0.6435000000
2.0056000000 3.8687000000 3.6021000000
2.0053000000 4.5918000000 3.0549000000
2.0053000000 7.2675000000 0.3758000000
2.0050000000 3.9598000000 3.5755000000
2.0048000000 0.6496000000 0.6171000000
2.0047000000 6.2401000000 1.4093000000
2.0045000000 0.3574000000 0.3310000000
2.0044000000 0.7370000000 0.7076000000
2.0043000000 0.8655000000 0.8365000000
2.0041000000 3.7245000000 3.5721000000
2.0038000000 2.3819000000 2.3589000000
2.0037000000 6.0855000000 1.5626000000
2.0036000000 5.7681000000 1.8809000000
2.0033000000 3.1406000000 3.1171000000
2.0032000000 4.9191000000 2.7336000000
2.0030000000 7.0905000000 0.5562000000
2.0028000000 0.4692000000 0.4369000000
2.0024000000 2.3960000000 2.3690000000
2.0021000000 4.0282000000 3.5379000000
2.0019000000 1.0641000000 1.0399000000
2.0016000000 4.9939000000 2.6672000000
2.0014000000 1.7954000000 1.7682000000
2.0013000000 6.1341000000 1.5134000000
2.0010000000 4.9703000000 2.6786000000
2.0010000000 5.7483000000 1.8993000000
2.0007000000 4.6895000000 2.9631000000
2.0005000000 3.3695000000 3.3296000000
2.0002000000 2.0135000000 1.9880000000
1.9998000000 6.8528000000 0.7913000000
1.9993000000 1.5051000000 1.4828000000
1.9985000000 0.2515000000 0.2183000000
1.9980000000 3.2541000000 3.2285000000
1.9973000000 4.9463000000 2.7014000000
1.9939000000 3.8352000000 3.6028000000
1.7615000000 3.4682000000 3.2407000000
1.7604000000 7.0613000000 0.5840000000
1.7593000000 1.2579000000 1.2279000000
1.7590000000 7.4213000000 0.2232000000
1.7587000000 6.5881000000 1.0578000000
1.7582000000 2.8890000000 2.8644000000
1.7572000000 3.6961000000 3.3484000000
1.7570000000 4.2370000000 3.2170000000
1.7568000000 2.4962000000 2.4788000000
1.7566000000 2.4251000000 2.4002000000
1.7565000000 6.6339000000 1.0154000000
1.7563000000 4.3309000000 3.1700000000
1.7562000000 7.0532000000 0.5896000000
1.7560000000 3.4189000000 3.2038000000
1.7556000000 4.6992000000 2.9376000000
1.7555000000 6.6694000000 0.9767000000
1.7553000000 1.3309000000 1.2995000000
1.7550000000 5.7584000000 1.8897000000
1.7547000000 5.4621000000 2.1904000000
1.7545000000 0.5368000000 0.5118000000
1.7540000000 2.1894000000 2.1636000000
1.7539000000 5.6668000000 1.9804000000
1.7538000000 7.5550000000 0.0918000000
1.7537000000 3.5401000000 3.2698000000
1.7535000000 5.8882000000 1.7620000000
1.7533000000 4.5473000000 3.0515000000
1.7533000000 7.5209000000 0.1228000000
1.7529000000 3.0359000000 2.9942000000
1.7527000000 1.2474000000 1.2185000000
1.7525000000 4.2892000000 3.1854000000
1.7524000000 4.3809000000 3.1347000000
1.7523000000 3.7614000000 3.3800000000
1.7522000000 0.2286000000 0.2034000000
1.7520000000 3.8630000000 3.3846000000
1.7519000000 5.7489000000 1.8986000000
1.7518000000 0.5583000000 0.5337000000
1.7517000000 0.8219000000 0.7977000000
1.7513000000 3.7052000000 3.3473000000
1.7512000000 1.5402000000 1.5131000000
1.7510000000 3.0197000000 2.9774000000
1.7509000000 1.4297000000 1.4018000000
1.7508000000 0.2965000000 0.2655000000
1.7507000000 6.8629000000 0.7846000000
1.7505000000 3.7291000000 3.3527000000
1.7504000000 2.9573000000 2.9142000000
1.7497000000 5.2533000000 2.3903000000
1.7495000000 2.0971000000 2.0739000000
1.7493000000 1.7859000000 1.7590000000
1.7491000000 0.3873000000 0.3557000000
1.7487000000 2.7482000000 2.7181000000
1.7478000000 1.0460000000 1.0238000000
1.7468000000 1.4164000000 1.3845000000
1.7455000000 4.0557000000 3.2956000000
1.5143000000 7.5015000000 0.1478000000
1.5121000000 5.3837000000 2.2649000000
1.5107000000 5.1008000000 2.5391000000
1.5101000000 6.7504000000 0.8971000000
1.5095000000 6.5220000000 1.1273000000
1.5094000000 4.0628000000 3.0937000000
1.5090000000 4.8334000000 2.7076000000
1.5085000000 7.2888000000 0.3597000000
1.5084000000 4.5045000000 2.8710000000
1.5078000000 6.2201000000 1.4333000000
1.5075000000 4.1150000000 3.0595000000
1.5073000000 4.5925000000 2.8228000000
1.5072000000 7.4299000000 0.2117000000
1.5070000000 2.4194000000 2.3958000000
1.5069000000 2.2806000000 2.2538000000
1.5068000000 6.3249000000 1.3260000000
1.5066000000 6.0842000000 1.5620000000
1.5062000000 5.8995000000 1.7481000000
1.5060000000 6.6047000000 1.0482000000
1.5058000000 2.4497000000 2.4230000000
1.5056000000 0.2044000000 0.1757000000
1.5053000000 7.7000000000 0.0223000000
1.5048000000 7.5857000000 0.0569000000
1.5048000000 5.9787000000 1.6698000000
1.5046000000 4.5658000000 2.8337000000
1.5045000000 1.2460000000 1.2212000000
1.5043000000 4.5509000000 2.8391000000
1.5043000000 6.5030000000 1.1458000000
1.5041000000 3.6908000000 3.1188000000
1.5039000000 0.2147000000 0.1798000000
1.5039000000 3.0870000000 2.8206000000
1.5035000000 5.8493000000 1.7938000000
1.5033000000 1.6203000000 1.5928000000
1.5032000000 6.4786000000 1.1672000000
1.5031000000 3.8755000000 3.1636000000
1.5029000000 5.8896000000 1.7613000000
1.5028000000 6.0895000000 1.5594000000
1.5025000000 5.1299000000 2.5042000000
1.5023000000 0.0152000000 0.0635000000
1.5023000000 6.4555000000 1.1951000000
1.5022000000 3.3969000000 2.9738000000
1.5020000000 4.0706000000 3.0759000000
1.5018000000 2.8014000000 2.6768000000
1.5017000000 6.4474000000 1.1977000000
1.5015000000 4.8189000000 2.7043000000
1.5015000000 2.8838000000 2.7162000000
1.5012000000 7.3735000000 0.2753000000
1.5007000000 3.1251000000 2.8347000000
1.5005000000 0.8054000000 0.7786000000
1.5004000000 0.9127000000 0.8864000000
1.4994000000 6.7244000000 0.9301000000
1.4992000000 4.9112000000 2.6520000000
1.4975000000 0.1400000000 0.1140000000
1.4961000000 0.7599000000 0.7285000000
1.4932000000 4.1432000000 3.0364000000
1.2621000000 3.9629000000 2.9284000000
1.2611000000 3.2760000000 2.7062000000
1.2605000000 4.2481000000 2.7811000000
1.2602000000 4.2317000000 2.7830000000
1.2599000000 3.6063000000 2.8710000000
1.2593000000 7.3265000000 0.3158000000
1.2589000000 6.2953000000 1.3545000000
1.2588000000 7.3595000000 0.2881000000
1.2585000000 6.6113000000 1.0373000000
1.2582000000 7.2959000000 0.3501000000
1.2581000000 5.9321000000 1.7186000000
1.2578000000 0.6538000000 0.6221000000
1.2577000000 3.2556000000 2.6942000000
1.2575000000 7.1595000000 0.4895000000
1.2573000000 2.4404000000 2.2787000000
1.2570000000 7.5672000000 0.0726000000
1.2568000000 2.5032000000 2.3160000000
1.2567000000 5.4999000000 2.1332000000
1.2565000000 1.3433000000 1.3161000000
1.2565000000 7.0825000000 0.5598000000
1.2563000000 0.6513000000 0.6255000000
1.2559000000 5.5996000000 2.0371000000
1.2556000000 7.1717000000 0.4762000000
1.2552000000 0.4403000000 0.4155000000
1.2549000000 6.5944000000 1.0560000000
1.2548000000 5.0281000000 2.3866000000
1.2547000000 7.2102000000 0.4364000000
1.2545000000 3.3279000000 2.7209000000
1.2545000000 3.9633000000 2.9167000000
1.2544000000 7.5884000000 0.0567000000
1.2542000000 6.8131000000 0.8321000000
1.2540000000 1.9129000000 1.8833000000
1.2538000000 6.0143000000 1.6327000000
1.2538000000 5.6073000000 2.0328000000
1.2537000000 5.5693000000 2.0669000000
1.2535000000 3.7711000000 2.9456000000
1.2533000000 1.4412000000 1.4143000000
1.2530000000 5.9886000000 1.6638000000
1.2525000000 0.2684000000 0.2404000000
1.2525000000 2.5197000000 2.3195000000
1.2524000000 4.1134000000 2.8426000000
1.2521000000 0.3042000000 0.2669000000
1.2520000000 0.7127000000 0.6855000000
1.2517000000 7.4888000000 0.1585000000
1.2513000000 2.5122000000 2.3186000000
1.2511000000 7.4891000000 0.1598000000
1.2510000000 7.6604000000 0.0574000000
1.2509000000 6.5055000000 1.1348000000
1.2505000000 0.0293000000 0.0788000000
1.2504000000 6.0171000000 1.6325000000
1.2499000000 2.1079000000 2.0713000000
1.2493000000 4.8174000000 2.4877000000
1.2493000000 0.5200000000 0.4935000000
1.2472000000 4.2150000000 2.7877000000
1.2470000000 0.2876000000 0.2562000000
1.2462000000 0.3541000000 0.3255000000
1.2441000000 0.2953000000 0.2677000000
1.0113000000 4.7337000000 2.3214000000
1.0110000000 5.4763000000 1.9501000000
1.0105000000 7.4076000000 0.2388000000
1.0090000000 7.3710000000 0.2782000000
1.0088000000 4.6342000000 2.3664000000
1.0085000000 4.5777000000 2.3913000000
1.0079000000 3.3764000000 2.5361000000
1.0076000000 5.4133000000 1.9780000000
1.0072000000 5.4113000000 1.9788000000
1.0068000000 5.6974000000 1.8360000000
1.0065000000 3.6151000000 2.6528000000
1.0060000000 0.0182000000 0.0642000000
1.0060000000 3.4428000000 2.5679000000
1.0058000000 5.0515000000 2.1571000000
1.0055000000 1.9305000000 1.8165000000
1.0052000000 1.1591000000 1.1323000000
1.0048000000 6.5970000000 1.0534000000
1.0047000000 3.5178000000 2.6032000000
1.0045000000 5.9214000000 1.7045000000
1.0043000000 0.1561000000 0.1255000000
1.0042000000 3.7124000000 2.6997000000
1.0040000000 6.3308000000 1.3191000000
1.0039000000 7.0369000000 0.6096000000
1.0038000000 2.6377000000 2.1669000000
1.0037000000 0.0723000000 0.0389000000
1.0035000000 6.0955000000 1.5546000000
1.0033000000 6.9931000000 0.6576000000
1.0033000000 3.4794000000 2.5859000000
1.0028000000 7.2386000000 0.4131000000
1.0028000000 2.8410000000 2.2630000000
1.0025000000 3.2659000000 2.4701000000
1.0023000000 2.0545000000 1.8667000000
1.0019000000 2.2275000000 1.9542000000
1.0019000000 3.9451000000 2.7121000000
1.0015000000 7.4665000000 0.1791000000
1.0014000000 0.8129000000 0.7850000000
1.0013000000 6.3507000000 1.2958000000
1.0011000000 4.0369000000 2.6639000000
1.0009000000 3.1262000000 2.4005000000
1.0008000000 5.1565000000 2.1040000000
1.0003000000 6.5967000000 1.0528000000
1.0000000000 0.0467000000 0.0867000000
0.9997000000 2.0211000000 1.8522000000
0.9995000000 4.8382000000 2.2566000000
0.9993000000 4.1146000000 2.6254000000
0.9988000000 6.6916000000 0.9549000000
0.9987000000 1.4448000000 1.4190000000
0.9984000000 4.8040000000 2.2689000000
0.9982000000 0.1544000000 0.1254000000
0.9966000000 0.1510000000 0.1210000000
0.9961000000 0.2020000000 0.1744000000
0.9952000000 0.8646000000 0.8387000000
0.9938000000 1.1882000000 1.1571000000
0.7622000000 7.0668000000 0.5828000000
0.7610000000 7.6379000000 0.0783000000
0.7601000000 6.6548000000 0.9894000000
0.7593000000 4.6598000000 2.1423000000
0.7588000000 0.9428000000 0.9141000000
0.7584000000 0.8812000000 0.8593000000
0.7573000000 3.5337000000 2.3952000000
0.7568000000 4.5440000000 2.1974000000
0.7567000000 2.5823000000 1.9194000000
0.7565000000 3.3964000000 2.3261000000
0.7561000000 4.2023000000 2.3629000000
0.7559000000 4.0024000000 2.4622000000
0.7557000000 0.4442000000 0.4173000000
0.7555000000 3.8915000000 2.5157000000
0.7555000000 5.3265000000 1.8002000000
0.7553000000 4.2488000000 2.3387000000
0.7552000000 2.8035000000 2.0259000000
0.7549000000 6.4096000000 1.2266000000
0.7547000000 2.2822000000 1.7719000000
0.7546000000 1.7161000000 1.4820000000
0.7544000000 0.9332000000 0.9040000000
0.7543000000 0.8913000000 0.8590000000
0.7542000000 0.9759000000 0.9484000000
0.7540000000 5.8126000000 1.5612000000
0.7539000000 0.3000000000 0.2698000000
0.7537000000 0.9397000000 0.9144000000
0.7536000000 1.5435000000 1.3984000000
0.7535000000 4.3281000000 2.2996000000
0.7534000000 1.9536000000 1.6056000000
0.7533000000 1.0853000000 1.0531000000
0.7532000000 0.6466000000 0.6182000000
0.7530000000 3.5285000000 2.3924000000
0.7525000000 3.7293000000 2.4918000000
0.7522000000 6.7661000000 0.8865000000
0.7521000000 3.9485000000 2.4875000000
0.7519000000 0.2631000000 0.2334000000
0.7518000000 0.4319000000 0.4029000000
0.7515000000 0.2280000000 0.1994000000
0.7514000000 5.6713000000 1.6269000000
0.7513000000 3.2593000000 2.2525000000
0.7509000000 1.1218000000 1.0942000000
0.7507000000 4.4546000000 2.2375000000
0.7502000000 2.3645000000 1.8037000000
0.7499000000 0.5648000000 0.5367000000
0.7493000000 4.3252000000 2.2978000000
0.7489000000 4.4236000000 2.2489000000
0.7483000000 0.7708000000 0.7432000000
0.7480000000 5.5854000000 1.6667000000
0.7471000000 3.2603000000 2.2538000000
0.7443000000 5.1548000000 1.8767000000
0.5147000000 2.8608000000 1.8572000000
0.5129000000 5.8171000000 1.3468000000
0.5096000000 0.0905000000 0.0628000000
0.5090000000 2.8487000000 1.8451000000
0.5088000000 2.9426000000 1.8845000000
0.5083000000 1.9873000000 1.4015000000
0.5079000000 6.9006000000 0.7317000000
0.5074000000 7.6146000000 0.1071000000
0.5072000000 0.2856000000 0.2559000000
0.5071000000 6.1711000000 1.1624000000
0.5070000000 7.1682000000 0.4749000000
0.5067000000 4.5012000000 1.9982000000
0.5066000000 5.7384000000 1.3812000000
0.5064000000 7.1409000000 0.5064000000
0.5063000000 3.0594000000 1.9414000000
0.5062000000 6.8171000000 0.8130000000
0.5051000000 4.5165000000 1.9903000000
0.5046000000 2.7434000000 1.7822000000
0.5044000000 6.3108000000 1.0881000000
0.5043000000 5.6732000000 1.4083000000
0.5042000000 5.7626000000 1.3701000000
0.5041000000 2.3137000000 1.5648000000
0.5040000000 2.3654000000 1.5899000000
0.5038000000 1.5623000000 1.1922000000
0.5037000000 0.5497000000 0.5181000000
0.5035000000 7.5763000000 0.0687000000
0.5034000000 1.8146000000 1.3164000000
0.5031000000 4.5211000000 1.9847000000
0.5030000000 5.1560000000 1.6686000000
0.5028000000 2.5275000000 1.6736000000
0.5027000000 2.8321000000 1.8254000000
0.5025000000 7.2691000000 0.3794000000
0.5023000000 1.1244000000 0.9704000000
0.5021000000 1.0988000000 0.9535000000
0.5020000000 6.6110000000 0.9394000000
0.5018000000 3.2346000000 2.0237000000
0.5017000000 3.5839000000 2.1996000000
0.5015000000 4.0085000000 2.2402000000
0.5013000000 5.9564000000 1.2650000000
0.5011000000 1.7444000000 1.2743000000
0.5009000000 0.9304000000 0.8584000000
0.5005000000 0.5041000000 0.4785000000
0.5002000000 2.4504000000 1.6301000000
0.5001000000 4.9124000000 1.7877000000
0.5000000000 1.6425000000 1.2326000000
0.4999000000 0.7224000000 0.6995000000
0.4996000000 1.3243000000 1.0673000000
0.4993000000 5.2124000000 1.6421000000
0.4988000000 5.4894000000 1.4984000000
0.4980000000 0.6937000000 0.6623000000
0.4979000000 0.8057000000 0.7620000000
0.4974000000 1.6558000000 1.2322000000
0.4942000000 5.8715000000 1.3029000000
0.2620000000 7.5595000000 0.0871000000
0.2610000000 5.0135000000 1.5339000000
0.2608000000 1.5956000000 0.9938000000
0.2603000000 5.4606000000 1.3034000000
0.2599000000 6.2047000000 0.9307000000
0.2596000000 3.1685000000 1.7822000000
0.2594000000 4.0601000000 2.0078000000
0.2590000000 7.2347000000 0.3954000000
0.2583000000 5.4592000000 1.3003000000
0.2582000000 6.9558000000 0.5536000000
0.2578000000 6.9448000000 0.5660000000
0.2576000000 5.3190000000 1.3772000000
0.2574000000 3.7084000000 2.0568000000
0.2573000000 7.4615000000 0.1826000000
0.2571000000 7.6745000000 0.0418000000
0.2569000000 6.4615000000 0.8021000000
0.2567000000 3.3481000000 1.8689000000
0.2566000000 2.0582000000 1.2183000000
0.2564000000 2.3340000000 1.3641000000
0.2563000000 6.8094000000 0.6263000000
0.2561000000 5.8116000000 1.1271000000
0.2558000000 1.4183000000 0.9073000000
0.2556000000 3.4446000000 1.9172000000
0.2555000000 6.9815000000 0.5416000000
0.2552000000 1.3658000000 0.8727000000
0.2549000000 4.9462000000 1.5602000000
0.2547000000 4.3530000000 1.8517000000
0.2546000000 2.1215000000 1.2559000000
0.2543000000 2.5156000000 1.4546000000
0.2542000000 0.6895000000 0.5393000000
0.2540000000 1.8859000000 1.1377000000
0.2538000000 3.4336000000 1.9114000000
0.2538000000 5.4505000000 1.3066000000
0.2536000000 4.8094000000 1.6266000000
0.2535000000 2.3833000000 1.3866000000
0.2534000000 5.2872000000 1.3871000000
0.2531000000 3.3485000000 1.8711000000
0.2530000000 5.3893000000 1.3352000000
0.2528000000 0.3623000000 0.3144000000
0.2525000000 7.4199000000 0.2219000000
0.2524000000 5.0575000000 1.5028000000
0.2523000000 0.7358000000 0.5593000000
0.2519000000 2.1515000000 1.2657000000
0.2518000000 3.0290000000 1.7024000000
0.2513000000 0.2094000000 0.1826000000
0.2510000000 2.8775000000 1.6245000000
0.2507000000 0.1062000000 0.0749000000
0.2505000000 2.8448000000 1.6132000000
0.2503000000 1.2361000000 0.8059000000
0.2498000000 0.7569000000 0.5748000000
0.2495000000 2.4191000000 1.3981000000
0.2491000000 1.4279000000 0.9035000000
0.2488000000 2.8625000000 1.6206000000
0.2486000000 3.7876000000 2.0729000000
0.2484000000 1.3542000000 0.8623000000
0.2473000000 1.8299000000 1.1008000000
0.2472000000 1.9591000000 1.1667000000
0.2445000000 1.7463000000 1.0529000000
0.0111000000 7.6883000000 0.0131000000
0.0103000000 5.1726000000 1.2364000000
0.0094000000 7.4352000000 0.1015000000
0.0090000000 2.7269000000 1.3478000000
0.0089000000 3.6918000000 1.8264000000
0.0084000000 6.5867000000 0.5245000000
0.0082000000 6.8507000000 0.3869000000
0.0077000000 4.3456000000 1.6454000000
0.0075000000 7.3717000000 0.1251000000
0.0074000000 0.3428000000 0.1490000000
0.0069000000 6.9046000000 0.3595000000
0.0066000000 3.9712000000 1.8306000000
0.0064000000 7.4723000000 0.0787000000
0.0061000000 0.4070000000 0.1841000000
0.0057000000 7.1871000000 0.2185000000
0.0056000000 6.8011000000 0.4157000000
0.0055000000 3.6827000000 1.8193000000
0.0053000000 4.0401000000 1.7992000000
0.0053000000 6.8781000000 0.3762000000
0.0049000000 6.5565000000 0.5410000000
0.0047000000 1.9150000000 0.9394000000
0.0043000000 3.7026000000 1.8270000000
0.0040000000 2.5439000000 1.2545000000
0.0039000000 7.4219000000 0.0951000000
0.0038000000 2.3140000000 1.1298000000
0.0037000000 4.1943000000 1.7173000000
0.0035000000 0.9226000000 0.4345000000
0.0032000000 3.4411000000 1.6988000000
0.0030000000 4.6812000000 1.4683000000
0.0023000000 0.2765000000 0.1112000000
0.0020000000 7.5347000000 0.0405000000
0.0018000000 1.1847000000 0.5623000000
0.0015000000 7.2925000000 0.1649000000
0.0014000000 0.4829000000 0.2113000000
0.0012000000 1.9062000000 0.9275000000
0.0008000000 3.9984000000 1.8105000000
0.0004000000 2.6280000000 1.2879000000
0.0003000000 6.3953000000 0.6104000000
-0.0000000000 6.9609000000 0.3270000000
-0.0005000000 2.8476000000 1.3943000000
-0.0005000000 0.4974000000 0.2190000000
-0.0012000000 4.8920000000 1.3659000000
-0.0014000000 0.4793000000 0.2054000000
-0.0019000000 0.7707000000 0.3605000000
-0.0021000000 1.9133000000 0.9282000000
-0.0027000000 0.3217000000 0.1345000000
-0.0029000000 7.4483000000 0.0844000000
-0.0069000000 1.0005000000 0.4683000000
-0.2362000000 6.9505000000 0.1325000000
-0.2402000000 6.5353000000 0.3283000000
-0.2405000000 2.1525000000 0.8397000000
-0.2409000000 6.2112000000 0.4932000000
-0.2413000000 5.4668000000 0.8661000000
-0.2417000000 4.9381000000 1.1308000000
-0.2418000000 2.9545000000 1.2429000000
-0.2421000000 3.5181000000 1.5216000000
-0.2422000000 5.5125000000 0.8422000000
-0.2425000000 4.9820000000 1.1090000000
-0.2429000000 5.6624000000 0.7641000000
-0.2431000000 5.9099000000 0.6440000000
-0.2435000000 1.1791000000 0.3477000000
-0.2437000000 3.3156000000 1.4191000000
-0.2438000000 2.2057000000 0.8619000000
-0.2441000000 6.2125000000 0.4981000000
-0.2442000000 3.7091000000 1.6162000000
-0.2442000000 6.8663000000 0.1667000000
-0.2443000000 7.0767000000 0.0535000000
-0.2444000000 7.2068000000 0.0683000000
-0.2445000000 3.2079000000 1.3607000000
-0.2448000000 6.3836000000 0.4060000000
-0.2450000000 3.1813000000 1.3482000000
-0.2452000000 5.5757000000 0.8089000000
-0.2454000000 4.1310000000 1.5281000000
-0.2459000000 2.9694000000 1.2446000000
-0.2460000000 3.0143000000 1.2706000000
-0.2461000000 0.6375000000 0.0774000000
-0.2462000000 2.2578000000 0.8890000000
-0.2464000000 3.3689000000 1.4442000000
-0.2466000000 3.7472000000 1.6319000000
-0.2467000000 3.6094000000 1.5649000000
-0.2468000000 2.4054000000 0.9599000000
-0.2470000000 1.2536000000 0.3871000000
-0.2471000000 1.2936000000 0.4002000000
-0.2474000000 3.7492000000 1.6321000000
-0.2477000000 7.3057000000 0.0848000000
-0.2479000000 5.7783000000 0.7086000000
-0.2482000000 4.4817000000 1.3566000000
-0.2483000000 2.7562000000 1.1300000000
-0.2485000000 0.7732000000 0.1447000000
-0.2489000000 0.8559000000 0.1805000000
-0.2490000000 5.1099000000 1.0401000000
-0.2493000000 2.9835000000 1.2509000000
-0.2494000000 5.7474000000 0.7191000000
-0.2496000000 0.2520000000 0.0301000000
-0.2504000000 2.7471000000 1.1295000000
-0.2505000000 2.0646000000 0.7841000000
-0.2509000000 2.3545000000 0.9300000000
-0.2451000000 3.6701000000 1.5993000000
-0.2516000000 3.0567000000 1.2811000000
-0.2539000000 3.1704000000 1.3384000000
-0.2559000000 3.1052000000 1.3025000000
-0.4899000000 5.0921000000 0.8434000000
-0.4900000000 6.6796000000 0.0442000000
-0.4910000000 4.8521000000 0.9516000000
-0.4914000000 5.4209000000 0.6702000000
-0.4921000000 6.5684000000 0.1004000000
-0.4924000000 1.1559000000 0.1178000000
-0.4928000000 3.4616000000 1.2816000000
-0.4932000000 4.5763000000 1.0944000000
-0.4937000000 0.9510000000 0.0921000000
-0.4940000000 0.8223000000 0.0301000000
-0.4940000000 4.1438000000 1.3094000000
-0.4942000000 6.6299000000 0.0696000000
-0.4944000000 6.8857000000 0.0826000000
-0.4945000000 5.0766000000 0.8482000000
-0.4948000000 6.0469000000 0.3607000000
-0.4949000000 1.8939000000 0.4860000000
-0.4950000000 0.7319000000 0.0546000000
-0.4952000000 2.5908000000 0.8423000000
-0.4955000000 6.4504000000 0.1538000000
-0.4957000000 6.6891000000 0.0339000000
-0.4958000000 4.3897000000 1.1826000000
-0.4961000000 6.7256000000 0.0884000000
-0.4963000000 6.2385000000 0.2608000000
-0.4965000000 6.6581000000 0.0511000000
-0.4967000000 3.3164000000 1.1972000000
-0.4969000000 4.3305000000 1.2113000000
-0.4969000000 4.3683000000 1.1999000000
-0.4973000000 0.8845000000 0.0565000000
-0.4976000000 5.3832000000 0.6905000000
-0.4980000000 2.7999000000 0.9416000000
-0.4981000000 3.0934000000 1.0864000000
-0.4983000000 1.9093000000 0.4930000000
-0.4985000000 2.4756000000 0.7773000000
-0.4987000000 5.5409000000 0.6062000000
-0.4989000000 3.9187000000 1.4183000000
-0.4991000000 6.5536000000 0.0970000000
-0.4993000000 3.7663000000 1.4231000000
-0.4996000000 1.4199000000 0.2458000000
-0.4997000000 2.4317000000 0.7572000000
-0.4998000000 3.4267000000 1.2506000000
-0.5000000000 1.5013000000 0.2894000000
-0.5004000000 2.5646000000 0.8197000000
-0.5012000000 6.6107000000 0.0715000000
-0.5014000000 0.9409000000 0.0832000000
-0.5017000000 2.1533000000 0.6090000000
-0.5024000000 1.3225000000 0.1956000000
-0.5047000000 2.9290000000 0.9966000000
-0.7386000000 5.8695000000 0.2369000000
-0.7402000000 3.8694000000 1.2177000000
-0.7406000000 5.1594000000 0.5864000000
-0.7407000000 3.9201000000 1.2079000000
-0.7411000000 6.3004000000 0.0915000000
-0.7416000000 5.4534000000 0.4437000000
-0.7418000000 5.4437000000 0.4441000000
-0.7420000000 4.8550000000 0.7405000000
-0.7430000000 2.6322000000 0.6480000000
-0.7435000000 5.8552000000 0.2346000000
-0.7437000000 6.1379000000 0.0915000000
-0.7440000000 2.2890000000 0.4723000000
-0.7447000000 5.3169000000 0.5053000000
-0.7453000000 5.3832000000 0.4683000000
-0.7458000000 2.0107000000 0.3279000000
-0.7461000000 4.8081000000 0.7551000000
-0.7460000000 6.2200000000 0.0520000000
-0.7462000000 2.4568000000 0.5503000000
-0.7464000000 6.4261000000 0.0208000000
-0.7467000000 1.6568000000 0.1544000000
-0.7470000000 3.8673000000 1.2091000000
