5.5095000000 2.8564000000 0.0571000000
5.5058000000 2.8943000000 0.0711000000
5.5053000000 2.6989000000 0.0022000000
5.5034000000 3.4935000000 0.0751000000
5.5024000000 3.5876000000 0.0487000000
5.5018000000 3.4489000000 0.0943000000
5.5005000000 3.4540000000 0.0960000000
5.5003000000 3.7552000000 0.0597000000
5.2625000000 2.7653000000 0.1071000000
5.2589000000 2.4902000000 0.0821000000
5.2587000000 3.8311000000 0.1105000000
5.2580000000 3.8270000000 0.1116000000
5.2573000000 4.1448000000 0.0728000000
5.2568000000 2.9797000000 0.1834000000
5.2563000000 4.2684000000 0.0289000000
5.2557000000 2.8328000000 0.1368000000
5.2554000000 3.9082000000 0.0886000000
5.2550000000 3.0646000000 0.2190000000
5.2547000000 3.6130000000 0.1928000000
5.2536000000 4.1255000000 0.0808000000
5.2527000000 2.9239000000 0.1671000000
5.2520000000 3.4757000000 0.2448000000
5.2499000000 2.6633000000 0.0732000000
5.2491000000 3.2728000000 0.2906000000
5.0130000000 4.4986000000 0.0193000000
5.0094000000 4.6018000000 0.0580000000
5.0074000000 3.5390000000 0.3819000000
5.0068000000 4.4273000000 0.0516000000
5.0060000000 1.8623000000 0.0160000000
5.0054000000 4.5297000000 0.0064000000
5.0046000000 3.2031000000 0.4287000000
5.0045000000 3.3046000000 0.4581000000
5.0042000000 1.8972000000 0.0217000000
5.0040000000 2.3147000000 0.1025000000
5.0035000000 4.4110000000 0.0595000000
5.0026000000 3.9432000000 0.2305000000
5.0021000000 2.2073000000 0.0644000000
5.0016000000 3.8419000000 0.2700000000
5.0008000000 3.9621000000 0.2286000000
4.9988000000 3.9234000000 0.2434000000
4.7617000000 4.4925000000 0.1822000000
4.7598000000 1.7602000000 0.0526000000
4.7590000000 1.6745000000 0.0258000000
4.7585000000 5.0667000000 0.0498000000
4.7583000000 2.3905000000 0.2929000000
4.7577000000 1.7811000000 0.0635000000
4.7572000000 5.1688000000 0.0160000000
4.7568000000 2.5952000000 0.3720000000
4.7559000000 1.8514000000 0.0884000000
4.7557000000 4.0940000000 0.3442000000
4.7556000000 3.4700000000 0.5646000000
4.7554000000 3.7910000000 0.4424000000
4.7551000000 2.6349000000 0.3831000000
4.7549000000 4.2428000000 0.2782000000
4.7547000000 5.0726000000 0.0500000000
4.7545000000 1.5052000000 0.0406000000
4.7544000000 2.7072000000 0.4121000000
4.7542000000 2.8801000000 0.4726000000
4.7538000000 4.2598000000 0.2756000000
4.7537000000 3.7769000000 0.4503000000
4.7530000000 3.1597000000 0.5768000000
4.7525000000 2.0013000000 0.1493000000
4.7525000000 4.7035000000 0.1058000000
4.7523000000 3.2455000000 0.6075000000
4.7519000000 1.6841000000 0.0314000000
4.7514000000 5.1309000000 0.0249000000
4.7504000000 4.0834000000 0.3397000000
4.7499000000 1.8650000000 0.1007000000
4.7449000000 3.7628000000 0.4618000000
4.5118000000 4.4907000000 0.3527000000
4.5102000000 3.3436000000 0.7569000000
4.5089000000 5.6253000000 -0.0041000000
4.5088000000 4.7293000000 0.2595000000
4.5084000000 5.3278000000 0.0363000000
4.5082000000 2.8922000000 0.6363000000
4.5078000000 3.2523000000 0.7557000000
4.5077000000 2.8275000000 0.6048000000
4.5076000000 4.4725000000 0.3542000000
4.5073000000 4.4388000000 0.3677000000
4.5072000000 1.2018000000 0.0840000000
4.5070000000 3.4755000000 0.7224000000
4.5066000000 1.5267000000 0.1328000000
4.5062000000 3.6539000000 0.6537000000
4.5059000000 2.2936000000 0.4147000000
4.5058000000 3.7361000000 0.6289000000
4.5056000000 3.1676000000 0.7403000000
4.5052000000 3.1696000000 0.7377000000
4.5047000000 4.4521000000 0.3605000000
4.5045000000 5.1320000000 0.1125000000
4.5043000000 5.0999000000 0.1208000000
4.5042000000 4.0704000000 0.5061000000
4.5039000000 1.6071000000 0.1675000000
4.5033000000 5.3495000000 0.0357000000
4.5028000000 5.5287000000 0.0437000000
4.5019000000 1.3464000000 0.0684000000
4.5016000000 1.7256000000 0.2081000000
4.5013000000 2.0122000000 0.3154000000
4.5011000000 5.1311000000 0.1152000000
4.5009000000 5.2373000000 0.0752000000
4.5005000000 1.5019000000 0.1231000000
4.4999000000 4.6905000000 0.2728000000
4.4995000000 1.6451000000 0.1764000000
4.4990000000 2.6676000000 0.5580000000
4.4980000000 3.8363000000 0.5996000000
4.4969000000 2.5562000000 0.5190000000
4.2627000000 4.9479000000 0.3347000000
4.2608000000 5.4902000000 0.1409000000
4.2597000000 1.4714000000 0.2728000000
4.2594000000 5.3496000000 0.1907000000
4.2593000000 3.8099000000 0.7612000000
4.2585000000 3.4836000000 0.8770000000
4.2582000000 3.5247000000 0.8659000000
4.2578000000 5.1556000000 0.2605000000
4.2574000000 2.7006000000 0.7233000000
4.2571000000 5.6854000000 0.0702000000
4.2567000000 2.7200000000 0.7311000000
4.2562000000 3.9975000000 0.6941000000
4.2563000000 3.3211000000 0.9239000000
4.2560000000 0.5574000000 0.0122000000
4.2558000000 4.2776000000 0.5867000000
4.2556000000 0.5611000000 0.0096000000
4.2554000000 3.9559000000 0.7040000000
4.2553000000 0.6176000000 0.0319000000
4.2552000000 4.9545000000 0.3426000000
4.2550000000 5.4747000000 0.1412000000
4.2545000000 4.8501000000 0.3748000000
4.2543000000 2.5768000000 0.6866000000
4.2540000000 2.8901000000 0.7967000000
4.2538000000 0.6646000000 0.0513000000
4.2538000000 1.5176000000 0.2879000000
4.2535000000 5.4397000000 0.1584000000
4.2534000000 5.6616000000 0.0815000000
4.2531000000 1.4593000000 0.2685000000
4.2530000000 2.5159000000 0.6614000000
4.2528000000 1.4724000000 0.2739000000
4.2526000000 0.5340000000 0.0040000000
4.2525000000 3.2736000000 0.9266000000
4.2523000000 4.8940000000 0.3626000000
4.2520000000 1.7996000000 0.3997000000
4.2516000000 1.0699000000 0.1260000000
4.2510000000 1.7403000000 0.3760000000
4.2503000000 1.9129000000 0.4357000000
4.2502000000 0.9438000000 0.0885000000
4.2491000000 4.9490000000 0.3458000000
4.2483000000 1.8635000000 0.4234000000
4.2479000000 3.0541000000 0.8609000000
4.2476000000 4.9129000000 0.3593000000
4.2472000000 2.1333000000 0.5170000000
4.2459000000 3.7143000000 0.8003000000
4.0137000000 5.7300000000 0.2016000000
4.0117000000 0.4515000000 0.0479000000
4.0103000000 3.7248000000 0.9473000000
4.0090000000 4.4836000000 0.6655000000
4.0087000000 4.5659000000 0.6375000000
4.0085000000 3.2302000000 1.0761000000
4.0081000000 4.2326000000 0.7617000000
4.0074000000 3.9371000000 0.8685000000
4.0073000000 4.0191000000 0.8413000000
4.0070000000 2.7914000000 0.9133000000
4.0066000000 5.9194000000 0.1443000000
4.0065000000 3.9144000000 0.8796000000
4.0062000000 1.9995000000 0.6272000000
4.0058000000 6.3673000000 0.0556000000
4.0056000000 0.7192000000 0.1551000000
4.0053000000 0.4204000000 0.0452000000
4.0053000000 4.7897000000 0.5614000000
4.0050000000 5.7851000000 0.1895000000
4.0049000000 0.4015000000 0.0370000000
4.0046000000 2.0247000000 0.6374000000
4.0042000000 2.8891000000 0.9544000000
4.0038000000 2.4813000000 0.8023000000
4.0037000000 3.2695000000 1.0856000000
4.0034000000 2.7302000000 0.8977000000
4.0031000000 5.6803000000 0.2305000000
4.0029000000 2.1472000000 0.6860000000
4.0028000000 4.0724000000 0.8154000000
4.0025000000 3.5596000000 1.0166000000
4.0024000000 3.9704000000 0.8579000000
4.0020000000 5.3894000000 0.3420000000
4.0016000000 2.3172000000 0.7454000000
4.0014000000 4.2262000000 0.7703000000
4.0010000000 1.0729000000 0.2852000000
4.0005000000 2.8075000000 0.9239000000
4.0003000000 4.0129000000 0.8439000000
3.9997000000 1.6053000000 0.4847000000
3.9977000000 5.0852000000 0.4525000000
3.9968000000 5.0119000000 0.4839000000
3.9953000000 2.8079000000 0.9316000000
3.7622000000 3.1710000000 1.2122000000
3.7614000000 3.7343000000 1.1029000000
3.7608000000 5.6757000000 0.3864000000
3.7598000000 0.3139000000 0.1662000000
3.7592000000 4.9576000000 0.6517000000
3.7590000000 4.8109000000 0.7036000000
3.7586000000 6.6082000000 0.0780000000
3.7583000000 1.8141000000 0.7182000000
3.7582000000 5.3210000000 0.5231000000
3.7580000000 2.0265000000 0.7908000000
3.7577000000 1.3744000000 0.5511000000
3.7570000000 4.5374000000 0.8115000000
3.7569000000 5.0756000000 0.6118000000
3.7566000000 6.1295000000 0.2245000000
3.7558000000 4.0846000000 0.9773000000
3.7557000000 5.4636000000 0.4740000000
3.7555000000 4.4780000000 0.8300000000
3.7553000000 2.1607000000 0.8458000000
3.7550000000 1.3010000000 0.5270000000
3.7550000000 2.1939000000 0.8573000000
3.7548000000 4.1204000000 0.9663000000
3.7545000000 3.7196000000 1.1176000000
3.7544000000 2.4747000000 0.9633000000
3.7543000000 6.0691000000 0.2435000000
3.7540000000 6.3375000000 0.1447000000
3.7539000000 4.2669000000 0.9091000000
3.7537000000 5.6564000000 0.3963000000
3.7535000000 2.4639000000 0.9610000000
3.7532000000 2.7576000000 1.0665000000
3.7531000000 1.5370000000 0.6223000000
3.7530000000 3.9926000000 1.0147000000
3.7528000000 1.1257000000 0.4599000000
3.7525000000 0.8718000000 0.3750000000
3.7520000000 0.3870000000 0.1952000000
3.7518000000 2.6016000000 1.0113000000
3.7511000000 1.8123000000 0.7150000000
3.7509000000 5.2934000000 0.5312000000
3.7506000000 0.8021000000 0.3498000000
3.7502000000 5.5883000000 0.4306000000
3.7499000000 2.9986000000 1.1570000000
3.7494000000 2.5777000000 1.0085000000
3.7491000000 4.5955000000 0.7906000000
3.7473000000 0.5016000000 0.2431000000
3.7459000000 2.9251000000 1.1335000000
3.5148000000 6.0728000000 0.3811000000
3.5125000000 3.3828000000 1.3948000000
3.5111000000 2.4933000000 1.1245000000
3.5105000000 4.5680000000 0.9541000000
3.5103000000 3.5561000000 1.3263000000
3.5094000000 5.7600000000 0.5139000000
3.5090000000 5.5778000000 0.5819000000
3.5085000000 4.0573000000 1.1449000000
3.5080000000 1.3255000000 0.6972000000
3.5075000000 5.1593000000 0.7388000000
3.5073000000 6.0520000000 0.3995000000
3.5068000000 2.9844000000 1.3047000000
3.5066000000 1.6551000000 0.8190000000
3.5065000000 4.0528000000 1.1458000000
3.5064000000 6.4937000000 0.0960000000
3.5062000000 5.4113000000 0.6490000000
3.5060000000 3.6167000000 1.3104000000
3.5058000000 2.1928000000 1.0179000000
3.5057000000 1.2331000000 0.6619000000
3.5055000000 1.5601000000 0.7856000000
3.5053000000 1.9868000000 0.9427000000
3.5051000000 2.0854000000 0.9776000000
3.5049000000 2.4733000000 1.1218000000
3.5049000000 1.0239000000 0.5875000000
3.5048000000 0.8456000000 0.5226000000
3.5047000000 5.1934000000 0.7309000000
3.5045000000 3.3033000000 1.4123000000
3.5043000000 2.1938000000 1.0206000000
3.5042000000 2.4289000000 1.1081000000
3.5038000000 4.7862000000 0.8841000000
3.5038000000 6.3247000000 0.2194000000
3.5036000000 1.3264000000 0.7004000000
3.5034000000 0.1396000000 0.1206000000
3.5033000000 4.6665000000 0.9224000000
3.5031000000 0.6367000000 0.4387000000
3.5030000000 5.6421000000 0.5614000000
3.5030000000 0.7164000000 0.4702000000
3.5029000000 0.5154000000 0.3849000000
3.5026000000 6.4736000000 0.1080000000
3.5025000000 4.8118000000 0.8724000000
3.5023000000 5.2187000000 0.7252000000
3.5019000000 2.2402000000 1.0405000000
3.5018000000 0.1817000000 0.1515000000
3.5015000000 1.5750000000 0.7865000000
3.5013000000 3.4965000000 1.3603000000
3.5011000000 0.5293000000 0.3887000000
3.5007000000 5.8535000000 0.4845000000
3.5004000000 3.8267000000 1.2419000000
3.5003000000 4.4617000000 0.9997000000
3.4993000000 1.4800000000 0.7578000000
3.4980000000 5.0254000000 0.7913000000
3.4977000000 5.3466000000 0.6754000000
3.4973000000 0.5432000000 0.3974000000
3.2628000000 6.5329000000 0.0684000000
3.2605000000 5.3867000000 0.8169000000
3.2603000000 3.9564000000 1.3376000000
3.2590000000 3.7278000000 1.4281000000
3.2587000000 2.7965000000 1.3992000000
3.2583000000 2.1070000000 1.1452000000
3.2583000000 3.8988000000 1.3701000000
3.2578000000 1.7610000000 1.0217000000
3.2576000000 1.3861000000 0.8775000000
3.2575000000 5.0596000000 0.9343000000
3.2573000000 5.4246000000 0.8043000000
3.2570000000 1.8246000000 1.0422000000
3.2563000000 5.6798000000 0.6808000000
3.2560000000 1.3034000000 0.8528000000
3.2560000000 2.2082000000 1.1837000000
3.2557000000 1.4406000000 0.8974000000
3.2556000000 6.0755000000 0.4012000000
3.2552000000 5.8727000000 0.5539000000
3.2550000000 3.4212000000 1.5426000000
3.2549000000 3.6974000000 1.4409000000
3.2548000000 4.0525000000 1.3135000000
3.2546000000 4.7553000000 1.0543000000
3.2539000000 6.1987000000 0.3166000000
3.2539000000 3.9885000000 1.3362000000
3.2537000000 4.8571000000 1.0160000000
3.2536000000 6.1476000000 0.3476000000
3.2535000000 6.0077000000 0.4601000000
3.2533000000 4.7172000000 1.0637000000
3.2530000000 1.1123000000 0.7754000000
3.2525000000 2.5719000000 1.3181000000
3.2523000000 3.9079000000 1.3626000000
3.2522000000 3.2843000000 1.5738000000
3.2521000000 4.9792000000 0.9639000000
3.2520000000 3.4040000000 1.5519000000
3.2518000000 1.4078000000 0.8908000000
3.2517000000 0.1341000000 0.1158000000
3.2515000000 3.7752000000 1.4145000000
3.2513000000 1.8267000000 1.0440000000
3.2509000000 6.2689000000 0.2639000000
3.2506000000 2.9095000000 1.4441000000
3.2503000000 4.7021000000 1.0690000000
3.2500000000 5.5274000000 0.7587000000
3.2499000000 1.4227000000 0.8946000000
3.2495000000 2.3672000000 1.2392000000
3.2493000000 6.6002000000 0.0868000000
3.2491000000 3.5895000000 1.4832000000
3.2489000000 4.6677000000 1.0915000000
3.2481000000 4.8335000000 1.0265000000
3.2480000000 0.1666000000 0.1341000000
3.2476000000 1.5484000000 0.9478000000
3.2464000000 0.3284000000 0.2507000000
3.2457000000 0.0620000000 0.0560000000
3.0138000000 3.7248000000 1.5848000000
3.0116000000 4.3253000000 1.3625000000
3.0112000000 3.2296000000 1.7091000000
3.0105000000 4.8728000000 1.1623000000
3.0093000000 1.5875000000 1.1090000000
3.0087000000 5.3727000000 0.9197000000
3.0081000000 6.0600000000 0.4156000000
3.0078000000 6.1045000000 0.3800000000
3.0075000000 2.0972000000 1.3006000000
3.0072000000 3.5107000000 1.6658000000
3.0070000000 3.2648000000 1.7161000000
3.0069000000 0.5840000000 0.4402000000
3.0068000000 1.5240000000 1.0912000000
3.0063000000 4.7531000000 1.2077000000
3.0062000000 3.5211000000 1.6572000000
3.0061000000 0.7473000000 0.5678000000
3.0060000000 5.0950000000 1.0793000000
3.0058000000 6.4622000000 0.1147000000
3.0056000000 1.8598000000 1.2136000000
3.0054000000 0.9913000000 0.7419000000
3.0053000000 4.5299000000 1.2939000000
3.0048000000 4.1832000000 1.4226000000
3.0048000000 1.4278000000 1.0466000000
3.0046000000 1.9104000000 1.2340000000
3.0043000000 2.0321000000 1.2783000000
3.0038000000 0.3217000000 0.2504000000
3.0036000000 3.4680000000 1.6846000000
3.0034000000 2.3595000000 1.3967000000
3.0031000000 3.9866000000 1.4959000000
3.0029000000 5.0678000000 1.0941000000
3.0027000000 0.4790000000 0.3698000000
3.0025000000 5.4943000000 0.8321000000
3.0024000000 0.8327000000 0.6340000000
3.0023000000 3.8401000000 1.5481000000
3.0021000000 0.5939000000 0.4522000000
3.0019000000 0.5440000000 0.4134000000
3.0018000000 0.2556000000 0.2038000000
3.0017000000 3.8000000000 1.5592000000
3.0014000000 0.7666000000 0.5794000000
3.0009000000 4.2076000000 1.4178000000
3.0005000000 0.8547000000 0.6437000000
3.0000000000 0.6875000000 0.5208000000
2.9992000000 1.4158000000 1.0473000000
2.9988000000 4.8732000000 1.1702000000
2.9980000000 6.4892000000 0.0946000000
2.9967000000 1.0641000000 0.7999000000
2.9923000000 3.3549000000 1.7285000000
2.7615000000 1.1720000000 0.8795000000
2.7608000000 3.2657000000 1.8723000000
2.7603000000 6.1714000000 0.3323000000
2.7593000000 3.3416000000 1.8760000000
2.7590000000 2.6075000000 1.6474000000
2.7585000000 5.7822000000 0.6163000000
2.7580000000 6.4006000000 0.1584000000
2.7577000000 4.4614000000 1.4764000000
2.7575000000 0.6898000000 0.5171000000
2.7574000000 4.2216000000 1.5691000000
2.7570000000 5.2013000000 1.0450000000
2.7568000000 4.0481000000 1.6301000000
2.7566000000 0.2575000000 0.2040000000
2.7565000000 5.2157000000 1.0390000000
2.7563000000 5.2161000000 1.0386000000
2.7562000000 4.5037000000 1.4645000000
2.7561000000 3.2939000000 1.8876000000
2.7560000000 1.5968000000 1.1891000000
2.7553000000 3.1508000000 1.8452000000
2.7551000000 5.1994000000 1.0472000000
2.7550000000 2.5763000000 1.6348000000
2.7548000000 4.3788000000 1.5069000000
2.7546000000 3.5067000000 1.8283000000
2.7544000000 6.5359000000 0.0632000000
2.7542000000 1.4742000000 1.1026000000
2.7540000000 5.6290000000 0.7311000000
2.7538000000 2.1460000000 1.4770000000
2.7536000000 1.0721000000 0.8000000000
2.7535000000 0.3315000000 0.2572000000
2.7534000000 3.8671000000 1.6997000000
2.7531000000 4.9079000000 1.2644000000
2.7530000000 4.4122000000 1.4948000000
2.7528000000 4.1697000000 1.5770000000
2.7526000000 6.2285000000 0.2892000000
2.7523000000 1.3588000000 1.0106000000
2.7520000000 0.5945000000 0.4540000000
2.7517000000 3.9523000000 1.6660000000
2.7515000000 6.1149000000 0.3740000000
2.7514000000 2.3060000000 1.5357000000
2.7512000000 2.2543000000 1.5277000000
2.7506000000 0.0317000000 0.0352000000
2.7503000000 2.0923000000 1.4622000000
2.7499000000 3.3630000000 1.8931000000
2.7498000000 3.2856000000 1.8840000000
2.7488000000 1.1760000000 0.8815000000
2.7483000000 1.1135000000 0.8362000000
2.7477000000 0.6370000000 0.4842000000
2.7469000000 0.2624000000 0.2038000000
2.5124000000 5.5179000000 0.8141000000
2.5113000000 5.2688000000 0.9967000000
2.5108000000 6.5283000000 0.0711000000
2.5096000000 5.7218000000 0.6661000000
2.5092000000 6.5914000000 0.0217000000
2.5084000000 2.8601000000 1.9079000000
2.5080000000 5.5845000000 0.7628000000
2.5079000000 1.1304000000 0.8468000000
2.5075000000 2.6082000000 1.8066000000
2.5071000000 1.5684000000 1.1716000000
2.5068000000 4.9937000000 1.1995000000
2.5066000000 0.5447000000 0.4168000000
2.5065000000 5.5304000000 0.8064000000
2.5063000000 6.3120000000 0.2326000000
2.5061000000 3.5809000000 1.9586000000
2.5059000000 2.8580000000 1.9015000000
2.5056000000 6.5411000000 0.0583000000
2.5054000000 3.4606000000 2.0069000000
2.5050000000 3.5163000000 1.9883000000
2.5049000000 2.3068000000 1.6826000000
2.5048000000 4.7587000000 1.3752000000
2.5046000000 2.2100000000 1.6321000000
2.5042000000 3.6327000000 1.9417000000
2.5040000000 1.9621000000 1.4628000000
2.5038000000 6.2877000000 0.2463000000
2.5037000000 5.4358000000 0.8728000000
2.5036000000 4.6722000000 1.4308000000
2.5035000000 4.3468000000 1.6587000000
2.5030000000 4.9299000000 1.2429000000
2.5028000000 2.7387000000 1.8579000000
2.5026000000 1.8172000000 1.3516000000
2.5024000000 5.0842000000 1.1363000000
2.5019000000 1.8498000000 1.3782000000
2.5017000000 1.9770000000 1.4711000000
2.5015000000 0.8922000000 0.6669000000
2.5013000000 3.6443000000 1.9423000000
2.5009000000 0.4427000000 0.3402000000
2.5005000000 2.6643000000 1.8328000000
2.4988000000 1.7981000000 1.3410000000
2.4982000000 0.5670000000 0.4258000000
2.4960000000 1.2263000000 0.9155000000
2.2632000000 5.8253000000 0.5900000000
2.2619000000 4.8700000000 1.2888000000
2.2603000000 0.6586000000 0.4967000000
2.2602000000 1.8088000000 1.3408000000
2.2597000000 5.9628000000 0.4849000000
2.2592000000 6.1152000000 0.3724000000
2.2589000000 3.2687000000 2.2019000000
2.2584000000 4.3581000000 1.6763000000
2.2580000000 3.6810000000 2.0768000000
2.2578000000 5.3788000000 0.9170000000
2.2577000000 6.0398000000 0.4282000000
2.2573000000 2.0320000000 1.5090000000
2.2571000000 2.9568000000 2.0996000000
2.2570000000 1.4574000000 1.0868000000
2.2567000000 4.5314000000 1.5479000000
2.2566000000 6.1388000000 0.3517000000
2.2561000000 3.0166000000 2.1124000000
2.2560000000 3.2370000000 2.2021000000
2.2557000000 1.5482000000 1.1510000000
2.2555000000 4.7704000000 1.3647000000
2.2552000000 3.9936000000 1.9290000000
2.2550000000 5.8233000000 0.5889000000
2.2548000000 5.8346000000 0.5828000000
2.2545000000 0.4745000000 0.3588000000
2.2544000000 5.1768000000 1.0643000000
2.2542000000 3.3961000000 2.1921000000
2.2540000000 6.2081000000 0.3093000000
2.2539000000 2.0372000000 1.5158000000
2.2538000000 1.3800000000 1.0290000000
2.2536000000 4.9691000000 1.2197000000
2.2535000000 3.3834000000 2.1947000000
2.2533000000 4.0749000000 1.8780000000
2.2530000000 3.7690000000 2.0549000000
2.2528000000 5.4632000000 0.8569000000
2.2527000000 1.8239000000 1.3567000000
2.2524000000 5.7944000000 0.6128000000
2.2522000000 0.7576000000 0.5692000000
2.2518000000 4.1210000000 1.8419000000
2.2515000000 2.6995000000 1.9918000000
2.2508000000 6.3712000000 0.1821000000
2.2504000000 0.2682000000 0.2088000000
2.2500000000 1.9363000000 1.4401000000
2.2494000000 3.0327000000 2.1333000000
2.2490000000 4.5736000000 1.5107000000
2.2485000000 0.1304000000 0.1099000000
2.2481000000 5.4483000000 0.8625000000
2.2477000000 6.1288000000 0.3640000000
2.2410000000 1.3509000000 1.0078000000
2.0126000000 4.4326000000 1.6131000000
2.0105000000 4.9352000000 1.2378000000
2.0101000000 4.1912000000 1.7929000000
2.0094000000 3.7717000000 2.1006000000
2.0088000000 5.1397000000 1.0915000000
2.0085000000 4.1487000000 1.8226000000
2.0084000000 6.4353000000 0.1402000000
2.0082000000 3.9022000000 2.0032000000
2.0080000000 3.0408000000 2.2475000000
2.0077000000 3.9533000000 1.9645000000
2.0074000000 1.6054000000 1.1982000000
2.0072000000 6.1351000000 0.3602000000
2.0069000000 3.4016000000 2.3325000000
2.0065000000 4.3893000000 1.6472000000
2.0064000000 4.8929000000 1.2725000000
2.0062000000 6.2667000000 0.2639000000
2.0059000000 4.6588000000 1.4485000000
2.0057000000 6.2040000000 0.3087000000
2.0054000000 4.4207000000 1.6227000000
2.0052000000 4.3878000000 1.6455000000
2.0050000000 1.6459000000 1.2273000000
2.0049000000 0.5577000000 0.4267000000
2.0047000000 3.3652000000 2.3523000000
2.0046000000 4.2325000000 1.7631000000
2.0043000000 1.0843000000 0.8163000000
2.0041000000 2.4174000000 1.7976000000
2.0038000000 0.1723000000 0.1481000000
2.0030000000 1.4058000000 1.0521000000
2.0030000000 4.4372000000 1.6139000000
2.0028000000 3.4226000000 2.3297000000
2.0024000000 0.0072000000 0.0227000000
2.0023000000 3.6909000000 2.1584000000
2.0022000000 0.5383000000 0.4117000000
2.0021000000 3.8531000000 2.0430000000
2.0020000000 0.0707000000 0.0622000000
2.0018000000 4.4870000000 1.5726000000
2.0016000000 2.7601000000 2.0520000000
2.0015000000 5.3581000000 0.9278000000
2.0010000000 2.1326000000 1.5841000000
2.0006000000 3.9397000000 1.9783000000
2.0005000000 1.4027000000 1.0521000000
2.0003000000 3.9782000000 1.9443000000
2.0001000000 3.6185000000 2.2106000000
1.9997000000 4.6123000000 1.4820000000
1.9989000000 0.4735000000 0.3622000000
1.9984000000 2.4999000000 1.8545000000
1.9971000000 1.3050000000 0.9804000000
1.9946000000 3.1256000000 2.3069000000
1.7633000000 4.6996000000 1.4187000000
1.7600000000 1.6688000000 1.2432000000
1.7598000000 5.4971000000 0.8272000000
1.7593000000 1.8435000000 1.3740000000
1.7583000000 6.4901000000 0.0988000000
1.7579000000 5.6741000000 0.7000000000
1.7578000000 3.2521000000 2.3282000000
1.7574000000 0.0247000000 0.0257000000
1.7572000000 5.0925000000 1.1306000000
1.7570000000 2.8607000000 2.1251000000
1.7568000000 4.3903000000 1.6431000000
1.7567000000 3.6378000000 2.1866000000
1.7564000000 3.8370000000 2.0528000000
1.7563000000 5.3514000000 0.9388000000
1.7562000000 4.0601000000 1.8866000000
1.7557000000 4.3116000000 1.7053000000
1.7555000000 6.0495000000 0.4242000000
1.7554000000 1.7876000000 1.3279000000
1.7550000000 3.4645000000 2.2900000000
1.7548000000 2.6707000000 1.9786000000
1.7545000000 3.4830000000 2.2723000000
1.7543000000 6.3825000000 0.1777000000
1.7541000000 3.3342000000 2.3258000000
1.7540000000 4.5556000000 1.5315000000
1.7540000000 2.5962000000 1.9249000000
1.7537000000 5.9206000000 0.5153000000
1.7535000000 3.4077000000 2.3101000000
1.7533000000 6.3206000000 0.2246000000
1.7532000000 1.7334000000 1.2865000000
1.7531000000 3.0935000000 2.2655000000
1.7528000000 6.4055000000 0.1601000000
1.7525000000 4.1749000000 1.8045000000
1.7523000000 3.4770000000 2.2720000000
1.7520000000 2.3539000000 1.7495000000
1.7518000000 3.7127000000 2.1474000000
1.7512000000 0.1347000000 0.1132000000
1.7509000000 3.8473000000 2.0426000000
1.7504000000 5.8948000000 0.5410000000
1.7503000000 1.5756000000 1.1721000000
1.7501000000 3.3030000000 2.3415000000
1.7497000000 1.6254000000 1.2078000000
1.7490000000 1.2169000000 0.9110000000
1.7482000000 0.8991000000 0.6777000000
1.7480000000 0.7722000000 0.5802000000
1.7465000000 6.2040000000 0.3106000000
1.7441000000 5.5015000000 0.8253000000
1.5113000000 4.7158000000 1.4064000000
1.5106000000 6.3315000000 0.2116000000
1.5100000000 5.1206000000 1.1077000000
1.5098000000 2.7215000000 1.9761000000
1.5090000000 4.1789000000 1.8004000000
1.5088000000 5.6074000000 0.7469000000
1.5084000000 0.0149000000 0.0254000000
1.5082000000 4.5279000000 1.5426000000
1.5078000000 4.4426000000 1.6050000000
1.5076000000 0.2689000000 0.2133000000
1.5075000000 1.3923000000 1.0361000000
1.5072000000 6.5538000000 0.0493000000
1.5070000000 5.7168000000 0.6680000000
1.5068000000 2.7202000000 1.9707000000
1.5067000000 5.3541000000 0.9371000000
1.5063000000 0.0511000000 0.0524000000
1.5062000000 4.6050000000 1.4876000000
1.5061000000 3.8298000000 2.0044000000
1.5060000000 2.6459000000 1.9369000000
1.5058000000 5.8698000000 0.5564000000
1.5053000000 2.4098000000 1.7958000000
1.5052000000 4.0094000000 1.9132000000
1.5051000000 4.0274000000 1.9045000000
1.5049000000 2.5382000000 1.8680000000
1.5046000000 6.6091000000 0.0786000000
1.5043000000 0.9556000000 0.7178000000
1.5042000000 5.1706000000 1.0710000000
1.5038000000 4.1567000000 1.8160000000
1.5037000000 3.2812000000 2.1753000000
1.5036000000 2.9062000000 2.0483000000
1.5033000000 3.8035000000 2.0045000000
1.5032000000 3.4397000000 2.1352000000
1.5030000000 3.4442000000 2.1402000000
1.5029000000 1.4551000000 1.0920000000
1.5025000000 2.1838000000 1.6235000000
1.5022000000 3.6404000000 2.0617000000
1.5021000000 0.2040000000 0.1680000000
1.5019000000 0.4287000000 0.3371000000
1.5016000000 1.9574000000 1.4609000000
1.5011000000 3.1195000000 2.1259000000
1.5009000000 1.4150000000 1.0530000000
1.5006000000 3.2833000000 2.1683000000
1.5001000000 2.0479000000 1.5239000000
1.5000000000 1.1573000000 0.8687000000
1.4997000000 1.9911000000 1.4775000000
1.4992000000 2.3219000000 1.7258000000
1.4990000000 0.7558000000 0.5689000000
1.4986000000 0.3996000000 0.3040000000
1.4983000000 4.6481000000 1.4560000000
1.4979000000 1.4463000000 1.0819000000
1.4975000000 1.2011000000 0.8980000000
1.4968000000 1.6265000000 1.2218000000
1.4962000000 1.4043000000 1.0494000000
1.2667000000 3.7219000000 1.8837000000
1.2615000000 6.5376000000 0.0636000000
1.2606000000 3.4597000000 1.9768000000
1.2594000000 2.9834000000 1.9159000000
1.2590000000 4.3176000000 1.6552000000
1.2582000000 6.1020000000 0.3868000000
1.2577000000 0.1565000000 0.1325000000
1.2575000000 3.1147000000 1.9677000000
1.2571000000 4.9219000000 1.2573000000
1.2568000000 3.5619000000 1.9363000000
1.2565000000 0.6398000000 0.4808000000
1.2561000000 4.4887000000 1.5597000000
1.2559000000 5.9307000000 0.5077000000
1.2558000000 4.4648000000 1.5782000000
1.2555000000 4.4492000000 1.5913000000
1.2554000000 1.4170000000 1.0555000000
1.2551000000 5.7122000000 0.6658000000
1.2548000000 4.6709000000 1.4382000000
1.2546000000 1.5917000000 1.1833000000
1.2543000000 4.5173000000 1.5365000000
1.2541000000 5.4720000000 0.8474000000
1.2540000000 5.3805000000 0.9158000000
1.2538000000 1.2150000000 0.9041000000
1.2535000000 3.5306000000 1.9454000000
1.2534000000 5.6631000000 0.7056000000
1.2530000000 6.5084000000 0.0826000000
1.2527000000 0.9238000000 0.6901000000
1.2525000000 3.8247000000 1.8338000000
1.2523000000 2.8808000000 1.8746000000
1.2522000000 1.6096000000 1.1993000000
1.2520000000 5.6726000000 0.7014000000
1.2519000000 6.4939000000 0.0988000000
1.2517000000 3.5906000000 1.9205000000
1.2513000000 1.7187000000 1.2826000000
1.2511000000 5.7811000000 0.6227000000
1.2510000000 1.9241000000 1.4335000000
1.2508000000 0.8369000000 0.6337000000
1.2504000000 0.1480000000 0.1253000000
1.2500000000 0.8124000000 0.6145000000
1.2498000000 5.6713000000 0.7019000000
1.2484000000 1.0372000000 0.7825000000
1.2479000000 0.9885000000 0.7390000000
1.2473000000 1.1088000000 0.8290000000
1.2470000000 0.6147000000 0.4693000000
1.2455000000 0.3689000000 0.2795000000
1.0128000000 6.1089000000 0.3783000000
1.0104000000 5.0269000000 1.1754000000
1.0102000000 5.6148000000 0.7437000000
1.0095000000 6.2950000000 0.2439000000
1.0092000000 5.5155000000 0.8198000000
1.0090000000 5.3628000000 0.9283000000
1.0086000000 6.4103000000 0.1560000000
1.0080000000 0.6493000000 0.4908000000
1.0070000000 0.7918000000 0.6014000000
1.0067000000 5.3791000000 0.9189000000
1.0062000000 6.1202000000 0.3679000000
1.0060000000 5.1265000000 1.1009000000
1.0060000000 4.3446000000 1.4859000000
1.0058000000 5.6425000000 0.7222000000
1.0053000000 5.8116000000 0.5958000000
1.0052000000 2.0528000000 1.4131000000
1.0048000000 2.4339000000 1.5528000000
1.0047000000 3.3057000000 1.8607000000
1.0045000000 2.5439000000 1.5944000000
1.0045000000 3.7556000000 1.7019000000
1.0043000000 2.6013000000 1.6146000000
1.0042000000 3.6127000000 1.7595000000
1.0040000000 2.7647000000 1.6763000000
1.0038000000 3.0043000000 1.7653000000
1.0038000000 3.0673000000 1.7889000000
1.0035000000 3.9019000000 1.6554000000
1.0032000000 0.9023000000 0.6805000000
1.0031000000 6.2145000000 0.3028000000
1.0030000000 2.5396000000 1.5920000000
1.0027000000 0.2359000000 0.1865000000
1.0025000000 3.0882000000 1.7913000000
1.0023000000 6.1476000000 0.3482000000
1.0020000000 1.8056000000 1.3045000000
1.0016000000 1.5632000000 1.1686000000
1.0015000000 3.3952000000 1.8356000000
1.0013000000 0.3897000000 0.3007000000
1.0013000000 1.2490000000 0.9323000000
1.0011000000 4.8496000000 1.2865000000
1.0008000000 6.5063000000 0.0818000000
1.0006000000 1.8377000000 1.3228000000
1.0003000000 4.1272000000 1.5673000000
1.0001000000 3.4508000000 1.8063000000
1.0000000000 1.6403000000 1.2080000000
0.9997000000 1.9842000000 1.3838000000
0.9986000000 0.8147000000 0.6135000000
0.9983000000 1.6244000000 1.2106000000
0.9975000000 3.4653000000 1.8052000000
0.9968000000 1.3259000000 0.9932000000
0.9953000000 4.4787000000 1.4311000000
0.7637000000 6.4448000000 0.1315000000
0.7603000000 4.9510000000 1.1093000000
0.7589000000 4.1503000000 1.4030000000
0.7585000000 2.8678000000 1.5559000000
0.7574000000 5.7249000000 0.6579000000
0.7571000000 4.5524000000 1.2490000000
0.7566000000 2.5952000000 1.4557000000
0.7563000000 6.1890000000 0.3195000000
0.7560000000 2.6317000000 1.4583000000
0.7556000000 6.4342000000 0.1411000000
0.7554000000 1.6976000000 1.1234000000
0.7553000000 2.4193000000 1.3864000000
0.7550000000 4.5993000000 1.2342000000
0.7545000000 2.6558000000 1.4739000000
0.7543000000 2.0936000000 1.2633000000
0.7540000000 3.4969000000 1.6437000000
0.7539000000 2.8523000000 1.5516000000
0.7538000000 4.4734000000 1.2831000000
0.7537000000 2.6985000000 1.4840000000
0.7536000000 2.3049000000 1.3466000000
0.7534000000 5.0423000000 1.0682000000
0.7533000000 2.8197000000 1.5343000000
0.7530000000 4.8968000000 1.1269000000
0.7528000000 5.5265000000 0.8061000000
0.7523000000 4.8128000000 1.1583000000
0.7521000000 3.9201000000 1.4807000000
0.7517000000 4.9980000000 1.0900000000
0.7514000000 0.1479000000 0.1231000000
0.7509000000 0.7959000000 0.6077000000
0.7504000000 3.4485000000 1.6552000000
0.7501000000 0.3758000000 0.2941000000
0.7499000000 3.7108000000 1.5567000000
0.7496000000 5.3177000000 0.9526000000
0.7491000000 2.9649000000 1.5861000000
0.7483000000 2.5631000000 1.4339000000
0.7475000000 1.3217000000 0.9646000000
0.7457000000 1.2607000000 0.9303000000
0.5127000000 5.9567000000 0.4918000000
0.5105000000 5.4679000000 0.7605000000
0.5100000000 3.8981000000 1.3382000000
0.5095000000 6.5380000000 0.0660000000
0.5094000000 2.1073000000 1.1161000000
0.5092000000 1.4803000000 0.8929000000
0.5090000000 1.8619000000 1.0213000000
0.5085000000 2.6970000000 1.3385000000
0.5080000000 5.4722000000 0.7495000000
0.5075000000 5.5772000000 0.7186000000
0.5072000000 5.0780000000 0.8995000000
0.5069000000 1.8000000000 1.0018000000
0.5067000000 0.8928000000 0.6600000000
0.5066000000 6.5708000000 0.0356000000
0.5065000000 5.0422000000 0.9181000000
0.5062000000 3.6066000000 1.4437000000
0.5060000000 6.5127000000 0.0812000000
0.5055000000 5.1178000000 0.8867000000
0.5052000000 5.0247000000 0.9213000000
0.5051000000 2.0498000000 1.0889000000
0.5048000000 0.1418000000 0.1162000000
0.5045000000 5.0135000000 0.9259000000
0.5043000000 4.6397000000 1.0573000000
0.5042000000 0.1376000000 0.1150000000
0.5040000000 6.4876000000 0.0954000000
0.5035000000 4.3450000000 1.1691000000
0.5034000000 5.0404000000 0.9133000000
0.5033000000 1.7773000000 0.9892000000
0.5030000000 2.0079000000 1.0721000000
0.5028000000 1.7360000000 0.9750000000
0.5025000000 0.0358000000 0.0363000000
0.5023000000 4.7102000000 1.0337000000
0.5020000000 2.6087000000 1.2953000000
0.5018000000 0.4802000000 0.3680000000
0.5015000000 3.9478000000 1.3152000000
0.5013000000 0.3565000000 0.2785000000
0.5011000000 3.7508000000 1.3827000000
0.5008000000 3.1545000000 1.4958000000
0.5004000000 6.1949000000 0.3169000000
0.5002000000 5.6131000000 0.7001000000
0.5000000000 1.8324000000 1.0018000000
0.4995000000 6.5894000000 0.0228000000
0.4995000000 2.4879000000 1.2500000000
0.4991000000 1.5444000000 0.9025000000
0.4976000000 0.3134000000 0.2428000000
0.4968000000 2.8504000000 1.3796000000
0.2619000000 2.5310000000 1.1088000000
0.2610000000 1.7429000000 0.8228000000
0.2599000000 2.5823000000 1.1322000000
0.2596000000 3.7319000000 1.2341000000
0.2589000000 4.2567000000 1.0385000000
0.2584000000 5.3110000000 0.6578000000
0.2580000000 5.6786000000 0.5240000000
0.2579000000 2.5482000000 1.1166000000
0.2573000000 3.8086000000 1.2091000000
0.2570000000 2.5326000000 1.1110000000
0.2568000000 0.1918000000 0.1539000000
0.2568000000 2.4214000000 1.0727000000
0.2564000000 3.1133000000 1.3225000000
0.2560000000 0.2262000000 0.1775000000
0.2558000000 5.7454000000 0.4952000000
0.2554000000 1.3719000000 0.6882000000
0.2552000000 4.1417000000 1.0818000000
0.2549000000 2.0181000000 0.9160000000
0.2548000000 4.7605000000 0.8581000000
0.2546000000 3.9300000000 1.1685000000
0.2541000000 2.3392000000 1.0385000000
0.2539000000 3.9386000000 1.1621000000
0.2538000000 0.6149000000 0.4024000000
0.2535000000 2.0180000000 0.9177000000
0.2533000000 2.2364000000 0.9926000000
0.2533000000 1.3199000000 0.6604000000
0.2530000000 6.1017000000 0.3452000000
0.2527000000 1.0051000000 0.5448000000
0.2526000000 2.5168000000 1.1021000000
0.2525000000 5.7809000000 0.4769000000
0.2521000000 2.5134000000 1.0987000000
0.2518000000 3.8529000000 1.1888000000
0.2516000000 2.6646000000 1.1566000000
0.2514000000 0.6028000000 0.4004000000
0.2513000000 4.0486000000 1.1215000000
0.2510000000 6.1297000000 0.3315000000
0.2498000000 4.1343000000 1.0860000000
0.2497000000 1.9414000000 0.8869000000
0.2496000000 1.5180000000 0.7339000000
0.2491000000 1.2753000000 0.6483000000
0.2490000000 2.4974000000 1.0933000000
0.2483000000 2.4142000000 1.0638000000
0.2479000000 0.9814000000 0.5294000000
0.2477000000 1.1798000000 0.6019000000
0.2470000000 5.4911000000 0.5821000000
0.2445000000 1.6582000000 0.7832000000
0.0110000000 5.1773000000 0.5463000000
0.0105000000 5.2172000000 0.5278000000
0.0099000000 4.4543000000 0.8124000000
0.0093000000 3.2260000000 1.2055000000
0.0090000000 6.1802000000 0.1731000000
0.0085000000 4.7066000000 0.7144000000
0.0082000000 5.4674000000 0.4370000000
0.0080000000 5.3089000000 0.4923000000
0.0072000000 5.8374000000 0.2974000000
0.0068000000 3.3967000000 1.2001000000
0.0065000000 4.5556000000 0.7734000000
0.0064000000 2.6215000000 0.9776000000
0.0063000000 3.7146000000 1.0872000000
0.0061000000 2.8770000000 1.0721000000
0.0060000000 2.5761000000 0.9633000000
0.0059000000 2.8891000000 1.0796000000
0.0054000000 4.7909000000 0.6790000000
0.0053000000 5.4144000000 0.4568000000
0.0052000000 2.3742000000 0.8945000000
0.0051000000 1.4552000000 0.5483000000
0.0049000000 0.4926000000 0.1958000000
0.0048000000 0.0534000000 0.0213000000
0.0046000000 3.9608000000 0.9891000000
0.0045000000 1.4998000000 0.5727000000
0.0044000000 5.8267000000 0.2985000000
0.0041000000 4.3531000000 0.8434000000
0.0039000000 3.1973000000 1.1985000000
0.0037000000 4.8467000000 0.6579000000
0.0034000000 5.5258000000 0.4102000000
0.0033000000 5.3137000000 0.4889000000
0.0031000000 6.2241000000 0.1528000000
0.0028000000 4.3752000000 0.8312000000
0.0025000000 1.5594000000 0.5880000000
0.0024000000 4.0707000000 0.9459000000
0.0022000000 3.4859000000 1.1656000000
0.0021000000 4.8427000000 0.6600000000
0.0020000000 3.3472000000 1.1986000000
0.0018000000 1.5241000000 0.5772000000
0.0017000000 6.1624000000 0.1717000000
0.0015000000 2.4338000000 0.9092000000
0.0013000000 1.5766000000 0.5974000000
0.0011000000 4.3350000000 0.8521000000
0.0009000000 0.7669000000 0.2990000000
0.0007000000 4.0525000000 0.9519000000
0.0001000000 5.4716000000 0.4285000000
-0.0003000000 3.9351000000 1.0032000000
-0.0006000000 1.6783000000 0.6327000000
-0.0010000000 0.6470000000 0.2575000000
-0.0013000000 0.1790000000 0.0811000000
-0.0016000000 0.9353000000 0.3576000000
-0.0021000000 6.4536000000 0.0710000000
-0.0026000000 1.2303000000 0.4635000000
-0.0030000000 4.0483000000 0.9524000000
-0.0037000000 4.3068000000 0.8574000000
-0.2381000000 5.3564000000 0.3192000000
-0.2388000000 2.3449000000 0.7252000000
-0.2406000000 4.1083000000 0.7842000000
-0.2410000000 5.9966000000 0.0794000000
-0.2428000000 3.3371000000 1.0512000000
-0.2430000000 0.6022000000 0.0828000000
-0.2431000000 1.3687000000 0.3677000000
-0.2437000000 2.3252000000 0.7157000000
-0.2441000000 5.4894000000 0.2670000000
-0.2447000000 3.0572000000 0.9809000000
-0.2448000000 3.0085000000 0.9650000000
-0.2450000000 5.5858000000 0.2330000000
-0.2455000000 2.8738000000 0.9140000000
-0.2457000000 0.3141000000 0.0427000000
-0.2458000000 2.4305000000 0.7619000000
-0.2462000000 6.2667000000 0.0574000000
-0.2465000000 5.9989000000 0.0784000000
-0.2467000000 4.1212000000 0.7688000000
-0.2468000000 3.6038000000 0.9645000000
-0.2470000000 2.6792000000 0.8422000000
-0.2472000000 2.9603000000 0.9447000000
-0.2473000000 5.5670000000 0.2350000000
-0.2474000000 0.7214000000 0.1254000000
-0.2475000000 1.7955000000 0.5157000000
-0.2477000000 4.0328000000 0.8013000000
-0.2479000000 4.7564000000 0.5410000000
-0.2485000000 5.2329000000 0.3584000000
-0.2487000000 2.8379000000 0.9021000000
-0.2488000000 2.5456000000 0.7913000000
-0.2492000000 1.1368000000 0.2736000000
-0.2495000000 1.3062000000 0.3304000000
-0.2504000000 2.9405000000 0.9438000000
-0.2505000000 3.9037000000 0.8464000000
-0.2516000000 3.5750000000 0.9695000000
-0.2519000000 1.8861000000 0.5409000000
-0.2520000000 3.4301000000 1.0228000000
-0.2525000000 1.5131000000 0.4088000000
-0.2551000000 1.3646000000 0.3532000000
-0.4878000000 3.0252000000 0.8144000000
-0.4884000000 5.7584000000 0.0907000000
-0.4895000000 5.0635000000 0.2664000000
-0.4905000000 3.5356000000 0.8290000000
-0.4917000000 4.7041000000 0.4032000000
-0.4924000000 4.1498000000 0.5992000000
-0.4928000000 4.8430000000 0.3486000000
-0.4930000000 3.1840000000 0.8731000000
-0.4935000000 2.4308000000 0.5910000000
-0.4940000000 4.8288000000 0.3498000000
-0.4941000000 1.4635000000 0.2332000000
-0.4947000000 2.9190000000 0.7750000000
-0.4951000000 3.9952000000 0.6568000000
-0.4953000000 5.8619000000 0.0462000000
-0.4957000000 4.4524000000 0.4943000000
-0.4958000000 5.8320000000 0.0539000000
-0.4961000000 5.6904000000 0.0328000000
-0.4962000000 1.4111000000 0.2131000000
-0.4964000000 5.9772000000 0.0061000000
-0.4965000000 5.4017000000 0.1422000000
-0.4967000000 4.6262000000 0.4218000000
-0.4970000000 3.4694000000 0.8534000000
-0.4972000000 0.7524000000 0.0495000000
-0.4975000000 0.7228000000 0.0374000000
-0.4978000000 5.7003000000 0.0302000000
-0.4981000000 1.1733000000 0.1281000000
-0.4982000000 1.7196000000 0.3325000000
-0.4984000000 4.4880000000 0.4722000000
-0.4985000000 2.1937000000 0.5063000000
-0.4987000000 1.2962000000 0.1680000000
-0.4988000000 4.3580000000 0.5235000000
-0.4995000000 5.6426000000 0.0526000000
-0.5001000000 1.7121000000 0.3226000000
-0.5005000000 5.1731000000 0.2213000000
-0.5014000000 4.0548000000 0.6328000000
-0.5017000000 1.6852000000 0.3151000000
-0.5022000000 4.2324000000 0.5622000000
-0.5023000000 0.9086000000 0.0323000000
-0.5025000000 2.2316000000 0.5193000000
-0.5042000000 1.8406000000 0.3663000000
-0.5049000000 0.9492000000 0.0394000000
-0.7398000000 5.4656000000 0.0368000000
-0.7405000000 4.5697000000 0.2928000000
-0.7412000000 5.3153000000 0.0171000000
-0.7418000000 5.0886000000 0.0945000000
-0.7426000000 3.4043000000 0.7195000000
-0.7428000000 1.4980000000 0.0909000000
-0.7430000000 1.4192000000 0.0589000000
-0.7432000000 2.7656000000 0.5611000000
-0.7434000000 3.7026000000 0.6093000000
-0.7436000000 2.9629000000 0.6285000000
-0.7438000000 2.6001000000 0.4962000000
-0.7441000000 3.2125000000 0.7239000000
-0.7448000000 3.2196000000 0.7229000000
-0.7450000000 1.3523000000 0.0378000000
-0.7453000000 1.5274000000 0.0983000000
-0.7457000000 4.4037000000 0.3478000000
-0.7463000000 2.9920000000 0.6386000000
-0.7468000000 1.9529000000 0.2560000000
-0.7470000000 1.6511000000 0.1403000000
-0.7476000000 5.3313000000 0.0768000000
-0.7478000000 2.4036000000 0.4218000000
-0.7480000000 1.3947000000 0.0482000000
-0.7482000000 1.5443000000 0.1014000000
-0.7489000000 3.5893000000 0.6438000000
-0.7493000000 5.4501000000 0.0358000000
-0.7494000000 2.2200000000 0.3488000000
-0.7498000000 3.2037000000 0.7173000000
-0.7508000000 4.3186000000 0.3753000000
-0.7519000000 2.0206000000 0.2848000000
-0.7527000000 1.4698000000 0.0733000000
-0.7535000000 1.6026000000 0.1253000000
-0.7562000000 4.3241000000 0.3728000000
-0.9893000000 4.6920000000 0.0860000000
-0.9904000000 4.4194000000 0.1856000000
-0.9905000000 2.0664000000 0.1403000000
-0.9908000000 2.0934000000 0.1548000000
-0.9911000000 4.2725000000 0.2385000000
-0.9927000000 4.6075000000 0.1162000000
-0.9933000000 3.2918000000 0.5877000000
-0.9948000000 4.9416000000 0.0669000000
-0.9949000000 1.6746000000 0.0711000000
-0.9951000000 2.2784000000 0.2167000000
-0.9952000000 2.4205000000 0.2729000000
-0.9957000000 2.2052000000 0.1884000000
-0.9961000000 5.0463000000 0.0262000000
-0.9965000000 2.0109000000 0.1166000000
-0.9967000000 4.7166000000 0.0725000000
-0.9970000000 3.5917000000 0.4902000000
-0.9976000000 2.5118000000 0.2996000000
-0.9983000000 2.6461000000 0.3531000000
-0.9986000000 4.9989000000 0.0435000000
-0.9991000000 3.0302000000 0.4940000000
-0.9995000000 2.1166000000 0.1493000000
-1.0000000000 4.2798000000 0.2269000000
-1.0011000000 4.5609000000 0.1276000000
-1.0016000000 2.4736000000 0.2860000000
-1.0029000000 1.8877000000 0.0646000000
-1.0057000000 3.1482000000 0.5353000000
-1.2407000000 2.4065000000 0.1126000000
-1.2428000000 4.4737000000 0.0784000000
-1.2437000000 4.6754000000 0.0026000000
-1.2444000000 3.2722000000 0.4144000000
-1.2451000000 2.3292000000 0.0818000000
-1.2453000000 4.3867000000 0.0409000000
-1.2455000000 3.7101000000 0.2821000000
-1.2461000000 2.0730000000 0.0532000000
-1.2462000000 3.8544000000 0.2379000000
-1.2467000000 4.2323000000 0.0906000000
-1.2470000000 2.0851000000 0.0564000000
-1.2472000000 2.6143000000 0.1767000000
-1.2477000000 2.9302000000 0.2972000000
-1.2482000000 3.2051000000 0.3967000000
-1.2485000000 2.0430000000 0.0448000000
-1.2490000000 2.0093000000 0.0324000000
-1.2498000000 2.8165000000 0.2504000000
-1.2513000000 3.1677000000 0.3877000000
-1.2542000000 2.2296000000 0.0326000000
-1.4932000000 3.6849000000 0.1341000000
-1.4938000000 3.9867000000 0.0258000000
-1.4952000000 3.3089000000 0.2685000000
-1.4957000000 2.5329000000 0.0662000000
-1.4960000000 3.6747000000 0.1379000000
-1.4965000000 2.8758000000 0.1225000000
-1.4967000000 3.6118000000 0.1602000000
-1.4971000000 2.6456000000 0.0329000000
-1.4978000000 3.1749000000 0.2238000000
-1.4981000000 3.1032000000 0.2044000000
-1.4990000000 3.0175000000 0.1674000000
-1.5015000000 3.6824000000 0.1342000000
-1.5017000000 2.8431000000 0.0976000000
-1.7414000000 2.9036000000 0.0493000000
-1.7448000000 3.5636000000 0.0180000000
-1.7458000000 3.1559000000 0.0654000000
-1.7460000000 3.0916000000 0.0410000000
-1.7468000000 3.7337000000 0.0300000000
-1.7474000000 3.2509000000 0.0926000000
-1.7491000000 3.7555000000 0.0156000000
-1.7504000000 2.8562000000 0.0228000000
-1.7514000000 3.4900000000 0.0364000000
-1.7527000000 2.9269000000 0.0458000000
-1.7564000000 2.9911000000 0.0696000000
