5.5098000000 2.7427000000 0.0166000000
5.5087000000 3.0004000000 0.0765000000
5.5076000000 3.1908000000 0.1008000000
5.5058000000 2.7193000000 0.0140000000
5.5052000000 3.7387000000 0.0802000000
5.5046000000 3.5059000000 0.0527000000
5.5038000000 3.6907000000 0.0299000000
5.5020000000 2.9029000000 0.0273000000
5.4971000000 3.1593000000 0.0986000000
5.2612000000 3.4335000000 0.3095000000
5.2585000000 2.7715000000 0.1054000000
5.2573000000 3.3317000000 0.3496000000
5.2566000000 3.5820000000 0.2374000000
5.2560000000 2.9870000000 0.2253000000
5.2553000000 2.3616000000 0.0468000000
5.2544000000 3.4212000000 0.3247000000
5.2541000000 3.7959000000 0.1297000000
5.2538000000 2.6895000000 0.0753000000
5.2533000000 3.6175000000 0.2161000000
5.2525000000 3.5122000000 0.2804000000
5.2521000000 3.1205000000 0.2972000000
5.2518000000 2.6148000000 0.1110000000
5.2510000000 3.4427000000 0.3115000000
5.2494000000 4.2858000000 0.0241000000
5.2465000000 3.8054000000 0.1271000000
5.0127000000 4.2631000000 0.1036000000
5.0103000000 3.3347000000 0.5701000000
5.0095000000 4.0600000000 0.2111000000
5.0085000000 3.4411000000 0.5361000000
5.0074000000 3.3672000000 0.5843000000
5.0068000000 3.8907000000 0.2977000000
5.0063000000 2.1762000000 0.0990000000
5.0055000000 3.8138000000 0.3465000000
5.0053000000 3.7560000000 0.3782000000
5.0043000000 1.8493000000 0.0099000000
5.0040000000 1.9746000000 0.0698000000
5.0038000000 3.4326000000 0.5501000000
5.0026000000 2.7991000000 0.3566000000
5.0022000000 3.5514000000 0.4868000000
5.0018000000 2.2617000000 0.0705000000
5.0005000000 2.1989000000 0.0473000000
5.0001000000 3.7629000000 0.3781000000
4.9993000000 2.5798000000 0.2463000000
4.9983000000 3.3676000000 0.5878000000
4.9976000000 1.8571000000 0.0153000000
4.7607000000 3.0308000000 0.6977000000
4.7594000000 3.9511000000 0.4999000000
4.7581000000 2.7297000000 0.5504000000
4.7576000000 3.4351000000 0.7683000000
4.7571000000 2.0198000000 0.1711000000
4.7570000000 2.7082000000 0.5436000000
4.7566000000 1.8755000000 0.1009000000
4.7558000000 2.9907000000 0.6859000000
4.7555000000 4.6387000000 0.1380000000
4.7549000000 4.4611000000 0.2341000000
4.7545000000 2.3119000000 0.3233000000
4.7541000000 4.1698000000 0.3892000000
4.7535000000 4.7197000000 0.1000000000
4.7534000000 4.6981000000 0.1092000000
4.7531000000 3.7913000000 0.5890000000
4.7527000000 4.9779000000 0.0413000000
4.7520000000 2.4633000000 0.4136000000
4.7508000000 2.7535000000 0.5683000000
4.7508000000 4.9538000000 0.0468000000
4.7501000000 2.1694000000 0.2518000000
4.7461000000 3.6664000000 0.6560000000
4.5125000000 5.4287000000 0.0901000000
4.5108000000 5.1384000000 0.0963000000
4.5101000000 5.2355000000 0.0453000000
4.5093000000 4.7926000000 0.2822000000
4.5084000000 3.4887000000 0.9684000000
4.5079000000 1.9328000000 0.3510000000
4.5074000000 4.2352000000 0.5789000000
4.5073000000 2.1340000000 0.4610000000
4.5065000000 2.2231000000 0.5069000000
4.5064000000 5.0346000000 0.1542000000
4.5060000000 2.1683000000 0.4828000000
4.5059000000 3.5718000000 0.9353000000
4.5055000000 5.4089000000 0.0299000000
4.5052000000 1.6926000000 0.2261000000
4.5049000000 2.8538000000 0.8384000000
4.5048000000 1.7518000000 0.2577000000
4.5046000000 2.2592000000 0.5291000000
4.5044000000 5.4718000000 0.0722000000
4.5042000000 1.0881000000 0.0634000000
4.5040000000 2.4032000000 0.6100000000
4.5038000000 2.5679000000 0.6928000000
4.5036000000 3.1464000000 1.0000000000
4.5034000000 2.8251000000 0.8300000000
4.5033000000 5.1335000000 0.1072000000
4.5030000000 4.4264000000 0.4832000000
4.5025000000 4.7318000000 0.3183000000
4.5024000000 2.5900000000 0.7030000000
4.5022000000 2.1431000000 0.4680000000
4.5021000000 5.4606000000 0.0918000000
4.5018000000 3.9596000000 0.7350000000
4.5018000000 2.3360000000 0.5706000000
4.5015000000 4.3093000000 0.5476000000
4.5000000000 2.9355000000 0.8938000000
4.5000000000 4.9815000000 0.1880000000
4.4990000000 3.5220000000 0.9610000000
4.4983000000 1.3753000000 0.0663000000
4.4973000000 1.2990000000 0.1046000000
4.4954000000 3.8293000000 0.8018000000
4.2613000000 5.3213000000 0.2320000000
4.2610000000 2.8000000000 1.0344000000
4.2600000000 3.2066000000 1.2560000000
4.2595000000 4.1195000000 0.8623000000
4.2579000000 4.0245000000 0.9113000000
4.2573000000 1.2692000000 0.2292000000
4.2572000000 2.2020000000 0.7243000000
4.2568000000 5.4551000000 0.1624000000
4.2563000000 4.8952000000 0.4592000000
4.2562000000 1.2603000000 0.2305000000
4.2557000000 4.1923000000 0.8319000000
4.2553000000 4.3745000000 0.7369000000
4.2551000000 4.8960000000 0.4616000000
4.2549000000 5.3231000000 0.2289000000
4.2547000000 1.0898000000 0.1445000000
4.2542000000 3.0477000000 1.1742000000
4.2539000000 3.3336000000 1.2729000000
4.2537000000 5.9972000000 0.0302000000
4.2533000000 4.9667000000 0.4211000000
4.2531000000 4.9965000000 0.4122000000
4.2530000000 4.3767000000 0.7376000000
4.2526000000 2.3440000000 0.8043000000
4.2523000000 0.7697000000 0.0434000000
4.2520000000 4.8495000000 0.4912000000
4.2514000000 4.3215000000 0.7618000000
4.2511000000 5.5460000000 0.1154000000
4.2506000000 3.5559000000 1.1754000000
4.2500000000 4.0344000000 0.9179000000
4.2494000000 1.4532000000 0.3358000000
4.2489000000 4.9439000000 0.4395000000
4.2477000000 1.2760000000 0.2421000000
4.2470000000 4.1039000000 0.8843000000
4.2458000000 2.6327000000 0.9628000000
4.2436000000 1.1611000000 0.1833000000
4.0128000000 5.5700000000 0.3264000000
4.0108000000 6.2294000000 0.0586000000
4.0105000000 2.7170000000 1.2239000000
4.0102000000 3.2194000000 1.4936000000
4.0097000000 1.3324000000 0.4955000000
4.0094000000 2.0090000000 0.8482000000
4.0091000000 5.4417000000 0.3964000000
4.0090000000 4.5329000000 0.8791000000
4.0088000000 3.2282000000 1.4922000000
4.0083000000 4.3763000000 0.9580000000
4.0073000000 3.8558000000 1.2332000000
4.0070000000 2.4033000000 1.0664000000
4.0067000000 2.6929000000 1.2200000000
4.0064000000 5.4219000000 0.4158000000
4.0063000000 1.8806000000 0.7838000000
4.0061000000 1.5735000000 0.6210000000
4.0060000000 4.5760000000 0.8555000000
4.0058000000 4.0355000000 1.1411000000
4.0056000000 3.2522000000 1.4964000000
4.0055000000 0.7411000000 0.1842000000
4.0051000000 2.6227000000 1.1819000000
4.0050000000 1.8207000000 0.7540000000
4.0046000000 0.4393000000 0.0996000000
4.0044000000 4.9108000000 0.6854000000
4.0043000000 2.6583000000 1.1994000000
4.0042000000 4.0224000000 1.1512000000
4.0039000000 2.1496000000 0.9291000000
4.0038000000 2.2251000000 0.9720000000
4.0034000000 0.7296000000 0.1831000000
4.0033000000 5.1566000000 0.5492000000
4.0032000000 2.0239000000 0.8636000000
4.0030000000 1.7725000000 0.7286000000
4.0025000000 3.2803000000 1.5152000000
4.0023000000 6.0217000000 0.0964000000
4.0022000000 5.6480000000 0.2933000000
4.0018000000 4.8784000000 0.7011000000
4.0013000000 0.5886000000 0.1106000000
4.0011000000 0.5100000000 0.0713000000
4.0009000000 3.7655000000 1.2935000000
4.0006000000 1.3640000000 0.5113000000
4.0003000000 1.5249000000 0.6059000000
4.0001000000 4.5214000000 0.8883000000
3.9998000000 0.1550000000 0.0282000000
3.9997000000 6.0132000000 0.1052000000
3.9995000000 1.5025000000 0.5877000000
3.9992000000 3.3787000000 1.4961000000
3.9980000000 1.5526000000 0.6115000000
3.9973000000 2.6721000000 1.2188000000
3.9971000000 1.7504000000 0.7259000000
3.9965000000 1.6032000000 0.6460000000
3.9940000000 0.2650000000 0.0912000000
3.7638000000 2.0607000000 1.1081000000
3.7623000000 1.4465000000 0.7727000000
3.7606000000 4.2088000000 1.2783000000
3.7602000000 2.7383000000 1.4595000000
3.7590000000 1.8782000000 1.0137000000
3.7585000000 4.4629000000 1.1385000000
3.7583000000 4.5304000000 1.1096000000
3.7577000000 0.2181000000 0.1400000000
3.7576000000 5.2948000000 0.7076000000
3.7575000000 3.7105000000 1.5398000000
3.7572000000 3.2313000000 1.7279000000
3.7569000000 5.9326000000 0.3669000000
3.7563000000 4.8181000000 0.9540000000
3.7562000000 3.8789000000 1.4592000000
3.7561000000 3.0727000000 1.6476000000
3.7560000000 4.7288000000 1.0063000000
3.7556000000 4.9237000000 0.8988000000
3.7554000000 6.6092000000 0.0288000000
3.7551000000 0.7033000000 0.3945000000
3.7549000000 4.9402000000 0.8917000000
3.7548000000 4.3381000000 1.2152000000
3.7547000000 6.3454000000 0.1513000000
3.7545000000 0.7061000000 0.3946000000
3.7543000000 6.4669000000 0.0749000000
3.7540000000 2.3059000000 1.2387000000
3.7538000000 6.2661000000 0.1978000000
3.7536000000 4.5296000000 1.1118000000
3.7534000000 5.0553000000 0.8392000000
3.7530000000 5.4427000000 0.6330000000
3.7528000000 4.1940000000 1.2901000000
3.7527000000 6.3075000000 0.1789000000
3.7524000000 2.3012000000 1.2366000000
3.7523000000 4.6803000000 1.0341000000
3.7517000000 5.7250000000 0.4834000000
3.7516000000 0.7692000000 0.4298000000
3.7513000000 1.0563000000 0.5827000000
3.7509000000 0.4609000000 0.2675000000
3.7505000000 4.5215000000 1.1195000000
3.7502000000 6.0585000000 0.3061000000
3.7500000000 5.9718000000 0.3550000000
3.7493000000 2.2062000000 1.1858000000
3.7489000000 2.6800000000 1.4417000000
3.7473000000 2.8590000000 1.5390000000
3.7455000000 1.5248000000 0.8362000000
3.5111000000 6.2389000000 0.3526000000
3.5101000000 5.5331000000 0.8040000000
3.5099000000 4.8834000000 1.1479000000
3.5089000000 1.0851000000 0.8178000000
3.5085000000 2.7469000000 1.7000000000
3.5081000000 3.5138000000 1.8758000000
3.5079000000 5.1965000000 0.9856000000
3.5077000000 3.0582000000 1.8638000000
3.5071000000 6.3620000000 0.2234000000
3.5069000000 4.5896000000 1.3031000000
3.5067000000 6.5979000000 0.0468000000
3.5066000000 3.6214000000 1.8190000000
3.5063000000 5.3091000000 0.9294000000
3.5062000000 6.1355000000 0.4427000000
3.5059000000 6.3329000000 0.2525000000
3.5058000000 2.9090000000 1.7849000000
3.5056000000 1.5511000000 1.0721000000
3.5055000000 1.7140000000 1.1549000000
3.5053000000 4.0297000000 1.6019000000
3.5050000000 4.9259000000 1.1345000000
3.5049000000 1.2981000000 0.9407000000
3.5047000000 5.7931000000 0.6741000000
3.5046000000 4.8333000000 1.1784000000
3.5042000000 4.2684000000 1.4738000000
3.5041000000 6.4128000000 0.1606000000
3.5040000000 2.8723000000 1.7720000000
3.5039000000 2.7681000000 1.7194000000
3.5038000000 3.7943000000 1.7271000000
3.5035000000 3.4033000000 1.9405000000
3.5035000000 0.1228000000 0.1044000000
3.5033000000 4.2659000000 1.4821000000
3.5030000000 2.8180000000 1.7406000000
3.5028000000 6.3173000000 0.2698000000
3.5025000000 1.0131000000 0.7881000000
3.5023000000 3.8779000000 1.6896000000
3.5022000000 5.3341000000 0.9126000000
3.5020000000 3.4663000000 1.9008000000
3.5019000000 1.5023000000 1.0522000000
3.5015000000 1.3516000000 0.9692000000
3.5012000000 5.6855000000 0.7346000000
3.5010000000 2.3079000000 1.4707000000
3.5008000000 0.7110000000 0.6324000000
3.5006000000 2.0807000000 1.3587000000
3.5005000000 3.5141000000 1.8799000000
3.5002000000 4.2539000000 1.4893000000
3.4990000000 4.8337000000 1.1849000000
3.4990000000 1.4123000000 1.0000000000
3.4988000000 0.3443000000 0.3411000000
3.4981000000 3.5942000000 1.8450000000
3.4969000000 2.2594000000 1.4462000000
3.4949000000 1.3657000000 0.9853000000
3.2615000000 4.0560000000 1.8077000000
3.2609000000 6.4392000000 0.1342000000
3.2598000000 3.3276000000 2.1836000000
3.2586000000 4.9677000000 1.3358000000
3.2585000000 1.0916000000 1.0521000000
3.2582000000 6.3683000000 0.2174000000
3.2580000000 3.9230000000 1.8831000000
3.2576000000 6.1700000000 0.4214000000
3.2570000000 3.2861000000 2.1976000000
3.2568000000 5.6591000000 0.9399000000
3.2563000000 5.1628000000 1.2365000000
3.2559000000 3.2174000000 2.1837000000
3.2556000000 0.3037000000 0.2964000000
3.2554000000 5.5403000000 1.0226000000
3.2550000000 3.6453000000 2.0387000000
3.2548000000 4.6434000000 1.5088000000
3.2546000000 1.5385000000 1.2918000000
3.2543000000 3.0298000000 2.0852000000
3.2542000000 1.1097000000 1.0634000000
3.2540000000 3.2724000000 2.1993000000
3.2539000000 3.3531000000 2.1913000000
3.2538000000 4.1312000000 1.7796000000
3.2537000000 5.4837000000 1.0665000000
3.2533000000 6.4281000000 0.1529000000
3.2531000000 0.9903000000 0.9847000000
3.2530000000 3.5396000000 2.0980000000
3.2529000000 4.9524000000 1.3509000000
3.2526000000 2.9308000000 2.0301000000
3.2525000000 0.1879000000 0.1761000000
3.2524000000 1.0378000000 1.0143000000
3.2522000000 5.8823000000 0.7292000000
3.2520000000 1.8335000000 1.4516000000
3.2517000000 5.1033000000 1.2671000000
3.2511000000 4.6491000000 1.5092000000
3.2509000000 0.1677000000 0.1551000000
3.2505000000 1.2353000000 1.1362000000
3.2498000000 1.6447000000 1.3525000000
3.2497000000 2.6171000000 1.8648000000
3.2490000000 2.3643000000 1.7361000000
3.2485000000 5.7291000000 0.8846000000
3.2478000000 0.9403000000 0.9528000000
3.2469000000 1.5477000000 1.3119000000
3.2464000000 4.7473000000 1.4595000000
3.0119000000 5.2071000000 1.4170000000
3.0114000000 6.1872000000 0.4053000000
3.0107000000 4.0652000000 2.0343000000
3.0100000000 2.3751000000 1.9609000000
3.0098000000 6.0503000000 0.5501000000
3.0096000000 5.5819000000 1.0451000000
3.0092000000 5.3402000000 1.3024000000
3.0088000000 4.2621000000 1.9346000000
3.0085000000 6.3476000000 0.2304000000
3.0080000000 5.8335000000 0.7772000000
3.0073000000 5.8374000000 0.7732000000
3.0072000000 4.9872000000 1.5564000000
3.0068000000 6.4048000000 0.1727000000
3.0065000000 3.6199000000 2.2787000000
3.0063000000 2.3940000000 1.9724000000
3.0061000000 2.8355000000 2.2126000000
3.0059000000 0.9942000000 1.0269000000
3.0058000000 2.7514000000 2.1578000000
3.0054000000 3.9674000000 2.0987000000
3.0052000000 5.4975000000 1.1340000000
3.0051000000 3.5966000000 2.2933000000
3.0049000000 3.3646000000 2.4184000000
3.0045000000 6.0691000000 0.5343000000
3.0042000000 5.0876000000 1.5001000000
3.0040000000 2.8009000000 2.1941000000
3.0039000000 3.2638000000 2.4206000000
3.0036000000 0.2498000000 0.2385000000
3.0035000000 4.1280000000 2.0101000000
3.0032000000 1.0982000000 1.1422000000
3.0028000000 4.1166000000 2.0218000000
3.0028000000 3.1758000000 2.3895000000
3.0025000000 0.3668000000 0.3684000000
3.0023000000 4.4947000000 1.8204000000
3.0021000000 2.1454000000 1.8461000000
3.0020000000 1.8705000000 1.6971000000
3.0019000000 2.6924000000 2.1378000000
3.0013000000 2.2245000000 1.8860000000
3.0010000000 0.4440000000 0.4478000000
3.0008000000 0.8181000000 0.8424000000
3.0004000000 0.7895000000 0.8161000000
3.0002000000 4.0463000000 2.0616000000
2.9991000000 0.6839000000 0.6996000000
2.9985000000 0.6180000000 0.6263000000
2.9979000000 1.0087000000 1.0441000000
2.9973000000 1.0840000000 1.1215000000
2.9970000000 1.2407000000 1.2921000000
2.7648000000 6.5204000000 0.0549000000
2.7623000000 6.2471000000 0.3378000000
2.7615000000 3.5743000000 2.5243000000
2.7605000000 4.0176000000 2.2931000000
2.7595000000 1.7491000000 1.8106000000
2.7593000000 4.7659000000 1.8786000000
2.7579000000 2.7565000000 2.3918000000
2.7577000000 2.1623000000 2.0753000000
2.7573000000 0.3992000000 0.4034000000
2.7572000000 6.4015000000 0.1779000000
2.7569000000 1.9637000000 1.9707000000
2.7562000000 1.2438000000 1.2908000000
2.7560000000 4.0108000000 2.2949000000
2.7556000000 1.2562000000 1.3073000000
2.7552000000 6.3394000000 0.2449000000
2.7551000000 3.1025000000 2.5797000000
2.7550000000 1.2123000000 1.2619000000
2.7547000000 1.3199000000 1.3751000000
2.7543000000 0.9765000000 1.0052000000
2.7543000000 5.4950000000 1.1376000000
2.7541000000 3.7504000000 2.4385000000
2.7540000000 2.8975000000 2.4644000000
2.7538000000 1.5200000000 1.5846000000
2.7537000000 2.3335000000 2.1717000000
2.7534000000 4.1332000000 2.2406000000
2.7533000000 3.1503000000 2.6026000000
2.7532000000 6.0953000000 0.5009000000
2.7529000000 6.5262000000 0.0402000000
2.7527000000 3.5925000000 2.5253000000
2.7526000000 1.1292000000 1.1662000000
2.7525000000 4.6410000000 1.9719000000
2.7523000000 5.7748000000 0.8461000000
2.7520000000 2.3003000000 2.1580000000
2.7518000000 1.0069000000 1.0418000000
2.7516000000 1.0185000000 1.0583000000
2.7516000000 4.2906000000 2.1504000000
2.7512000000 1.1301000000 1.1735000000
2.7510000000 5.2044000000 1.4450000000
2.7505000000 1.6758000000 1.7454000000
2.7505000000 2.0786000000 2.0390000000
2.7503000000 1.3161000000 1.3578000000
2.7502000000 4.6750000000 1.9389000000
2.7500000000 3.1173000000 2.5839000000
2.7493000000 1.2682000000 1.3166000000
2.7485000000 5.6984000000 0.9232000000
2.7480000000 0.9638000000 0.9938000000
2.7475000000 4.1167000000 2.2517000000
2.7473000000 1.3256000000 1.3758000000
2.7467000000 1.9406000000 1.9632000000
2.7455000000 0.0773000000 0.0567000000
2.5116000000 3.0580000000 2.7786000000
2.5113000000 6.5298000000 0.1218000000
2.5103000000 3.6981000000 2.6962000000
2.5095000000 1.9842000000 2.0763000000
2.5090000000 0.7316000000 0.7508000000
2.5087000000 5.7629000000 0.8542000000
2.5085000000 3.9790000000 2.5378000000
2.5082000000 3.0260000000 2.7657000000
2.5077000000 2.6255000000 2.5471000000
2.5075000000 2.4716000000 2.4683000000
2.5071000000 3.8486000000 2.6181000000
2.5065000000 2.6492000000 2.5631000000
2.5063000000 6.4087000000 0.1711000000
2.5061000000 3.8075000000 2.6332000000
2.5058000000 5.6264000000 1.0022000000
2.5055000000 5.1286000000 1.5243000000
2.5054000000 2.3240000000 2.3780000000
2.5052000000 5.4910000000 1.1408000000
2.5050000000 5.2796000000 1.3657000000
2.5047000000 1.3323000000 1.3853000000
2.5045000000 2.6991000000 2.5955000000
2.5045000000 5.1856000000 1.4699000000
2.5043000000 3.7458000000 2.6699000000
2.5041000000 3.7160000000 2.6881000000
2.5039000000 2.0958000000 2.1902000000
2.5037000000 6.0392000000 0.5560000000
2.5035000000 5.9190000000 0.6899000000
2.5033000000 3.0529000000 2.7772000000
2.5030000000 0.6332000000 0.6441000000
2.5027000000 0.3432000000 0.3388000000
2.5023000000 4.3004000000 2.3605000000
2.5021000000 0.8920000000 0.9195000000
2.5019000000 5.7517000000 0.8674000000
2.5015000000 0.8425000000 0.8690000000
2.5014000000 1.6937000000 1.7626000000
2.5013000000 4.0917000000 2.4881000000
2.5010000000 6.4817000000 0.0915000000
2.5007000000 5.1076000000 1.5502000000
2.5003000000 0.7809000000 0.7969000000
2.4997000000 0.6302000000 0.6424000000
2.4995000000 3.2670000000 2.8873000000
2.4991000000 0.9973000000 1.0316000000
2.4985000000 1.2290000000 1.2733000000
2.4981000000 1.6122000000 1.6819000000
2.4969000000 2.5116000000 2.4950000000
2.4945000000 1.4947000000 1.5609000000
2.2632000000 5.5814000000 1.0426000000
2.2599000000 5.3294000000 1.3094000000
2.2595000000 3.6809000000 2.9308000000
2.2591000000 4.2239000000 2.4856000000
2.2583000000 2.6367000000 2.7475000000
2.2581000000 5.1284000000 1.5239000000
2.2580000000 5.5786000000 1.0515000000
2.2575000000 2.0379000000 2.1308000000
2.2573000000 2.1850000000 2.2891000000
2.2570000000 2.3548000000 2.4648000000
2.2569000000 3.6135000000 2.9610000000
2.2566000000 3.8800000000 2.8085000000
2.2564000000 0.5980000000 0.6121000000
2.2563000000 1.8828000000 1.9665000000
2.2559000000 6.3827000000 0.1993000000
2.2558000000 5.4310000000 1.2065000000
2.2555000000 4.8971000000 1.7664000000
2.2554000000 2.0210000000 2.1143000000
2.2553000000 5.7937000000 0.8182000000
2.2552000000 0.9744000000 1.0061000000
2.2551000000 4.9075000000 1.7567000000
2.2550000000 0.0538000000 0.1086000000
2.2547000000 4.8512000000 1.8199000000
2.2544000000 5.2438000000 1.4013000000
2.2543000000 3.3086000000 3.1108000000
2.2542000000 1.9702000000 2.0615000000
2.2539000000 4.1776000000 2.5328000000
2.2537000000 0.5385000000 0.5472000000
2.2535000000 0.4651000000 0.4736000000
2.2533000000 2.0773000000 2.1713000000
2.2532000000 1.5288000000 1.5941000000
2.2528000000 6.5664000000 0.0790000000
2.2527000000 3.9525000000 2.7513000000
2.2526000000 5.2617000000 1.3783000000
2.2525000000 5.8520000000 0.7607000000
2.2524000000 0.2538000000 0.2457000000
2.2523000000 5.5103000000 1.1226000000
2.2520000000 4.5523000000 2.1273000000
2.2519000000 5.8441000000 0.7702000000
2.2513000000 1.4885000000 1.5475000000
2.2510000000 4.2914000000 2.4093000000
2.2510000000 2.0168000000 2.1053000000
2.2506000000 4.5310000000 2.1561000000
2.2504000000 2.0870000000 2.1801000000
2.2503000000 4.9763000000 1.6823000000
2.2502000000 0.9471000000 0.9766000000
2.2498000000 1.4669000000 1.5273000000
2.2497000000 1.2484000000 1.3004000000
2.2493000000 4.4846000000 2.2033000000
2.2486000000 1.1804000000 1.2277000000
2.2481000000 0.8485000000 0.8780000000
2.2464000000 3.8633000000 2.8310000000
2.2455000000 1.1166000000 1.1605000000
2.2451000000 0.3428000000 0.3380000000
2.0161000000 6.4945000000 0.0734000000
2.0123000000 2.5194000000 2.6404000000
2.0118000000 6.0516000000 0.5498000000
2.0111000000 4.8189000000 1.8491000000
2.0100000000 3.0026000000 3.1434000000
2.0089000000 4.1832000000 2.5176000000
2.0087000000 5.5676000000 1.0608000000
2.0082000000 5.2917000000 1.3548000000
2.0080000000 2.3058000000 2.4142000000
2.0076000000 6.3817000000 0.1990000000
2.0074000000 3.3294000000 3.3143000000
2.0071000000 6.1584000000 0.4319000000
2.0070000000 5.9447000000 0.6564000000
2.0067000000 1.8453000000 1.9242000000
2.0063000000 1.2125000000 1.2577000000
2.0060000000 5.3821000000 1.2560000000
2.0059000000 1.2662000000 1.3154000000
2.0058000000 0.5441000000 0.5470000000
2.0055000000 3.7266000000 3.0084000000
2.0052000000 0.5263000000 0.5370000000
2.0050000000 4.3472000000 2.3490000000
2.0049000000 4.3502000000 2.3462000000
2.0048000000 0.1235000000 0.1053000000
2.0046000000 3.9534000000 2.7618000000
2.0045000000 3.8743000000 2.8493000000
2.0043000000 0.5526000000 0.5564000000
2.0041000000 5.8016000000 0.8116000000
2.0039000000 3.0739000000 3.2058000000
2.0038000000 3.4747000000 3.2527000000
2.0037000000 0.8360000000 0.8593000000
2.0036000000 4.2791000000 2.4196000000
2.0033000000 6.3419000000 0.2441000000
2.0030000000 0.2422000000 0.2380000000
2.0028000000 2.6558000000 2.7847000000
2.0025000000 5.2630000000 1.3860000000
2.0021000000 1.9148000000 1.9987000000
2.0018000000 1.2825000000 1.3322000000
2.0017000000 4.7810000000 1.8911000000
2.0016000000 3.6850000000 3.0497000000
2.0015000000 5.2407000000 1.4049000000
2.0013000000 2.3243000000 2.4354000000
2.0012000000 4.8011000000 1.8696000000
2.0010000000 0.0987000000 0.0851000000
2.0009000000 2.2289000000 2.3275000000
2.0008000000 2.3640000000 2.4725000000
2.0003000000 0.3631000000 0.3597000000
2.0001000000 1.9257000000 2.0157000000
2.0000000000 2.6509000000 2.7797000000
1.9997000000 3.8929000000 2.8267000000
1.9992000000 3.6798000000 3.0542000000
1.9987000000 3.6852000000 3.0475000000
1.9971000000 0.2520000000 0.2425000000
1.9953000000 4.7974000000 1.8708000000
1.7618000000 4.1117000000 2.5955000000
1.7594000000 5.4511000000 1.1825000000
1.7590000000 1.9575000000 2.0435000000
1.7587000000 6.0242000000 0.5761000000
1.7584000000 5.8992000000 0.7059000000
1.7582000000 3.7856000000 2.9453000000
1.7574000000 3.3598000000 3.2971000000
1.7570000000 3.2560000000 3.2943000000
1.7568000000 6.4675000000 0.1073000000
1.7567000000 5.2844000000 1.3622000000
1.7566000000 5.8451000000 0.7643000000
1.7564000000 3.0995000000 3.2013000000
1.7561000000 6.2764000000 0.3112000000
1.7560000000 1.8148000000 1.8939000000
1.7554000000 3.3392000000 3.2847000000
1.7554000000 6.4114000000 0.1693000000
1.7553000000 1.3923000000 1.4487000000
1.7548000000 4.8416000000 1.8234000000
1.7546000000 6.5750000000 0.0678000000
1.7543000000 5.3942000000 1.2450000000
1.7542000000 5.5931000000 1.0348000000
1.7536000000 3.4976000000 3.2007000000
1.7534000000 4.5087000000 2.1790000000
1.7532000000 5.1319000000 1.5192000000
1.7530000000 0.3259000000 0.3246000000
1.7529000000 5.1788000000 1.4663000000
1.7528000000 3.4113000000 3.2674000000
1.7526000000 4.4474000000 2.2474000000
1.7525000000 3.0033000000 3.1346000000
1.7523000000 2.8995000000 3.0414000000
1.7522000000 3.6562000000 3.0753000000
1.7519000000 3.4470000000 3.2370000000
1.7518000000 3.9730000000 2.7448000000
1.7515000000 0.9616000000 0.9964000000
1.7512000000 0.9029000000 0.9355000000
1.7510000000 5.6165000000 1.0077000000
1.7509000000 4.7569000000 1.9164000000
1.7505000000 3.8386000000 2.8828000000
1.7504000000 5.9960000000 0.6007000000
1.7503000000 1.9792000000 2.0699000000
1.7500000000 2.6929000000 2.8221000000
1.7496000000 3.1743000000 3.2594000000
1.7494000000 2.9549000000 3.0778000000
1.7489000000 4.5514000000 2.1333000000
1.7487000000 1.5349000000 1.6000000000
1.7485000000 0.3385000000 0.3333000000
1.7478000000 3.8531000000 2.8680000000
1.7466000000 2.0662000000 2.1624000000
1.7460000000 3.3412000000 3.2783000000
1.5132000000 4.5607000000 2.1230000000
1.5102000000 5.6973000000 0.9207000000
1.5093000000 1.7339000000 1.8143000000
1.5089000000 5.5150000000 1.1141000000
1.5084000000 4.1599000000 2.5468000000
1.5077000000 2.2156000000 2.3195000000
1.5075000000 1.3540000000 1.4080000000
1.5069000000 5.4833000000 1.1503000000
1.5067000000 6.2866000000 0.2942000000
1.5066000000 6.4206000000 0.1542000000
1.5064000000 0.8604000000 0.8871000000
1.5063000000 6.2648000000 0.3246000000
1.5062000000 2.9034000000 2.8994000000
1.5059000000 0.3874000000 0.3839000000
1.5057000000 5.5041000000 1.1231000000
1.5055000000 3.5421000000 2.9635000000
1.5054000000 4.3591000000 2.3372000000
1.5053000000 3.4122000000 3.0340000000
1.5049000000 5.7023000000 0.9157000000
1.5047000000 3.5828000000 2.9523000000
1.5045000000 5.5834000000 1.0417000000
1.5044000000 0.7613000000 0.7820000000
1.5043000000 4.0776000000 2.6259000000
1.5041000000 2.6527000000 2.7372000000
1.5038000000 4.1965000000 2.5129000000
1.5033000000 2.0801000000 2.1753000000
1.5033000000 4.2491000000 2.4546000000
1.5030000000 0.4034000000 0.4029000000
1.5028000000 6.5493000000 0.0969000000
1.5027000000 2.7106000000 2.7785000000
1.5025000000 4.9373000000 1.7214000000
1.5025000000 1.3262000000 1.3788000000
1.5023000000 2.6959000000 2.7623000000
1.5022000000 4.3442000000 2.3513000000
1.5018000000 1.7406000000 1.8197000000
1.5015000000 5.8061000000 0.8041000000
1.5013000000 2.8728000000 2.8690000000
1.5011000000 3.1404000000 3.0121000000
1.5008000000 1.8227000000 1.9032000000
1.5005000000 0.1938000000 0.1858000000
1.5003000000 2.5183000000 2.6187000000
1.5002000000 0.8020000000 0.8281000000
1.5001000000 1.8385000000 1.9269000000
1.4994000000 2.6349000000 2.7269000000
1.4988000000 0.6206000000 0.6347000000
1.4985000000 0.1737000000 0.1539000000
1.4979000000 3.6685000000 2.9013000000
1.4976000000 1.4534000000 1.5130000000
1.4965000000 0.2809000000 0.2790000000
1.4957000000 0.2782000000 0.2667000000
1.4944000000 0.6770000000 0.6951000000
1.2635000000 5.0088000000 1.6440000000
1.2612000000 6.2191000000 0.3723000000
1.2608000000 6.4580000000 0.1170000000
1.2603000000 5.0551000000 1.6045000000
1.2601000000 0.3713000000 0.3680000000
1.2599000000 5.2068000000 1.4404000000
1.2592000000 2.7090000000 2.5602000000
1.2589000000 3.8519000000 2.5774000000
1.2587000000 0.4457000000 0.4469000000
1.2586000000 5.4406000000 1.1910000000
1.2581000000 1.9850000000 2.0731000000
1.2581000000 5.1198000000 1.5353000000
1.2574000000 4.5763000000 2.1096000000
1.2569000000 5.2951000000 1.3498000000
1.2568000000 2.7342000000 2.5748000000
1.2565000000 4.6728000000 2.0025000000
1.2562000000 0.9308000000 0.9548000000
1.2560000000 5.2655000000 1.3799000000
1.2559000000 0.1972000000 0.1886000000
1.2558000000 3.9695000000 2.5097000000
1.2555000000 5.8859000000 0.7244000000
1.2552000000 1.4769000000 1.5379000000
1.2550000000 3.2266000000 2.8296000000
1.2550000000 5.3740000000 1.2604000000
1.2548000000 4.8081000000 1.8608000000
1.2547000000 6.3213000000 0.2597000000
1.2546000000 0.1956000000 0.1819000000
1.2543000000 1.8959000000 1.9792000000
1.2538000000 4.6364000000 2.0429000000
1.2536000000 0.6519000000 0.6648000000
1.2532000000 0.2064000000 0.1939000000
1.2530000000 3.7109000000 2.6458000000
1.2529000000 3.0623000000 2.7394000000
1.2526000000 4.3936000000 2.2695000000
1.2524000000 1.2049000000 1.2528000000
1.2523000000 4.2120000000 2.3845000000
1.2522000000 0.8253000000 0.8552000000
1.2520000000 2.2994000000 2.3377000000
1.2523000000 3.8360000000 2.5831000000
1.2516000000 0.7880000000 0.8108000000
1.2515000000 5.4231000000 1.2105000000
1.2511000000 1.3646000000 1.4183000000
1.2507000000 0.8262000000 0.8542000000
1.2506000000 6.3200000000 0.2652000000
1.2503000000 1.4401000000 1.4959000000
1.2501000000 0.0807000000 0.0599000000
1.2500000000 0.6511000000 0.6651000000
1.2495000000 5.6978000000 0.9255000000
1.2491000000 1.7989000000 1.8760000000
1.2487000000 0.5083000000 0.5088000000
1.2484000000 6.1795000000 0.4127000000
1.2478000000 1.3781000000 1.4401000000
1.2476000000 3.3027000000 2.8406000000
1.2474000000 2.1284000000 2.2097000000
1.2455000000 0.3138000000 0.3137000000
1.0126000000 2.8797000000 2.4304000000
1.0111000000 3.6390000000 2.4632000000
1.0102000000 6.2025000000 0.3875000000
1.0096000000 2.2186000000 2.0758000000
1.0093000000 3.9108000000 2.3195000000
1.0084000000 0.0658000000 0.0500000000
1.0082000000 6.5245000000 0.0496000000
1.0070000000 2.3782000000 2.1560000000
1.0066000000 2.9504000000 2.4572000000
1.0063000000 4.4450000000 2.0339000000
1.0062000000 6.5435000000 0.1039000000
1.0059000000 1.3696000000 1.4280000000
1.0056000000 1.4222000000 1.4798000000
1.0055000000 2.0062000000 1.9570000000
1.0054000000 5.3059000000 1.3384000000
1.0050000000 0.3189000000 0.3141000000
1.0048000000 4.5211000000 1.9902000000
1.0046000000 0.4509000000 0.4544000000
1.0045000000 0.4964000000 0.4993000000
1.0042000000 1.4629000000 1.5249000000
1.0040000000 6.4438000000 0.1325000000
1.0039000000 5.7555000000 0.8630000000
1.0036000000 3.6503000000 2.4457000000
1.0034000000 4.8128000000 1.8219000000
1.0033000000 3.8230000000 2.3577000000
1.0031000000 1.1944000000 1.2412000000
1.0030000000 0.6032000000 0.6150000000
1.0029000000 3.5538000000 2.4975000000
1.0024000000 2.6926000000 2.3191000000
1.0024000000 2.6527000000 2.2955000000
1.0022000000 1.1879000000 1.2308000000
1.0017000000 1.5602000000 1.6300000000
1.0015000000 2.0325000000 1.9732000000
1.0012000000 1.8984000000 1.9005000000
1.0010000000 2.4123000000 2.1686000000
1.0007000000 1.5962000000 1.6629000000
1.0004000000 1.2522000000 1.2971000000
1.0000000000 0.6806000000 0.6996000000
0.9996000000 1.4664000000 1.5328000000
0.9991000000 2.2170000000 2.0713000000
0.9988000000 3.1448000000 2.5570000000
0.9987000000 1.0090000000 1.0443000000
0.9984000000 1.0231000000 1.0589000000
0.9980000000 0.4011000000 0.4033000000
0.9975000000 2.2515000000 2.0828000000
0.9966000000 1.8316000000 1.8511000000
0.7641000000 3.6313000000 2.2414000000
0.7617000000 4.1775000000 1.9524000000
0.7608000000 4.4728000000 1.7889000000
0.7602000000 5.2749000000 1.3581000000
0.7587000000 4.3564000000 1.8560000000
0.7579000000 5.1786000000 1.4083000000
0.7575000000 3.9074000000 2.0887000000
0.7570000000 3.5733000000 2.2641000000
0.7569000000 5.3710000000 1.2583000000
0.7567000000 2.2480000000 1.8598000000
0.7565000000 4.3338000000 1.8600000000
0.7564000000 3.7336000000 2.1791000000
0.7559000000 3.4753000000 2.3160000000
0.7557000000 0.6377000000 0.6481000000
0.7554000000 1.8084000000 1.6256000000
0.7550000000 1.2279000000 1.2560000000
0.7546000000 3.1528000000 2.3325000000
0.7544000000 3.6556000000 2.2178000000
0.7542000000 4.9803000000 1.5193000000
0.7539000000 1.9292000000 1.6859000000
0.7538000000 4.1108000000 1.9757000000
0.7531000000 5.6866000000 0.9331000000
0.7529000000 4.6424000000 1.7016000000
0.7526000000 2.4530000000 1.9623000000
0.7522000000 5.2284000000 1.3714000000
0.7520000000 1.5414000000 1.4783000000
0.7519000000 2.4457000000 1.9560000000
0.7518000000 5.6891000000 0.9297000000
0.7516000000 0.0284000000 0.0769000000
0.7514000000 2.4717000000 1.9697000000
0.7513000000 2.2431000000 1.8481000000
0.7511000000 5.7323000000 0.8823000000
0.7509000000 4.3348000000 1.8584000000
0.7506000000 4.9706000000 1.5237000000
0.7498000000 2.2075000000 1.8286000000
0.7494000000 6.1940000000 0.3977000000
0.7493000000 5.9051000000 0.7024000000
0.7488000000 1.8453000000 1.6378000000
0.7483000000 3.0818000000 2.2888000000
0.7478000000 4.1063000000 1.9727000000
0.7466000000 1.4028000000 1.3930000000
0.7460000000 1.3439000000 1.3560000000
0.7456000000 5.2845000000 1.3344000000
0.7450000000 2.2298000000 1.8372000000
0.5165000000 6.5582000000 0.0821000000
0.5102000000 5.6769000000 0.9098000000
0.5089000000 3.7829000000 1.9236000000
0.5086000000 1.3976000000 1.1811000000
0.5079000000 1.9117000000 1.4469000000
0.5076000000 4.1530000000 1.7291000000
0.5071000000 3.8890000000 1.8729000000
0.5065000000 5.3714000000 1.0846000000
0.5064000000 5.3892000000 1.0778000000
0.5061000000 3.5648000000 2.0394000000
0.5060000000 2.6733000000 1.8526000000
0.5058000000 0.4751000000 0.4785000000
0.5056000000 3.0113000000 2.0256000000
0.5053000000 0.4441000000 0.4474000000
0.5052000000 3.9975000000 1.8029000000
0.5049000000 5.6411000000 0.9260000000
0.5047000000 6.0930000000 0.5015000000
0.5046000000 1.3904000000 1.1700000000
0.5045000000 2.2982000000 1.6528000000
0.5043000000 6.2467000000 0.3441000000
0.5039000000 1.6432000000 1.3056000000
0.5035000000 2.4690000000 1.7455000000
0.5032000000 4.2956000000 1.6506000000
0.5030000000 4.2284000000 1.6913000000
0.5028000000 0.5155000000 0.5249000000
0.5027000000 4.5629000000 1.5161000000
0.5026000000 2.8044000000 1.9185000000
0.5023000000 3.1300000000 2.0920000000
0.5021000000 2.9016000000 1.9684000000
0.5020000000 3.0222000000 2.0287000000
0.5016000000 2.4147000000 1.7165000000
0.5014000000 2.2077000000 1.6046000000
0.5013000000 0.3800000000 0.3805000000
0.5012000000 2.6220000000 1.8275000000
0.5007000000 2.2737000000 1.6361000000
0.5005000000 2.3355000000 1.6700000000
0.5003000000 1.3010000000 1.1212000000
0.5002000000 1.5735000000 1.2647000000
0.4999000000 5.0620000000 1.2414000000
0.4997000000 6.5620000000 0.0838000000
0.4993000000 2.3964000000 1.7036000000
0.4992000000 4.4317000000 1.5769000000
0.4990000000 2.7139000000 1.8669000000
0.4985000000 0.4788000000 0.4861000000
0.4982000000 0.8964000000 0.8875000000
0.4977000000 1.5889000000 1.2709000000
0.4963000000 1.1812000000 1.0521000000
0.4929000000 0.6630000000 0.6747000000
0.2615000000 4.4168000000 1.3633000000
0.2599000000 3.9059000000 1.6332000000
0.2594000000 4.9854000000 1.0635000000
0.2592000000 5.8993000000 0.5769000000
0.2587000000 0.9761000000 0.7280000000
0.2583000000 3.1785000000 1.8906000000
0.2581000000 6.2157000000 0.3500000000
0.2577000000 4.8934000000 1.1086000000
0.2575000000 6.0932000000 0.4574000000
0.2569000000 1.9011000000 1.2184000000
0.2568000000 5.7943000000 0.6380000000
0.2565000000 5.3803000000 0.8515000000
0.2564000000 3.7997000000 1.6881000000
0.2561000000 4.8766000000 1.1169000000
0.2555000000 2.4492000000 1.5070000000
0.2554000000 2.6574000000 1.6144000000
0.2552000000 3.6697000000 1.7585000000
0.2550000000 6.1338000000 0.4343000000
0.2549000000 0.6958000000 0.5712000000
0.2548000000 3.4300000000 1.8826000000
0.2547000000 4.5383000000 1.2959000000
0.2545000000 3.9956000000 1.5816000000
0.2540000000 1.0461000000 0.7644000000
0.2538000000 1.7427000000 1.1318000000
0.2537000000 3.4711000000 1.8564000000
0.2536000000 0.1344000000 0.1127000000
0.2534000000 4.3961000000 1.3676000000
0.2530000000 2.2114000000 1.3736000000
0.2526000000 0.8997000000 0.6829000000
0.2523000000 2.4151000000 1.4853000000
0.2523000000 4.0015000000 1.5747000000
0.2520000000 2.6168000000 1.5940000000
0.2516000000 6.5078000000 0.0659000000
0.2513000000 5.3767000000 0.8459000000
0.2510000000 6.0742000000 0.4625000000
0.2506000000 2.5814000000 1.5705000000
0.2504000000 3.6724000000 1.7463000000
0.2500000000 1.8899000000 1.2066000000
0.2498000000 1.0881000000 0.7719000000
0.2495000000 0.3959000000 0.3790000000
0.2490000000 5.3025000000 0.8926000000
0.2488000000 2.0835000000 1.3043000000
0.2483000000 0.5749000000 0.5071000000
0.2478000000 3.6114000000 1.7777000000
0.2470000000 5.4867000000 0.7896000000
0.2460000000 1.2476000000 0.8606000000
0.2436000000 3.5513000000 1.8060000000
0.0137000000 5.8454000000 0.3805000000
0.0106000000 6.4672000000 0.0438000000
0.0098000000 5.0811000000 0.7874000000
0.0095000000 5.9073000000 0.3487000000
0.0084000000 6.4243000000 0.0720000000
0.0078000000 6.3542000000 0.1058000000
0.0075000000 6.1193000000 0.2321000000
0.0069000000 1.4038000000 0.7302000000
0.0066000000 3.8669000000 1.4211000000
0.0063000000 3.2852000000 1.7022000000
0.0061000000 1.3662000000 0.7045000000
0.0058000000 0.6505000000 0.3230000000
0.0053000000 1.1189000000 0.5703000000
0.0050000000 4.1605000000 1.2716000000
0.0047000000 3.5370000000 1.5954000000
0.0045000000 5.3612000000 0.6286000000
0.0042000000 0.8542000000 0.4270000000
0.0040000000 6.5606000000 0.0528000000
0.0039000000 1.1414000000 0.5826000000
0.0036000000 1.7455000000 0.9048000000
0.0034000000 4.8326000000 0.9098000000
0.0031000000 4.6975000000 0.9831000000
0.0029000000 1.7607000000 0.9116000000
0.0028000000 2.8694000000 1.4973000000
0.0025000000 5.2099000000 0.7110000000
0.0023000000 0.9359000000 0.4757000000
0.0022000000 4.4861000000 1.0946000000
0.0021000000 4.1680000000 1.2582000000
0.0019000000 5.6896000000 0.4601000000
0.0017000000 0.8692000000 0.4380000000
0.0014000000 6.4875000000 0.1001000000
0.0012000000 0.0916000000 0.0814000000
0.0010000000 5.1005000000 0.7657000000
0.0010000000 2.2174000000 1.1526000000
0.0006000000 4.8224000000 0.9142000000
0.0005000000 2.1714000000 1.1248000000
-0.0001000000 0.3644000000 0.1683000000
-0.0003000000 0.9528000000 0.4754000000
-0.0005000000 3.0973000000 1.6172000000
-0.0010000000 0.4768000000 0.2298000000
-0.0020000000 0.1822000000 0.0700000000
-0.0027000000 0.0445000000 0.0494000000
-0.0051000000 0.4467000000 0.2070000000
-0.2378000000 5.2931000000 0.4458000000
-0.2398000000 5.9826000000 0.0758000000
-0.2403000000 1.0990000000 0.3364000000
-0.2416000000 3.2431000000 1.4607000000
-0.2422000000 5.7534000000 0.1983000000
-0.2427000000 2.0837000000 0.8586000000
-0.2429000000 3.5630000000 1.3590000000
-0.2433000000 2.2587000000 0.9504000000
-0.2438000000 4.8973000000 0.6484000000
-0.2441000000 0.3227000000 0.0789000000
-0.2442000000 5.8225000000 0.1647000000
-0.2445000000 1.9541000000 0.7885000000
-0.2446000000 0.6498000000 0.0962000000
-0.2448000000 5.7421000000 0.2034000000
-0.2452000000 0.6770000000 0.1123000000
-0.2454000000 2.2498000000 0.9435000000
-0.2457000000 1.8657000000 0.7430000000
-0.2459000000 4.8724000000 0.6599000000
-0.2460000000 1.8349000000 0.7194000000
-0.2461000000 5.2304000000 0.4775000000
-0.2462000000 5.8106000000 0.1685000000
-0.2465000000 4.4480000000 0.8793000000
-0.2467000000 5.1116000000 0.5304000000
-0.2468000000 2.0518000000 0.8303000000
-0.2472000000 4.6722000000 0.7652000000
-0.2474000000 2.1276000000 0.8720000000
-0.2474000000 1.1895000000 0.3817000000
-0.2476000000 1.2232000000 0.3959000000
-0.2482000000 1.6000000000 0.5942000000
-0.2482000000 0.9500000000 0.2484000000
-0.2485000000 0.7056000000 0.1243000000
-0.2487000000 5.1898000000 0.4921000000
-0.2493000000 2.2751000000 0.9485000000
-0.2497000000 2.0312000000 0.8180000000
-0.2506000000 0.6875000000 0.1146000000
-0.2515000000 2.1611000000 0.8906000000
-0.2521000000 1.6423000000 0.6200000000
-0.2522000000 1.0565000000 0.3067000000
-0.2526000000 3.3140000000 1.4629000000
-0.2528000000 1.6862000000 0.6411000000
-0.2547000000 1.6495000000 0.6150000000
-0.4882000000 3.7741000000 1.0182000000
-0.4905000000 4.5289000000 0.6180000000
-0.4920000000 3.6148000000 1.1005000000
-0.4925000000 3.3520000000 1.2303000000
-0.4932000000 5.7138000000 0.0652000000
-0.4933000000 4.1838000000 0.7991000000
-0.4935000000 4.4240000000 0.6729000000
-0.4937000000 2.0711000000 0.6164000000
-0.4938000000 4.1415000000 0.8123000000
-0.4943000000 4.4219000000 0.6721000000
-0.4945000000 2.6354000000 0.9164000000
-0.4948000000 5.5270000000 0.0876000000
-0.4951000000 5.4185000000 0.1386000000
-0.4953000000 0.6465000000 0.0165000000
-0.4958000000 1.5604000000 0.3496000000
-0.4963000000 5.7334000000 0.0462000000
-0.4965000000 4.5946000000 0.5815000000
-0.4969000000 3.3549000000 1.2259000000
-0.4971000000 3.5453000000 1.1303000000
-0.4972000000 4.4650000000 0.6494000000
-0.4976000000 4.4255000000 0.6668000000
-0.4979000000 5.7915000000 0.0934000000
-0.4982000000 3.2852000000 1.2382000000
-0.4985000000 5.4127000000 0.1413000000
-0.4989000000 3.2698000000 1.2294000000
-0.4990000000 2.0487000000 0.6024000000
-0.4993000000 2.9327000000 1.0709000000
-0.4997000000 0.8631000000 0.0542000000
-0.5000000000 1.2179000000 0.1589000000
-0.5003000000 4.1630000000 0.8025000000
-0.5005000000 4.5334000000 0.6043000000
-0.5009000000 5.7406000000 0.0415000000
-0.5020000000 1.5205000000 0.3270000000
-0.5022000000 1.0717000000 0.0825000000
-0.5040000000 1.6814000000 0.4087000000
-0.7373000000 4.7276000000 0.2928000000
-0.7419000000 3.6596000000 0.8451000000
-0.7422000000 2.9252000000 0.8450000000
-0.7425000000 4.6239000000 0.3380000000
-0.7427000000 2.8590000000 0.8088000000
-0.7435000000 2.9959000000 0.8782000000
-0.7438000000 5.4940000000 0.0288000000
-0.7440000000 4.9981000000 0.1364000000
-0.7443000000 1.6609000000 0.1759000000
-0.7447000000 4.5653000000 0.3632000000
-0.7447000000 5.4652000000 0.0370000000
-0.7450000000 2.5472000000 0.6411000000
-0.7451000000 1.1070000000 0.0273000000
-0.7452000000 5.0077000000 0.1325000000
-0.7457000000 3.3013000000 1.0170000000
-0.7462000000 2.6146000000 0.6696000000
-0.7464000000 1.3448000000 0.0749000000
-0.7468000000 3.3990000000 0.9786000000
-0.7471000000 1.5348000000 0.1031000000
-0.7473000000 2.0032000000 0.3549000000
-0.7477000000 1.7471000000 0.2174000000
-0.7479000000 3.3558000000 1.0067000000
-0.7490000000 3.2725000000 1.0077000000
-0.7492000000 1.1472000000 0.0473000000
-0.7496000000 2.6150000000 0.6712000000
-0.7500000000 1.2688000000 0.0365000000
-0.7509000000 2.0008000000 0.3408000000
-0.7516000000 4.9157000000 0.1691000000
-0.9913000000 4.9843000000 0.0684000000
-0.9927000000 3.7729000000 0.5585000000
-0.9933000000 1.7686000000 0.0827000000
-0.9938000000 2.2235000000 0.2459000000
-0.9942000000 3.5118000000 0.6926000000
-0.9945000000 2.4611000000 0.3717000000
-0.9947000000 1.7214000000 0.0551000000
-0.9949000000 4.6624000000 0.0924000000
-0.9952000000 2.6092000000 0.4446000000
-0.9954000000 2.7292000000 0.5081000000
-0.9958000000 4.8508000000 0.0647000000
-0.9960000000 3.3731000000 0.7674000000
-0.9962000000 2.4045000000 0.3381000000
-0.9965000000 4.8309000000 0.0711000000
-0.9967000000 3.5331000000 0.6785000000
-0.9970000000 4.8118000000 0.0765000000
-0.9971000000 2.7209000000 0.5034000000
-0.9980000000 2.5416000000 0.4029000000
-0.9985000000 1.6119000000 0.0633000000
-0.9986000000 2.8648000000 0.5768000000
-0.9987000000 4.6415000000 0.0882000000
-0.9990000000 3.5192000000 0.6855000000
-0.9992000000 2.5421000000 0.4072000000
-0.9995000000 3.0565000000 0.6792000000
-1.0000000000 2.0835000000 0.1646000000
-1.0004000000 1.5011000000 0.0021000000
-1.0011000000 1.5160000000 0.0129000000
-1.0024000000 3.7895000000 0.5420000000
-1.0031000000 2.9155000000 0.5963000000
-1.0038000000 3.6200000000 0.6318000000
-1.2369000000 3.1365000000 0.5006000000
-1.2412000000 1.9752000000 0.0351000000
-1.2420000000 2.9477000000 0.3994000000
-1.2422000000 2.0230000000 0.0563000000
-1.2436000000 3.4222000000 0.5167000000
-1.2442000000 3.7105000000 0.3579000000
-1.2451000000 3.9625000000 0.2298000000
-1.2460000000 3.2217000000 0.5384000000
-1.2463000000 2.4936000000 0.1544000000
-1.2465000000 4.0803000000 0.1648000000
-1.2470000000 1.9600000000 0.0245000000
-1.2475000000 2.0762000000 0.0821000000
-1.2478000000 2.9530000000 0.3986000000
-1.2486000000 2.3605000000 0.0796000000
-1.2487000000 3.5991000000 0.4162000000
-1.2494000000 4.0475000000 0.1784000000
-1.2498000000 3.7333000000 0.3460000000
-1.2506000000 3.7434000000 0.3339000000
-1.4916000000 3.3418000000 0.3147000000
-1.4925000000 3.4465000000 0.2738000000
-1.4931000000 3.0095000000 0.2049000000
-1.4940000000 3.0122000000 0.2008000000
-1.4949000000 4.1647000000 0.0432000000
-1.4951000000 3.6514000000 0.1652000000
-1.4958000000 3.9052000000 0.1075000000
-1.4962000000 4.0839000000 0.0785000000
-1.4993000000 2.7909000000 0.0770000000
-1.5001000000 4.0659000000 0.0927000000
-1.5018000000 2.9166000000 0.1461000000
-1.5031000000 3.9268000000 0.0882000000
-1.7387000000 2.8524000000 0.0397000000
-1.7422000000 3.7792000000 0.0154000000
-1.7435000000 3.7926000000 0.0031000000
-1.7443000000 3.1641000000 0.0507000000
-1.7450000000 3.6949000000 0.0576000000
-1.7467000000 3.0827000000 0.0807000000
-1.7483000000 3.7585000000 0.0240000000
-1.7496000000 3.4888000000 0.0854000000
-1.7504000000 2.8302000000 0.0217000000
