5.2626000000 2.7737000000 0.0269000000
5.2588000000 3.1406000000 0.1303000000
5.2565000000 3.5449000000 0.0212000000
5.2557000000 2.9940000000 0.0751000000
5.2551000000 2.6268000000 0.0320000000
5.2545000000 2.8268000000 0.0656000000
5.2533000000 3.5629000000 0.0901000000
5.2520000000 3.0469000000 0.1065000000
5.2516000000 3.2363000000 0.1092000000
5.0130000000 3.6236000000 0.1250000000
5.0105000000 3.8928000000 0.0622000000
5.0078000000 3.2598000000 0.3254000000
5.0075000000 3.6722000000 0.1105000000
5.0071000000 2.9894000000 0.2967000000
5.0059000000 4.1266000000 0.0165000000
5.0050000000 2.4269000000 0.0726000000
5.0046000000 3.1282000000 0.3639000000
5.0038000000 4.0469000000 0.0650000000
5.0036000000 3.4424000000 0.2375000000
5.0034000000 3.3451000000 0.2826000000
5.0017000000 2.4838000000 0.1104000000
5.0010000000 2.3150000000 0.0208000000
4.9995000000 4.0094000000 0.0782000000
4.7621000000 4.5637000000 0.0132000000
4.7614000000 3.0882000000 0.5647000000
4.7591000000 2.3916000000 0.2088000000
4.7577000000 3.8912000000 0.2212000000
4.7565000000 4.1428000000 0.0884000000
4.7559000000 3.7838000000 0.2750000000
4.7554000000 2.6043000000 0.3248000000
4.7553000000 2.7790000000 0.4181000000
4.7546000000 2.0566000000 0.1197000000
4.7544000000 4.0918000000 0.1209000000
4.7540000000 2.9553000000 0.5088000000
4.7535000000 2.5671000000 0.3038000000
4.7534000000 2.4663000000 0.2486000000
4.7531000000 1.8896000000 0.0222000000
4.7518000000 2.7914000000 0.4267000000
4.7513000000 4.5484000000 0.0349000000
4.7503000000 4.0103000000 0.1621000000
4.7496000000 3.9328000000 0.2029000000
4.7490000000 2.5364000000 0.2950000000
4.7485000000 2.0796000000 0.0522000000
4.7456000000 2.8537000000 0.4612000000
4.5102000000 4.8185000000 0.0356000000
4.5087000000 4.5869000000 0.0779000000
4.5082000000 2.4221000000 0.4512000000
4.5068000000 2.7243000000 0.6129000000
4.5064000000 1.6112000000 0.1043000000
4.5061000000 2.2259000000 0.3481000000
4.5048000000 2.0285000000 0.2477000000
4.5043000000 2.6437000000 0.5778000000
4.5038000000 1.3622000000 0.0485000000
4.5037000000 1.6253000000 0.0388000000
4.5034000000 4.2310000000 0.2738000000
4.5030000000 2.6773000000 0.5942000000
4.5023000000 2.1799000000 0.3333000000
4.5020000000 4.8732000000 0.0839000000
4.5017000000 3.0868000000 0.8096000000
4.5014000000 4.0373000000 0.3743000000
4.5012000000 1.7461000000 0.1037000000
4.5011000000 2.5581000000 0.5310000000
4.5003000000 1.4775000000 0.0411000000
4.5000000000 2.1360000000 0.3110000000
4.4998000000 4.3653000000 0.2095000000
4.4990000000 4.2117000000 0.2879000000
4.4985000000 4.9421000000 0.0494000000
4.4971000000 1.5319000000 0.0717000000
4.2642000000 5.1681000000 0.0738000000
4.2624000000 1.9372000000 0.4209000000
4.2610000000 2.3321000000 0.6335000000
4.2589000000 1.8760000000 0.3922000000
4.2586000000 4.8180000000 0.1877000000
4.2581000000 5.2439000000 0.0411000000
4.2579000000 3.7813000000 0.7339000000
4.2577000000 2.4921000000 0.7172000000
4.2574000000 3.3446000000 0.9681000000
4.2570000000 3.6744000000 0.7932000000
4.2568000000 4.6597000000 0.2768000000
4.2559000000 1.8998000000 0.4143000000
4.2556000000 1.4797000000 0.1886000000
4.2555000000 3.3892000000 0.9429000000
4.2551000000 5.4151000000 0.0284000000
4.2550000000 1.2133000000 0.0480000000
4.2546000000 4.8776000000 0.1619000000
4.2543000000 5.0752000000 0.0575000000
4.2540000000 1.4991000000 0.2036000000
4.2538000000 3.0871000000 1.0365000000
4.2537000000 3.1523000000 1.0496000000
4.2533000000 5.0171000000 0.0863000000
4.2531000000 3.5493000000 0.8573000000
4.2529000000 4.0835000000 0.5823000000
4.2527000000 1.9604000000 0.4468000000
4.2526000000 3.3181000000 0.9846000000
4.2524000000 4.3599000000 0.4342000000
4.2520000000 2.7597000000 0.8671000000
4.2516000000 2.4345000000 0.6970000000
4.2510000000 3.0220000000 1.0062000000
4.2508000000 1.3581000000 0.1296000000
4.2505000000 1.5164000000 0.2111000000
4.2502000000 1.0119000000 0.0211000000
4.2499000000 3.1828000000 1.0369000000
4.2493000000 0.9967000000 0.0935000000
4.2479000000 4.0044000000 0.6299000000
4.2476000000 1.2570000000 0.0821000000
4.2457000000 2.6000000000 0.7838000000
4.0108000000 5.8494000000 0.0199000000
4.0105000000 4.8417000000 0.4051000000
4.0100000000 3.0640000000 1.2444000000
4.0092000000 4.5510000000 0.5555000000
4.0088000000 2.5153000000 0.9543000000
4.0083000000 0.9040000000 0.1101000000
4.0080000000 3.7070000000 1.0015000000
4.0076000000 2.3808000000 0.8876000000
4.0072000000 3.2715000000 1.2248000000
4.0069000000 5.7414000000 0.0767000000
4.0067000000 1.5658000000 0.4594000000
4.0063000000 3.5810000000 1.0706000000
4.0057000000 5.7682000000 0.0645000000
4.0058000000 0.7721000000 0.0417000000
4.0055000000 2.8102000000 1.1179000000
4.0055000000 4.6172000000 0.5256000000
4.0054000000 1.9753000000 0.6752000000
4.0053000000 4.6988000000 0.4806000000
4.0051000000 2.0939000000 0.7399000000
4.0045000000 1.3999000000 0.3774000000
4.0043000000 3.6418000000 1.0351000000
4.0042000000 3.2919000000 1.2176000000
4.0040000000 3.8083000000 0.9541000000
4.0037000000 4.3033000000 0.6864000000
4.0035000000 3.2486000000 1.2433000000
4.0034000000 2.1551000000 0.7754000000
4.0032000000 1.4625000000 0.4079000000
4.0028000000 2.4133000000 0.9147000000
4.0020000000 3.9102000000 0.8923000000
4.0018000000 3.0328000000 1.2364000000
4.0015000000 0.4672000000 0.0349000000
4.0014000000 2.5627000000 0.9948000000
4.0012000000 1.5182000000 0.4430000000
4.0006000000 0.8229000000 0.0752000000
4.0004000000 0.9388000000 0.1324000000
3.9997000000 3.3238000000 1.2111000000
3.9992000000 3.7711000000 0.9625000000
3.9986000000 1.1022000000 0.2209000000
3.9983000000 1.2830000000 0.3172000000
3.9975000000 2.0050000000 0.7028000000
3.9961000000 2.2642000000 0.8372000000
3.7616000000 5.3556000000 0.3559000000
3.7608000000 2.4835000000 1.1656000000
3.7605000000 5.7300000000 0.1593000000
3.7597000000 6.0860000000 0.0479000000
3.7589000000 4.7333000000 0.6818000000
3.7578000000 5.2711000000 0.4080000000
3.7575000000 6.1648000000 0.0831000000
3.7575000000 1.8004000000 0.8074000000
3.7573000000 0.6521000000 0.2097000000
3.7571000000 2.7231000000 1.2974000000
3.7568000000 1.6877000000 0.7524000000
3.7565000000 2.0153000000 0.9244000000
3.7565000000 5.4235000000 0.3262000000
3.7564000000 4.5674000000 0.7811000000
3.7563000000 0.0819000000 0.0582000000
3.7562000000 5.8558000000 0.0972000000
3.7560000000 3.4762000000 1.3553000000
3.7558000000 5.9787000000 0.1032000000
3.7555000000 6.2365000000 0.0491000000
3.7555000000 0.9510000000 0.3679000000
3.7554000000 5.3190000000 0.3808000000
3.7553000000 4.6699000000 0.7251000000
3.7552000000 2.9660000000 1.4247000000
3.7550000000 2.9289000000 1.4061000000
3.7548000000 4.5469000000 0.7915000000
3.7547000000 4.1796000000 0.9876000000
3.7545000000 4.7454000000 0.6850000000
3.7544000000 5.0883000000 0.5018000000
3.7541000000 3.2173000000 1.4867000000
3.7538000000 2.7889000000 1.3352000000
3.7537000000 4.9113000000 0.6026000000
3.7536000000 4.6484000000 0.7424000000
3.7534000000 0.7814000000 0.2781000000
3.7531000000 3.7806000000 1.1924000000
3.7528000000 4.9925000000 0.5560000000
3.7527000000 0.0395000000 0.0395000000
3.7525000000 2.6109000000 1.2459000000
3.7521000000 0.6689000000 0.2223000000
3.7519000000 4.7867000000 0.6663000000
3.7518000000 0.7988000000 0.2882000000
3.7515000000 2.0578000000 0.9510000000
3.7513000000 2.4578000000 1.1638000000
3.7510000000 3.7097000000 1.2323000000
3.7508000000 0.7456000000 0.2675000000
3.7503000000 1.9767000000 0.9088000000
3.7500000000 0.9538000000 0.3794000000
3.7496000000 0.3316000000 0.0481000000
3.7492000000 2.0230000000 0.9336000000
3.7488000000 2.9248000000 1.4094000000
3.7470000000 0.3116000000 0.1152000000
3.5136000000 1.8152000000 1.0383000000
3.5104000000 3.2221000000 1.7037000000
3.5095000000 6.2502000000 0.1027000000
3.5088000000 3.1518000000 1.7292000000
3.5085000000 2.2242000000 1.2625000000
3.5080000000 5.3602000000 0.5800000000
3.5079000000 0.4223000000 0.3141000000
3.5076000000 2.4091000000 1.3585000000
3.5070000000 4.8589000000 0.8494000000
3.5068000000 1.7380000000 1.0155000000
3.5065000000 1.5097000000 0.8886000000
3.5062000000 1.6523000000 0.9627000000
3.5059000000 6.1996000000 0.0829000000
3.5056000000 3.9815000000 1.3129000000
3.5055000000 1.5497000000 0.9096000000
3.5053000000 2.3561000000 1.3323000000
3.5051000000 0.5053000000 0.3630000000
3.5048000000 0.6703000000 0.4455000000
3.5047000000 0.6762000000 0.4502000000
3.5046000000 5.3757000000 0.5801000000
3.5042000000 2.7267000000 1.5310000000
3.5041000000 3.7231000000 1.4510000000
3.5040000000 0.6602000000 0.4455000000
3.5038000000 0.9410000000 0.5919000000
3.5035000000 6.0346000000 0.2165000000
3.5034000000 2.4754000000 1.4007000000
3.5032000000 4.1206000000 1.2365000000
3.5029000000 2.2181000000 1.2666000000
3.5028000000 3.9543000000 1.3329000000
3.5025000000 2.2717000000 1.2888000000
3.5022000000 0.9534000000 0.6010000000
3.5020000000 5.6391000000 0.4486000000
3.5018000000 3.1253000000 1.7269000000
3.5015000000 3.0413000000 1.6995000000
3.5013000000 3.3128000000 1.6689000000
3.5011000000 2.3334000000 1.3228000000
3.5008000000 5.5627000000 0.4904000000
3.5005000000 1.0147000000 0.6306000000
3.5002000000 1.6940000000 0.9953000000
3.4995000000 2.3880000000 1.3541000000
3.4990000000 1.8166000000 1.0533000000
3.4987000000 2.7454000000 1.5434000000
3.4968000000 1.2016000000 0.7343000000
3.2622000000 4.4048000000 1.3161000000
3.2602000000 1.9397000000 1.3378000000
3.2597000000 3.7141000000 1.6804000000
3.2590000000 6.2784000000 0.0663000000
3.2581000000 3.3372000000 1.8710000000
3.2580000000 1.3241000000 1.0139000000
3.2578000000 1.5678000000 1.1442000000
3.2576000000 1.8041000000 1.2624000000
3.2574000000 3.0894000000 1.9471000000
3.2570000000 6.0898000000 0.1927000000
3.2569000000 5.4229000000 0.7860000000
3.2565000000 5.6416000000 0.6558000000
3.2563000000 5.0557000000 0.9760000000
3.2561000000 6.2703000000 0.0805000000
3.2560000000 5.1512000000 0.9255000000
3.2555000000 0.6055000000 0.5980000000
3.2554000000 1.6716000000 1.1998000000
3.2551000000 5.4703000000 0.7553000000
3.2547000000 3.6672000000 1.7083000000
3.2545000000 1.8857000000 1.3144000000
3.2544000000 3.4592000000 1.8170000000
3.2543000000 2.2051000000 1.4858000000
3.2539000000 2.6019000000 1.6986000000
3.2537000000 4.1373000000 1.4626000000
3.2534000000 5.6818000000 0.6121000000
3.2533000000 4.5953000000 1.2228000000
3.2532000000 2.4316000000 1.5997000000
3.2531000000 5.9074000000 0.3874000000
3.2530000000 3.1481000000 1.9637000000
3.2525000000 2.2505000000 1.5079000000
3.2524000000 4.7070000000 1.1621000000
3.2520000000 0.4234000000 0.4232000000
3.2518000000 5.0632000000 0.9721000000
3.2516000000 2.4796000000 1.6276000000
3.2514000000 3.7102000000 1.6885000000
3.2513000000 0.4806000000 0.4876000000
3.2511000000 0.8322000000 0.7670000000
3.2510000000 0.0773000000 0.0505000000
3.2507000000 0.9703000000 0.8411000000
3.2505000000 1.5873000000 1.1571000000
3.2501000000 3.0747000000 1.9448000000
3.2500000000 1.3810000000 1.0532000000
3.2496000000 2.4765000000 1.6339000000
3.2491000000 6.2190000000 0.0581000000
3.2483000000 2.0940000000 1.4288000000
3.2477000000 2.5054000000 1.6447000000
3.2468000000 0.7354000000 0.6938000000
3.2463000000 0.2176000000 0.2115000000
3.0137000000 4.0131000000 1.7389000000
3.0134000000 3.1902000000 2.1574000000
3.0116000000 0.0461000000 0.1021000000
3.0109000000 2.9213000000 2.0870000000
3.0100000000 2.5566000000 1.8916000000
3.0098000000 3.2463000000 2.1451000000
3.0093000000 1.1608000000 1.1389000000
3.0083000000 2.9293000000 2.0929000000
3.0075000000 3.6749000000 1.9271000000
3.0069000000 6.0643000000 0.2216000000
3.0063000000 3.9541000000 1.7793000000
3.0062000000 5.1165000000 1.1662000000
3.0057000000 0.6672000000 0.6793000000
3.0055000000 0.1783000000 0.1571000000
3.0053000000 2.7568000000 2.0025000000
3.0050000000 2.4494000000 1.8363000000
3.0048000000 5.9645000000 0.3278000000
3.0047000000 5.3518000000 0.9697000000
3.0045000000 2.4847000000 1.8603000000
3.0043000000 5.2977000000 1.0182000000
3.0041000000 0.1941000000 0.1838000000
3.0040000000 4.8688000000 1.3045000000
3.0040000000 1.4279000000 1.3085000000
3.0038000000 6.1808000000 0.1006000000
3.0037000000 6.0699000000 0.2141000000
3.0034000000 1.6896000000 1.4319000000
3.0032000000 0.8121000000 0.8307000000
3.0030000000 1.0586000000 1.0733000000
3.0028000000 2.9648000000 2.1105000000
3.0027000000 2.0844000000 1.6519000000
3.0026000000 1.1362000000 1.1351000000
3.0020000000 1.6794000000 1.4304000000
3.0019000000 4.4678000000 1.5188000000
3.0017000000 6.2809000000 0.0683000000
3.0015000000 6.2378000000 0.1172000000
3.0012000000 4.1552000000 1.6845000000
3.0012000000 2.2774000000 1.7515000000
3.0010000000 2.9211000000 2.0832000000
3.0004000000 3.8350000000 1.8469000000
3.0003000000 3.1750000000 2.1807000000
2.9996000000 2.6749000000 1.9599000000
2.9991000000 3.9902000000 1.7641000000
2.9985000000 0.0297000000 0.0841000000
2.9978000000 4.7453000000 1.3677000000
2.9975000000 2.7037000000 1.9766000000
2.9957000000 0.8060000000 0.8190000000
2.7603000000 2.5687000000 2.1241000000
2.7598000000 0.5385000000 0.5417000000
2.7593000000 5.7780000000 0.5224000000
2.7583000000 5.6672000000 0.6409000000
2.7580000000 5.8260000000 0.4692000000
2.7578000000 4.1563000000 1.8999000000
2.7577000000 5.5276000000 0.7858000000
2.7575000000 3.4623000000 2.2700000000
2.7570000000 2.4362000000 2.0564000000
2.7566000000 2.1893000000 1.9296000000
2.7565000000 1.8298000000 1.7356000000
2.7565000000 6.1904000000 0.0893000000
2.7563000000 2.8542000000 2.2781000000
2.7560000000 6.2288000000 0.0537000000
2.7558000000 2.1076000000 1.8844000000
2.7557000000 5.2602000000 1.0681000000
2.7554000000 4.7366000000 1.5831000000
2.7552000000 4.2202000000 1.8724000000
2.7548000000 3.8882000000 2.0425000000
2.7546000000 3.9663000000 2.0037000000
2.7543000000 4.9978000000 1.3446000000
2.7539000000 4.9218000000 1.4312000000
2.7537000000 2.2544000000 1.9631000000
2.7536000000 5.0748000000 1.2662000000
2.7534000000 2.9825000000 2.3481000000
2.7533000000 2.1126000000 1.8911000000
2.7532000000 6.2355000000 0.1157000000
2.7530000000 0.7599000000 0.7749000000
2.7528000000 6.2578000000 0.0968000000
2.7527000000 1.0004000000 1.0259000000
2.7526000000 4.2035000000 1.8835000000
2.7522000000 0.0120000000 0.0631000000
2.7520000000 3.2280000000 2.3951000000
2.7514000000 4.4990000000 1.7266000000
2.7513000000 5.8666000000 0.4365000000
2.7510000000 4.8193000000 1.5141000000
2.7510000000 0.8011000000 0.8136000000
2.7506000000 0.3662000000 0.3550000000
2.7502000000 0.4352000000 0.4351000000
2.7498000000 0.8170000000 0.8383000000
2.7487000000 2.0479000000 1.8600000000
2.7480000000 5.1795000000 1.1581000000
2.7453000000 1.6075000000 1.6129000000
2.7444000000 2.7363000000 2.2274000000
2.5153000000 2.4121000000 2.2610000000
2.5100000000 4.5274000000 1.8421000000
2.5090000000 6.2615000000 0.0856000000
2.5087000000 4.7768000000 1.5760000000
2.5083000000 4.7366000000 1.6211000000
2.5076000000 0.8596000000 0.8809000000
2.5075000000 5.4066000000 0.9126000000
2.5073000000 4.8850000000 1.4636000000
2.5072000000 4.3361000000 2.0172000000
2.5069000000 1.9157000000 1.9794000000
2.5066000000 3.8655000000 2.2821000000
2.5064000000 5.3394000000 0.9899000000
2.5063000000 2.7485000000 2.4441000000
2.5059000000 4.3723000000 1.9811000000
2.5057000000 1.5271000000 1.5839000000
2.5055000000 5.0999000000 1.2379000000
2.5050000000 6.1519000000 0.1261000000
2.5049000000 0.9727000000 1.0019000000
2.5047000000 0.7286000000 0.7442000000
2.5045000000 1.8378000000 1.9090000000
2.5042000000 1.3950000000 1.4403000000
2.5040000000 1.0060000000 1.0369000000
2.5038000000 3.9842000000 2.2232000000
2.5037000000 6.1417000000 0.1419000000
2.5036000000 3.1914000000 2.6193000000
2.5034000000 2.6025000000 2.3813000000
2.5032000000 1.9838000000 2.0321000000
2.5030000000 2.3841000000 2.2642000000
2.5029000000 3.5727000000 2.4357000000
2.5028000000 1.2463000000 1.2817000000
2.5025000000 2.7584000000 2.4599000000
2.5023000000 0.2673000000 0.2565000000
2.5021000000 0.5104000000 0.5153000000
2.5020000000 1.9731000000 2.0272000000
2.5018000000 3.9229000000 2.2582000000
2.5015000000 1.8427000000 1.9165000000
2.5014000000 0.6384000000 0.6509000000
2.5010000000 2.5248000000 2.3416000000
2.5009000000 4.4431000000 1.9243000000
2.5004000000 0.2143000000 0.2017000000
2.5000000000 4.8266000000 1.5233000000
2.4996000000 5.0613000000 1.2757000000
2.4993000000 5.1894000000 1.1458000000
2.4991000000 5.3100000000 1.0135000000
2.4988000000 2.8314000000 2.5041000000
2.4973000000 1.6906000000 1.7597000000
2.4928000000 1.1305000000 1.1682000000
2.2623000000 3.9349000000 2.4416000000
2.2618000000 5.8666000000 0.4314000000
2.2604000000 5.7227000000 0.5829000000
2.2598000000 4.1035000000 2.2832000000
2.2594000000 4.1053000000 2.2859000000
2.2584000000 5.6534000000 0.6543000000
2.2582000000 5.7132000000 0.5978000000
2.2575000000 4.4677000000 1.9052000000
2.2573000000 3.3401000000 2.7789000000
2.2568000000 5.2746000000 1.0483000000
2.2563000000 4.0831000000 2.3067000000
2.2556000000 4.2400000000 2.1390000000
2.2555000000 4.8080000000 1.5457000000
2.2554000000 2.3386000000 2.4193000000
2.2553000000 5.2626000000 1.0622000000
2.2549000000 3.3204000000 2.7997000000
2.2548000000 0.7730000000 0.7921000000
2.2545000000 2.7294000000 2.6695000000
2.2546000000 1.0830000000 1.1152000000
2.2544000000 4.7955000000 1.5545000000
2.2542000000 5.1282000000 1.2066000000
2.2541000000 6.3133000000 0.0351000000
2.2538000000 2.0890000000 2.1751000000
2.2533000000 4.1447000000 2.2452000000
2.2533000000 0.1707000000 0.1524000000
2.2531000000 5.6378000000 0.6700000000
2.2530000000 0.9728000000 1.0028000000
2.2527000000 4.6309000000 1.7302000000
2.2524000000 6.2964000000 0.0565000000
2.2521000000 1.5629000000 1.6183000000
2.2518000000 5.2265000000 1.1084000000
2.2515000000 3.1233000000 2.8595000000
2.2514000000 0.4158000000 0.4111000000
2.2512000000 0.6996000000 0.7116000000
2.2508000000 5.0877000000 1.2519000000
2.2505000000 4.3061000000 2.0711000000
2.2502000000 0.7329000000 0.7447000000
2.2500000000 2.7487000000 2.6746000000
2.2493000000 3.1843000000 2.8638000000
2.2492000000 3.4836000000 2.7197000000
2.2488000000 2.7122000000 2.6629000000
2.2483000000 2.1563000000 2.2431000000
2.2480000000 3.9044000000 2.4800000000
2.2477000000 3.9260000000 2.4588000000
2.2463000000 4.9642000000 1.3808000000
2.2452000000 0.9840000000 1.0152000000
2.2448000000 1.3114000000 1.3533000000
2.0140000000 5.3145000000 1.0154000000
2.0113000000 4.9641000000 1.3787000000
2.0105000000 5.2349000000 1.0957000000
2.0102000000 4.5250000000 1.8440000000
2.0098000000 4.7570000000 1.5946000000
2.0082000000 2.7815000000 2.8842000000
2.0080000000 5.0917000000 1.2467000000
2.0077000000 5.6239000000 0.6866000000
2.0074000000 5.4354000000 0.8869000000
2.0070000000 2.3279000000 2.4211000000
2.0068000000 5.5115000000 0.8012000000
2.0068000000 5.1097000000 1.2291000000
2.0066000000 3.0003000000 3.0411000000
2.0062000000 5.5920000000 0.7153000000
2.0060000000 2.4460000000 2.5441000000
2.0058000000 0.7341000000 0.7495000000
2.0055000000 5.6208000000 0.6858000000
2.0053000000 4.9028000000 1.4435000000
2.0050000000 4.0289000000 2.3629000000
2.0050000000 0.9030000000 0.9244000000
2.0048000000 0.9690000000 0.9947000000
2.0046000000 1.6056000000 1.6668000000
2.0045000000 3.0281000000 3.0556000000
2.0043000000 4.7495000000 1.6072000000
2.0042000000 4.6847000000 1.6745000000
2.0039000000 4.5267000000 1.8437000000
2.0038000000 5.8580000000 0.4399000000
2.0036000000 0.7004000000 0.7117000000
2.0035000000 2.4292000000 2.5301000000
2.0033000000 0.7289000000 0.7371000000
2.0032000000 2.9449000000 3.0099000000
2.0030000000 0.0814000000 0.0632000000
2.0025000000 0.4294000000 0.4228000000
2.0021000000 3.0720000000 3.0770000000
2.0020000000 3.7765000000 2.6247000000
2.0015000000 3.2980000000 3.0440000000
2.0014000000 6.0514000000 0.2430000000
2.0013000000 2.5828000000 2.6970000000
2.0010000000 5.4708000000 0.8442000000
2.0006000000 6.2584000000 0.0941000000
2.0005000000 0.7786000000 0.7969000000
2.0003000000 3.7946000000 2.6115000000
1.9999000000 5.0352000000 1.3044000000
1.9998000000 4.5172000000 1.8538000000
1.9997000000 3.9688000000 2.4290000000
1.9991000000 5.7032000000 0.6052000000
1.9989000000 0.3107000000 0.2974000000
1.9988000000 2.7197000000 2.8270000000
1.9987000000 0.0590000000 0.1139000000
1.9985000000 5.4168000000 0.8996000000
1.9975000000 0.8152000000 0.8296000000
1.9966000000 0.0263000000 0.0809000000
1.9960000000 4.0244000000 2.3662000000
1.9945000000 0.4244000000 0.4199000000
1.7604000000 6.1034000000 0.1807000000
1.7600000000 5.0434000000 1.3008000000
1.7590000000 6.0235000000 0.2621000000
1.7582000000 4.7072000000 1.6490000000
1.7580000000 3.8612000000 2.5404000000
1.7577000000 4.0625000000 2.3351000000
1.7573000000 5.9941000000 0.2941000000
1.7568000000 5.6738000000 0.6292000000
1.7567000000 3.2554000000 3.1556000000
1.7566000000 3.5335000000 2.8840000000
1.7561000000 4.8806000000 1.4677000000
1.7557000000 3.9509000000 2.4437000000
1.7555000000 5.4919000000 0.8232000000
1.7551000000 4.1396000000 2.2475000000
1.7550000000 2.9507000000 3.0584000000
1.7549000000 4.3171000000 2.0604000000
1.7547000000 4.6969000000 1.6644000000
1.7545000000 4.1943000000 2.1889000000
1.7544000000 5.9815000000 0.3037000000
1.7541000000 3.6708000000 2.7388000000
1.7539000000 2.7027000000 2.8206000000
1.7537000000 4.5244000000 1.8436000000
1.7535000000 0.0761000000 0.0538000000
1.7533000000 2.7814000000 2.9040000000
1.7533000000 5.4779000000 0.8392000000
1.7531000000 5.1639000000 1.1736000000
1.7530000000 2.6830000000 2.7973000000
1.7525000000 2.6200000000 2.7293000000
1.7523000000 2.4957000000 2.6010000000
1.7520000000 4.7248000000 1.6351000000
1.7519000000 1.2455000000 1.2826000000
1.7516000000 0.3034000000 0.3006000000
1.7515000000 2.1862000000 2.2782000000
1.7511000000 2.1162000000 2.2063000000
1.7509000000 5.1372000000 1.1984000000
1.7505000000 3.5734000000 2.8411000000
1.7500000000 1.6750000000 1.7351000000
1.7498000000 0.1075000000 0.0868000000
1.7493000000 3.1083000000 3.2184000000
1.7485000000 5.3267000000 0.9940000000
1.7483000000 1.1382000000 1.1702000000
1.7477000000 0.5447000000 0.5472000000
1.7470000000 1.3447000000 1.3956000000
1.7443000000 3.0153000000 3.1306000000
1.5124000000 4.1437000000 2.2406000000
1.5118000000 5.6190000000 0.6906000000
1.5106000000 5.4756000000 0.8398000000
1.5096000000 3.9477000000 2.4480000000
1.5092000000 1.0296000000 1.0528000000
1.5087000000 2.0720000000 2.1493000000
1.5085000000 6.1125000000 0.1734000000
1.5076000000 2.7092000000 2.7716000000
1.5070000000 2.6924000000 2.7514000000
1.5070000000 4.3370000000 2.0366000000
1.5069000000 2.1688000000 2.2542000000
1.5067000000 4.5084000000 1.8582000000
1.5065000000 4.8277000000 1.5235000000
1.5064000000 1.9458000000 2.0171000000
1.5062000000 2.0588000000 2.1403000000
1.5060000000 1.4959000000 1.5468000000
1.5060000000 2.7623000000 2.8037000000
1.5057000000 5.9276000000 0.3679000000
1.5054000000 5.1649000000 1.1636000000
1.5052000000 2.1500000000 2.2314000000
1.5045000000 2.7994000000 2.8184000000
1.5042000000 5.4067000000 0.9106000000
1.5041000000 2.3508000000 2.4485000000
1.5040000000 0.8210000000 0.8403000000
1.5039000000 5.9802000000 0.3110000000
1.5034000000 4.6462000000 1.7177000000
1.5032000000 4.4833000000 1.8806000000
1.5030000000 5.4115000000 0.9123000000
1.5028000000 5.6615000000 0.6459000000
1.5025000000 0.5497000000 0.5559000000
1.5022000000 5.4656000000 0.8532000000
1.5021000000 3.1283000000 2.9696000000
1.5019000000 4.3780000000 1.9933000000
1.5018000000 1.8518000000 1.9263000000
1.5013000000 0.6065000000 0.6113000000
1.5010000000 2.0677000000 2.1545000000
1.5006000000 6.0248000000 0.2648000000
1.5004000000 0.4552000000 0.4554000000
1.5002000000 5.3883000000 0.9287000000
1.5000000000 5.2752000000 1.0470000000
1.4995000000 4.4011000000 1.9732000000
1.4994000000 1.5136000000 1.5733000000
1.4993000000 0.7985000000 0.8153000000
1.4991000000 5.7878000000 0.5071000000
1.4988000000 0.6359000000 0.6445000000
1.4983000000 0.1132000000 0.0949000000
1.4978000000 1.2347000000 1.2738000000
1.4976000000 0.4549000000 0.4618000000
1.4973000000 1.3210000000 1.3638000000
1.4969000000 2.2062000000 2.2978000000
1.4960000000 0.1876000000 0.1778000000
1.4932000000 3.9738000000 2.4183000000
1.2628000000 3.0525000000 2.7327000000
1.2609000000 4.0501000000 2.2910000000
1.2600000000 4.2087000000 2.1619000000
1.2595000000 6.1756000000 0.1057000000
1.2587000000 5.3587000000 0.9660000000
1.2585000000 1.6445000000 1.7027000000
1.2582000000 0.9889000000 1.0169000000
1.2573000000 6.0878000000 0.1931000000
1.2571000000 4.1157000000 2.2557000000
1.2569000000 1.6281000000 1.6814000000
1.2568000000 4.5201000000 1.8473000000
1.2565000000 0.6383000000 0.6521000000
1.2563000000 0.9029000000 0.9243000000
1.2562000000 1.4308000000 1.4818000000
1.2559000000 3.3226000000 2.6829000000
1.2557000000 5.2368000000 1.0937000000
1.2556000000 6.0670000000 0.2221000000
1.2555000000 3.7530000000 2.4605000000
1.2552000000 1.8941000000 1.9707000000
1.2548000000 3.8174000000 2.4287000000
1.2546000000 1.7784000000 1.8428000000
1.2544000000 5.3903000000 0.9320000000
1.2540000000 1.0428000000 1.0716000000
1.2538000000 4.5514000000 1.8140000000
1.2537000000 3.8500000000 2.4088000000
1.2535000000 4.8645000000 1.4797000000
1.2532000000 1.0207000000 1.0482000000
1.2530000000 0.1767000000 0.1606000000
1.2529000000 5.1624000000 1.1707000000
1.2528000000 4.5549000000 1.8082000000
1.2527000000 2.3803000000 2.3735000000
1.2526000000 2.7490000000 2.5651000000
1.2524000000 4.1616000000 2.2101000000
1.2523000000 3.1823000000 2.7381000000
1.2519000000 3.5479000000 2.5613000000
1.2518000000 4.4125000000 1.9596000000
1.2517000000 0.5671000000 0.5709000000
1.2516000000 1.1035000000 1.1382000000
1.2514000000 1.8345000000 1.9034000000
1.2513000000 2.6032000000 2.4846000000
1.2510000000 3.9518000000 2.3505000000
1.2505000000 0.4521000000 0.4547000000
1.2499000000 1.0689000000 1.1056000000
1.2496000000 4.7130000000 1.6444000000
1.2493000000 1.8474000000 1.9212000000
1.2490000000 3.8546000000 2.4054000000
1.2482000000 4.7095000000 1.6506000000
1.2479000000 1.8556000000 1.9296000000
1.2472000000 0.0065000000 0.0571000000
1.2467000000 2.1878000000 2.2514000000
1.2455000000 3.1561000000 2.7485000000
1.0096000000 2.4387000000 2.1758000000
1.0092000000 4.0475000000 2.0796000000
1.0085000000 6.2438000000 0.1128000000
1.0082000000 4.9320000000 1.4137000000
1.0078000000 3.2340000000 2.5081000000
1.0075000000 3.9454000000 2.1327000000
1.0070000000 4.2781000000 1.9607000000
1.0063000000 2.6420000000 2.2858000000
1.0062000000 5.3252000000 0.9992000000
1.0060000000 1.2679000000 1.3146000000
1.0057000000 5.7383000000 0.5664000000
1.0053000000 6.1084000000 0.1740000000
1.0049000000 2.1274000000 2.0143000000
1.0046000000 4.3071000000 1.9375000000
1.0044000000 2.7329000000 2.3292000000
1.0043000000 1.7304000000 1.7759000000
1.0040000000 2.0824000000 1.9879000000
1.0038000000 4.7019000000 1.6597000000
1.0036000000 5.1885000000 1.1418000000
1.0033000000 4.9635000000 1.3812000000
1.0030000000 4.7983000000 1.5563000000
1.0028000000 4.5067000000 1.8126000000
1.0027000000 5.1404000000 1.1941000000
1.0024000000 5.9772000000 0.3171000000
1.0017000000 0.4248000000 0.4222000000
1.0016000000 1.2041000000 1.2418000000
1.0015000000 3.4164000000 2.4021000000
1.0012000000 1.7006000000 1.7492000000
1.0011000000 3.6900000000 2.2654000000
1.0010000000 1.4941000000 1.5499000000
1.0007000000 2.5356000000 2.2239000000
1.0005000000 3.5898000000 2.3149000000
0.9999000000 3.7151000000 2.2412000000
0.9998000000 0.1638000000 0.1509000000
0.9995000000 5.6031000000 0.7057000000
0.9990000000 0.0257000000 0.0758000000
0.9988000000 2.2439000000 2.0663000000
0.9985000000 4.0925000000 2.0485000000
0.9980000000 1.2705000000 1.3062000000
0.9977000000 3.0307000000 2.4763000000
0.9970000000 1.8474000000 1.8538000000
0.7606000000 4.5230000000 1.6034000000
0.7600000000 3.1764000000 2.2968000000
0.7595000000 5.0357000000 1.2867000000
0.7584000000 4.6441000000 1.5414000000
0.7580000000 2.9296000000 2.2069000000
0.7579000000 1.6325000000 1.5238000000
0.7576000000 4.7277000000 1.4983000000
0.7574000000 2.4218000000 1.9448000000
0.7571000000 1.7013000000 1.5575000000
0.7570000000 6.0721000000 0.2153000000
0.7569000000 6.2919000000 0.0583000000
0.7567000000 1.9972000000 1.7155000000
0.7564000000 2.5323000000 1.9989000000
0.7561000000 3.8551000000 1.9530000000
0.7559000000 2.0083000000 1.7253000000
0.7558000000 5.7364000000 0.5678000000
0.7556000000 5.4153000000 0.9027000000
0.7555000000 2.8877000000 2.1817000000
0.7552000000 2.8699000000 2.1757000000
0.7551000000 6.0646000000 0.2195000000
0.7549000000 3.8937000000 1.9289000000
0.7548000000 5.1475000000 1.1839000000
0.7546000000 4.1708000000 1.7826000000
0.7545000000 1.8105000000 1.6225000000
0.7544000000 2.6077000000 2.0327000000
0.7541000000 4.2785000000 1.7219000000
0.7538000000 0.2508000000 0.2439000000
0.7533000000 3.7107000000 2.0250000000
0.7531000000 4.2171000000 1.7508000000
0.7530000000 0.0308000000 0.0853000000
0.7528000000 6.2805000000 0.0735000000
0.7527000000 1.9302000000 1.6823000000
0.7524000000 6.2481000000 0.1078000000
0.7521000000 5.7727000000 0.5260000000
0.7515000000 5.7316000000 0.5708000000
0.7511000000 2.6418000000 2.0469000000
0.7510000000 4.5455000000 1.5790000000
0.7508000000 0.4271000000 0.4262000000
0.7502000000 3.2110000000 2.2810000000
0.7501000000 3.1605000000 2.2921000000
0.7497000000 6.0466000000 0.2474000000
0.7489000000 4.2854000000 1.7213000000
0.7482000000 4.1795000000 1.7732000000
0.7456000000 1.7378000000 1.5720000000
0.7447000000 3.6603000000 2.0378000000
0.5127000000 5.6801000000 0.6256000000
0.5091000000 6.2744000000 0.0714000000
0.5085000000 1.7472000000 1.3560000000
0.5081000000 1.2351000000 1.0869000000
0.5080000000 3.4088000000 1.9630000000
0.5078000000 3.1296000000 2.0652000000
0.5070000000 2.4737000000 1.7365000000
0.5062000000 0.7782000000 0.7902000000
0.5059000000 2.6309000000 1.8177000000
0.5049000000 5.7409000000 0.5639000000
0.5048000000 3.4549000000 1.9305000000
0.5045000000 6.0874000000 0.1960000000
0.5040000000 2.3294000000 1.6598000000
0.5038000000 5.5807000000 0.7328000000
0.5036000000 2.6019000000 1.8035000000
0.5035000000 1.7957000000 1.3818000000
0.5034000000 3.4427000000 1.9376000000
0.5030000000 2.3556000000 1.6749000000
0.5029000000 4.2105000000 1.5344000000
0.5026000000 0.5695000000 0.5770000000
0.5023000000 0.0159000000 0.0611000000
0.5023000000 0.4501000000 0.4470000000
0.5020000000 3.1930000000 2.0583000000
0.5018000000 4.3042000000 1.4822000000
0.5014000000 0.1862000000 0.1723000000
0.5011000000 6.2382000000 0.1163000000
0.5007000000 1.7509000000 1.3564000000
0.5003000000 1.7288000000 1.3406000000
0.5000000000 1.2813000000 1.1038000000
0.4998000000 0.8507000000 0.8529000000
0.4994000000 2.1327000000 1.5553000000
0.4989000000 0.4596000000 0.4531000000
0.4986000000 4.9335000000 1.1490000000
0.4982000000 1.0256000000 0.9678000000
0.4973000000 1.6623000000 1.3052000000
0.4968000000 3.3396000000 1.9833000000
0.4968000000 0.7216000000 0.7380000000
0.4963000000 1.7837000000 1.3660000000
0.2611000000 0.6031000000 0.5358000000
0.2592000000 4.8868000000 0.9551000000
0.2590000000 4.1273000000 1.3580000000
0.2586000000 6.0944000000 0.1896000000
0.2579000000 4.1413000000 1.3452000000
0.2577000000 2.9311000000 1.7514000000
0.2576000000 3.4360000000 1.7127000000
0.2571000000 4.9335000000 0.9302000000
0.2569000000 5.4213000000 0.6743000000
0.2567000000 5.0270000000 0.8809000000
0.2563000000 6.1673000000 0.1126000000
0.2560000000 1.0114000000 0.7429000000
0.2556000000 2.4103000000 1.4777000000
0.2554000000 5.0417000000 0.8694000000
0.2553000000 3.3035000000 1.7852000000
0.2548000000 4.5794000000 1.1111000000
0.2548000000 5.8470000000 0.4297000000
0.2545000000 2.7996000000 1.6799000000
0.2545000000 4.0368000000 1.3932000000
0.2543000000 3.4355000000 1.7088000000
0.2539000000 2.7811000000 1.6720000000
0.2535000000 3.3197000000 1.7702000000
0.2532000000 4.6295000000 1.0883000000
0.2531000000 1.0284000000 0.7446000000
0.2530000000 2.3523000000 1.4465000000
0.2529000000 6.1303000000 0.1557000000
0.2528000000 0.1242000000 0.1079000000
0.2526000000 2.3649000000 1.4551000000
0.2522000000 3.0668000000 1.8191000000
0.2523000000 0.5044000000 0.4491000000
0.2520000000 2.3339000000 1.4265000000
0.2518000000 0.3938000000 0.3820000000
0.2515000000 5.8064000000 0.4490000000
0.2508000000 3.8263000000 1.5040000000
0.2507000000 3.7839000000 1.5253000000
0.2506000000 5.4157000000 0.6702000000
0.2498000000 5.8081000000 0.4411000000
0.2496000000 1.0181000000 0.7386000000
0.2492000000 1.7187000000 1.1065000000
0.2489000000 1.3165000000 0.8906000000
0.2487000000 0.3885000000 0.3740000000
0.2485000000 4.1372000000 1.3375000000
0.2481000000 5.3758000000 0.6867000000
0.2478000000 1.4361000000 0.9587000000
0.2466000000 3.0811000000 1.8249000000
0.2458000000 0.7948000000 0.6189000000
0.2457000000 1.9717000000 1.2403000000
0.0120000000 4.7820000000 0.7832000000
0.0098000000 3.7423000000 1.3340000000
0.0089000000 1.9527000000 1.0101000000
0.0085000000 4.1077000000 1.1356000000
0.0081000000 3.5825000000 1.4108000000
0.0078000000 6.2320000000 0.0788000000
0.0077000000 2.2969000000 1.1930000000
0.0074000000 5.0795000000 0.6208000000
0.0073000000 3.9262000000 1.2271000000
0.0071000000 4.1964000000 1.0823000000
0.0068000000 2.4252000000 1.2599000000
0.0063000000 5.2737000000 0.5251000000
0.0059000000 3.4684000000 1.4720000000
0.0053000000 0.7432000000 0.3712000000
0.0050000000 4.5493000000 0.9008000000
0.0048000000 2.6612000000 1.3832000000
0.0047000000 5.8624000000 0.2048000000
0.0045000000 4.8208000000 0.7550000000
0.0043000000 1.2158000000 0.6185000000
0.0035000000 3.0462000000 1.5826000000
0.0031000000 3.2909000000 1.5600000000
0.0026000000 2.4709000000 1.2793000000
0.0025000000 0.8923000000 0.4500000000
0.0024000000 1.9365000000 0.9946000000
0.0023000000 4.7253000000 0.8099000000
0.0019000000 4.2379000000 1.0565000000
0.0015000000 2.5821000000 1.3332000000
0.0013000000 3.3176000000 1.5455000000
0.0011000000 1.0382000000 0.5238000000
0.0009000000 2.1779000000 1.1269000000
0.0007000000 1.6873000000 0.8575000000
0.0002000000 2.1020000000 1.0821000000
0.0001000000 5.0384000000 0.6416000000
-0.0000000000 0.3099000000 0.1385000000
-0.0004000000 5.9682000000 0.1536000000
-0.0007000000 1.6777000000 0.8557000000
-0.0012000000 1.7373000000 0.8912000000
-0.0020000000 3.2310000000 1.5900000000
-0.0026000000 1.8992000000 0.9694000000
-0.2401000000 2.4419000000 1.0447000000
-0.2411000000 3.4733000000 1.2413000000
-0.2425000000 0.5405000000 0.0366000000
-0.2428000000 5.1184000000 0.3765000000
-0.2433000000 3.0939000000 1.3800000000
-0.2435000000 4.7757000000 0.5599000000
-0.2438000000 4.3102000000 0.7965000000
-0.2441000000 5.9199000000 0.0234000000
-0.2444000000 3.5708000000 1.1877000000
-0.2447000000 5.6968000000 0.0666000000
-0.2451000000 5.9669000000 0.0789000000
-0.2452000000 1.5262000000 0.5584000000
-0.2453000000 1.2742000000 0.4270000000
-0.2454000000 0.5226000000 0.1017000000
-0.2456000000 4.5361000000 0.6807000000
-0.2457000000 1.2146000000 0.3928000000
-0.2459000000 3.2979000000 1.3312000000
-0.2461000000 5.4054000000 0.2174000000
-0.2466000000 1.3499000000 0.4563000000
-0.2467000000 2.3839000000 1.0045000000
-0.2469000000 4.5652000000 0.6574000000
-0.2471000000 5.9267000000 0.0285000000
-0.2476000000 1.5439000000 0.5671000000
-0.2477000000 2.3773000000 0.9980000000
-0.2480000000 2.5971000000 1.1127000000
-0.2481000000 0.4901000000 0.0858000000
-0.2482000000 3.2495000000 1.3546000000
-0.2486000000 3.8654000000 1.0356000000
-0.2487000000 3.5956000000 1.1651000000
-0.2490000000 2.9977000000 1.3283000000
-0.2492000000 1.7948000000 0.6956000000
-0.2495000000 2.3364000000 0.9810000000
-0.2498000000 2.8226000000 1.2294000000
-0.2501000000 1.7109000000 0.6451000000
-0.2506000000 4.9377000000 0.4631000000
-0.2511000000 4.8361000000 0.5155000000
-0.2514000000 1.7135000000 0.6500000000
-0.2519000000 1.1811000000 0.3689000000
-0.2528000000 3.2335000000 1.3596000000
-0.2570000000 0.7987000000 0.1630000000
-0.4886000000 2.2823000000 0.7310000000
-0.4902000000 5.0647000000 0.1852000000
-0.4910000000 5.2152000000 0.0956000000
-0.4913000000 2.1608000000 0.6676000000
-0.4916000000 5.3426000000 0.1074000000
-0.4927000000 1.4943000000 0.3119000000
-0.4930000000 5.4973000000 0.0239000000
-0.4930000000 5.3930000000 0.0773000000
-0.4934000000 2.7228000000 0.9631000000
-0.4937000000 3.2558000000 1.1290000000
-0.4939000000 3.4359000000 1.0269000000
-0.4944000000 3.6611000000 0.9138000000
-0.4947000000 4.6950000000 0.3653000000
-0.4947000000 2.4942000000 0.8363000000
-0.4951000000 4.8224000000 0.2993000000
-0.4954000000 2.7876000000 0.9903000000
-0.4955000000 5.1322000000 0.1392000000
-0.4958000000 5.4176000000 0.0665000000
-0.4962000000 5.6672000000 0.0053000000
-0.4966000000 2.7311000000 0.9584000000
-0.4967000000 2.9886000000 1.0940000000
-0.4969000000 3.5496000000 0.9658000000
-0.4972000000 2.3777000000 0.7762000000
-0.4975000000 4.8636000000 0.2752000000
-0.4978000000 0.8679000000 0.0574000000
-0.4980000000 4.1465000000 0.6594000000
-0.4982000000 3.7790000000 0.8464000000
-0.4988000000 1.8219000000 0.4778000000
-0.4990000000 4.1927000000 0.6339000000
-0.4992000000 0.7818000000 0.0842000000
-0.4995000000 2.2574000000 0.7066000000
-0.4996000000 2.1680000000 0.6588000000
-0.4999000000 1.1101000000 0.1074000000
-0.5001000000 1.4139000000 0.2627000000
-0.5007000000 1.7445000000 0.4411000000
-0.5009000000 1.1964000000 0.1512000000
-0.5029000000 4.2861000000 0.5792000000
-0.5072000000 2.0430000000 0.5924000000
-0.7418000000 4.0368000000 0.4863000000
-0.7422000000 2.7385000000 0.7384000000
-0.7423000000 2.6041000000 0.6729000000
-0.7424000000 4.4699000000 0.2672000000
-0.7426000000 1.9195000000 0.3102000000
-0.7431000000 1.2326000000 0.0236000000
-0.7431000000 1.6020000000 0.1357000000
-0.7441000000 4.5871000000 0.2037000000
-0.7444000000 2.5850000000 0.6584000000
-0.7447000000 5.2087000000 0.0201000000
-0.7448000000 3.3185000000 0.8629000000
-0.7450000000 4.8215000000 0.0754000000
-0.7455000000 3.9245000000 0.5446000000
-0.7458000000 3.2646000000 0.8917000000
-0.7462000000 1.1251000000 0.0404000000
-0.7465000000 1.6417000000 0.1594000000
-0.7474000000 2.9126000000 0.8256000000
-0.7479000000 5.2071000000 0.0212000000
-0.7480000000 1.6683000000 0.1673000000
-0.7482000000 4.5270000000 0.2265000000
-0.7490000000 2.2873000000 0.4938000000
-0.7494000000 1.0992000000 0.0210000000
-0.7495000000 4.9950000000 0.0525000000
-0.7498000000 2.9889000000 0.8679000000
-0.7502000000 3.0076000000 0.8758000000
-0.7504000000 2.4141000000 0.5666000000
-0.7509000000 1.1478000000 0.0456000000
-0.7530000000 2.5517000000 0.6357000000
-0.9886000000 3.0297000000 0.6713000000
-0.9905000000 3.5021000000 0.5482000000
-0.9916000000 2.2887000000 0.2763000000
-0.9920000000 1.9243000000 0.0861000000
-0.9925000000 3.3491000000 0.6216000000
-0.9930000000 2.6189000000 0.4478000000
-0.9938000000 3.4711000000 0.5608000000
-0.9942000000 2.5295000000 0.4021000000
-0.9946000000 4.7474000000 0.0373000000
-0.9952000000 3.9517000000 0.3063000000
-0.9956000000 4.1215000000 0.2208000000
-0.9957000000 2.3043000000 0.2802000000
-0.9960000000 3.9600000000 0.2984000000
-0.9965000000 1.5885000000 0.0510000000
-0.9966000000 3.6153000000 0.4802000000
-0.9970000000 1.9100000000 0.0679000000
-0.9972000000 3.0205000000 0.6626000000
-0.9975000000 2.1219000000 0.1824000000
-0.9975000000 2.8971000000 0.5898000000
-0.9977000000 3.9279000000 0.3180000000
-0.9979000000 2.3187000000 0.2875000000
-0.9982000000 4.1400000000 0.2007000000
-1.0005000000 2.2403000000 0.2424000000
-1.0012000000 3.8040000000 0.3780000000
-1.0019000000 3.6288000000 0.4633000000
-1.0066000000 1.6280000000 0.0654000000
-1.2420000000 2.5045000000 0.1615000000
-1.2427000000 2.7629000000 0.2995000000
-1.2441000000 4.2457000000 0.0690000000
-1.2444000000 1.9653000000 0.0281000000
-1.2452000000 3.0600000000 0.4504000000
-1.2470000000 2.4141000000 0.1053000000
-1.2473000000 3.4333000000 0.3471000000
-1.2477000000 2.9612000000 0.3936000000
-1.2480000000 3.5664000000 0.2746000000
-1.2482000000 4.0642000000 0.0888000000
-1.2485000000 4.1249000000 0.0483000000
-1.2488000000 3.2658000000 0.4309000000
-1.2493000000 1.9551000000 0.0189000000
-1.2505000000 2.6502000000 0.2316000000
-1.2536000000 2.5357000000 0.1677000000
-1.4926000000 3.2095000000 0.2438000000
-1.4945000000 2.7432000000 0.0529000000
-1.4949000000 3.5757000000 0.0484000000
-1.4953000000 3.8830000000 0.0322000000
-1.4975000000 3.8022000000 0.0789000000
-1.4980000000 2.7843000000 0.0790000000
-1.4985000000 3.4085000000 0.1275000000
-1.4999000000 3.1343000000 0.2380000000
-1.5001000000 3.7324000000 0.0351000000
-1.5004000000 2.5249000000 0.0889000000
-1.5022000000 2.5598000000 0.0271000000
-1.7445000000 3.0623000000 0.0690000000
-1.7458000000 3.1963000000 0.0811000000
-1.7474000000 3.2537000000 0.0591000000
-1.7492000000 3.3265000000 0.0217000000
