3.9956000000 3.2316000000 1.0739000000
3.9910000000 4.0024000000 0.6385000000
3.7645000000 4.8655000000 0.3662000000
3.7618000000 1.5375000000 0.5849000000
3.7609000000 3.0786000000 1.4046000000
3.7605000000 2.3658000000 1.0706000000
3.7604000000 3.8723000000 0.9441000000
3.7596000000 2.5967000000 1.2098000000
3.7596000000 3.2388000000 1.3117000000
3.7593000000 3.7167000000 1.0384000000
3.7593000000 4.4490000000 0.6096000000
3.7587000000 2.0810000000 0.9140000000
3.7585000000 2.8777000000 1.3744000000
3.7581000000 2.0783000000 0.9073000000
3.7580000000 0.9853000000 0.2727000000
3.7579000000 3.9564000000 0.8958000000
3.7578000000 3.1729000000 1.3544000000
3.7578000000 5.7075000000 0.0299000000
3.7575000000 4.5931000000 0.5252000000
3.7575000000 4.7193000000 0.4569000000
3.7572000000 5.0468000000 0.2588000000
3.7571000000 4.5052000000 0.5743000000
3.7570000000 2.8784000000 1.3782000000
3.7570000000 4.5686000000 0.5543000000
3.7570000000 0.9343000000 0.2430000000
3.7568000000 5.5566000000 0.0430000000
3.7568000000 4.0454000000 0.8459000000
3.7565000000 2.4501000000 1.1263000000
3.7563000000 4.9773000000 0.3137000000
3.7561000000 2.5942000000 1.2082000000
3.7560000000 2.1178000000 0.9363000000
3.7560000000 5.5211000000 0.0659000000
3.7560000000 5.2682000000 0.1366000000
3.7559000000 4.5743000000 0.5474000000
3.7556000000 0.5059000000 0.0742000000
3.7556000000 4.8225000000 0.3923000000
3.7555000000 1.1024000000 0.3465000000
3.7554000000 2.3243000000 1.0483000000
3.7554000000 1.6164000000 0.6434000000
3.7553000000 0.7197000000 0.1199000000
3.7552000000 4.0722000000 0.8401000000
3.7550000000 5.5591000000 0.0473000000
3.7550000000 4.4131000000 0.6378000000
3.7549000000 5.0715000000 0.2515000000
3.7548000000 2.0654000000 0.9053000000
3.7548000000 4.4133000000 0.6384000000
3.7547000000 3.4612000000 1.1873000000
3.7546000000 2.6579000000 1.2513000000
3.7545000000 1.8470000000 0.7803000000
3.7545000000 4.1485000000 0.7867000000
3.7546000000 1.7454000000 0.7247000000
3.7543000000 4.8222000000 0.4015000000
3.7542000000 0.4396000000 0.0397000000
3.7541000000 3.8466000000 0.9701000000
3.7540000000 3.6232000000 1.1010000000
3.7539000000 4.3946000000 0.6472000000
3.7539000000 4.4164000000 0.6374000000
3.7538000000 3.3954000000 1.2311000000
3.7537000000 1.1169000000 0.3635000000
3.7536000000 0.9860000000 0.2774000000
3.7534000000 1.8915000000 0.8043000000
3.7533000000 5.1927000000 0.1921000000
3.7533000000 5.4527000000 0.1107000000
3.7533000000 1.1785000000 0.3922000000
3.7532000000 4.0964000000 0.8232000000
3.7532000000 3.0865000000 1.4039000000
3.7528000000 1.2579000000 0.4370000000
3.7527000000 2.3048000000 1.0473000000
3.7526000000 3.4462000000 1.2011000000
3.7523000000 5.6200000000 0.0873000000
3.7521000000 3.1344000000 1.3835000000
3.7519000000 2.2470000000 1.0118000000
3.7518000000 3.9442000000 0.9157000000
3.7517000000 1.2649000000 0.4376000000
3.7516000000 2.5855000000 1.2094000000
3.7515000000 1.9655000000 0.8460000000
3.7514000000 4.1569000000 0.7873000000
3.7508000000 0.9937000000 0.2849000000
3.7509000000 2.8435000000 1.3623000000
3.7505000000 3.3098000000 1.2834000000
3.7504000000 1.3447000000 0.4860000000
3.7501000000 2.8703000000 1.3821000000
3.7500000000 4.2995000000 0.7152000000
3.7498000000 3.9933000000 0.8841000000
3.7497000000 1.4529000000 0.5554000000
3.7497000000 1.0431000000 0.3139000000
3.7495000000 1.1310000000 0.3649000000
3.7493000000 1.0921000000 0.3448000000
3.7490000000 0.4871000000 0.0669000000
3.7489000000 0.9952000000 0.2916000000
3.7488000000 0.9327000000 0.2540000000
3.7488000000 3.7868000000 1.0079000000
3.7486000000 2.4755000000 1.1521000000
3.7487000000 3.2062000000 1.3416000000
3.7482000000 1.4778000000 0.5716000000
3.7479000000 3.3598000000 1.2568000000
3.7476000000 3.2631000000 1.3120000000
3.7470000000 0.8498000000 0.2030000000
3.7469000000 3.5080000000 1.1719000000
3.7456000000 4.2462000000 0.7405000000
3.7433000000 1.0773000000 0.3396000000
3.5131000000 1.9687000000 1.0957000000
3.5123000000 6.0198000000 0.0835000000
3.5107000000 5.0899000000 0.4910000000
3.5104000000 4.1167000000 1.0549000000
3.5098000000 5.8654000000 0.1143000000
3.5098000000 5.5350000000 0.2292000000
3.5097000000 5.0364000000 0.5247000000
3.5095000000 5.7442000000 0.1108000000
3.5094000000 3.2139000000 1.5836000000
3.5093000000 4.6621000000 0.7390000000
3.5091000000 5.7503000000 0.1046000000
3.5089000000 2.5473000000 1.4381000000
3.5086000000 4.3699000000 0.9087000000
3.5086000000 1.2723000000 0.6847000000
3.5085000000 0.2913000000 0.1228000000
3.5082000000 1.6699000000 0.9245000000
3.5078000000 3.4686000000 1.4342000000
3.5076000000 2.5617000000 1.4493000000
3.5075000000 2.7032000000 1.5282000000
3.5074000000 4.0028000000 1.1271000000
3.5069000000 4.2304000000 0.9980000000
3.5068000000 4.5342000000 0.8220000000
3.5066000000 5.7014000000 0.1327000000
3.5066000000 2.8881000000 1.6315000000
3.5064000000 4.1136000000 1.0579000000
3.5065000000 5.6202000000 0.1869000000
3.5060000000 4.7466000000 0.6968000000
3.5060000000 2.8714000000 1.6288000000
3.5059000000 5.3619000000 0.3379000000
3.5057000000 4.0833000000 1.0750000000
3.5055000000 5.1853000000 0.4419000000
3.5054000000 3.3351000000 1.5146000000
3.5055000000 5.7517000000 0.1100000000
3.5052000000 3.8695000000 1.2047000000
3.5050000000 3.7727000000 1.2562000000
3.5050000000 5.2730000000 0.3918000000
3.5049000000 3.3519000000 1.5044000000
3.5048000000 4.4940000000 0.8405000000
3.5047000000 4.8092000000 0.6572000000
3.5047000000 1.4360000000 0.7933000000
3.5044000000 5.0045000000 0.5463000000
3.5043000000 2.6609000000 1.5056000000
3.5043000000 0.1861000000 0.0623000000
3.5043000000 0.5444000000 0.2698000000
3.5042000000 2.5486000000 1.4347000000
3.5040000000 1.5468000000 0.8635000000
3.5041000000 0.8248000000 0.4347000000
3.5038000000 1.7360000000 0.9674000000
3.5037000000 1.5347000000 0.8514000000
3.5036000000 2.0849000000 1.1682000000
3.5037000000 3.6387000000 1.3411000000
3.5035000000 4.0343000000 1.1124000000
3.5035000000 1.4841000000 0.8238000000
3.5034000000 1.1539000000 0.6292000000
3.5035000000 5.5124000000 0.2566000000
3.5032000000 0.6184000000 0.3177000000
3.5031000000 2.1589000000 1.2125000000
3.5028000000 5.2423000000 0.4082000000
3.5027000000 2.2438000000 1.2599000000
3.5024000000 2.3508000000 1.3281000000
3.5020000000 4.1450000000 1.0481000000
3.5018000000 5.7858000000 0.0949000000
3.5018000000 3.8884000000 1.1991000000
3.5017000000 1.0317000000 0.5519000000
3.5014000000 0.0503000000 0.0500000000
3.5013000000 1.0707000000 0.5852000000
3.5011000000 1.1885000000 0.6500000000
3.5010000000 0.7033000000 0.3685000000
3.5006000000 1.4702000000 0.8188000000
3.5006000000 0.3068000000 0.1359000000
3.5005000000 5.0705000000 0.5146000000
3.5001000000 2.3444000000 1.3222000000
3.5001000000 2.6390000000 1.4949000000
3.4999000000 3.5070000000 1.4156000000
3.4996000000 2.7954000000 1.5845000000
3.4995000000 0.0840000000 0.0856000000
3.4991000000 5.6443000000 0.1800000000
3.4985000000 2.3160000000 1.3110000000
3.4980000000 3.2337000000 1.5814000000
3.4978000000 0.1906000000 0.0794000000
3.4977000000 3.8130000000 1.2437000000
3.4975000000 0.6905000000 0.3654000000
3.4975000000 5.4392000000 0.2984000000
3.4970000000 2.2236000000 1.2585000000
3.4965000000 4.3256000000 0.9492000000
3.4963000000 0.7238000000 0.3827000000
3.4958000000 0.6613000000 0.3493000000
3.2643000000 5.2790000000 0.6220000000
3.2612000000 2.1805000000 1.4641000000
3.2608000000 2.3568000000 1.5720000000
3.2601000000 2.6571000000 1.7437000000
3.2597000000 5.9536000000 0.1376000000
3.2590000000 1.5120000000 1.0851000000
3.2588000000 1.2760000000 0.9486000000
3.2588000000 1.3897000000 1.0140000000
3.2586000000 2.9622000000 1.9040000000
3.2584000000 0.6391000000 0.5758000000
3.2584000000 3.8350000000 1.4744000000
3.2583000000 3.8626000000 1.4601000000
3.2582000000 3.3866000000 1.7327000000
3.2582000000 3.1738000000 1.8533000000
3.2580000000 3.8319000000 1.4732000000
3.2578000000 0.9479000000 0.7563000000
3.2578000000 4.1117000000 1.3161000000
3.2577000000 4.7356000000 0.9484000000
3.2575000000 1.0325000000 0.8102000000
3.2574000000 2.5548000000 1.6915000000
3.2573000000 3.0683000000 1.9167000000
3.2573000000 2.9229000000 1.9044000000
3.2573000000 2.9857000000 1.9293000000
3.2572000000 4.9562000000 0.8245000000
3.2570000000 5.6396000000 0.4001000000
3.2568000000 3.2383000000 1.8204000000
3.2568000000 3.7335000000 1.5347000000
3.2567000000 5.3522000000 0.5928000000
3.2565000000 2.7759000000 1.8224000000
3.2563000000 2.7874000000 1.8322000000
3.2561000000 5.6402000000 0.4128000000
3.2560000000 2.0938000000 1.4262000000
3.2560000000 5.1440000000 0.7125000000
3.2558000000 5.8165000000 0.2204000000
3.2557000000 5.9167000000 0.1070000000
3.2556000000 5.8327000000 0.2068000000
3.2556000000 0.1649000000 0.1847000000
3.2555000000 5.2042000000 0.6794000000
3.2555000000 2.1523000000 1.4528000000
3.2554000000 4.2632000000 1.2264000000
3.2553000000 2.9289000000 1.9064000000
3.2553000000 2.6593000000 1.7558000000
3.2552000000 1.2852000000 0.9533000000
3.2550000000 1.8945000000 1.3100000000
3.2550000000 1.7245000000 1.2141000000
3.2550000000 0.1862000000 0.2007000000
3.2547000000 1.1213000000 0.8529000000
3.2545000000 4.3681000000 1.1616000000
3.2545000000 0.8418000000 0.7000000000
3.2545000000 2.8211000000 1.8489000000
3.2544000000 4.6427000000 1.0065000000
3.2543000000 4.6042000000 1.0249000000
3.2542000000 2.8660000000 1.8750000000
3.2540000000 1.3632000000 1.0045000000
3.2540000000 1.9848000000 1.3636000000
3.2539000000 4.5048000000 1.0875000000
3.2538000000 1.0868000000 0.8387000000
3.2537000000 4.8620000000 0.8799000000
3.2535000000 5.3792000000 0.5833000000
3.2533000000 1.0334000000 0.8031000000
3.2533000000 2.9104000000 1.8994000000
3.2531000000 0.7715000000 0.6565000000
3.2530000000 2.8915000000 1.8938000000
3.2529000000 3.6135000000 1.6093000000
3.2529000000 5.7602000000 0.2869000000
3.2528000000 3.8496000000 1.4689000000
3.2527000000 1.5573000000 1.1130000000
3.2526000000 5.1000000000 0.7431000000
3.2525000000 5.8512000000 0.1799000000
3.2525000000 2.0619000000 1.4107000000
3.2524000000 1.2909000000 0.9625000000
3.2523000000 4.2533000000 1.2364000000
3.2521000000 3.4921000000 1.6753000000
3.2519000000 2.2107000000 1.4944000000
3.2518000000 1.9243000000 1.3244000000
3.2518000000 0.4576000000 0.4572000000
3.2515000000 4.6622000000 1.0040000000
3.2515000000 0.9746000000 0.7828000000
3.2514000000 1.7786000000 1.2459000000
3.2513000000 0.3306000000 0.3634000000
3.2513000000 3.0609000000 1.9223000000
3.2511000000 4.7159000000 0.9656000000
3.2510000000 3.6792000000 1.5713000000
3.2507000000 2.2232000000 1.5027000000
3.2505000000 5.6369000000 0.4117000000
3.2502000000 0.5907000000 0.5626000000
3.2496000000 1.3263000000 0.9787000000
3.2495000000 2.5798000000 1.7175000000
3.2494000000 4.3981000000 1.1530000000
3.2493000000 3.6836000000 1.5695000000
3.2491000000 1.2307000000 0.9254000000
3.2482000000 1.3631000000 1.0035000000
3.2480000000 1.9312000000 1.3356000000
3.2477000000 0.2658000000 0.3001000000
3.2472000000 1.0253000000 0.8083000000
3.2465000000 0.0157000000 0.0819000000
3.2452000000 2.1137000000 1.4468000000
3.2435000000 1.8789000000 1.3080000000
3.0133000000 2.9968000000 2.1800000000
3.0128000000 5.1100000000 0.9760000000
3.0128000000 3.7910000000 1.7434000000
3.0127000000 5.3559000000 0.7569000000
3.0102000000 5.3277000000 0.7810000000
3.0100000000 3.9577000000 1.6496000000
3.0095000000 0.3400000000 0.3798000000
3.0091000000 3.3382000000 2.0102000000
3.0090000000 3.5850000000 1.8658000000
3.0088000000 2.3690000000 1.8319000000
3.0086000000 4.7042000000 1.2203000000
3.0084000000 4.7480000000 1.1938000000
3.0083000000 3.6186000000 1.8496000000
3.0082000000 4.0989000000 1.5742000000
3.0080000000 4.6637000000 1.2416000000
3.0080000000 2.9533000000 2.1659000000
3.0076000000 2.8116000000 2.0931000000
3.0075000000 1.0874000000 1.0897000000
3.0075000000 3.4191000000 1.9687000000
3.0073000000 1.8611000000 1.5429000000
3.0071000000 3.2438000000 2.0700000000
3.0071000000 3.3012000000 2.0342000000
3.0069000000 4.6570000000 1.2508000000
3.0067000000 4.2227000000 1.4970000000
3.0068000000 3.2682000000 2.0596000000
3.0065000000 3.9033000000 1.6956000000
3.0061000000 5.3828000000 0.7270000000
3.0060000000 3.1712000000 2.1111000000
3.0060000000 0.7752000000 0.8748000000
3.0059000000 2.5886000000 1.9624000000
3.0058000000 5.3612000000 0.7469000000
3.0058000000 3.1740000000 2.1128000000
3.0057000000 2.4336000000 1.8718000000
3.0055000000 1.0839000000 1.0924000000
3.0055000000 3.4729000000 1.9376000000
3.0054000000 5.9984000000 0.0852000000
3.0054000000 1.6510000000 1.4180000000
3.0053000000 5.8165000000 0.2201000000
3.0053000000 4.9784000000 1.0601000000
3.0049000000 5.9584000000 0.1348000000
3.0048000000 4.2224000000 1.5049000000
3.0047000000 1.5991000000 1.3893000000
3.0047000000 1.9446000000 1.5923000000
3.0043000000 1.6704000000 1.4337000000
3.0043000000 5.9969000000 0.0865000000
3.0043000000 3.9773000000 1.6455000000
3.0042000000 4.1919000000 1.5247000000
3.0041000000 0.1100000000 0.1157000000
3.0041000000 0.4547000000 0.5181000000
3.0040000000 0.1787000000 0.1959000000
3.0040000000 1.5541000000 1.3623000000
3.0040000000 4.2372000000 1.4998000000
3.0038000000 0.7852000000 0.8878000000
3.0037000000 2.0863000000 1.6707000000
3.0036000000 5.2109000000 0.9049000000
3.0035000000 3.2699000000 2.0566000000
3.0035000000 5.9117000000 0.1122000000
3.0033000000 4.3553000000 1.4269000000
3.0031000000 2.8924000000 2.1428000000
3.0030000000 2.5365000000 1.9324000000
3.0027000000 2.9545000000 2.1679000000
3.0027000000 1.1760000000 1.1469000000
3.0024000000 2.3828000000 1.8484000000
3.0023000000 4.9953000000 1.0573000000
3.0022000000 2.8632000000 2.1206000000
3.0021000000 3.5441000000 1.8967000000
3.0021000000 4.9855000000 1.0634000000
3.0017000000 1.6534000000 1.4283000000
3.0018000000 5.8115000000 0.2267000000
3.0017000000 3.7577000000 1.7790000000
3.0014000000 1.2725000000 1.2014000000
3.0013000000 3.9513000000 1.6649000000
3.0008000000 3.7811000000 1.7656000000
3.0008000000 2.0947000000 1.6825000000
3.0008000000 4.3988000000 1.4042000000
3.0005000000 2.7121000000 2.0395000000
3.0004000000 0.3123000000 0.3502000000
3.0003000000 1.8326000000 1.5274000000
3.0002000000 1.6987000000 1.4459000000
2.9996000000 1.6262000000 1.4079000000
2.9993000000 1.8853000000 1.5677000000
2.9992000000 5.4445000000 0.6514000000
2.9991000000 1.2634000000 1.2036000000
2.9987000000 2.8091000000 2.0923000000
2.9983000000 0.3844000000 0.4342000000
2.9978000000 1.9275000000 1.5904000000
2.9965000000 5.5064000000 0.5870000000
2.9947000000 2.8608000000 2.1339000000
2.7625000000 3.5720000000 2.1203000000
2.7616000000 4.0669000000 1.8454000000
2.7609000000 0.4743000000 0.5399000000
2.7606000000 5.5691000000 0.5097000000
2.7603000000 0.3931000000 0.4424000000
2.7595000000 5.0511000000 1.1078000000
2.7593000000 3.7228000000 2.0430000000
2.7592000000 2.3745000000 2.0850000000
2.7589000000 0.8394000000 0.9657000000
2.7588000000 0.9988000000 1.1504000000
2.7586000000 5.9336000000 0.0931000000
2.7588000000 2.9600000000 2.4153000000
2.7584000000 1.0040000000 1.1558000000
2.7580000000 2.0203000000 1.8842000000
2.7579000000 5.7586000000 0.2896000000
2.7577000000 0.3527000000 0.3972000000
2.7575000000 1.4292000000 1.5390000000
2.7576000000 3.2684000000 2.3053000000
2.7573000000 5.4081000000 0.6973000000
2.7571000000 4.4487000000 1.6203000000
2.7571000000 1.9329000000 1.8355000000
2.7570000000 4.1432000000 1.7977000000
2.7569000000 1.5202000000 1.5895000000
2.7566000000 4.5056000000 1.5902000000
2.7565000000 5.2561000000 0.8729000000
2.7564000000 1.5541000000 1.6090000000
2.7565000000 5.4079000000 0.6941000000
2.7563000000 2.2561000000 2.0187000000
2.7562000000 1.2307000000 1.4043000000
2.7559000000 0.6887000000 0.7875000000
2.7559000000 5.7451000000 0.3066000000
2.7556000000 5.8100000000 0.2280000000
2.7554000000 0.0932000000 0.0995000000
2.7554000000 5.1763000000 0.9658000000
2.7552000000 4.5078000000 1.5896000000
2.7551000000 3.6833000000 2.0639000000
2.7550000000 1.1091000000 1.2789000000
2.7550000000 2.9364000000 2.4166000000
2.7549000000 1.0333000000 1.1879000000
2.7548000000 0.5015000000 0.5752000000
2.7546000000 0.8748000000 1.0047000000
2.7544000000 3.8096000000 1.9944000000
2.7543000000 1.3886000000 1.5177000000
2.7542000000 4.9568000000 1.2168000000
2.7541000000 3.5672000000 2.1391000000
2.7540000000 3.1950000000 2.3518000000
2.7539000000 1.2784000000 1.4366000000
2.7538000000 3.7679000000 2.0223000000
2.7538000000 2.6636000000 2.2629000000
2.7537000000 1.0546000000 1.2119000000
2.7537000000 5.1856000000 0.9548000000
2.7535000000 1.3450000000 1.4880000000
2.7535000000 2.2420000000 2.0171000000
2.7534000000 3.8545000000 1.9663000000
2.7534000000 2.5874000000 2.2176000000
2.7532000000 1.7498000000 1.7316000000
2.7532000000 0.6641000000 0.7622000000
2.7531000000 1.8281000000 1.7790000000
2.7530000000 1.1568000000 1.3146000000
2.7525000000 1.6966000000 1.7011000000
2.7524000000 3.6418000000 2.0913000000
2.7523000000 3.3329000000 2.2785000000
2.7523000000 5.9467000000 0.0677000000
2.7519000000 2.5896000000 2.2196000000
2.7518000000 4.2665000000 1.7333000000
2.7515000000 2.7550000000 2.3159000000
2.7513000000 5.4490000000 0.6484000000
2.7512000000 3.1262000000 2.3966000000
2.7510000000 0.8904000000 1.0207000000
2.7508000000 2.2968000000 2.0498000000
2.7507000000 0.6357000000 0.7312000000
2.7507000000 1.8157000000 1.7708000000
2.7505000000 2.1041000000 1.9398000000
2.7503000000 1.8671000000 1.8022000000
2.7501000000 1.2247000000 1.3965000000
2.7498000000 4.1373000000 1.8076000000
2.7495000000 0.9002000000 1.0369000000
2.7494000000 1.8560000000 1.7950000000
2.7490000000 5.1688000000 0.9776000000
2.7490000000 1.4088000000 1.5406000000
2.7483000000 2.1579000000 1.9745000000
2.7476000000 6.0411000000 0.0357000000
2.7474000000 1.7641000000 1.7475000000
2.7473000000 1.1621000000 1.3293000000
2.7460000000 2.1912000000 1.9961000000
2.5115000000 1.7192000000 1.9379000000
2.5104000000 4.2724000000 1.9491000000
2.5094000000 5.3691000000 0.7417000000
2.5085000000 3.3000000000 2.5362000000
2.5083000000 5.1717000000 0.9712000000
2.5081000000 5.0507000000 1.1113000000
2.5075000000 4.5878000000 1.6512000000
2.5071000000 2.9701000000 2.6706000000
2.5070000000 4.2912000000 1.9440000000
2.5070000000 4.6353000000 1.5968000000
2.5068000000 4.9422000000 1.2432000000
2.5065000000 5.2466000000 0.8803000000
2.5066000000 4.4713000000 1.7833000000
2.5063000000 4.1733000000 2.0276000000
2.5061000000 3.7164000000 2.3019000000
2.5061000000 0.9097000000 1.0473000000
2.5059000000 0.7931000000 0.9090000000
2.5059000000 0.5468000000 0.6278000000
2.5057000000 3.3671000000 2.5014000000
2.5057000000 0.1366000000 0.1441000000
2.5055000000 4.5048000000 1.7438000000
2.5053000000 1.7407000000 1.9589000000
2.5054000000 1.4800000000 1.7106000000
2.5052000000 0.2273000000 0.2558000000
2.5051000000 1.1766000000 1.3537000000
2.5050000000 2.9687000000 2.6699000000
2.5050000000 4.9768000000 1.1965000000
2.5049000000 4.4498000000 1.8064000000
2.5048000000 2.2343000000 2.2573000000
2.5047000000 4.8622000000 1.3293000000
2.5046000000 1.5966000000 1.8298000000
2.5045000000 1.0695000000 1.2359000000
2.5043000000 5.6053000000 0.4691000000
2.5043000000 0.0347000000 0.1038000000
2.5040000000 1.8199000000 2.0238000000
2.5038000000 4.6213000000 1.6093000000
2.5038000000 0.7742000000 0.8879000000
2.5037000000 2.9798000000 2.6800000000
2.5033000000 3.4271000000 2.4691000000
2.5030000000 2.1783000000 2.2333000000
2.5030000000 5.7182000000 0.3305000000
2.5028000000 2.3878000000 2.3490000000
2.5029000000 2.5911000000 2.4687000000
2.5025000000 1.0856000000 1.2544000000
2.5022000000 1.5131000000 1.7502000000
2.5019000000 0.0287000000 0.1020000000
2.5013000000 3.4185000000 2.4781000000
2.5012000000 5.3309000000 0.7844000000
2.5011000000 4.3392000000 1.9216000000
2.5011000000 2.9933000000 2.6870000000
2.5009000000 0.1642000000 0.1800000000
2.5008000000 0.4365000000 0.4947000000
2.5009000000 1.3259000000 1.5318000000
2.5005000000 4.2784000000 1.9594000000
2.5001000000 1.2927000000 1.4916000000
2.5000000000 3.2769000000 2.5653000000
2.5000000000 2.4806000000 2.4085000000
2.4999000000 3.3255000000 2.5304000000
2.4998000000 1.3399000000 1.5472000000
2.4997000000 0.7328000000 0.8461000000
2.4997000000 3.3755000000 2.5042000000
2.4993000000 3.7127000000 2.3087000000
2.4992000000 3.5917000000 2.3778000000
2.4991000000 1.9312000000 2.0927000000
2.4990000000 1.0002000000 1.1535000000
2.4988000000 5.5420000000 0.5384000000
2.4983000000 3.4289000000 2.4737000000
2.4978000000 3.7321000000 2.2944000000
2.4978000000 4.0459000000 2.1167000000
2.4970000000 0.3638000000 0.4140000000
2.4967000000 2.4138000000 2.3685000000
2.4953000000 2.1191000000 2.2045000000
2.2619000000 3.1303000000 2.8811000000
2.2618000000 5.9256000000 0.0915000000
2.2604000000 0.1695000000 0.1834000000
2.2603000000 5.7404000000 0.3069000000
2.2599000000 3.8065000000 2.4872000000
2.2595000000 5.8700000000 0.1608000000
2.2589000000 5.5598000000 0.5242000000
2.2584000000 2.5058000000 2.6718000000
2.2583000000 5.0100000000 1.1602000000
2.2582000000 2.8521000000 2.8644000000
2.2581000000 4.2788000000 2.0139000000
2.2580000000 4.8375000000 1.3546000000
2.2579000000 4.6202000000 1.6108000000
2.2578000000 4.9848000000 1.1853000000
2.2577000000 4.7894000000 1.4161000000
2.2573000000 3.9613000000 2.3657000000
2.2573000000 3.0571000000 2.9191000000
2.2573000000 1.9970000000 2.3020000000
2.2570000000 5.3685000000 0.7440000000
2.2569000000 4.8507000000 1.3428000000
2.2569000000 3.9221000000 2.4062000000
2.2567000000 1.5289000000 1.7678000000
2.2566000000 4.0135000000 2.3074000000
2.2565000000 4.6185000000 1.6166000000
2.2564000000 1.4286000000 1.6489000000
2.2562000000 3.8360000000 2.4653000000
2.2560000000 2.0083000000 2.3133000000
2.2560000000 2.1142000000 2.4246000000
2.2559000000 0.7906000000 0.9056000000
2.2559000000 2.4815000000 2.6581000000
2.2557000000 5.5539000000 0.5307000000
2.2557000000 3.9897000000 2.3295000000
2.2555000000 3.5722000000 2.6324000000
2.2556000000 1.3728000000 1.5804000000
2.2555000000 1.9357000000 2.2450000000
2.2554000000 5.0869000000 1.0735000000
2.2553000000 1.5873000000 1.8373000000
2.2546000000 1.4017000000 1.6134000000
2.2546000000 3.9912000000 2.3220000000
2.2545000000 5.7731000000 0.2737000000
2.2544000000 0.9692000000 1.1132000000
2.2543000000 2.9099000000 2.9044000000
2.2541000000 0.6885000000 0.7891000000
2.2538000000 0.2198000000 0.2478000000
2.2535000000 3.9843000000 2.3293000000
2.2533000000 3.6579000000 2.5902000000
2.2532000000 1.3580000000 1.5691000000
2.2532000000 3.1582000000 2.8776000000
2.2531000000 1.2808000000 1.4774000000
2.2528000000 0.0826000000 0.0806000000
2.2528000000 0.2546000000 0.2856000000
2.2529000000 2.5433000000 2.6915000000
2.2525000000 3.8250000000 2.4675000000
2.2524000000 4.5151000000 1.7384000000
2.2524000000 5.0237000000 1.1439000000
2.2521000000 5.2917000000 0.8303000000
2.2521000000 5.1569000000 0.9907000000
2.2518000000 0.0075000000 0.0702000000
2.2519000000 0.3853000000 0.4367000000
2.2517000000 0.1049000000 0.1121000000
2.2515000000 1.5374000000 1.7690000000
2.2515000000 0.3846000000 0.4294000000
2.2514000000 3.9305000000 2.3947000000
2.2510000000 1.3281000000 1.5342000000
2.2510000000 5.4738000000 0.6195000000
2.2507000000 0.3651000000 0.4159000000
2.2505000000 1.6081000000 1.8612000000
2.2504000000 4.6092000000 1.6240000000
2.2493000000 0.4466000000 0.5066000000
2.2490000000 1.8221000000 2.1033000000
2.2488000000 3.4948000000 2.6857000000
2.2488000000 1.2501000000 1.4478000000
2.2488000000 0.1775000000 0.1957000000
2.2483000000 4.3788000000 1.8977000000
2.2473000000 0.5151000000 0.5853000000
2.2460000000 3.4631000000 2.7072000000
2.2454000000 1.0848000000 1.2452000000
2.0135000000 1.1222000000 1.2969000000
2.0101000000 5.8185000000 0.2282000000
2.0096000000 1.8782000000 2.1722000000
2.0093000000 0.7846000000 0.9027000000
2.0092000000 4.8992000000 1.2849000000
2.0091000000 1.9616000000 2.2700000000
2.0088000000 4.6933000000 1.5275000000
2.0085000000 0.5785000000 0.6611000000
2.0083000000 2.9609000000 3.1654000000
2.0083000000 4.5392000000 1.7064000000
2.0081000000 2.3048000000 2.6671000000
2.0079000000 4.3608000000 1.9078000000
2.0077000000 0.5908000000 0.6732000000
2.0073000000 2.1513000000 2.4875000000
2.0072000000 5.2652000000 0.8599000000
2.0070000000 3.5827000000 2.8128000000
2.0069000000 1.9752000000 2.2800000000
2.0070000000 5.5060000000 0.5789000000
2.0067000000 3.4732000000 2.9263000000
2.0067000000 2.0935000000 2.4192000000
2.0065000000 0.5075000000 0.5764000000
2.0066000000 1.4093000000 1.6266000000
2.0065000000 3.6999000000 2.6839000000
2.0063000000 0.5789000000 0.6586000000
2.0062000000 2.3320000000 2.6969000000
2.0061000000 3.3492000000 3.0154000000
2.0059000000 2.3483000000 2.7112000000
2.0057000000 1.7318000000 2.0025000000
2.0056000000 4.9142000000 1.2691000000
2.0053000000 5.9818000000 0.1043000000
2.0055000000 3.7587000000 2.6137000000
2.0053000000 5.9959000000 0.0880000000
2.0052000000 3.0388000000 3.1723000000
2.0050000000 4.6082000000 1.6282000000
2.0051000000 4.9343000000 1.2489000000
2.0050000000 3.1161000000 3.1530000000
2.0049000000 5.7994000000 0.2416000000
2.0046000000 5.2871000000 0.8419000000
2.0044000000 4.3315000000 1.9500000000
2.0043000000 0.6094000000 0.6968000000
2.0043000000 0.1143000000 0.1187000000
2.0039000000 5.6000000000 0.4744000000
2.0038000000 2.8761000000 3.1371000000
2.0039000000 3.5993000000 2.8015000000
2.0040000000 4.0521000000 2.2716000000
2.0036000000 1.1514000000 1.3339000000
2.0037000000 1.3575000000 1.5695000000
2.0038000000 3.8796000000 2.4656000000
2.0034000000 3.6192000000 2.7741000000
2.0035000000 2.9363000000 3.1765000000
2.0033000000 5.6391000000 0.4284000000
2.0033000000 1.2661000000 1.4569000000
2.0032000000 1.3617000000 1.5704000000
2.0030000000 0.7637000000 0.8794000000
2.0028000000 5.0453000000 1.1134000000
2.0029000000 1.1188000000 1.2893000000
2.0028000000 4.8626000000 1.3251000000
2.0027000000 1.9364000000 2.2413000000
2.0025000000 3.6454000000 2.7438000000
2.0024000000 0.9447000000 1.0893000000
2.0025000000 3.7772000000 2.5902000000
2.0024000000 3.3564000000 3.0079000000
2.0023000000 1.6479000000 1.9004000000
2.0021000000 0.5391000000 0.6143000000
2.0016000000 2.2594000000 2.6141000000
2.0015000000 4.8554000000 1.3413000000
2.0014000000 0.7902000000 0.9074000000
2.0008000000 4.6397000000 1.5930000000
2.0008000000 3.8971000000 2.4534000000
2.0007000000 0.5745000000 0.6553000000
2.0006000000 2.2548000000 2.6028000000
2.0005000000 0.4397000000 0.5012000000
2.0004000000 3.9796000000 2.3552000000
2.0000000000 2.0577000000 2.3794000000
2.0001000000 4.7235000000 1.4918000000
1.9994000000 3.4929000000 2.9051000000
1.9994000000 4.3022000000 1.9858000000
1.9991000000 2.2869000000 2.6425000000
1.9988000000 1.4352000000 1.6560000000
1.9979000000 2.5230000000 2.9022000000
1.9977000000 1.5392000000 1.7809000000
1.9975000000 0.2717000000 0.3061000000
1.9965000000 2.3092000000 2.6687000000
1.9956000000 0.0195000000 0.0866000000
1.9943000000 2.1887000000 2.5404000000
1.9931000000 4.6176000000 1.6177000000
1.7626000000 5.8020000000 0.2385000000
1.7607000000 4.2488000000 2.0464000000
1.7604000000 4.9012000000 1.2852000000
1.7600000000 2.5914000000 2.9977000000
1.7596000000 1.5993000000 1.8473000000
1.7593000000 2.0395000000 2.3549000000
1.7589000000 5.9945000000 0.0915000000
1.7590000000 2.6472000000 3.0648000000
1.7585000000 0.8629000000 0.9951000000
1.7584000000 3.1118000000 3.3120000000
1.7583000000 4.4131000000 1.8530000000
1.7581000000 4.3589000000 1.9148000000
1.7578000000 4.2539000000 2.0356000000
1.7577000000 4.4096000000 1.8600000000
1.7574000000 4.4800000000 1.7735000000
1.7572000000 2.8166000000 3.2653000000
1.7570000000 3.1155000000 3.3195000000
1.7570000000 5.6591000000 0.4037000000
1.7565000000 3.6746000000 2.7088000000
1.7564000000 3.5257000000 2.8858000000
1.7564000000 2.4204000000 2.8048000000
1.7563000000 4.8672000000 1.3266000000
1.7560000000 0.9248000000 1.0701000000
1.7555000000 5.3051000000 0.8118000000
1.7555000000 3.3520000000 3.0815000000
1.7554000000 3.0161000000 3.3962000000
1.7554000000 1.1020000000 1.2717000000
1.7553000000 3.8606000000 2.4917000000
1.7553000000 2.5261000000 2.9209000000
1.7552000000 5.7626000000 0.2826000000
1.7551000000 3.4416000000 2.9768000000
1.7551000000 4.3874000000 1.8822000000
1.7548000000 3.4265000000 2.9993000000
1.7547000000 1.8013000000 2.0794000000
1.7545000000 4.4480000000 1.8183000000
1.7546000000 2.5088000000 2.9000000000
1.7545000000 5.3114000000 0.8121000000
1.7545000000 1.9406000000 2.2476000000
1.7544000000 1.6402000000 1.8925000000
1.7542000000 4.7441000000 1.4710000000
1.7542000000 1.6987000000 1.9612000000
1.7541000000 1.8231000000 2.1104000000
1.7541000000 5.3862000000 0.7241000000
1.7540000000 3.5082000000 2.8979000000
1.7540000000 4.8534000000 1.3423000000
1.7538000000 1.6253000000 1.8768000000
1.7538000000 0.3852000000 0.4380000000
1.7537000000 2.7195000000 3.1526000000
1.7537000000 4.6157000000 1.6154000000
1.7535000000 1.8881000000 2.1839000000
1.7534000000 5.3133000000 0.8121000000
1.7533000000 5.8666000000 0.1657000000
1.7532000000 2.6561000000 3.0713000000
1.7531000000 3.2487000000 3.2125000000
1.7532000000 1.7487000000 2.0204000000
1.7530000000 1.0894000000 1.2606000000
1.7529000000 1.0279000000 1.1840000000
1.7529000000 0.4683000000 0.5329000000
1.7528000000 4.2771000000 2.0081000000
1.7528000000 5.0940000000 1.0637000000
1.7527000000 0.9093000000 1.0452000000
1.7527000000 5.8725000000 0.1621000000
1.7526000000 0.8507000000 0.9790000000
1.7524000000 4.0627000000 2.2622000000
1.7523000000 5.6994000000 0.3613000000
1.7522000000 5.2648000000 0.8647000000
1.7521000000 6.0066000000 0.0772000000
1.7520000000 3.0223000000 3.3974000000
1.7520000000 3.5024000000 2.9141000000
1.7519000000 4.0899000000 2.2301000000
1.7518000000 3.5092000000 2.9024000000
1.7516000000 1.6429000000 1.8991000000
1.7515000000 5.9625000000 0.1265000000
1.7514000000 0.6707000000 0.7685000000
1.7515000000 3.4007000000 3.0302000000
1.7512000000 3.5254000000 2.8817000000
1.7510000000 4.9943000000 1.1815000000
1.7510000000 2.0179000000 2.3367000000
1.7508000000 0.8947000000 1.0339000000
1.7507000000 2.5872000000 2.9959000000
1.7505000000 4.2126000000 2.0881000000
1.7504000000 0.5327000000 0.6094000000
1.7506000000 3.1713000000 3.2927000000
1.7501000000 0.0163000000 0.0856000000
1.7498000000 6.0452000000 0.1054000000
1.7497000000 0.6926000000 0.7949000000
1.7494000000 2.4441000000 2.8291000000
1.7491000000 5.2582000000 0.8695000000
1.7489000000 2.4016000000 2.7805000000
1.7488000000 0.7851000000 0.9035000000
1.7478000000 3.4241000000 3.0026000000
1.7477000000 3.3082000000 3.1306000000
1.7457000000 1.7217000000 1.9931000000
1.7455000000 3.1468000000 3.3240000000
1.7451000000 2.2855000000 2.6447000000
1.5153000000 3.5635000000 2.8388000000
1.5122000000 5.0282000000 1.1363000000
1.5112000000 3.1034000000 3.2047000000
1.5110000000 0.9798000000 1.1282000000
1.5097000000 5.4630000000 0.6391000000
1.5092000000 3.3882000000 3.0218000000
1.5085000000 4.5086000000 1.7421000000
1.5083000000 1.6379000000 1.8911000000
1.5079000000 5.4855000000 0.6114000000
1.5078000000 3.2267000000 3.1315000000
1.5076000000 2.0927000000 2.4263000000
1.5076000000 4.6569000000 1.5682000000
1.5074000000 5.4035000000 0.6989000000
1.5073000000 2.5060000000 2.8911000000
1.5072000000 4.8802000000 1.3109000000
1.5070000000 2.6402000000 3.0167000000
1.5068000000 3.2289000000 3.1257000000
1.5068000000 2.6372000000 3.0179000000
1.5064000000 2.8707000000 3.1742000000
1.5062000000 3.1364000000 3.1793000000
1.5061000000 4.4596000000 1.7972000000
1.5061000000 5.9312000000 0.0936000000
1.5060000000 4.1088000000 2.2075000000
1.5058000000 4.0116000000 2.3196000000
1.5058000000 5.3441000000 0.7736000000
1.5057000000 4.1504000000 2.1556000000
1.5056000000 4.4533000000 1.8032000000
1.5055000000 2.2913000000 2.6518000000
1.5054000000 1.0034000000 1.1528000000
1.5053000000 3.8042000000 2.5667000000
1.5052000000 4.5100000000 1.7343000000
1.5051000000 3.9131000000 2.4284000000
1.5050000000 1.5751000000 1.8213000000
1.5049000000 2.7393000000 3.0969000000
1.5048000000 1.2708000000 1.4688000000
1.5045000000 2.0819000000 2.4081000000
1.5044000000 3.7597000000 2.6160000000
1.5044000000 0.7532000000 0.8665000000
1.5043000000 1.3224000000 1.5302000000
1.5042000000 0.3247000000 0.3674000000
1.5041000000 0.6245000000 0.7164000000
1.5040000000 3.8177000000 2.5449000000
1.5039000000 1.1177000000 1.2857000000
1.5038000000 3.1455000000 3.1700000000
1.5038000000 5.9713000000 0.1179000000
1.5037000000 1.3746000000 1.5865000000
1.5035000000 4.8596000000 1.3332000000
1.5033000000 4.3051000000 1.9782000000
1.5033000000 2.3911000000 2.7639000000
1.5032000000 1.7466000000 2.0099000000
1.5031000000 3.9934000000 2.3423000000
1.5029000000 1.7999000000 2.0793000000
1.5028000000 5.0132000000 1.1582000000
1.5027000000 4.3871000000 1.8843000000
1.5027000000 4.4715000000 1.7856000000
1.5025000000 0.8649000000 0.9942000000
1.5025000000 2.7831000000 3.1165000000
1.5022000000 2.8051000000 3.1360000000
1.5018000000 2.3616000000 2.7340000000
1.5016000000 5.5271000000 0.5611000000
1.5013000000 2.1291000000 2.4636000000
1.5013000000 5.7325000000 0.3170000000
1.5011000000 5.2683000000 0.8587000000
1.5010000000 2.5612000000 2.9497000000
1.5009000000 3.1779000000 3.1485000000
1.5007000000 2.2721000000 2.6279000000
1.5006000000 0.0464000000 0.1151000000
1.5005000000 1.3966000000 1.6137000000
1.5003000000 3.3922000000 3.0098000000
1.5003000000 0.6712000000 0.7720000000
1.5002000000 0.5819000000 0.6649000000
1.4998000000 5.2984000000 0.8245000000
1.4996000000 1.8461000000 2.1323000000
1.4994000000 1.0833000000 1.2518000000
1.4991000000 4.8655000000 1.3241000000
1.4989000000 5.5316000000 0.5518000000
1.4982000000 2.4221000000 2.7989000000
1.4982000000 0.7737000000 0.8909000000
1.4981000000 2.0616000000 2.3877000000
1.4978000000 0.7452000000 0.8539000000
1.4977000000 2.9646000000 3.2016000000
1.4975000000 0.7952000000 0.9127000000
1.4974000000 3.5238000000 2.8735000000
1.4971000000 0.8231000000 0.9476000000
1.4970000000 2.3375000000 2.7012000000
1.4966000000 2.6462000000 3.0136000000
1.4964000000 3.5897000000 2.8099000000
1.4960000000 0.1232000000 0.1323000000
1.2638000000 5.8605000000 0.1733000000
1.2610000000 3.2386000000 2.8725000000
1.2603000000 3.0885000000 2.9575000000
1.2596000000 2.4301000000 2.6682000000
1.2593000000 3.4545000000 2.7446000000
1.2591000000 0.2298000000 0.2563000000
1.2590000000 3.1558000000 2.9181000000
1.2588000000 3.1200000000 2.9449000000
1.2589000000 5.9461000000 0.0727000000
1.2586000000 4.1218000000 2.1894000000
1.2584000000 5.5842000000 0.4908000000
1.2583000000 1.7268000000 1.9947000000
1.2582000000 1.6605000000 1.9195000000
1.2581000000 2.0372000000 2.3543000000
1.2578000000 2.4583000000 2.6794000000
1.2574000000 3.9069000000 2.4264000000
1.2573000000 0.3488000000 0.3959000000
1.2572000000 5.5385000000 0.5430000000
1.2570000000 5.5495000000 0.5370000000
1.2563000000 4.4701000000 1.7911000000
1.2563000000 4.5066000000 1.7400000000
1.2563000000 1.5229000000 1.7567000000
1.2560000000 5.9677000000 0.1212000000
1.2559000000 0.9012000000 1.0355000000
1.2558000000 2.5985000000 2.7624000000
1.2558000000 5.4648000000 0.6329000000
1.2556000000 3.4674000000 2.7309000000
1.2555000000 1.0784000000 1.2388000000
1.2553000000 5.9820000000 0.1022000000
1.2554000000 3.9834000000 2.3507000000
1.2551000000 2.8030000000 2.8887000000
1.2550000000 4.8894000000 1.2992000000
1.2551000000 5.5796000000 0.4988000000
1.2549000000 2.3053000000 2.5910000000
1.2548000000 2.1897000000 2.5122000000
1.2547000000 5.0083000000 1.1594000000
1.2547000000 3.0319000000 2.9675000000
1.2546000000 3.6153000000 2.6410000000
1.2546000000 4.4254000000 1.8414000000
1.2545000000 0.9132000000 1.0494000000
1.2544000000 4.8664000000 1.3220000000
1.2543000000 4.5837000000 1.6583000000
1.2543000000 2.5074000000 2.7066000000
1.2543000000 2.8710000000 2.9211000000
1.2541000000 2.1328000000 2.4475000000
1.2540000000 4.9164000000 1.2654000000
1.2537000000 4.1131000000 2.2026000000
1.2538000000 3.1358000000 2.9218000000
1.2548000000 3.7440000000 2.5581000000
1.2536000000 5.1323000000 1.0198000000
1.2535000000 0.7669000000 0.8819000000
1.2534000000 3.0475000000 2.9614000000
1.2534000000 1.4851000000 1.7114000000
1.2533000000 3.3465000000 2.8017000000
1.2533000000 0.2876000000 0.3180000000
1.2532000000 5.1602000000 0.9845000000
1.2531000000 1.2796000000 1.4773000000
1.2529000000 1.8261000000 2.1136000000
1.2529000000 3.4459000000 2.7497000000
1.2528000000 4.7473000000 1.4634000000
1.2528000000 3.8165000000 2.5109000000
1.2527000000 1.7064000000 1.9714000000
1.2524000000 5.5741000000 0.5045000000
1.2523000000 1.0643000000 1.2275000000
1.2523000000 2.4044000000 2.6424000000
1.2521000000 1.4684000000 1.6939000000
1.2520000000 1.2656000000 1.4613000000
1.2520000000 2.3761000000 2.6307000000
1.2519000000 0.0991000000 0.1070000000
1.2515000000 2.8642000000 2.9214000000
1.2515000000 5.8967000000 0.1333000000
1.2513000000 1.8613000000 2.1501000000
1.2513000000 2.7945000000 2.8650000000
1.2512000000 4.8464000000 1.3480000000
1.2511000000 2.3566000000 2.6193000000
1.2511000000 3.7951000000 2.5265000000
1.2507000000 5.2700000000 0.8540000000
1.2506000000 4.3350000000 1.9409000000
1.2499000000 0.0313000000 0.1035000000
1.2494000000 0.4131000000 0.4675000000
1.2493000000 2.9134000000 2.9343000000
1.2492000000 1.3318000000 1.5317000000
1.2487000000 5.5900000000 0.4906000000
1.2486000000 4.1786000000 2.1245000000
1.2484000000 0.0289000000 0.0954000000
1.2485000000 1.5701000000 1.8146000000
1.2483000000 1.7239000000 1.9906000000
1.2481000000 5.3825000000 0.7251000000
1.2481000000 1.7293000000 1.9987000000
1.2477000000 3.2742000000 2.8390000000
1.2478000000 2.1275000000 2.4428000000
1.2474000000 0.9259000000 1.0672000000
1.2457000000 5.3610000000 0.7496000000
1.2455000000 4.7516000000 1.4655000000
1.2449000000 0.2963000000 0.3377000000
1.0140000000 2.4338000000 2.4215000000
1.0115000000 5.9268000000 0.0957000000
1.0113000000 5.6727000000 0.3895000000
1.0100000000 0.4449000000 0.5057000000
1.0100000000 2.8083000000 2.6382000000
1.0093000000 5.3861000000 0.7266000000
1.0091000000 3.3220000000 2.5657000000
1.0090000000 3.2753000000 2.6013000000
1.0087000000 4.2957000000 1.9712000000
1.0083000000 5.8324000000 0.2074000000
1.0076000000 5.7005000000 0.3548000000
1.0073000000 5.5263000000 0.5644000000
1.0071000000 1.7526000000 2.0047000000
1.0072000000 4.1881000000 2.0506000000
1.0071000000 4.7716000000 1.4395000000
1.0069000000 2.5128000000 2.4636000000
1.0066000000 3.9651000000 2.1963000000
1.0065000000 5.9708000000 0.1139000000
1.0064000000 1.4553000000 1.6720000000
1.0064000000 0.8082000000 0.9324000000
1.0063000000 3.4319000000 2.5032000000
1.0063000000 0.0127000000 0.0835000000
1.0061000000 3.7902000000 2.2995000000
1.0061000000 0.8462000000 0.9687000000
1.0060000000 5.2786000000 0.8463000000
1.0058000000 4.1708000000 2.0599000000
1.0057000000 1.7529000000 2.0056000000
1.0056000000 5.0861000000 1.0727000000
1.0055000000 2.8906000000 2.6810000000
1.0055000000 3.0110000000 2.7289000000
1.0053000000 5.1909000000 0.9497000000
1.0052000000 3.6143000000 2.3998000000
1.0052000000 1.9328000000 2.1274000000
1.0049000000 4.0757000000 2.1261000000
1.0047000000 5.4433000000 0.6605000000
1.0046000000 1.9383000000 2.1267000000
1.0048000000 3.3955000000 2.5214000000
1.0042000000 4.4353000000 1.8364000000
1.0041000000 3.1715000000 2.6554000000
1.0040000000 3.4979000000 2.4587000000
1.0040000000 1.8533000000 2.0716000000
1.0038000000 2.8913000000 2.6818000000
1.0037000000 3.7439000000 2.3223000000
1.0037000000 5.8814000000 0.1483000000
1.0036000000 0.6537000000 0.7464000000
1.0034000000 2.4804000000 2.4386000000
1.0033000000 3.9547000000 2.2032000000
1.0031000000 3.0267000000 2.7200000000
1.0030000000 0.5705000000 0.6488000000
1.0029000000 0.9529000000 1.0986000000
1.0025000000 0.0671000000 0.0655000000
1.0026000000 5.0797000000 1.0800000000
1.0025000000 4.2906000000 1.9767000000
1.0024000000 2.2345000000 2.2959000000
1.0024000000 5.1989000000 0.9396000000
1.0021000000 2.7631000000 2.6035000000
1.0019000000 1.5048000000 1.7359000000
1.0017000000 2.9874000000 2.7161000000
1.0018000000 1.1683000000 1.3432000000
1.0017000000 0.4715000000 0.5360000000
1.0016000000 4.1455000000 2.0841000000
1.0016000000 3.3172000000 2.5651000000
1.0015000000 4.3530000000 1.9087000000
1.0012000000 0.1087000000 0.1201000000
1.0011000000 6.0444000000 0.1076000000
1.0010000000 1.5397000000 1.7759000000
1.0007000000 0.4777000000 0.5490000000
1.0004000000 0.6126000000 0.6999000000
1.0000000000 4.2196000000 2.0212000000
1.0000000000 1.6400000000 1.8830000000
1.0000000000 1.5628000000 1.8061000000
0.9998000000 0.4745000000 0.5406000000
0.9994000000 1.8945000000 2.0997000000
0.9991000000 1.4280000000 1.6480000000
0.9988000000 4.0722000000 2.1219000000
0.9985000000 2.0844000000 2.2071000000
0.9973000000 3.5934000000 2.3997000000
0.9970000000 3.3752000000 2.5257000000
0.9969000000 1.5486000000 1.7892000000
0.9968000000 3.5915000000 2.3980000000
0.9958000000 5.2025000000 0.9305000000
0.9955000000 4.2186000000 2.0157000000
0.9898000000 1.7179000000 1.9658000000
0.7646000000 5.0684000000 1.0908000000
0.7623000000 4.1863000000 1.8192000000
0.7617000000 4.3675000000 1.7192000000
0.7608000000 3.9102000000 1.9754000000
0.7600000000 3.6407000000 2.1335000000
0.7595000000 5.2826000000 0.8403000000
0.7594000000 5.5700000000 0.5123000000
0.7587000000 6.0281000000 0.0515000000
0.7586000000 2.2440000000 2.0552000000
0.7578000000 3.1551000000 2.4098000000
0.7573000000 2.1169000000 1.9841000000
0.7573000000 2.7819000000 2.3683000000
0.7571000000 5.4936000000 0.5956000000
0.7570000000 4.7900000000 1.3886000000
0.7568000000 2.3737000000 2.1254000000
0.7568000000 3.4871000000 2.2241000000
0.7564000000 5.5279000000 0.5600000000
0.7562000000 1.9761000000 1.8971000000
0.7562000000 5.9337000000 0.0846000000
0.7561000000 3.8751000000 1.9979000000
0.7560000000 3.9680000000 1.9401000000
0.7556000000 1.0204000000 1.1740000000
0.7554000000 0.3743000000 0.4224000000
0.7553000000 5.5167000000 0.5707000000
0.7551000000 5.2475000000 0.8846000000
0.7549000000 3.0096000000 2.4791000000
0.7548000000 2.9226000000 2.4484000000
0.7548000000 2.0827000000 1.9618000000
0.7546000000 1.3020000000 1.4809000000
0.7545000000 5.6425000000 0.4251000000
0.7544000000 1.1420000000 1.3155000000
0.7543000000 1.4801000000 1.6094000000
0.7543000000 4.2914000000 1.7483000000
0.7542000000 3.9776000000 1.9386000000
0.7541000000 3.0329000000 2.4600000000
0.7540000000 0.7773000000 0.8943000000
0.7540000000 5.5871000000 0.4896000000
0.7538000000 5.4706000000 0.6245000000
0.7537000000 2.4196000000 2.1499000000
0.7537000000 4.1152000000 1.8518000000
0.7533000000 5.5423000000 0.5392000000
0.7532000000 0.2619000000 0.2897000000
0.7531000000 2.2336000000 2.0448000000
0.7529000000 2.6947000000 2.3133000000
0.7526000000 1.5495000000 1.6499000000
0.7526000000 4.7720000000 1.4183000000
0.7525000000 5.1426000000 1.0048000000
0.7522000000 2.8545000000 2.4053000000
0.7522000000 4.8105000000 1.3752000000
0.7520000000 0.6746000000 0.7736000000
0.7519000000 1.5670000000 1.6552000000
0.7520000000 3.5033000000 2.2015000000
0.7518000000 0.8370000000 0.9550000000
0.7518000000 2.5213000000 2.2121000000
0.7517000000 4.8342000000 1.3614000000
0.7516000000 1.6224000000 1.6928000000
0.7516000000 2.2813000000 2.0702000000
0.7514000000 1.8969000000 1.8502000000
0.7514000000 1.7076000000 1.7380000000
0.7512000000 1.0402000000 1.1966000000
0.7511000000 1.8990000000 1.8421000000
0.7509000000 1.3411000000 1.5104000000
0.7507000000 4.2923000000 1.7453000000
0.7504000000 5.3126000000 0.8070000000
0.7503000000 1.4306000000 1.5725000000
0.7503000000 1.0824000000 1.2450000000
0.7502000000 1.1662000000 1.3419000000
0.7500000000 1.0900000000 1.2548000000
0.7496000000 3.0230000000 2.4667000000
0.7492000000 0.6225000000 0.7147000000
0.7491000000 0.5099000000 0.5799000000
0.7489000000 1.0837000000 1.2477000000
0.7484000000 1.4947000000 1.6108000000
0.7476000000 1.3112000000 1.4846000000
0.7475000000 4.2399000000 1.7730000000
0.7464000000 3.9770000000 1.9234000000
0.7455000000 5.1335000000 1.0223000000
0.7454000000 3.7686000000 2.0454000000
0.5124000000 5.3409000000 0.7729000000
0.5110000000 5.1917000000 0.9257000000
0.5100000000 4.3637000000 1.4690000000
0.5094000000 2.6626000000 2.0508000000
0.5085000000 3.2288000000 2.1181000000
0.5083000000 0.0846000000 0.0981000000
0.5082000000 5.3307000000 0.7828000000
0.5079000000 5.8883000000 0.1376000000
0.5076000000 2.2099000000 1.7858000000
0.5075000000 5.6706000000 0.3923000000
0.5074000000 2.8175000000 2.1435000000
0.5073000000 5.3902000000 0.7204000000
0.5072000000 1.7917000000 1.5402000000
0.5070000000 2.8340000000 2.1424000000
0.5070000000 1.7498000000 1.5184000000
0.5069000000 4.1797000000 1.5699000000
0.5070000000 5.7167000000 0.3371000000
0.5066000000 5.8856000000 0.1408000000
0.5065000000 1.5330000000 1.3916000000
0.5064000000 3.2063000000 2.1318000000
0.5064000000 1.1190000000 1.1475000000
0.5062000000 1.9540000000 1.6359000000
0.5061000000 4.8031000000 1.2024000000
0.5061000000 4.2587000000 1.5160000000
0.5060000000 4.9754000000 1.1026000000
0.5056000000 5.1665000000 0.9704000000
0.5056000000 3.0573000000 2.2018000000
0.5055000000 3.0495000000 2.2097000000
0.5055000000 1.5786000000 1.4137000000
0.5053000000 0.7775000000 0.8844000000
0.5052000000 5.3159000000 0.7995000000
0.5050000000 1.9712000000 1.6435000000
0.5049000000 0.8833000000 0.9856000000
0.5048000000 5.4768000000 0.6094000000
0.5047000000 2.9422000000 2.2073000000
0.5046000000 1.4132000000 1.3221000000
0.5045000000 2.1462000000 1.7440000000
0.5044000000 1.5582000000 1.4004000000
0.5041000000 1.3038000000 1.2493000000
0.5040000000 1.7859000000 1.5295000000
0.5038000000 1.1157000000 1.1483000000
0.5037000000 3.7518000000 1.8147000000
0.5035000000 3.0534000000 2.2037000000
0.5033000000 4.7950000000 1.1975000000
0.5031000000 0.2466000000 0.2776000000
0.5030000000 4.0096000000 1.6643000000
0.5030000000 5.6156000000 0.4565000000
0.5027000000 4.2602000000 1.5162000000
0.5027000000 2.9876000000 2.2136000000
0.5023000000 5.0524000000 1.0387000000
0.5020000000 5.6712000000 0.3917000000
0.5020000000 2.3271000000 1.8412000000
0.5019000000 3.8793000000 1.7394000000
0.5017000000 0.6943000000 0.7993000000
0.5014000000 4.3542000000 1.4634000000
0.5012000000 5.3356000000 0.7816000000
0.5010000000 3.3056000000 2.0630000000
0.5009000000 1.7289000000 1.4959000000
0.5009000000 2.2891000000 1.8213000000
0.5008000000 1.1359000000 1.1566000000
0.5004000000 3.5987000000 1.9002000000
0.5001000000 1.7310000000 1.4990000000
0.5000000000 2.2955000000 1.8235000000
0.5000000000 2.4524000000 1.9180000000
0.4997000000 1.5099000000 1.3726000000
0.4995000000 2.3714000000 1.8730000000
0.4993000000 2.0134000000 1.6588000000
0.4993000000 0.9125000000 1.0030000000
0.4989000000 4.3216000000 1.4796000000
0.4984000000 4.2272000000 1.5337000000
0.4983000000 2.2352000000 1.7861000000
0.4983000000 1.4680000000 1.3431000000
0.4980000000 1.7377000000 1.4970000000
0.4977000000 0.8389000000 0.9456000000
0.4975000000 0.5300000000 0.6069000000
0.4972000000 0.3856000000 0.4423000000
0.4967000000 5.8957000000 0.1311000000
0.4956000000 0.1822000000 0.1968000000
0.2631000000 3.9799000000 1.4393000000
0.2617000000 4.2339000000 1.2921000000
0.2611000000 3.4419000000 1.7464000000
0.2608000000 4.8340000000 0.9399000000
0.2603000000 3.1033000000 1.9444000000
0.2602000000 1.6784000000 1.2328000000
0.2593000000 3.4965000000 1.7157000000
0.2590000000 2.6193000000 1.7640000000
0.2584000000 2.1152000000 1.4852000000
0.2583000000 2.5926000000 1.7568000000
0.2578000000 2.4822000000 1.6853000000
0.2577000000 5.5602000000 0.4929000000
0.2576000000 4.1909000000 1.3105000000
0.2575000000 4.0567000000 1.3858000000
0.2573000000 0.0130000000 0.0787000000
0.2574000000 2.5135000000 1.7088000000
0.2573000000 2.3384000000 1.6112000000
0.2571000000 5.7005000000 0.3581000000
0.2570000000 5.4878000000 0.5385000000
