3.2554000000 3.4066000000 0.7368000000
3.2553000000 0.7900000000 0.1989000000
3.2550000000 2.0551000000 0.7922000000
3.2549000000 1.7870000000 0.6635000000
3.2549000000 4.6501000000 0.1607000000
3.2548000000 4.4303000000 0.2669000000
3.2547000000 0.5307000000 0.0765000000
3.2546000000 3.9121000000 0.5074000000
3.2544000000 0.4677000000 0.1243000000
3.2544000000 2.9367000000 0.9572000000
3.2542000000 0.6602000000 0.1375000000
3.2541000000 1.6216000000 0.5873000000
3.2541000000 3.9400000000 0.4944000000
3.2540000000 2.2466000000 0.8772000000
3.2538000000 0.1548000000 0.0544000000
3.2538000000 2.3513000000 0.9278000000
3.2536000000 2.7393000000 1.0516000000
3.2535000000 0.2473000000 0.0243000000
3.2534000000 3.4923000000 0.7020000000
3.2532000000 0.2748000000 0.0429000000
3.2531000000 0.2164000000 0.0833000000
3.2530000000 2.4678000000 0.9844000000
3.2528000000 2.6251000000 1.0508000000
3.2527000000 1.3629000000 0.4652000000
3.2526000000 3.7815000000 0.5697000000
3.2522000000 2.0347000000 0.7775000000
3.2521000000 5.0893000000 0.0328000000
3.2518000000 1.9229000000 0.7304000000
3.2518000000 3.4435000000 0.7229000000
3.2517000000 2.1213000000 0.8268000000
3.2515000000 3.7514000000 0.5818000000
3.2513000000 3.8159000000 0.5530000000
3.2512000000 4.6288000000 0.1721000000
3.2510000000 3.4543000000 0.7163000000
3.2508000000 5.0423000000 0.0590000000
3.2505000000 2.7887000000 1.0321000000
3.2502000000 2.8453000000 1.0036000000
3.2501000000 1.1619000000 0.3738000000
3.2500000000 5.3207000000 0.0068000000
3.2495000000 2.3800000000 0.9436000000
3.2493000000 3.0995000000 0.8894000000
3.2488000000 1.4701000000 0.5229000000
3.2486000000 4.8689000000 0.1392000000
3.2486000000 3.5514000000 0.6772000000
3.2474000000 2.8429000000 1.0089000000
3.2471000000 0.3386000000 0.0656000000
3.2426000000 1.0797000000 0.3433000000
3.0110000000 3.5604000000 0.8630000000
3.0099000000 3.7401000000 0.7813000000
3.0098000000 3.8538000000 0.7268000000
3.0088000000 5.3413000000 0.0533000000
3.0085000000 1.6561000000 0.8052000000
3.0084000000 1.3829000000 0.6718000000
3.0080000000 5.0700000000 0.1650000000
3.0080000000 4.7575000000 0.3113000000
3.0074000000 3.7113000000 0.8001000000
3.0069000000 3.0167000000 1.1254000000
3.0067000000 2.7460000000 1.2524000000
3.0064000000 4.3121000000 0.5176000000
3.0063000000 0.9664000000 0.4823000000
3.0061000000 4.4946000000 0.4398000000
3.0060000000 3.8826000000 0.7175000000
3.0058000000 5.1407000000 0.1233000000
3.0057000000 1.7186000000 0.8351000000
3.0055000000 3.7706000000 0.7738000000
3.0053000000 3.4133000000 0.9388000000
3.0051000000 1.6937000000 0.8246000000
3.0050000000 3.4325000000 0.9297000000
3.0049000000 2.2694000000 1.0889000000
3.0049000000 1.4268000000 0.6972000000
3.0048000000 1.8001000000 0.8786000000
3.0048000000 3.0438000000 1.1120000000
3.0046000000 2.9038000000 1.1773000000
3.0046000000 3.1153000000 1.0773000000
3.0044000000 2.2157000000 1.0598000000
3.0043000000 3.0053000000 1.1313000000
3.0041000000 5.2348000000 0.0575000000
3.0040000000 1.7644000000 0.8580000000
3.0038000000 3.1203000000 1.0804000000
3.0037000000 4.3039000000 0.5232000000
3.0037000000 4.9297000000 0.2346000000
3.0036000000 0.9217000000 0.4628000000
3.0034000000 1.4493000000 0.7029000000
3.0033000000 1.6463000000 0.8032000000
3.0032000000 3.4589000000 0.9202000000
3.0031000000 1.1433000000 0.5690000000
3.0032000000 0.6403000000 0.3352000000
3.0030000000 1.0439000000 0.5219000000
3.0028000000 0.7491000000 0.3853000000
3.0027000000 0.2179000000 0.1271000000
3.0025000000 4.2045000000 0.5755000000
3.0025000000 3.5380000000 0.8855000000
3.0024000000 1.3799000000 0.6803000000
3.0017000000 1.8107000000 0.8847000000
3.0017000000 2.0442000000 0.9903000000
3.0016000000 0.1960000000 0.1130000000
3.0016000000 0.5059000000 0.2734000000
3.0015000000 1.8418000000 0.8976000000
3.0014000000 1.4255000000 0.6970000000
3.0014000000 0.7318000000 0.3773000000
3.0012000000 0.9997000000 0.4981000000
3.0010000000 3.9803000000 0.6815000000
3.0008000000 0.5327000000 0.2887000000
3.0008000000 3.5880000000 0.8568000000
3.0007000000 0.2410000000 0.1335000000
3.0006000000 1.2532000000 0.6209000000
3.0000000000 1.2784000000 0.6312000000
2.9990000000 3.0076000000 1.1324000000
2.9983000000 1.2180000000 0.6034000000
2.9974000000 1.6704000000 0.8170000000
2.9970000000 3.5379000000 0.8902000000
2.9968000000 0.4685000000 0.2611000000
2.9967000000 4.5146000000 0.4297000000
2.7638000000 4.4234000000 0.6646000000
2.7630000000 4.5183000000 0.6210000000
2.7623000000 3.5482000000 1.0724000000
2.7622000000 3.6676000000 1.0185000000
2.7606000000 4.5284000000 0.6150000000
2.7599000000 5.2095000000 0.0975000000
2.7598000000 3.6454000000 1.0296000000
2.7596000000 0.8746000000 0.6417000000
2.7594000000 5.3038000000 0.0854000000
2.7593000000 3.9020000000 0.9079000000
2.7591000000 3.5498000000 1.0671000000
2.7586000000 1.7999000000 1.0712000000
2.7587000000 3.1778000000 1.2480000000
2.7581000000 2.6159000000 1.4544000000
2.7578000000 3.5798000000 1.0610000000
2.7575000000 0.9837000000 0.6963000000
2.7574000000 5.2759000000 0.1135000000
2.7572000000 0.7500000000 0.5847000000
2.7572000000 1.8078000000 1.0707000000
2.7571000000 3.7466000000 0.9832000000
2.7570000000 2.6254000000 1.4482000000
2.7569000000 2.0271000000 1.1794000000
2.7568000000 2.7696000000 1.4367000000
2.7564000000 4.1122000000 0.8179000000
2.7563000000 2.5537000000 1.4250000000
2.7563000000 5.0945000000 0.2067000000
2.7561000000 1.0860000000 0.7448000000
2.7560000000 0.9562000000 0.6773000000
2.7560000000 4.6654000000 0.5502000000
2.7559000000 4.7091000000 0.5242000000
2.7557000000 0.3318000000 0.2765000000
2.7556000000 4.4999000000 0.6357000000
2.7555000000 1.2984000000 0.8368000000
2.7554000000 4.3807000000 0.6867000000
2.7554000000 2.3490000000 1.3287000000
2.7553000000 3.8477000000 0.9371000000
2.7552000000 1.6973000000 1.0256000000
2.7551000000 2.2732000000 1.2934000000
2.7550000000 2.2264000000 1.2643000000
2.7550000000 5.0799000000 0.2156000000
2.7546000000 4.6181000000 0.5801000000
2.7545000000 5.2283000000 0.0844000000
2.7543000000 4.0995000000 0.8213000000
2.7542000000 5.2736000000 0.1116000000
2.7540000000 2.3720000000 1.3367000000
2.7539000000 0.8918000000 0.6464000000
2.7538000000 4.7180000000 0.5196000000
2.7535000000 2.9482000000 1.3639000000
2.7534000000 4.2170000000 0.7641000000
2.7533000000 0.3653000000 0.3036000000
2.7532000000 4.4490000000 0.6596000000
2.7533000000 3.5019000000 1.1062000000
2.7532000000 0.8382000000 0.6227000000
2.7530000000 1.6520000000 1.0030000000
2.7528000000 0.7639000000 0.5949000000
2.7527000000 0.4861000000 0.4051000000
2.7525000000 1.5568000000 0.9626000000
2.7524000000 2.8794000000 1.3941000000
2.7523000000 3.3367000000 1.1838000000
2.7521000000 1.8696000000 1.1063000000
2.7519000000 1.0837000000 0.7364000000
2.7518000000 3.2061000000 1.2387000000
2.7518000000 3.9188000000 0.9055000000
2.7518000000 2.6824000000 1.4699000000
2.7515000000 0.3555000000 0.2953000000
2.7514000000 2.4639000000 1.3838000000
2.7513000000 1.6059000000 0.9872000000
2.7513000000 0.4592000000 0.3935000000
2.7510000000 2.2704000000 1.2983000000
2.7508000000 0.8573000000 0.6371000000
2.7508000000 5.0723000000 0.2264000000
2.7504000000 0.0079000000 0.0441000000
2.7502000000 1.6453000000 1.0032000000
2.7500000000 3.2483000000 1.2258000000
2.7497000000 1.0339000000 0.7211000000
2.7496000000 4.8245000000 0.4414000000
2.7494000000 0.4275000000 0.3606000000
2.7493000000 4.5666000000 0.6033000000
2.7490000000 2.3568000000 1.3364000000
2.7489000000 0.4710000000 0.3979000000
2.7488000000 4.3494000000 0.7132000000
2.7488000000 3.3912000000 1.1568000000
2.7484000000 1.8282000000 1.0945000000
2.7478000000 1.7736000000 1.0675000000
2.7448000000 3.3799000000 1.1640000000
2.5143000000 0.1193000000 0.1460000000
2.5118000000 0.4077000000 0.3390000000
2.5106000000 3.4633000000 1.3169000000
2.5104000000 2.7999000000 1.6249000000
2.5098000000 4.2249000000 0.9570000000
2.5097000000 4.5247000000 0.7390000000
2.5090000000 2.2220000000 1.4618000000
2.5084000000 5.3118000000 0.0782000000
2.5081000000 4.9128000000 0.3801000000
2.5079000000 1.3937000000 1.0840000000
2.5078000000 3.2733000000 1.4034000000
2.5075000000 5.0325000000 0.2667000000
2.5073000000 1.6824000000 1.2191000000
2.5071000000 2.1880000000 1.4496000000
2.5071000000 1.1840000000 0.9830000000
2.5069000000 1.2353000000 1.0042000000
2.5068000000 3.4639000000 1.3180000000
2.5067000000 3.6018000000 1.2491000000
2.5065000000 1.8938000000 1.3135000000
2.5065000000 0.4835000000 0.4113000000
2.5064000000 2.3862000000 1.5437000000
2.5063000000 2.9386000000 1.5621000000
2.5062000000 3.8355000000 1.1422000000
2.5060000000 5.1083000000 0.1986000000
2.5059000000 3.8866000000 1.1216000000
2.5058000000 1.3248000000 1.0506000000
2.5056000000 0.1887000000 0.1344000000
2.5055000000 3.4994000000 1.3055000000
2.5051000000 1.6587000000 1.2073000000
2.5050000000 0.9377000000 0.8248000000
2.5051000000 1.8231000000 1.2850000000
2.5048000000 1.5012000000 1.1346000000
2.5045000000 0.5200000000 0.4424000000
2.5045000000 3.7484000000 1.1842000000
2.5042000000 1.3339000000 1.0588000000
2.5042000000 3.2287000000 1.4261000000
2.5039000000 5.0335000000 0.2620000000
2.5038000000 2.2846000000 1.5039000000
2.5038000000 3.1141000000 1.4828000000
2.5037000000 4.0501000000 1.0459000000
2.5035000000 3.5747000000 1.2676000000
2.5037000000 1.0711000000 0.9215000000
2.5036000000 0.6432000000 0.5639000000
2.5035000000 2.8502000000 1.6024000000
2.5033000000 5.2227000000 0.0846000000
2.5031000000 3.5284000000 1.2916000000
2.5029000000 1.0975000000 0.9364000000
2.5028000000 1.6528000000 1.2049000000
2.5028000000 5.0415000000 0.2590000000
2.5027000000 3.0179000000 1.5358000000
2.5024000000 0.2537000000 0.1953000000
2.5024000000 0.0659000000 0.1013000000
2.5022000000 0.7922000000 0.6980000000
2.5020000000 0.4789000000 0.4029000000
2.5019000000 1.5029000000 1.1350000000
2.5018000000 5.0938000000 0.2107000000
2.5017000000 4.8315000000 0.4557000000
2.5016000000 3.8822000000 1.1335000000
2.5015000000 2.3101000000 1.5159000000
2.5014000000 2.3648000000 1.5429000000
2.5013000000 2.6838000000 1.6725000000
2.5010000000 4.3028000000 0.9193000000
2.5009000000 5.0433000000 0.2571000000
2.5008000000 2.4694000000 1.5919000000
2.5004000000 5.1990000000 0.1042000000
2.5001000000 1.2685000000 1.0320000000
2.5000000000 1.2570000000 1.0229000000
2.4999000000 4.9036000000 0.3882000000
2.4987000000 1.4082000000 1.1029000000
2.4981000000 3.3951000000 1.3565000000
2.4980000000 2.9174000000 1.5752000000
2.4977000000 1.7436000000 1.2498000000
2.4975000000 4.0150000000 1.0695000000
2.4969000000 0.2222000000 0.1717000000
2.4955000000 0.4768000000 0.4104000000
2.4917000000 1.4620000000 1.1305000000
2.2637000000 4.4433000000 0.8142000000
2.2617000000 2.1921000000 1.6537000000
2.2616000000 2.5077000000 1.7991000000
2.2613000000 1.1537000000 1.0341000000
2.2607000000 3.6607000000 1.4221000000
2.2600000000 4.0963000000 1.1400000000
2.2595000000 3.0774000000 1.6993000000
2.2593000000 1.7383000000 1.4434000000
2.2591000000 2.9367000000 1.7640000000
2.2585000000 3.5663000000 1.4706000000
2.2583000000 5.0239000000 0.2653000000
2.2582000000 2.0237000000 1.5785000000
2.2581000000 5.1715000000 0.1345000000
2.2578000000 3.8571000000 1.3197000000
2.2575000000 4.6860000000 0.5875000000
2.2571000000 3.0983000000 1.6915000000
2.2571000000 4.0295000000 1.2042000000
2.2570000000 0.0715000000 0.1085000000
2.2567000000 5.2650000000 0.1253000000
2.2564000000 3.7353000000 1.3877000000
2.2563000000 2.3371000000 1.7253000000
2.2563000000 3.5557000000 1.4762000000
2.2558000000 2.5673000000 1.8310000000
2.2556000000 0.6549000000 0.5739000000
2.2553000000 1.5500000000 1.3528000000
2.2553000000 2.7911000000 1.8349000000
2.2551000000 0.8896000000 0.7905000000
2.2550000000 2.0731000000 1.6024000000
2.2550000000 4.1163000000 1.1214000000
2.2548000000 5.3754000000 0.0261000000
2.2543000000 2.2045000000 1.6635000000
2.2542000000 1.3314000000 1.2071000000
2.2540000000 3.6852000000 1.4159000000
2.2539000000 2.6348000000 1.8487000000
2.2538000000 3.4556000000 1.5239000000
2.2537000000 0.2341000000 0.1850000000
2.2535000000 1.4360000000 1.2828000000
2.2535000000 2.7841000000 1.8351000000
2.2534000000 3.6772000000 1.4285000000
2.2534000000 0.8202000000 0.7281000000
2.2533000000 2.0368000000 1.5899000000
2.2532000000 4.9240000000 0.3636000000
2.2531000000 2.1825000000 1.6552000000
2.2530000000 1.4799000000 1.3164000000
2.2530000000 1.7733000000 1.4674000000
2.2528000000 2.9303000000 1.7789000000
2.2528000000 3.5515000000 1.4825000000
2.2525000000 3.0317000000 1.7278000000
2.2524000000 2.1965000000 1.6619000000
2.2523000000 0.7434000000 0.6549000000
2.2520000000 4.1532000000 1.0815000000
2.2518000000 4.5323000000 0.7322000000
2.2518000000 3.8250000000 1.3337000000
2.2517000000 3.3897000000 1.5519000000
2.2515000000 2.3886000000 1.7517000000
2.2514000000 0.1391000000 0.0924000000
2.2513000000 3.3138000000 1.5930000000
2.2513000000 2.6986000000 1.8622000000
2.2510000000 0.2875000000 0.2257000000
2.2509000000 3.1918000000 1.6527000000
2.2506000000 0.5114000000 0.4329000000
2.2504000000 3.4465000000 1.5325000000
2.2503000000 0.9612000000 0.8612000000
2.2502000000 2.0567000000 1.6051000000
2.2497000000 4.8444000000 0.4444000000
2.2495000000 0.6934000000 0.6116000000
2.2494000000 0.4275000000 0.3575000000
2.2493000000 3.7150000000 1.4102000000
2.2492000000 0.6223000000 0.5348000000
2.2488000000 4.1820000000 1.0584000000
2.2485000000 3.8264000000 1.3448000000
2.2484000000 3.9993000000 1.2172000000
2.2479000000 1.5593000000 1.3629000000
2.2475000000 0.8983000000 0.7986000000
2.2475000000 0.0318000000 0.0693000000
2.2469000000 4.8177000000 0.4688000000
2.2463000000 0.8172000000 0.7267000000
2.2457000000 2.3184000000 1.7298000000
2.0106000000 4.3702000000 0.8751000000
2.0093000000 2.8750000000 1.9911000000
2.0091000000 2.1141000000 1.8247000000
2.0091000000 2.8443000000 2.0082000000
2.0090000000 4.7368000000 0.5394000000
2.0085000000 2.1045000000 1.8232000000
2.0082000000 5.0852000000 0.2165000000
2.0077000000 4.5476000000 0.7180000000
2.0076000000 3.1652000000 1.8580000000
2.0072000000 3.5112000000 1.6684000000
2.0070000000 5.3554000000 0.0430000000
2.0067000000 4.5764000000 0.6912000000
2.0065000000 1.1902000000 1.0678000000
2.0062000000 0.2763000000 0.2153000000
2.0061000000 0.0129000000 0.0468000000
2.0058000000 4.4715000000 0.7881000000
2.0058000000 5.3321000000 0.0633000000
2.0057000000 2.3370000000 1.9260000000
2.0056000000 3.6430000000 1.5606000000
2.0056000000 3.8043000000 1.4070000000
2.0054000000 3.5487000000 1.6251000000
2.0051000000 2.4660000000 1.9863000000
2.0050000000 3.0622000000 1.9123000000
2.0050000000 3.9837000000 1.2412000000
2.0049000000 4.0028000000 1.2229000000
2.0047000000 4.3585000000 0.8938000000
2.0046000000 1.7719000000 1.6082000000
2.0045000000 5.0989000000 0.2033000000
2.0044000000 0.0406000000 0.0740000000
2.0044000000 4.5334000000 0.7293000000
2.0041000000 4.4750000000 0.7864000000
2.0040000000 3.0619000000 1.9153000000
2.0037000000 3.5136000000 1.6618000000
2.0036000000 4.4161000000 0.8427000000
2.0035000000 4.8928000000 0.3945000000
2.0034000000 2.9677000000 1.9601000000
2.0032000000 5.1791000000 0.1299000000
2.0031000000 0.8671000000 0.7709000000
2.0030000000 3.4258000000 1.7281000000
2.0030000000 0.3660000000 0.3022000000
2.0030000000 5.1930000000 0.1171000000
2.0029000000 4.4168000000 0.8369000000
2.0028000000 3.8289000000 1.3870000000
2.0028000000 3.8600000000 1.3583000000
2.0027000000 4.9751000000 0.3151000000
2.0025000000 3.2739000000 1.8157000000
2.0023000000 3.5135000000 1.6668000000
2.0019000000 1.0695000000 0.9567000000
2.0018000000 0.5088000000 0.4373000000
2.0015000000 1.3443000000 1.2136000000
2.0015000000 5.1049000000 0.2039000000
2.0015000000 1.6810000000 1.5306000000
2.0013000000 2.0113000000 1.7797000000
2.0012000000 4.4613000000 0.8000000000
2.0012000000 3.4293000000 1.7268000000
2.0010000000 0.5832000000 0.5076000000
2.0009000000 3.0314000000 1.9287000000
2.0006000000 4.1511000000 1.0846000000
2.0006000000 2.5171000000 2.0182000000
2.0005000000 2.8339000000 2.0234000000
2.0005000000 2.4547000000 1.9891000000
2.0004000000 1.2290000000 1.1061000000
2.0003000000 0.3388000000 0.2796000000
2.0002000000 3.2217000000 1.8401000000
2.0001000000 1.0461000000 0.9404000000
1.9996000000 1.4459000000 1.3077000000
1.9987000000 0.0262000000 0.0594000000
1.9981000000 3.7374000000 1.4695000000
1.9980000000 1.3196000000 1.1940000000
1.9979000000 0.8018000000 0.7057000000
1.9978000000 0.6522000000 0.5643000000
1.9975000000 2.2362000000 1.8918000000
1.9974000000 0.7308000000 0.6420000000
1.9972000000 1.1785000000 1.0604000000
1.9966000000 2.2132000000 1.8755000000
1.9962000000 0.1786000000 0.1284000000
1.9954000000 0.2647000000 0.2099000000
1.9953000000 0.6168000000 0.5378000000
1.9938000000 0.6505000000 0.5698000000
1.7632000000 5.1694000000 0.1427000000
1.7627000000 5.2327000000 0.0857000000
1.7624000000 3.7730000000 1.4353000000
1.7619000000 1.1913000000 1.0817000000
1.7614000000 5.2211000000 0.0917000000
1.7608000000 1.2089000000 1.0863000000
1.7605000000 0.3538000000 0.2906000000
1.7600000000 3.8711000000 1.3509000000
1.7596000000 1.8992000000 1.7339000000
1.7595000000 5.1949000000 0.1134000000
1.7594000000 3.0771000000 2.0690000000
1.7590000000 0.5666000000 0.4852000000
1.7587000000 3.0941000000 2.0524000000
1.7586000000 2.7979000000 2.2333000000
1.7585000000 0.5937000000 0.5201000000
1.7581000000 0.9937000000 0.8892000000
1.7579000000 4.7587000000 0.5235000000
1.7574000000 1.6068000000 1.4644000000
1.7570000000 2.0672000000 1.8961000000
1.7569000000 2.8899000000 2.1903000000
1.7570000000 1.4707000000 1.3311000000
1.7568000000 1.4930000000 1.3493000000
1.7566000000 5.3712000000 0.0228000000
1.7565000000 1.7109000000 1.5517000000
1.7563000000 4.4290000000 0.8294000000
1.7559000000 5.3510000000 0.0458000000
1.7555000000 2.6260000000 2.2538000000
1.7554000000 5.1498000000 0.1579000000
1.7554000000 2.8648000000 2.1980000000
1.7553000000 5.1733000000 0.1347000000
1.7553000000 0.5559000000 0.4806000000
1.7548000000 0.7893000000 0.6953000000
1.7546000000 1.9043000000 1.7363000000
1.7546000000 1.0330000000 0.9223000000
1.7545000000 2.1903000000 2.0093000000
1.7545000000 5.3205000000 0.0683000000
1.7543000000 5.1081000000 0.1982000000
1.7542000000 0.3133000000 0.2535000000
1.7542000000 3.1853000000 1.9824000000
1.7541000000 1.3038000000 1.1782000000
1.7540000000 1.1734000000 1.0502000000
1.7540000000 3.1586000000 2.0149000000
1.7539000000 3.8184000000 1.4004000000
1.7538000000 3.0226000000 2.1146000000
1.7538000000 3.5387000000 1.6580000000
1.7536000000 1.6287000000 1.4773000000
1.7535000000 0.2972000000 0.2320000000
1.7535000000 0.2386000000 0.1887000000
1.7534000000 1.7896000000 1.6282000000
1.7532000000 2.6563000000 2.2656000000
1.7528000000 1.8109000000 1.6492000000
1.7527000000 3.9376000000 1.2918000000
1.7528000000 2.3570000000 2.1295000000
1.7527000000 3.2954000000 1.8823000000
1.7526000000 1.0651000000 0.9534000000
1.7519000000 2.0349000000 1.8572000000
1.7518000000 3.0315000000 2.1148000000
1.7517000000 3.5323000000 1.6641000000
1.7516000000 3.0461000000 2.0970000000
1.7516000000 1.9641000000 1.7941000000
1.7514000000 0.3434000000 0.2843000000
1.7513000000 0.0671000000 0.1031000000
1.7513000000 5.2506000000 0.1356000000
1.7512000000 4.9311000000 0.3574000000
1.7511000000 1.6474000000 1.4954000000
1.7510000000 3.7287000000 1.4834000000
1.7510000000 2.6823000000 2.2788000000
1.7509000000 0.2963000000 0.2440000000
1.7508000000 3.7580000000 1.4506000000
1.7508000000 2.0080000000 1.8326000000
1.7507000000 1.8259000000 1.6681000000
1.7505000000 4.6383000000 0.6306000000
1.7504000000 3.7904000000 1.4222000000
1.7503000000 2.2527000000 2.0467000000
1.7501000000 0.6152000000 0.5342000000
1.7499000000 0.0943000000 0.1235000000
1.7498000000 1.1248000000 1.0106000000
1.7496000000 1.1788000000 1.0666000000
1.7497000000 1.2280000000 1.1071000000
1.7486000000 1.0818000000 0.9659000000
1.7484000000 0.4492000000 0.3813000000
1.7481000000 0.0914000000 0.1239000000
1.7478000000 4.4999000000 0.7626000000
1.7475000000 0.8407000000 0.7440000000
1.7463000000 0.7982000000 0.7077000000
1.7460000000 2.3225000000 2.1052000000
1.7448000000 2.8927000000 2.1998000000
1.5130000000 5.3435000000 0.0480000000
1.5113000000 2.0969000000 1.9217000000
1.5109000000 1.2525000000 1.1299000000
1.5107000000 5.3289000000 0.0633000000
1.5098000000 3.1685000000 2.0029000000
1.5095000000 3.7153000000 1.4900000000
1.5093000000 3.4043000000 1.7852000000
1.5090000000 1.6268000000 1.4719000000
1.5089000000 3.9271000000 1.2963000000
1.5085000000 2.6909000000 2.4017000000
1.5083000000 4.5012000000 0.7563000000
1.5080000000 0.6775000000 0.5963000000
1.5074000000 5.3460000000 0.0472000000
1.5074000000 5.3689000000 0.0268000000
1.5073000000 4.7763000000 0.5059000000
1.5071000000 4.4019000000 0.8533000000
1.5069000000 3.3371000000 1.8439000000
1.5067000000 1.3577000000 1.2283000000
1.5065000000 2.5062000000 2.2908000000
1.5065000000 4.3939000000 0.8638000000
1.5064000000 4.1076000000 1.1306000000
1.5062000000 3.1059000000 2.0613000000
1.5060000000 3.9919000000 1.2279000000
1.5060000000 3.2765000000 1.9031000000
1.5058000000 0.4026000000 0.3390000000
1.5058000000 4.0745000000 1.1599000000
1.5056000000 3.9435000000 1.2782000000
1.5055000000 1.1473000000 1.0304000000
1.5055000000 2.1503000000 1.9663000000
1.5054000000 4.5782000000 0.6879000000
1.5054000000 1.2578000000 1.1356000000
1.5053000000 2.0629000000 1.8826000000
1.5052000000 3.0540000000 2.1113000000
1.5051000000 2.2958000000 2.0979000000
1.5051000000 4.7702000000 0.5172000000
1.5049000000 4.7347000000 0.5416000000
1.5047000000 2.8803000000 2.2695000000
1.5047000000 0.6146000000 0.5342000000
1.5045000000 3.1398000000 2.0291000000
1.5045000000 2.4020000000 2.1936000000
1.5044000000 4.6754000000 0.5941000000
1.5043000000 1.4727000000 1.3380000000
1.5043000000 5.2617000000 0.1299000000
1.5042000000 2.3526000000 2.1482000000
1.5041000000 4.5306000000 0.7308000000
1.5038000000 3.9021000000 1.3227000000
1.5037000000 1.6492000000 1.5051000000
1.5036000000 4.4800000000 0.7806000000
1.5035000000 4.6968000000 0.5722000000
1.5035000000 0.0642000000 0.0951000000
1.5032000000 0.9430000000 0.8353000000
1.5031000000 1.2584000000 1.1330000000
1.5030000000 2.1456000000 1.9623000000
1.5029000000 4.5715000000 0.6966000000
1.5025000000 0.3314000000 0.2786000000
1.5024000000 2.0682000000 1.8921000000
1.5024000000 0.4301000000 0.3716000000
1.5023000000 1.5138000000 1.3708000000
1.5022000000 0.5575000000 0.4765000000
1.5021000000 1.8118000000 1.6520000000
1.5020000000 3.4031000000 1.7837000000
1.5017000000 0.1729000000 0.1259000000
1.5017000000 0.9082000000 0.8100000000
1.5014000000 0.4481000000 0.3753000000
1.5012000000 0.9408000000 0.8414000000
1.5009000000 3.6632000000 1.5418000000
1.5009000000 3.3999000000 1.7871000000
1.5008000000 3.9293000000 1.2998000000
1.5008000000 3.8110000000 1.4032000000
1.5001000000 3.6657000000 1.5365000000
1.4996000000 0.3142000000 0.2499000000
1.4995000000 4.1502000000 1.0865000000
1.4989000000 0.5821000000 0.5095000000
1.4977000000 2.5723000000 2.4131000000
1.4973000000 0.6069000000 0.5246000000
1.4959000000 3.7065000000 1.5018000000
1.4959000000 3.8838000000 1.3313000000
1.4958000000 2.6649000000 2.4089000000
1.4928000000 0.2721000000 0.2141000000
1.2618000000 4.6721000000 0.6003000000
1.2606000000 4.6947000000 0.5818000000
1.2600000000 1.5088000000 1.3663000000
1.2588000000 5.3043000000 0.0864000000
1.2587000000 2.8046000000 2.1664000000
1.2583000000 4.5717000000 0.6945000000
1.2583000000 0.8974000000 0.7970000000
1.2574000000 1.4085000000 1.2769000000
1.2573000000 1.0529000000 0.9448000000
1.2570000000 1.8215000000 1.6545000000
1.2568000000 2.2321000000 2.0052000000
1.2566000000 3.3633000000 1.8195000000
1.2564000000 0.2636000000 0.2077000000
1.2563000000 1.2702000000 1.1473000000
1.2560000000 3.6399000000 1.5628000000
1.2556000000 0.3605000000 0.2950000000
1.2554000000 2.8331000000 2.1520000000
1.2554000000 1.6013000000 1.4563000000
1.2552000000 0.3322000000 0.2719000000
1.2550000000 3.9409000000 1.2835000000
1.2547000000 0.6150000000 0.5304000000
1.2544000000 4.3205000000 0.9326000000
1.2544000000 5.0928000000 0.2107000000
1.2540000000 0.3999000000 0.3355000000
1.2540000000 3.6833000000 1.5204000000
1.2538000000 4.8180000000 0.4704000000
1.2535000000 0.7630000000 0.6697000000
1.2534000000 2.4506000000 2.1177000000
1.2533000000 3.8923000000 1.3352000000
1.2533000000 3.7362000000 1.4753000000
1.2533000000 3.5189000000 1.6779000000
1.2532000000 2.3234000000 2.0552000000
1.2532000000 2.1900000000 1.9844000000
1.2531000000 0.0683000000 0.1057000000
1.2529000000 5.3377000000 0.0532000000
1.2529000000 4.5049000000 0.7522000000
1.2527000000 0.8662000000 0.7713000000
1.2525000000 3.4050000000 1.7795000000
1.2524000000 2.0224000000 1.8545000000
1.2523000000 1.9066000000 1.7360000000
1.2523000000 2.4202000000 2.0982000000
1.2522000000 3.0158000000 2.0592000000
1.2521000000 0.9596000000 0.8583000000
1.2521000000 2.0481000000 1.8746000000
1.2518000000 4.2084000000 1.0329000000
1.2513000000 2.3765000000 2.0792000000
1.2512000000 2.2053000000 1.9867000000
1.2511000000 2.9934000000 2.0766000000
1.2508000000 1.5634000000 1.4163000000
1.2505000000 2.7731000000 2.1771000000
1.2498000000 1.3316000000 1.2005000000
1.2498000000 1.3941000000 1.2611000000
1.2492000000 0.5222000000 0.4510000000
1.2491000000 3.7084000000 1.5025000000
1.2487000000 1.8168000000 1.6581000000
1.2485000000 4.5274000000 0.7369000000
1.2483000000 5.3508000000 0.0469000000
1.2483000000 3.6207000000 1.5773000000
1.2483000000 4.4391000000 0.8188000000
1.2480000000 1.8598000000 1.6946000000
1.2477000000 1.4961000000 1.3577000000
1.2474000000 4.8071000000 0.4750000000
1.2451000000 0.3839000000 0.3188000000
1.2447000000 1.9235000000 1.7538000000
1.2442000000 1.3608000000 1.2278000000
1.2439000000 4.7026000000 0.5753000000
1.0107000000 5.2412000000 0.1468000000
1.0104000000 2.2196000000 1.8103000000
1.0093000000 2.7138000000 1.9869000000
1.0089000000 0.3010000000 0.2468000000
1.0085000000 5.0431000000 0.2618000000
1.0079000000 4.6900000000 0.5823000000
1.0078000000 5.0525000000 0.2495000000
1.0075000000 4.3056000000 0.9400000000
1.0075000000 1.6428000000 1.4875000000
1.0073000000 3.5545000000 1.6000000000
1.0071000000 0.7001000000 0.6166000000
1.0070000000 2.3549000000 1.8728000000
1.0068000000 2.0049000000 1.7099000000
1.0066000000 1.6563000000 1.4895000000
1.0065000000 3.3909000000 1.6957000000
1.0064000000 2.5593000000 1.9683000000
1.0063000000 3.6831000000 1.5097000000
1.0062000000 5.1219000000 0.1828000000
1.0061000000 0.5675000000 0.4945000000
1.0058000000 3.0337000000 1.8571000000
1.0056000000 2.3786000000 1.8860000000
1.0056000000 1.3926000000 1.2607000000
1.0055000000 0.2302000000 0.1792000000
1.0053000000 2.2088000000 1.8001000000
1.0053000000 4.9702000000 0.3199000000
1.0052000000 3.9172000000 1.3061000000
1.0051000000 0.1463000000 0.1000000000
1.0048000000 2.4816000000 1.9285000000
1.0048000000 0.4037000000 0.3376000000
1.0046000000 0.3533000000 0.2928000000
1.0045000000 0.2897000000 0.2365000000
1.0045000000 1.5331000000 1.3898000000
1.0044000000 1.0768000000 0.9710000000
1.0043000000 0.0485000000 0.0796000000
1.0042000000 0.7683000000 0.6837000000
1.0040000000 3.4313000000 1.6701000000
1.0039000000 1.8647000000 1.6380000000
1.0037000000 0.6971000000 0.6110000000
1.0036000000 0.2156000000 0.1653000000
1.0032000000 1.2944000000 1.1673000000
1.0032000000 3.0100000000 1.8657000000
1.0030000000 3.3155000000 1.7264000000
1.0029000000 0.7629000000 0.6707000000
1.0028000000 2.7938000000 1.9720000000
1.0028000000 1.6897000000 1.5201000000
1.0025000000 1.4039000000 1.2703000000
1.0023000000 0.0633000000 0.0969000000
1.0023000000 3.3626000000 1.7029000000
1.0020000000 3.3642000000 1.6965000000
1.0020000000 1.0887000000 0.9799000000
1.0019000000 3.8108000000 1.4023000000
1.0015000000 5.3682000000 0.0281000000
1.0014000000 2.5745000000 1.9703000000
1.0011000000 0.8914000000 0.7889000000
1.0011000000 4.6566000000 0.6173000000
1.0009000000 2.1511000000 1.7706000000
1.0008000000 3.8564000000 1.3669000000
1.0005000000 1.5592000000 1.4159000000
1.0004000000 1.2478000000 1.1255000000
1.0004000000 3.8654000000 1.3599000000
1.0002000000 3.2220000000 1.7633000000
1.0002000000 4.4594000000 0.8022000000
1.0000000000 3.2879000000 1.7320000000
0.9999000000 0.9281000000 0.8266000000
0.9997000000 1.1492000000 1.0304000000
0.9995000000 5.1173000000 0.1847000000
0.9993000000 2.9531000000 1.8891000000
0.9985000000 5.1490000000 0.1591000000
0.9983000000 4.7938000000 0.4868000000
0.9981000000 1.5633000000 1.4190000000
0.9975000000 5.2395000000 0.1476000000
0.9969000000 5.0909000000 0.2143000000
0.9962000000 0.4017000000 0.3389000000
0.9953000000 2.1713000000 1.7790000000
0.7591000000 3.7514000000 1.3274000000
0.7589000000 3.8926000000 1.2581000000
0.7587000000 3.4314000000 1.4694000000
0.7586000000 3.8248000000 1.2896000000
0.7581000000 0.9418000000 0.8376000000
0.7581000000 5.2128000000 0.0969000000
0.7579000000 3.5739000000 1.4031000000
0.7578000000 3.6970000000 1.3479000000
0.7574000000 3.3202000000 1.5220000000
0.7571000000 3.5109000000 1.4374000000
0.7570000000 4.4330000000 0.8220000000
0.7568000000 2.5629000000 1.7641000000
0.7567000000 3.1459000000 1.6032000000
0.7565000000 4.7262000000 0.5504000000
0.7562000000 3.2292000000 1.5591000000
0.7562000000 2.9220000000 1.7165000000
0.7560000000 5.1340000000 0.1687000000
0.7561000000 3.4645000000 1.4529000000
0.7560000000 1.5778000000 1.3075000000
0.7559000000 3.0095000000 1.6713000000
0.7553000000 2.0979000000 1.5450000000
0.7552000000 0.7760000000 0.6823000000
0.7551000000 5.1579000000 0.1480000000
0.7549000000 0.5526000000 0.4707000000
0.7548000000 3.5857000000 1.3915000000
0.7545000000 4.0557000000 1.1633000000
0.7544000000 4.9652000000 0.3238000000
0.7542000000 1.5641000000 1.2997000000
0.7541000000 4.2464000000 0.9977000000
0.7540000000 3.0813000000 1.6272000000
0.7540000000 2.9489000000 1.6945000000
0.7539000000 3.2723000000 1.5441000000
0.7539000000 4.3531000000 0.9037000000
0.7537000000 4.1384000000 1.0919000000
0.7537000000 0.9610000000 0.8595000000
0.7536000000 5.1142000000 0.1876000000
0.7535000000 4.8987000000 0.3867000000
0.7535000000 0.8053000000 0.7148000000
0.7535000000 1.3383000000 1.1904000000
0.7534000000 5.2192000000 0.0924000000
0.7533000000 5.1511000000 0.1547000000
0.7533000000 0.2686000000 0.2176000000
0.7533000000 3.2854000000 1.5327000000
0.7530000000 1.6627000000 1.3404000000
0.7528000000 0.2546000000 0.1993000000
0.7528000000 2.3911000000 1.6850000000
0.7526000000 3.1789000000 1.5884000000
0.7525000000 3.6735000000 1.3513000000
0.7526000000 4.3023000000 0.9455000000
0.7524000000 4.2236000000 1.0212000000
0.7523000000 3.4736000000 1.4465000000
0.7521000000 2.4496000000 1.7099000000
0.7521000000 2.5027000000 1.7274000000
0.7520000000 0.6996000000 0.6119000000
0.7519000000 2.3855000000 1.6805000000
0.7518000000 5.0595000000 0.2415000000
0.7517000000 4.0550000000 1.1589000000
0.7516000000 3.7848000000 1.2995000000
0.7515000000 1.0529000000 0.9372000000
0.7514000000 1.6239000000 1.3239000000
0.7512000000 1.7170000000 1.3646000000
0.7512000000 2.6154000000 1.7872000000
0.7510000000 3.8286000000 1.2788000000
0.7509000000 2.7519000000 1.7895000000
0.7508000000 1.4208000000 1.2296000000
0.7508000000 1.5269000000 1.2804000000
0.7507000000 3.1221000000 1.6087000000
0.7507000000 2.0311000000 1.5110000000
0.7503000000 2.4943000000 1.7287000000
0.7503000000 0.9066000000 0.8139000000
0.7502000000 5.3313000000 0.0631000000
0.7498000000 0.7885000000 0.6931000000
0.7496000000 1.2721000000 1.1298000000
0.7495000000 1.1496000000 1.0287000000
0.7495000000 1.9559000000 1.4753000000
0.7492000000 3.2201000000 1.5633000000
0.7490000000 1.3465000000 1.1838000000
0.7483000000 1.1755000000 1.0589000000
0.7482000000 3.4969000000 1.4330000000
0.7481000000 0.3543000000 0.2986000000
0.7475000000 0.7279000000 0.6419000000
0.7475000000 0.0289000000 0.0680000000
0.7467000000 2.0010000000 1.4986000000
0.7460000000 0.0059000000 0.0471000000
0.7459000000 1.3376000000 1.1706000000
0.5125000000 3.8053000000 1.1036000000
0.5114000000 4.7113000000 0.5657000000
0.5102000000 5.1455000000 0.1638000000
0.5100000000 2.9523000000 1.4980000000
0.5091000000 5.0228000000 0.2720000000
0.5086000000 3.0590000000 1.4426000000
0.5086000000 3.4469000000 1.2672000000
0.5082000000 2.5331000000 1.5500000000
0.5079000000 1.6195000000 1.1228000000
0.5078000000 4.8346000000 0.4497000000
0.5073000000 1.7981000000 1.2081000000
0.5072000000 1.9674000000 1.2881000000
0.5069000000 1.1702000000 0.9180000000
0.5068000000 4.2884000000 0.8728000000
0.5067000000 1.8138000000 1.2133000000
0.5066000000 1.6172000000 1.1212000000
0.5062000000 3.6387000000 1.1747000000
0.5059000000 2.8829000000 1.5244000000
0.5059000000 4.8915000000 0.3982000000
0.5058000000 2.4205000000 1.4961000000
0.5057000000 4.5979000000 0.6701000000
0.5056000000 0.8563000000 0.7436000000
0.5055000000 5.2663000000 0.1216000000
0.5055000000 4.9497000000 0.3412000000
0.5054000000 1.5234000000 1.0847000000
0.5052000000 4.4541000000 0.7757000000
0.5051000000 4.4307000000 0.7921000000
0.5048000000 1.5624000000 1.0998000000
0.5048000000 4.1473000000 0.9320000000
0.5048000000 0.2648000000 0.2069000000
0.5045000000 5.1485000000 0.1536000000
0.5044000000 2.8182000000 1.5522000000
0.5043000000 0.5706000000 0.4957000000
0.5041000000 1.2313000000 0.9375000000
0.5042000000 2.9918000000 1.4684000000
0.5041000000 4.5117000000 0.7363000000
0.5040000000 4.3691000000 0.8328000000
0.5040000000 2.6652000000 1.5956000000
0.5039000000 1.0507000000 0.8601000000
0.5038000000 3.3696000000 1.3000000000
0.5038000000 3.3582000000 1.3053000000
0.5036000000 3.7736000000 1.1055000000
0.5037000000 2.2402000000 1.4085000000
0.5037000000 0.2317000000 0.1746000000
0.5031000000 2.7558000000 1.5826000000
0.5030000000 2.5250000000 1.5422000000
0.5029000000 3.4795000000 1.2450000000
0.5028000000 0.1166000000 0.1468000000
0.5028000000 1.3276000000 0.9881000000
0.5027000000 1.4149000000 1.0261000000
0.5025000000 3.2967000000 1.3304000000
0.5023000000 4.2583000000 0.8775000000
0.5023000000 1.1827000000 0.9238000000
0.5023000000 0.7670000000 0.6704000000
0.5022000000 0.4167000000 0.3494000000
0.5021000000 0.2720000000 0.2155000000
0.5021000000 3.4196000000 1.2678000000
0.5020000000 1.7551000000 1.1882000000
0.5016000000 1.9200000000 1.2645000000
0.5014000000 0.7647000000 0.6721000000
0.5014000000 4.1840000000 0.9231000000
0.5013000000 1.3117000000 0.9774000000
0.5013000000 4.5789000000 0.6756000000
0.5011000000 4.1078000000 0.9476000000
0.5010000000 2.6027000000 1.5841000000
0.5006000000 1.0551000000 0.8585000000
0.5005000000 1.3335000000 0.9853000000
0.5003000000 0.3278000000 0.2597000000
0.5002000000 2.9870000000 1.4661000000
0.4997000000 5.2144000000 0.0920000000
0.4995000000 1.8510000000 1.2319000000
0.4993000000 0.8527000000 0.7408000000
0.4990000000 3.7872000000 1.0953000000
0.4986000000 1.8580000000 1.2328000000
0.4985000000 3.7648000000 1.1090000000
0.4984000000 1.1799000000 0.9181000000
0.4983000000 1.9330000000 1.2665000000
0.4977000000 2.0142000000 1.3014000000
0.4965000000 2.6934000000 1.5959000000
0.4948000000 1.6441000000 1.1289000000
0.4945000000 1.3347000000 0.9861000000
0.2638000000 4.7944000000 0.4297000000
0.2608000000 5.2244000000 0.0901000000
0.2600000000 4.6534000000 0.4978000000
0.2594000000 3.0377000000 1.2531000000
0.2589000000 3.4195000000 1.0713000000
0.2585000000 0.8966000000 0.5912000000
0.2585000000 4.3304000000 0.6529000000
0.2583000000 3.8374000000 0.8775000000
0.2578000000 3.2025000000 1.1737000000
0.2577000000 1.3322000000 0.7878000000
0.2575000000 1.9604000000 1.0848000000
0.2574000000 0.7815000000 0.5353000000
0.2573000000 5.3746000000 0.0239000000
0.2571000000 3.2604000000 1.1522000000
0.2570000000 3.9721000000 0.8163000000
0.2568000000 1.1063000000 0.6807000000
0.2567000000 4.7254000000 0.4679000000
0.2566000000 4.3509000000 0.6386000000
0.2565000000 2.6461000000 1.3903000000
0.2564000000 5.3414000000 0.0515000000
0.2561000000 5.2376000000 0.1546000000
0.2559000000 5.0733000000 0.2264000000
0.2558000000 4.3786000000 0.6245000000
0.2556000000 3.8684000000 0.8590000000
0.2552000000 0.4047000000 0.3196000000
0.2551000000 3.3438000000 1.1132000000
0.2549000000 2.9647000000 1.2806000000
0.2548000000 1.4114000000 0.8225000000
0.2545000000 4.5494000000 0.5507000000
0.2545000000 3.7598000000 0.9114000000
0.2541000000 2.2112000000 1.2011000000
0.2540000000 2.4878000000 1.3278000000
0.2539000000 0.8686000000 0.5777000000
0.2539000000 1.6953000000 0.9537000000
0.2538000000 1.8179000000 1.0153000000
0.2537000000 3.7599000000 0.9107000000
0.2536000000 4.1611000000 0.7287000000
0.2535000000 3.9234000000 0.8382000000
0.2535000000 3.0201000000 1.2560000000
0.2534000000 3.5027000000 1.0296000000
0.2533000000 4.0416000000 0.7786000000
0.2532000000 4.8537000000 0.3827000000
0.2532000000 3.5480000000 1.0103000000
0.2531000000 1.3887000000 0.8149000000
0.2530000000 3.3039000000 1.1225000000
0.2529000000 4.1409000000 0.7356000000
0.2528000000 2.7660000000 1.3734000000
0.2527000000 1.9806000000 1.0903000000
0.2525000000 1.7438000000 0.9818000000
0.2525000000 3.3570000000 1.1028000000
0.2524000000 1.9693000000 1.0850000000
0.2523000000 2.8326000000 1.3431000000
0.2521000000 4.2418000000 0.6871000000
0.2520000000 1.5201000000 0.8743000000
0.2519000000 0.4315000000 0.3539000000
0.2514000000 1.0472000000 0.6563000000
0.2513000000 4.4781000000 0.5723000000
0.2512000000 4.9112000000 0.3575000000
0.2511000000 5.1931000000 0.1205000000
0.2510000000 2.4171000000 1.2932000000
0.2509000000 2.6073000000 1.3765000000
0.2509000000 4.8538000000 0.3824000000
0.2507000000 1.5890000000 0.9058000000
0.2507000000 0.3909000000 0.3140000000
0.2506000000 5.3266000000 0.0681000000
0.2506000000 0.8225000000 0.5493000000
0.2505000000 3.2662000000 1.1403000000
0.2503000000 0.6578000000 0.4657000000
0.2501000000 1.8999000000 1.0483000000
0.2500000000 0.5957000000 0.4423000000
0.2498000000 0.9047000000 0.5851000000
0.2496000000 2.0642000000 1.1264000000
0.2492000000 3.2571000000 1.1438000000
0.2491000000 2.6192000000 1.3813000000
0.2489000000 2.7578000000 1.3732000000
0.2488000000 0.2041000000 0.1544000000
0.2486000000 1.8666000000 1.0281000000
0.2487000000 1.2639000000 0.7462000000
0.2485000000 3.2038000000 1.1667000000
0.2483000000 0.0995000000 0.1284000000
0.2480000000 1.5609000000 0.8855000000
0.2474000000 2.1787000000 1.1793000000
0.2473000000 0.1728000000 0.1228000000
0.2468000000 0.0057000000 0.0430000000
0.2467000000 3.0809000000 1.2192000000
0.2461000000 0.2337000000 0.1790000000
0.2433000000 1.8438000000 1.0153000000
0.0128000000 4.0359000000 0.5902000000
0.0109000000 4.1835000000 0.5147000000
0.0098000000 4.1787000000 0.5202000000
0.0090000000 3.5844000000 0.7924000000
0.0082000000 3.0992000000 1.0213000000
0.0080000000 0.1879000000 0.1343000000
0.0075000000 4.8084000000 0.2241000000
0.0067000000 2.2273000000 1.0013000000
0.0065000000 1.0601000000 0.4693000000
0.0063000000 4.5637000000 0.3376000000
0.0061000000 2.8658000000 1.1293000000
0.0060000000 2.1454000000 0.9644000000
0.0059000000 1.9444000000 0.8706000000
0.0057000000 2.3877000000 1.0839000000
0.0055000000 1.1802000000 0.5193000000
0.0053000000 3.4361000000 0.8634000000
0.0052000000 1.4725000000 0.6538000000
0.0045000000 0.3395000000 0.1310000000
0.0045000000 4.2193000000 0.4919000000
0.0044000000 0.7869000000 0.3283000000
0.0042000000 4.4658000000 0.3835000000
0.0042000000 1.9220000000 0.8605000000
0.0041000000 1.4835000000 0.6542000000
0.0041000000 4.0938000000 0.5578000000
0.0040000000 2.5561000000 1.1566000000
0.0040000000 4.6998000000 0.2698000000
0.0039000000 1.0725000000 0.4647000000
0.0038000000 1.4847000000 0.6596000000
0.0035000000 0.7986000000 0.3426000000
0.0035000000 2.0163000000 0.9085000000
0.0033000000 1.4856000000 0.6545000000
0.0031000000 0.0947000000 0.0695000000
0.0028000000 0.0041000000 0.0212000000
0.0029000000 1.7449000000 0.7833000000
0.0028000000 1.7691000000 0.7896000000
0.0027000000 1.6988000000 0.7488000000
0.0026000000 2.8289000000 1.1414000000
0.0025000000 2.1359000000 0.9550000000
0.0024000000 3.0350000000 1.0474000000
0.0022000000 1.7509000000 0.7838000000
0.0022000000 5.1449000000 0.1387000000
0.0023000000 3.2231000000 0.9587000000
0.0021000000 2.7296000000 1.1767000000
0.0018000000 5.2626000000 0.0708000000
0.0016000000 2.6131000000 1.1789000000
0.0017000000 3.1535000000 0.9857000000
0.0015000000 0.7626000000 0.3196000000
0.0014000000 4.1570000000 0.5231000000
0.0013000000 3.5596000000 0.8022000000
0.0013000000 3.4784000000 0.8388000000
0.0011000000 2.3368000000 1.0539000000
0.0010000000 1.0098000000 0.4311000000
0.0008000000 1.1835000000 0.5144000000
0.0005000000 0.5321000000 0.2102000000
0.0003000000 4.9851000000 0.1369000000
0.0000000000 1.9531000000 0.8746000000
0.0000000000 0.6905000000 0.2783000000
-0.0004000000 0.3972000000 0.1526000000
-0.0005000000 2.4523000000 1.1043000000
-0.0010000000 1.6693000000 0.7428000000
-0.0011000000 0.9201000000 0.3919000000
-0.0014000000 2.9986000000 1.0600000000
-0.0015000000 0.6437000000 0.2615000000
-0.0018000000 2.6550000000 1.1817000000
-0.0020000000 4.5451000000 0.3332000000
-0.0030000000 2.8689000000 1.1195000000
-0.0035000000 1.3700000000 0.5955000000
-0.0059000000 2.1456000000 0.9547000000
-0.2404000000 2.9893000000 0.8703000000
-0.2410000000 4.5672000000 0.1352000000
-0.2413000000 3.9868000000 0.4113000000
-0.2425000000 3.5502000000 0.6118000000
-0.2428000000 4.1834000000 0.3157000000
-0.2432000000 1.3361000000 0.3834000000
-0.2433000000 4.0403000000 0.3741000000
-0.2434000000 2.8987000000 0.9158000000
-0.2439000000 1.3087000000 0.3714000000
-0.2439000000 2.4751000000 0.9205000000
-0.2440000000 2.3920000000 0.8793000000
-0.2440000000 4.3012000000 0.2621000000
-0.2445000000 1.9208000000 0.6591000000
-0.2447000000 0.9687000000 0.2143000000
-0.2448000000 2.2122000000 0.7941000000
-0.2448000000 4.5226000000 0.1561000000
-0.2450000000 1.7993000000 0.6030000000
-0.2450000000 3.3935000000 0.6796000000
-0.2450000000 3.7974000000 0.4902000000
-0.2452000000 2.7530000000 0.9779000000
-0.2453000000 3.3393000000 0.7043000000
-0.2455000000 4.8385000000 0.0813000000
-0.2455000000 2.1277000000 0.7565000000
-0.2459000000 2.1467000000 0.7607000000
-0.2460000000 0.9029000000 0.1789000000
-0.2461000000 4.6411000000 0.1020000000
-0.2462000000 4.7448000000 0.1254000000
-0.2463000000 2.1247000000 0.7502000000
-0.2464000000 3.7103000000 0.5257000000
-0.2465000000 1.9790000000 0.6797000000
-0.2466000000 3.1920000000 0.7738000000
-0.2466000000 3.7171000000 0.5284000000
-0.2468000000 1.7118000000 0.5596000000
-0.2470000000 1.4983000000 0.4632000000
-0.2472000000 2.6846000000 0.9905000000
-0.2475000000 3.1772000000 0.7829000000
-0.2475000000 3.1929000000 0.7668000000
-0.2475000000 2.2178000000 0.7952000000
-0.2477000000 3.5556000000 0.6000000000
-0.2477000000 2.0622000000 0.7215000000
-0.2479000000 1.4065000000 0.4140000000
-0.2479000000 2.6920000000 0.9874000000
-0.2480000000 4.2761000000 0.2674000000
-0.2481000000 0.8060000000 0.1337000000
-0.2481000000 2.7792000000 0.9609000000
-0.2482000000 1.3452000000 0.3864000000
-0.2482000000 1.5974000000 0.5124000000
-0.2482000000 1.8309000000 0.6169000000
-0.2483000000 4.0975000000 0.3480000000
-0.2483000000 1.1419000000 0.3028000000
-0.2487000000 1.9661000000 0.6765000000
-0.2486000000 3.4615000000 0.6399000000
-0.2488000000 2.6543000000 0.9784000000
-0.2492000000 2.2554000000 0.8132000000
-0.2492000000 1.0469000000 0.2476000000
-0.2493000000 1.1551000000 0.3026000000
-0.2494000000 3.5664000000 0.5939000000
-0.2494000000 0.5485000000 0.0920000000
-0.2497000000 3.3624000000 0.6925000000
-0.2498000000 2.5871000000 0.9649000000
-0.2499000000 3.7411000000 0.5170000000
-0.2502000000 0.3534000000 0.0746000000
-0.2505000000 4.3263000000 0.2371000000
-0.2508000000 4.1829000000 0.3086000000
-0.2510000000 3.6685000000 0.5499000000
-0.2510000000 1.5723000000 0.4918000000
-0.2512000000 4.3865000000 0.2155000000
-0.2512000000 0.9912000000 0.2243000000
-0.2518000000 2.4598000000 0.9024000000
-0.2519000000 0.5555000000 0.0919000000
-0.2535000000 2.6304000000 0.9684000000
-0.2543000000 2.4592000000 0.9068000000
-0.2553000000 3.3250000000 0.7071000000
-0.4863000000 4.5007000000 0.0450000000
-0.4884000000 4.1751000000 0.1178000000
-0.4885000000 3.0820000000 0.6299000000
-0.4887000000 2.6618000000 0.7924000000
-0.4890000000 0.8939000000 0.0600000000
-0.4894000000 3.4407000000 0.4577000000
-0.4900000000 2.7816000000 0.7685000000
-0.4905000000 3.1171000000 0.6145000000
-0.4913000000 4.6027000000 0.0678000000
-0.4915000000 3.3467000000 0.5045000000
-0.4922000000 1.8409000000 0.4227000000
-0.4924000000 1.6369000000 0.3277000000
-0.4925000000 3.0132000000 0.6576000000
-0.4925000000 1.2194000000 0.1299000000
-0.4927000000 2.3456000000 0.6596000000
-0.4930000000 3.6337000000 0.3687000000
-0.4936000000 2.0875000000 0.5401000000
-0.4937000000 2.3963000000 0.6802000000
-0.4942000000 1.1390000000 0.0885000000
-0.4944000000 0.7950000000 0.0095000000
-0.4944000000 3.0078000000 0.6583000000
-0.4946000000 1.6915000000 0.3485000000
-0.4948000000 4.6122000000 0.0604000000
-0.4949000000 2.9932000000 0.6658000000
-0.4949000000 2.6063000000 0.7790000000
-0.4950000000 4.2860000000 0.1380000000
-0.4950000000 3.3681000000 0.4842000000
-0.4950000000 1.6862000000 0.3547000000
-0.4951000000 3.3283000000 0.5061000000
-0.4953000000 4.3343000000 0.1166000000
-0.4954000000 4.4626000000 0.0508000000
-0.4955000000 2.2280000000 0.6008000000
-0.4956000000 1.2567000000 0.1521000000
-0.4957000000 1.2051000000 0.1179000000
-0.4959000000 4.6277000000 0.0491000000
-0.4959000000 3.2146000000 0.5612000000
-0.4960000000 2.1701000000 0.5713000000
-0.4965000000 4.6827000000 0.0259000000
-0.4966000000 0.6422000000 0.0143000000
-0.4968000000 2.6928000000 0.7868000000
-0.4969000000 0.9483000000 0.0787000000
-0.4970000000 2.5686000000 0.7575000000
-0.4972000000 2.3413000000 0.6530000000
-0.4974000000 1.7970000000 0.4019000000
-0.4975000000 1.8863000000 0.4397000000
-0.4975000000 1.8286000000 0.4111000000
-0.4979000000 0.8348000000 0.0258000000
-0.4979000000 1.6115000000 0.3076000000
-0.4982000000 1.1490000000 0.0922000000
-0.4982000000 1.2195000000 0.1268000000
-0.4984000000 1.6163000000 0.3148000000
-0.4985000000 2.8640000000 0.7193000000
-0.4987000000 0.9941000000 0.0966000000
-0.4989000000 4.6198000000 0.0483000000
-0.4989000000 2.0350000000 0.5064000000
-0.4990000000 3.3970000000 0.4749000000
-0.4992000000 3.0788000000 0.6249000000
-0.4996000000 2.0031000000 0.4939000000
-0.4998000000 0.9243000000 0.0708000000
-0.5001000000 4.4107000000 0.0709000000
-0.5007000000 2.2445000000 0.5996000000
-0.5010000000 1.1874000000 0.1083000000
-0.5011000000 0.8869000000 0.0470000000
-0.5018000000 3.2037000000 0.5610000000
-0.5022000000 3.1694000000 0.5800000000
-0.5034000000 2.5003000000 0.7143000000
-0.7409000000 2.4350000000 0.4969000000
-0.7415000000 4.0845000000 0.0318000000
-0.7426000000 3.6060000000 0.1799000000
-0.7427000000 1.2283000000 0.0054000000
-0.7429000000 3.1958000000 0.3646000000
-0.7443000000 1.7473000000 0.1725000000
-0.7446000000 1.2605000000 0.0270000000
-0.7448000000 3.0978000000 0.4088000000
-0.7452000000 2.9312000000 0.4938000000
-0.7454000000 2.5573000000 0.5460000000
-0.7458000000 2.1441000000 0.3581000000
-0.7460000000 2.2841000000 0.4315000000
-0.7465000000 1.2750000000 0.0330000000
-0.7466000000 4.0498000000 0.0454000000
-0.7466000000 1.0695000000 0.0114000000
-0.7467000000 1.7726000000 0.1852000000
-0.7471000000 4.0204000000 0.0550000000
-0.7472000000 4.2732000000 0.0209000000
-0.7472000000 1.2240000000 0.0794000000
-0.7476000000 3.5947000000 0.1783000000
-0.7478000000 2.1628000000 0.3659000000
-0.7482000000 4.0500000000 0.0450000000
-0.7484000000 2.9704000000 0.4714000000
-0.7486000000 3.0532000000 0.4353000000
-0.7487000000 2.3406000000 0.4496000000
-0.7490000000 1.4224000000 0.0916000000
-0.7490000000 1.7835000000 0.1826000000
-0.7492000000 2.2717000000 0.4128000000
-0.7495000000 2.6845000000 0.5931000000
