3.5026000000 1.8323000000 0.4374000000
3.5026000000 1.7040000000 0.4002000000
3.5025000000 3.2438000000 0.6001000000
3.5025000000 1.1784000000 0.2253000000
3.5020000000 1.3032000000 0.2624000000
3.5018000000 5.2046000000 0.0145000000
3.5018000000 1.9288000000 0.4824000000
3.5016000000 3.4744000000 0.5164000000
3.5015000000 3.9959000000 0.3405000000
3.5014000000 1.2802000000 0.2625000000
3.5009000000 1.8350000000 0.4400000000
3.5008000000 3.6791000000 0.4513000000
3.5006000000 2.0668000000 0.5248000000
3.5005000000 5.2551000000 0.0058000000
3.5005000000 2.2262000000 0.5792000000
3.5003000000 0.3531000000 0.0263000000
3.5001000000 1.2714000000 0.2589000000
3.5000000000 5.1108000000 0.0556000000
3.4998000000 3.7871000000 0.4251000000
3.4994000000 2.3726000000 0.6218000000
3.4990000000 2.9517000000 0.6974000000
3.4987000000 1.7827000000 0.4335000000
3.4985000000 3.2315000000 0.6081000000
3.4983000000 0.6364000000 0.0427000000
3.4979000000 3.2382000000 0.6030000000
3.4978000000 3.4375000000 0.5419000000
3.4976000000 3.8563000000 0.3976000000
3.4975000000 3.5736000000 0.4928000000
3.4970000000 1.7337000000 0.4122000000
3.2612000000 5.3587000000 0.0375000000
3.2608000000 5.5470000000 0.0416000000
3.2603000000 2.6704000000 0.8632000000
3.2601000000 0.4966000000 0.1385000000
3.2598000000 1.5350000000 0.4846000000
3.2596000000 2.0826000000 0.6604000000
3.2594000000 4.9143000000 0.1835000000
3.2594000000 2.8086000000 0.8797000000
3.2583000000 1.0007000000 0.3045000000
3.2580000000 5.1993000000 0.0870000000
3.2577000000 3.8611000000 0.5356000000
3.2576000000 3.0140000000 0.8130000000
3.2573000000 1.7648000000 0.5637000000
3.2573000000 2.6673000000 0.8626000000
3.2571000000 3.1945000000 0.7618000000
3.2568000000 4.3677000000 0.3685000000
3.2565000000 4.6585000000 0.2682000000
3.2564000000 0.1698000000 0.0343000000
3.2563000000 4.4644000000 0.3342000000
3.2563000000 4.5966000000 0.2911000000
3.2560000000 2.9103000000 0.8527000000
3.2560000000 4.7545000000 0.2344000000
3.2558000000 3.1402000000 0.7750000000
3.2557000000 2.4450000000 0.7955000000
3.2556000000 0.3845000000 0.1052000000
3.2554000000 4.5432000000 0.3079000000
3.2553000000 0.1152000000 0.0088000000
3.2552000000 1.4540000000 0.4594000000
3.2550000000 1.7753000000 0.5688000000
3.2550000000 3.8593000000 0.5368000000
3.2549000000 0.8088000000 0.2468000000
3.2548000000 1.7458000000 0.5568000000
3.2548000000 2.9926000000 0.8246000000
3.2547000000 2.5286000000 0.8228000000
3.2546000000 2.6841000000 0.8699000000
3.2545000000 3.9601000000 0.5022000000
3.2545000000 4.1985000000 0.4219000000
3.2545000000 0.6304000000 0.1857000000
3.2544000000 3.5268000000 0.6494000000
3.2544000000 5.1427000000 0.1087000000
3.2543000000 0.2954000000 0.0793000000
3.2543000000 4.4535000000 0.3369000000
3.2542000000 2.8713000000 0.8730000000
3.2540000000 5.2855000000 0.0585000000
3.2538000000 5.1532000000 0.1061000000
3.2537000000 2.0987000000 0.6783000000
3.2535000000 2.8571000000 0.8707000000
3.2535000000 1.1004000000 0.3419000000
3.2535000000 0.7081000000 0.2111000000
3.2531000000 4.0448000000 0.4728000000
3.2530000000 1.3433000000 0.4308000000
3.2529000000 1.6190000000 0.5179000000
3.2529000000 3.6084000000 0.6288000000
3.2528000000 4.7422000000 0.2410000000
3.2527000000 2.7722000000 0.8898000000
3.2525000000 0.2073000000 0.0454000000
3.2524000000 3.5029000000 0.6574000000
3.2521000000 5.3599000000 0.0380000000
3.2521000000 0.6876000000 0.2022000000
3.2520000000 1.3304000000 0.4203000000
3.2518000000 4.5720000000 0.3061000000
3.2516000000 2.0008000000 0.6444000000
3.2513000000 5.3763000000 0.0358000000
3.2513000000 3.6005000000 0.6278000000
3.2513000000 1.1690000000 0.3671000000
3.2512000000 4.3436000000 0.3763000000
3.2511000000 1.6514000000 0.5251000000
3.2510000000 3.9485000000 0.5079000000
3.2508000000 1.7443000000 0.5598000000
3.2506000000 1.2753000000 0.4057000000
3.2502000000 1.8593000000 0.5976000000
3.2498000000 2.5303000000 0.8307000000
3.2498000000 1.0007000000 0.3101000000
3.2495000000 0.5946000000 0.1748000000
3.2495000000 2.0262000000 0.6535000000
3.2494000000 4.4208000000 0.3501000000
3.2488000000 0.4219000000 0.1238000000
3.2487000000 1.0435000000 0.3299000000
3.2480000000 0.7750000000 0.2344000000
3.2478000000 1.9687000000 0.6377000000
3.2475000000 1.4085000000 0.4503000000
3.2474000000 2.2342000000 0.7194000000
3.2472000000 0.8237000000 0.2555000000
3.2468000000 0.1001000000 0.0105000000
3.2467000000 1.6431000000 0.5312000000
3.2465000000 0.0236000000 0.0538000000
3.2457000000 0.3541000000 0.0999000000
3.2451000000 0.0253000000 0.0518000000
3.2444000000 0.1008000000 0.0097000000
3.0117000000 3.9333000000 0.6667000000
3.0101000000 2.2401000000 0.8637000000
3.0099000000 4.8656000000 0.3450000000
3.0098000000 2.5870000000 0.9818000000
3.0098000000 1.5144000000 0.6187000000
3.0097000000 4.5937000000 0.4400000000
3.0093000000 2.5675000000 0.9770000000
3.0091000000 3.3128000000 0.8631000000
3.0089000000 0.8603000000 0.4055000000
3.0086000000 0.3827000000 0.2378000000
3.0085000000 3.4347000000 0.8248000000
3.0083000000 1.8942000000 0.7455000000
3.0082000000 2.1252000000 0.8281000000
3.0079000000 4.6361000000 0.4194000000
3.0078000000 4.8619000000 0.3477000000
3.0073000000 1.1063000000 0.4841000000
3.0073000000 3.5888000000 0.7750000000
3.0072000000 2.1616000000 0.8371000000
3.0072000000 5.1750000000 0.2273000000
3.0071000000 4.8539000000 0.3511000000
3.0070000000 2.5237000000 0.9625000000
3.0069000000 4.2426000000 0.5569000000
3.0068000000 4.5220000000 0.4622000000
3.0068000000 5.4545000000 0.0656000000
3.0067000000 0.6986000000 0.3461000000
3.0065000000 1.5157000000 0.6301000000
3.0065000000 0.7963000000 0.3816000000
3.0063000000 2.5723000000 0.9805000000
3.0063000000 3.8771000000 0.6782000000
3.0062000000 2.8712000000 1.0147000000
3.0061000000 2.7222000000 1.0220000000
3.0061000000 1.7101000000 0.6910000000
3.0060000000 2.3788000000 0.9117000000
3.0059000000 2.6717000000 1.0110000000
3.0058000000 5.4238000000 0.0849000000
3.0057000000 0.0294000000 0.0291000000
3.0056000000 2.1018000000 0.8192000000
3.0055000000 2.1283000000 0.8298000000
3.0053000000 4.3301000000 0.5286000000
3.0053000000 2.2320000000 0.8680000000
3.0053000000 3.9979000000 0.6357000000
3.0050000000 2.1070000000 0.8241000000
3.0050000000 3.8911000000 0.6729000000
3.0049000000 0.6036000000 0.3245000000
3.0048000000 3.8277000000 0.6933000000
3.0046000000 2.1038000000 0.8216000000
3.0045000000 5.0856000000 0.2772000000
3.0045000000 3.9317000000 0.6593000000
3.0045000000 1.3990000000 0.5866000000
3.0043000000 4.8775000000 0.3445000000
3.0043000000 3.3955000000 0.8321000000
3.0040000000 2.4414000000 0.9317000000
3.0039000000 4.0201000000 0.6350000000
3.0039000000 4.8280000000 0.3588000000
3.0038000000 0.7510000000 0.3720000000
3.0033000000 4.4927000000 0.4704000000
3.0033000000 3.3951000000 0.8372000000
3.0032000000 1.2518000000 0.5342000000
3.0030000000 2.1630000000 0.8454000000
3.0030000000 1.0544000000 0.4698000000
3.0027000000 0.8389000000 0.4071000000
3.0027000000 4.0134000000 0.6383000000
3.0025000000 4.7487000000 0.3853000000
3.0023000000 0.5683000000 0.3130000000
3.0023000000 3.2373000000 0.8877000000
3.0022000000 4.6187000000 0.4354000000
3.0020000000 3.3618000000 0.8518000000
3.0019000000 1.9935000000 0.7866000000
3.0018000000 3.5462000000 0.7919000000
3.0016000000 4.2227000000 0.5664000000
3.0015000000 5.2362000000 0.2032000000
3.0014000000 0.3189000000 0.2077000000
3.0013000000 4.1244000000 0.6041000000
3.0012000000 0.5424000000 0.2999000000
3.0011000000 0.0634000000 0.0448000000
3.0008000000 2.1409000000 0.8381000000
3.0006000000 1.2767000000 0.5468000000
3.0006000000 4.2877000000 0.5378000000
3.0005000000 2.3256000000 0.9007000000
3.0005000000 5.1353000000 0.2511000000
3.0002000000 4.1612000000 0.5857000000
3.0002000000 4.4562000000 0.4851000000
2.9999000000 3.2036000000 0.9095000000
2.9998000000 1.3208000000 0.5623000000
2.9998000000 1.4418000000 0.6027000000
2.9997000000 0.2573000000 0.1647000000
2.9993000000 0.5875000000 0.3192000000
2.9992000000 0.7850000000 0.3841000000
2.9986000000 4.0763000000 0.6097000000
2.9985000000 2.3938000000 0.9283000000
2.9983000000 4.5457000000 0.4619000000
2.7618000000 5.4983000000 0.0349000000
2.7613000000 4.5365000000 0.5963000000
2.7612000000 0.6811000000 0.4564000000
2.7606000000 5.0542000000 0.3379000000
2.7604000000 1.1813000000 0.6529000000
2.7600000000 5.3095000000 0.1637000000
2.7596000000 5.0615000000 0.3300000000
2.7595000000 3.0697000000 1.0918000000
2.7583000000 3.6052000000 0.9107000000
2.7579000000 4.0112000000 0.7767000000
2.7578000000 0.4843000000 0.3222000000
2.7576000000 2.1030000000 0.9661000000
2.7573000000 5.2263000000 0.2213000000
2.7573000000 0.7258000000 0.4835000000
2.7570000000 2.0932000000 0.9624000000
2.7569000000 3.1674000000 1.0650000000
2.7569000000 0.3219000000 0.2190000000
2.7568000000 0.8059000000 0.5219000000
2.7567000000 0.9532000000 0.5821000000
2.7566000000 2.1436000000 0.9820000000
2.7564000000 5.2046000000 0.2318000000
2.7563000000 0.7137000000 0.4746000000
2.7562000000 5.0290000000 0.3566000000
2.7560000000 3.0465000000 1.0992000000
2.7559000000 3.4814000000 0.9523000000
2.7554000000 4.9345000000 0.4106000000
2.7550000000 4.6471000000 0.5610000000
2.7549000000 0.1368000000 0.0995000000
2.7548000000 4.8614000000 0.4561000000
2.7548000000 5.1502000000 0.2705000000
2.7548000000 3.3363000000 1.0013000000
2.7545000000 4.4111000000 0.6468000000
2.7545000000 0.6941000000 0.4624000000
2.7543000000 4.7713000000 0.5150000000
2.7543000000 2.5173000000 1.1065000000
2.7541000000 3.7753000000 0.8564000000
2.7541000000 1.9065000000 0.9037000000
2.7540000000 2.4461000000 1.0773000000
2.7535000000 0.2473000000 0.1777000000
2.7535000000 0.1311000000 0.0938000000
2.7534000000 0.7098000000 0.4674000000
2.7534000000 0.9518000000 0.5823000000
2.7533000000 0.4199000000 0.2922000000
2.7533000000 3.8713000000 0.8267000000
2.7531000000 0.5351000000 0.3662000000
2.7531000000 3.2423000000 1.0324000000
2.7530000000 2.9089000000 1.1391000000
2.7530000000 0.5509000000 0.3746000000
2.7528000000 3.4602000000 0.9621000000
2.7529000000 2.2810000000 1.0336000000
2.7526000000 0.0527000000 0.0419000000
2.7525000000 3.8824000000 0.8239000000
2.7524000000 2.2490000000 1.0184000000
2.7520000000 3.2749000000 1.0241000000
2.7519000000 1.5699000000 0.7943000000
2.7517000000 4.3835000000 0.6548000000
2.7517000000 0.9917000000 0.5980000000
2.7515000000 1.0551000000 0.6208000000
2.7512000000 3.1678000000 1.0659000000
2.7511000000 3.5584000000 0.9317000000
2.7508000000 3.8688000000 0.8247000000
2.7506000000 4.2446000000 0.7080000000
2.7505000000 3.5443000000 0.9373000000
2.7504000000 4.1295000000 0.7409000000
2.7504000000 0.4494000000 0.3045000000
2.7503000000 0.0874000000 0.0602000000
2.7502000000 0.2284000000 0.1553000000
2.7500000000 0.5777000000 0.3920000000
2.7498000000 2.8773000000 1.1616000000
2.7497000000 3.3340000000 1.0078000000
2.7481000000 1.0639000000 0.6200000000
2.7477000000 0.0471000000 0.0407000000
2.7473000000 3.8255000000 0.8396000000
2.7466000000 1.1473000000 0.6539000000
2.7441000000 3.5081000000 0.9551000000
2.5127000000 4.9083000000 0.4336000000
2.5119000000 0.1986000000 0.1355000000
2.5109000000 5.5262000000 0.0230000000
2.5099000000 3.2977000000 1.1604000000
2.5092000000 5.3349000000 0.1510000000
2.5091000000 1.8858000000 1.0334000000
2.5088000000 4.6478000000 0.6095000000
2.5086000000 0.6725000000 0.4591000000
2.5084000000 3.7385000000 1.0071000000
2.5083000000 0.0217000000 0.0175000000
2.5083000000 2.8079000000 1.3140000000
2.5075000000 5.5462000000 0.0849000000
2.5074000000 1.7199000000 0.9814000000
2.5073000000 1.3308000000 0.8567000000
2.5073000000 3.2907000000 1.1602000000
2.5070000000 2.0651000000 1.0957000000
2.5070000000 3.9538000000 0.9372000000
2.5070000000 3.3887000000 1.1334000000
2.5069000000 4.8887000000 0.4458000000
2.5067000000 4.6751000000 0.5883000000
2.5067000000 4.3579000000 0.7893000000
2.5066000000 4.1717000000 0.8672000000
2.5065000000 4.8861000000 0.4447000000
2.5064000000 4.6584000000 0.6008000000
2.5062000000 0.5053000000 0.3426000000
2.5061000000 2.8671000000 1.2976000000
2.5058000000 2.2920000000 1.1751000000
2.5058000000 0.0720000000 0.0548000000
2.5056000000 1.6119000000 0.9425000000
2.5055000000 2.0797000000 1.1052000000
2.5054000000 0.5816000000 0.3977000000
2.5053000000 3.1531000000 1.2044000000
2.5051000000 1.8328000000 1.0170000000
2.5052000000 2.1911000000 1.1389000000
2.5051000000 4.0910000000 0.8929000000
2.5048000000 5.2121000000 0.2300000000
2.5044000000 2.4078000000 1.2183000000
2.5043000000 3.0476000000 1.2406000000
2.5043000000 5.3549000000 0.1365000000
2.5043000000 1.4937000000 0.9150000000
2.5042000000 2.5607000000 1.2638000000
2.5041000000 2.6284000000 1.2857000000
2.5038000000 4.2650000000 0.8279000000
2.5036000000 1.4079000000 0.8781000000
2.5035000000 3.4689000000 1.1021000000
2.5035000000 2.9713000000 1.2667000000
2.5034000000 2.4924000000 1.2410000000
2.5034000000 2.4313000000 1.2232000000
2.5033000000 3.0207000000 1.2597000000
2.5033000000 0.0919000000 0.0669000000
2.5032000000 5.2459000000 0.2123000000
2.5032000000 5.5151000000 0.0285000000
2.5028000000 1.6795000000 0.9693000000
2.5028000000 3.4610000000 1.1091000000
2.5023000000 0.4619000000 0.3134000000
2.5018000000 2.4536000000 1.2239000000
2.5017000000 1.7639000000 0.9970000000
2.5015000000 5.1320000000 0.2856000000
2.5015000000 2.4999000000 1.2451000000
2.5012000000 3.5491000000 1.0765000000
2.5011000000 1.2368000000 0.8128000000
2.5010000000 1.7100000000 0.9929000000
2.5007000000 3.2276000000 1.1927000000
2.5005000000 2.5873000000 1.2769000000
2.5000000000 5.2047000000 0.2382000000
2.4989000000 2.9693000000 1.2697000000
2.4987000000 1.7761000000 1.0049000000
2.4983000000 0.5179000000 0.3442000000
2.4981000000 1.1006000000 0.7383000000
2.4973000000 0.5752000000 0.3855000000
2.4956000000 0.4643000000 0.3104000000
2.4954000000 0.6666000000 0.4523000000
2.4953000000 1.4268000000 0.8962000000
2.2638000000 4.7614000000 0.5248000000
2.2617000000 3.7077000000 1.1672000000
2.2600000000 3.0104000000 1.3963000000
2.2598000000 4.9822000000 0.3787000000
2.2595000000 2.2795000000 1.3130000000
2.2591000000 3.5226000000 1.2240000000
2.2588000000 2.7148000000 1.4579000000
2.2588000000 4.8607000000 0.4675000000
2.2586000000 3.6185000000 1.1928000000
2.2585000000 3.6566000000 1.1766000000
2.2581000000 0.1699000000 0.1177000000
2.2580000000 2.8599000000 1.4429000000
2.2573000000 3.7299000000 1.1572000000
2.2570000000 3.1878000000 1.3388000000
2.2570000000 4.4969000000 0.7040000000
2.2568000000 3.0033000000 1.4023000000
2.2568000000 0.9599000000 0.6422000000
2.2566000000 3.4315000000 1.2595000000
2.2565000000 0.2313000000 0.1603000000
2.2565000000 4.4663000000 0.7271000000
2.2564000000 0.3764000000 0.2578000000
2.2563000000 1.7043000000 1.1118000000
2.2563000000 1.8132000000 1.1560000000
2.2558000000 2.8167000000 1.4538000000
2.2555000000 5.0795000000 0.3196000000
2.2555000000 4.8401000000 0.4762000000
2.2553000000 0.0039000000 0.0056000000
2.2550000000 3.7041000000 1.1705000000
2.2549000000 2.2314000000 1.2998000000
2.2547000000 4.6105000000 0.6344000000
2.2546000000 0.1068000000 0.0758000000
2.2545000000 4.0137000000 1.0236000000
2.2544000000 2.6237000000 1.4261000000
2.2544000000 1.4960000000 1.0055000000
2.2543000000 1.8231000000 1.1620000000
2.2542000000 0.6653000000 0.4488000000
2.2542000000 3.6418000000 1.1868000000
2.2541000000 4.7851000000 0.5174000000
2.2540000000 2.4960000000 1.3878000000
2.2539000000 0.7861000000 0.5313000000
2.2538000000 4.4802000000 0.7200000000
2.2536000000 0.2657000000 0.1827000000
2.2535000000 2.7710000000 1.4659000000
2.2535000000 4.7346000000 0.5497000000
2.2533000000 2.7923000000 1.4690000000
2.2533000000 1.6423000000 1.0970000000
2.2531000000 0.7830000000 0.5287000000
2.2530000000 3.0738000000 1.3792000000
2.2530000000 5.1437000000 0.2691000000
2.2529000000 3.1109000000 1.3700000000
2.2527000000 1.1214000000 0.7511000000
2.2526000000 4.3126000000 0.8257000000
2.2526000000 3.2151000000 1.3338000000
2.2525000000 5.4643000000 0.0586000000
2.2525000000 0.4906000000 0.3298000000
2.2524000000 4.9491000000 0.4045000000
2.2520000000 1.0190000000 0.6847000000
2.2518000000 4.5051000000 0.6982000000
2.2517000000 1.6299000000 1.0821000000
2.2516000000 2.4453000000 1.3742000000
2.2515000000 2.1362000000 1.2677000000
2.2513000000 0.8856000000 0.5956000000
2.2513000000 5.0404000000 0.3400000000
2.2510000000 1.4220000000 0.9549000000
2.2504000000 0.9144000000 0.6196000000
2.2501000000 4.7961000000 0.5074000000
2.2500000000 3.4020000000 1.2783000000
2.2499000000 1.5634000000 1.0481000000
2.2498000000 1.0990000000 0.7366000000
2.2496000000 4.5830000000 0.6543000000
2.2493000000 4.2163000000 0.8903000000
2.2492000000 2.6418000000 1.4390000000
2.2490000000 2.8263000000 1.4626000000
2.2488000000 0.6303000000 0.4239000000
2.2486000000 0.3803000000 0.2581000000
2.2483000000 0.5044000000 0.3464000000
2.2481000000 3.6106000000 1.2050000000
2.2480000000 0.5559000000 0.3779000000
2.2480000000 0.4301000000 0.2884000000
2.2476000000 3.8779000000 1.1061000000
2.2474000000 0.0685000000 0.0503000000
2.2470000000 3.0406000000 1.3953000000
2.2460000000 1.1161000000 0.7543000000
2.2445000000 3.6929000000 1.1765000000
2.0152000000 5.0549000000 0.3293000000
2.0100000000 2.9587000000 1.5578000000
2.0093000000 3.0051000000 1.5420000000
2.0090000000 0.8383000000 0.5661000000
2.0088000000 5.1340000000 0.2814000000
2.0088000000 1.1316000000 0.7602000000
2.0085000000 3.3640000000 1.4199000000
2.0085000000 3.4892000000 1.3704000000
2.0080000000 4.0815000000 0.9929000000
2.0080000000 3.0947000000 1.5141000000
2.0079000000 3.9332000000 1.0854000000
2.0076000000 3.6448000000 1.2738000000
2.0073000000 4.7491000000 0.5356000000
2.0073000000 4.0756000000 0.9873000000
2.0070000000 5.0723000000 0.3280000000
2.0070000000 4.8022000000 0.5033000000
2.0068000000 2.8656000000 1.5994000000
2.0068000000 4.0011000000 1.0404000000
2.0068000000 0.7853000000 0.5285000000
2.0067000000 5.0353000000 0.3464000000
2.0067000000 2.2165000000 1.4374000000
2.0066000000 0.5888000000 0.3965000000
2.0064000000 2.2559000000 1.4532000000
2.0063000000 4.5856000000 0.6472000000
2.0062000000 2.1222000000 1.3879000000
2.0061000000 4.3921000000 0.7770000000
2.0059000000 0.3415000000 0.2339000000
2.0059000000 1.8710000000 1.2555000000
2.0056000000 5.5615000000 0.0698000000
2.0056000000 2.7951000000 1.6047000000
2.0055000000 3.4340000000 1.3894000000
2.0055000000 1.9608000000 1.3089000000
2.0054000000 0.8606000000 0.5817000000
2.0052000000 1.4554000000 0.9803000000
2.0048000000 2.8045000000 1.6016000000
2.0048000000 1.2386000000 0.8293000000
2.0047000000 4.0387000000 1.0180000000
2.0046000000 5.2723000000 0.1881000000
2.0045000000 1.5572000000 1.0420000000
2.0044000000 4.5206000000 0.6915000000
2.0043000000 4.8009000000 0.5020000000
2.0042000000 4.3643000000 0.7968000000
2.0041000000 3.1447000000 1.4975000000
2.0041000000 3.2473000000 1.4618000000
2.0038000000 0.2877000000 0.2008000000
2.0037000000 3.7989000000 1.1767000000
2.0037000000 1.0339000000 0.7022000000
2.0035000000 2.4526000000 1.5208000000
2.0034000000 4.5442000000 0.6775000000
2.0032000000 1.7555000000 1.1767000000
2.0028000000 3.5577000000 1.3240000000
2.0028000000 1.8225000000 1.2210000000
2.0026000000 0.5882000000 0.3991000000
2.0025000000 2.3578000000 1.4883000000
2.0020000000 1.7003000000 1.1420000000
2.0019000000 4.5286000000 0.6821000000
2.0015000000 1.8174000000 1.2226000000
2.0014000000 2.9726000000 1.5628000000
2.0011000000 4.5278000000 0.6865000000
2.0009000000 1.3346000000 0.8980000000
2.0008000000 0.1169000000 0.0855000000
2.0004000000 1.6347000000 1.0983000000
2.0004000000 1.9268000000 1.2950000000
2.0003000000 3.4932000000 1.3593000000
2.0002000000 5.4718000000 0.0529000000
1.9999000000 2.1341000000 1.4074000000
1.9997000000 0.6949000000 0.4691000000
1.9996000000 2.8118000000 1.5983000000
1.9994000000 3.5405000000 1.3305000000
1.9990000000 0.6637000000 0.4563000000
1.9989000000 3.9069000000 1.1020000000
1.9988000000 3.1708000000 1.4940000000
1.9987000000 2.9269000000 1.5764000000
1.9985000000 1.8545000000 1.2467000000
1.9971000000 2.9945000000 1.5550000000
1.9970000000 3.1038000000 1.5162000000
1.9953000000 2.3010000000 1.4705000000
1.9951000000 3.0954000000 1.5179000000
1.7648000000 4.0562000000 0.9933000000
1.7642000000 4.8367000000 0.4790000000
1.7623000000 3.1141000000 1.6167000000
1.7620000000 2.5077000000 1.6688000000
1.7619000000 5.3287000000 0.1521000000
1.7607000000 4.9147000000 0.4283000000
1.7606000000 5.5170000000 0.0290000000
1.7604000000 3.8436000000 1.1461000000
1.7589000000 3.6115000000 1.2973000000
1.7587000000 1.4654000000 0.9802000000
1.7585000000 4.0856000000 0.9812000000
1.7582000000 4.9204000000 0.4262000000
1.7578000000 4.1579000000 0.9333000000
1.7577000000 2.1187000000 1.4207000000
1.7576000000 5.0679000000 0.3262000000
1.7573000000 1.6158000000 1.0878000000
1.7569000000 1.7238000000 1.1568000000
1.7569000000 4.4763000000 0.7249000000
1.7563000000 3.9316000000 1.0825000000
1.7558000000 3.9330000000 1.0827000000
1.7558000000 2.6280000000 1.7192000000
1.7558000000 4.5049000000 0.7008000000
1.7557000000 1.1714000000 0.7865000000
1.7556000000 3.0486000000 1.6648000000
1.7555000000 2.5867000000 1.6941000000
1.7555000000 4.7563000000 0.5358000000
1.7553000000 4.8987000000 0.4442000000
1.7551000000 1.9850000000 1.3319000000
1.7549000000 4.9826000000 0.3821000000
1.7548000000 4.4757000000 0.7178000000
1.7548000000 3.3448000000 1.4736000000
1.7547000000 2.1520000000 1.4415000000
1.7546000000 3.7231000000 1.2231000000
1.7546000000 1.6740000000 1.1185000000
1.7545000000 3.5083000000 1.3610000000
1.7545000000 3.9354000000 1.0774000000
1.7543000000 2.7499000000 1.7486000000
1.7541000000 4.8525000000 0.4647000000
1.7540000000 3.2516000000 1.5391000000
1.7540000000 5.5187000000 0.0285000000
1.7538000000 3.6916000000 1.2452000000
1.7536000000 5.5233000000 0.0315000000
1.7535000000 5.1158000000 0.2938000000
1.7534000000 3.9693000000 1.0691000000
1.7533000000 1.9582000000 1.3102000000
1.7533000000 1.1006000000 0.7398000000
1.7532000000 2.4370000000 1.6220000000
1.7531000000 0.0673000000 0.0463000000
1.7530000000 2.3561000000 1.5787000000
1.7529000000 3.7773000000 1.1902000000
1.7528000000 0.7432000000 0.5009000000
1.7528000000 2.9432000000 1.7008000000
1.7525000000 5.0742000000 0.3204000000
1.7523000000 2.7422000000 1.7454000000
1.7522000000 0.8835000000 0.5932000000
1.7522000000 1.8393000000 1.2326000000
1.7521000000 0.8560000000 0.5784000000
1.7520000000 3.3332000000 1.4817000000
1.7518000000 0.9419000000 0.6340000000
1.7518000000 0.7278000000 0.4939000000
1.7516000000 0.3994000000 0.2731000000
1.7515000000 4.2876000000 0.8515000000
1.7515000000 3.2479000000 1.5442000000
1.7512000000 4.2553000000 0.8676000000
1.7512000000 3.2527000000 1.5367000000
1.7511000000 0.1968000000 0.1369000000
1.7510000000 2.5535000000 1.6841000000
1.7510000000 2.5283000000 1.6832000000
1.7508000000 2.3577000000 1.5798000000
1.7507000000 3.7301000000 1.2228000000
1.7507000000 2.1259000000 1.4309000000
1.7506000000 1.4240000000 0.9560000000
1.7505000000 2.8764000000 1.7338000000
1.7505000000 1.2125000000 0.8166000000
1.7502000000 0.8211000000 0.5531000000
1.7501000000 1.3249000000 0.8909000000
1.7498000000 0.8238000000 0.5518000000
1.7496000000 1.3035000000 0.8753000000
1.7495000000 3.1456000000 1.6148000000
1.7495000000 3.5708000000 1.3248000000
1.7494000000 2.3343000000 1.5709000000
1.7493000000 0.2459000000 0.1709000000
1.7493000000 2.3104000000 1.5514000000
1.7489000000 0.3972000000 0.2675000000
1.7485000000 1.0966000000 0.7364000000
1.7484000000 2.0135000000 1.3499000000
1.7483000000 3.3272000000 1.4884000000
1.7476000000 1.2983000000 0.8731000000
1.7476000000 1.2763000000 0.8617000000
1.7473000000 1.3447000000 0.8987000000
1.7464000000 0.1311000000 0.0980000000
1.5119000000 4.0336000000 1.0153000000
1.5114000000 2.2350000000 1.5007000000
1.5104000000 4.3495000000 0.8047000000
1.5103000000 2.3319000000 1.5629000000
1.5080000000 4.6352000000 0.6119000000
1.5078000000 1.7829000000 1.1946000000
1.5078000000 2.5826000000 1.7184000000
1.5077000000 3.4624000000 1.3976000000
1.5076000000 3.5548000000 1.3385000000
1.5075000000 0.7165000000 0.4879000000
1.5075000000 0.4726000000 0.3192000000
1.5074000000 3.1856000000 1.5828000000
1.5070000000 0.4231000000 0.2882000000
1.5069000000 0.3587000000 0.2391000000
1.5069000000 2.9381000000 1.7315000000
1.5066000000 3.1019000000 1.6371000000
1.5065000000 0.0604000000 0.0493000000
1.5063000000 4.0708000000 0.9886000000
1.5062000000 1.1876000000 0.7989000000
1.5062000000 5.3175000000 0.1600000000
1.5060000000 5.1286000000 0.2882000000
1.5055000000 0.4419000000 0.3044000000
1.5053000000 4.9676000000 0.3945000000
1.5053000000 0.5733000000 0.3874000000
1.5051000000 2.4953000000 1.6671000000
1.5050000000 3.7272000000 1.2242000000
1.5048000000 0.1149000000 0.0864000000
1.5048000000 1.7349000000 1.1633000000
1.5047000000 2.3489000000 1.5703000000
1.5046000000 0.0557000000 0.0388000000
1.5040000000 3.5417000000 1.3409000000
1.5039000000 4.3620000000 0.7958000000
1.5038000000 3.3913000000 1.4463000000
1.5038000000 3.6283000000 1.2881000000
1.5034000000 0.3755000000 0.2558000000
1.5033000000 2.0780000000 1.3941000000
1.5032000000 3.2972000000 1.5144000000
1.5031000000 1.9720000000 1.3190000000
1.5030000000 1.8234000000 1.2236000000
1.5030000000 5.3707000000 0.1270000000
1.5026000000 0.4255000000 0.2876000000
1.5026000000 0.5146000000 0.3498000000
1.5025000000 4.2057000000 0.9016000000
1.5024000000 1.6334000000 1.1040000000
1.5023000000 0.0049000000 0.0082000000
1.5022000000 0.3303000000 0.2204000000
1.5020000000 0.4734000000 0.3224000000
1.5018000000 1.2659000000 0.8479000000
1.5018000000 0.9625000000 0.6459000000
1.5017000000 4.3170000000 0.8254000000
1.5018000000 5.3224000000 0.1571000000
1.5016000000 1.6902000000 1.1277000000
1.5015000000 0.8061000000 0.5406000000
1.5014000000 2.8758000000 1.7531000000
1.5013000000 2.7975000000 1.7581000000
1.5012000000 4.0313000000 1.0185000000
1.5010000000 1.4306000000 0.9615000000
1.5007000000 0.7911000000 0.5343000000
1.5006000000 0.2509000000 0.1705000000
1.5003000000 2.7651000000 1.7625000000
1.5001000000 3.4438000000 1.4180000000
1.5000000000 1.8276000000 1.2286000000
1.4997000000 1.4787000000 0.9957000000
1.4996000000 0.3158000000 0.2166000000
1.4990000000 3.0063000000 1.6875000000
1.4986000000 0.4536000000 0.3064000000
1.4979000000 3.1230000000 1.6237000000
1.4975000000 1.4542000000 0.9795000000
1.4964000000 3.5994000000 1.3064000000
1.4935000000 1.1028000000 0.7427000000
1.2618000000 1.4667000000 0.9848000000
1.2604000000 4.3158000000 0.8322000000
1.2600000000 0.4310000000 0.2934000000
1.2590000000 0.2820000000 0.1946000000
1.2587000000 4.1566000000 0.9385000000
1.2582000000 2.4173000000 1.5465000000
1.2581000000 2.5853000000 1.5989000000
1.2580000000 2.1965000000 1.4546000000
1.2579000000 1.5794000000 1.0576000000
1.2578000000 5.0214000000 0.3549000000
1.2574000000 0.7317000000 0.4942000000
1.2574000000 1.3798000000 0.9286000000
1.2573000000 1.2180000000 0.8203000000
1.2570000000 3.7094000000 1.2373000000
1.2569000000 1.5455000000 1.0414000000
1.2566000000 4.7364000000 0.5502000000
1.2566000000 5.1901000000 0.2423000000
1.2565000000 2.1269000000 1.4128000000
1.2563000000 5.1706000000 0.2629000000
1.2561000000 1.5471000000 1.0396000000
1.2557000000 1.8591000000 1.2490000000
1.2552000000 0.7376000000 0.5017000000
1.2552000000 1.7062000000 1.1501000000
1.2551000000 1.5000000000 1.0054000000
1.2550000000 2.9838000000 1.5930000000
1.2547000000 3.9924000000 1.0474000000
1.2547000000 4.6813000000 0.5803000000
1.2546000000 3.3114000000 1.4638000000
1.2545000000 2.2188000000 1.4663000000
1.2545000000 1.7341000000 1.1615000000
1.2544000000 0.1196000000 0.0810000000
1.2540000000 3.3080000000 1.4670000000
1.2538000000 4.8339000000 0.4863000000
1.2538000000 2.5994000000 1.6001000000
1.2537000000 2.1324000000 1.4183000000
1.2535000000 3.7282000000 1.2225000000
1.2535000000 2.0227000000 1.3580000000
1.2534000000 1.6314000000 1.0969000000
1.2534000000 0.1105000000 0.0778000000
1.2533000000 0.4335000000 0.2977000000
1.2531000000 2.8691000000 1.6325000000
1.2531000000 3.6757000000 1.2517000000
1.2530000000 4.3474000000 0.8079000000
1.2528000000 1.7099000000 1.1498000000
1.2525000000 5.0088000000 0.3693000000
1.2524000000 5.3018000000 0.1712000000
1.2522000000 0.1602000000 0.1072000000
1.2523000000 0.5919000000 0.4049000000
1.2521000000 2.4417000000 1.5432000000
1.2519000000 3.1995000000 1.5158000000
1.2517000000 2.5171000000 1.5740000000
1.2516000000 0.3880000000 0.2617000000
1.2515000000 4.5629000000 0.6625000000
1.2515000000 1.6271000000 1.0949000000
1.2511000000 3.4677000000 1.3815000000
1.2510000000 0.0066000000 0.0065000000
1.2506000000 1.8988000000 1.2703000000
1.2504000000 1.9935000000 1.3378000000
1.2501000000 2.3360000000 1.5029000000
1.2500000000 0.6873000000 0.4642000000
1.2494000000 3.1936000000 1.5156000000
1.2493000000 2.4343000000 1.5378000000
1.2491000000 0.3725000000 0.2504000000
1.2490000000 0.7662000000 0.5209000000
1.2489000000 0.8345000000 0.5647000000
1.2487000000 2.9906000000 1.5838000000
1.2487000000 3.3071000000 1.4628000000
1.2469000000 3.8351000000 1.1509000000
1.2462000000 0.6298000000 0.4257000000
1.2451000000 2.4170000000 1.5344000000
1.0106000000 4.1864000000 0.9150000000
1.0106000000 4.5474000000 0.6741000000
1.0105000000 5.3158000000 0.1547000000
1.0101000000 3.0050000000 1.4342000000
1.0098000000 3.9724000000 1.0640000000
1.0092000000 5.1145000000 0.2978000000
1.0090000000 4.9915000000 0.3759000000
1.0085000000 1.7680000000 1.1661000000
1.0084000000 4.2884000000 0.8460000000
1.0083000000 5.0127000000 0.3616000000
1.0082000000 5.4662000000 0.0642000000
1.0081000000 3.4471000000 1.2876000000
1.0079000000 1.0455000000 0.7024000000
1.0075000000 4.8981000000 0.4387000000
1.0074000000 1.7852000000 1.1724000000
1.0073000000 5.3015000000 0.1713000000
1.0072000000 0.9066000000 0.6114000000
1.0071000000 5.4917000000 0.0437000000
1.0068000000 3.5042000000 1.2713000000
1.0067000000 3.5426000000 1.2577000000
1.0066000000 3.9923000000 1.0434000000
1.0066000000 2.2365000000 1.3359000000
1.0065000000 0.2113000000 0.1470000000
1.0064000000 3.3509000000 1.3183000000
1.0063000000 3.3580000000 1.3195000000
1.0062000000 2.8887000000 1.4767000000
1.0063000000 3.2335000000 1.3661000000
1.0061000000 0.1429000000 0.1047000000
1.0057000000 2.0248000000 1.2689000000
1.0056000000 0.8868000000 0.6009000000
1.0056000000 2.7553000000 1.4989000000
1.0055000000 4.1488000000 0.9375000000
1.0054000000 0.2790000000 0.1904000000
1.0053000000 1.2571000000 0.8441000000
1.0053000000 4.5336000000 0.6833000000
1.0052000000 2.1612000000 1.3081000000
1.0049000000 4.5992000000 0.6379000000
1.0048000000 3.5813000000 1.2438000000
1.0047000000 5.3853000000 0.1120000000
1.0047000000 3.8169000000 1.1514000000
1.0046000000 0.1378000000 0.0998000000
1.0045000000 0.0536000000 0.0438000000
1.0045000000 4.8093000000 0.4999000000
1.0043000000 0.4990000000 0.3417000000
1.0043000000 2.2741000000 1.3443000000
1.0041000000 5.0107000000 0.3663000000
1.0041000000 4.1279000000 0.9514000000
1.0039000000 0.4518000000 0.3056000000
1.0038000000 3.5615000000 1.2487000000
1.0035000000 1.1894000000 0.7983000000
1.0035000000 3.0443000000 1.4179000000
1.0033000000 5.5452000000 0.0816000000
1.0030000000 0.2508000000 0.1672000000
1.0030000000 1.5690000000 1.0564000000
1.0028000000 1.1348000000 0.7599000000
1.0027000000 2.7189000000 1.4985000000
1.0025000000 2.0869000000 1.2848000000
1.0021000000 2.3449000000 1.3694000000
1.0020000000 0.4128000000 0.2860000000
1.0018000000 3.1629000000 1.3812000000
1.0016000000 4.6453000000 0.6064000000
1.0017000000 2.4735000000 1.4110000000
1.0015000000 2.1343000000 1.2964000000
1.0006000000 3.9660000000 1.0583000000
1.0005000000 4.9019000000 0.4391000000
1.0000000000 2.3826000000 1.3790000000
0.9999000000 4.9482000000 0.4071000000
0.9998000000 4.4230000000 0.7579000000
0.9998000000 2.9873000000 1.4349000000
0.9997000000 0.2222000000 0.1537000000
0.9994000000 0.7846000000 0.5211000000
0.9993000000 4.6355000000 0.6171000000
0.9992000000 0.2487000000 0.1673000000
0.9987000000 1.3013000000 0.8768000000
0.9987000000 0.1382000000 0.0972000000
0.9985000000 0.6896000000 0.4625000000
0.9983000000 1.9208000000 1.2254000000
0.9974000000 3.2957000000 1.3329000000
0.9973000000 0.1071000000 0.0745000000
0.9964000000 0.0204000000 0.0198000000
0.9964000000 1.0303000000 0.6889000000
0.9962000000 0.8878000000 0.5994000000
0.9938000000 1.9990000000 1.2498000000
0.7625000000 3.4807000000 1.1348000000
0.7614000000 4.3846000000 0.7824000000
0.7609000000 4.7610000000 0.5286000000
0.7609000000 5.5445000000 0.0049000000
0.7605000000 4.5189000000 0.6927000000
0.7595000000 5.2439000000 0.2099000000
0.7591000000 4.6338000000 0.6149000000
0.7590000000 5.0695000000 0.3253000000
0.7586000000 1.1047000000 0.7393000000
0.7581000000 2.3066000000 1.2140000000
0.7580000000 5.0768000000 0.3212000000
0.7579000000 4.0316000000 0.9521000000
0.7579000000 3.2545000000 1.2057000000
0.7578000000 5.1569000000 0.2692000000
0.7575000000 2.9593000000 1.3113000000
0.7573000000 5.2325000000 0.2142000000
0.7573000000 4.5205000000 0.6849000000
0.7572000000 2.2718000000 1.2059000000
0.7571000000 4.0204000000 0.9530000000
0.7565000000 2.7890000000 1.3493000000
0.7561000000 0.2664000000 0.1784000000
0.7558000000 4.1809000000 0.8921000000
0.7558000000 4.9445000000 0.4058000000
0.7553000000 5.4816000000 0.0488000000
0.7550000000 3.1795000000 1.2362000000
0.7548000000 3.6495000000 1.0789000000
0.7548000000 5.4751000000 0.0572000000
0.7545000000 1.3526000000 0.8794000000
0.7546000000 4.3763000000 0.7899000000
0.7544000000 1.0410000000 0.7011000000
0.7543000000 5.0121000000 0.3696000000
0.7542000000 2.8479000000 1.3422000000
0.7542000000 3.1748000000 1.2391000000
0.7541000000 4.2196000000 0.8758000000
0.7539000000 3.2641000000 1.2042000000
0.7538000000 2.0583000000 1.1283000000
0.7537000000 3.6424000000 1.0741000000
0.7536000000 4.6651000000 0.5954000000
0.7535000000 3.1871000000 1.2304000000
0.7535000000 2.6927000000 1.3421000000
0.7533000000 4.2620000000 0.8521000000
0.7532000000 1.4290000000 0.9158000000
0.7532000000 2.9386000000 1.3100000000
0.7529000000 3.1414000000 1.2458000000
0.7529000000 4.1314000000 0.9069000000
0.7527000000 3.4742000000 1.1328000000
0.7525000000 0.0145000000 0.0182000000
0.7526000000 0.1524000000 0.1150000000
0.7525000000 3.5613000000 1.1065000000
0.7524000000 1.5029000000 0.9433000000
0.7524000000 3.5179000000 1.1179000000
0.7523000000 4.8964000000 0.4468000000
0.7521000000 3.4013000000 1.1609000000
0.7520000000 3.6388000000 1.0790000000
0.7518000000 2.3143000000 1.2159000000
0.7518000000 0.5944000000 0.3927000000
0.7517000000 3.9895000000 0.9640000000
0.7515000000 1.4687000000 0.9351000000
0.7513000000 1.0249000000 0.6875000000
0.7512000000 3.2961000000 1.1901000000
0.7512000000 0.7978000000 0.5412000000
0.7511000000 1.2259000000 0.8159000000
0.7510000000 2.7414000000 1.3468000000
0.7509000000 1.9241000000 1.0849000000
0.7508000000 0.0361000000 0.0321000000
0.7508000000 0.6092000000 0.4148000000
0.7506000000 4.7553000000 0.5403000000
0.7505000000 5.3516000000 0.1357000000
0.7502000000 2.4933000000 1.2765000000
0.7502000000 3.8877000000 0.9944000000
0.7501000000 1.6645000000 0.9957000000
0.7501000000 4.1241000000 0.9135000000
0.7495000000 1.4049000000 0.8985000000
0.7492000000 2.1110000000 1.1460000000
0.7481000000 3.5152000000 1.1095000000
0.7480000000 0.8585000000 0.5788000000
0.7479000000 5.3443000000 0.1428000000
0.7474000000 0.3483000000 0.2424000000
0.7473000000 1.5074000000 0.9392000000
0.7465000000 5.2629000000 0.1947000000
0.7442000000 0.8966000000 0.6007000000
0.7441000000 1.0063000000 0.6773000000
0.5135000000 5.3926000000 0.1100000000
0.5124000000 4.1394000000 0.7749000000
0.5113000000 4.4975000000 0.6511000000
0.5101000000 4.2470000000 0.7379000000
0.5097000000 4.7820000000 0.5161000000
0.5080000000 5.0444000000 0.3413000000
0.5078000000 3.0488000000 1.1306000000
0.5076000000 3.9459000000 0.8297000000
0.5075000000 0.3255000000 0.2244000000
0.5073000000 1.3267000000 0.7398000000
0.5073000000 1.2493000000 0.7157000000
0.5072000000 3.1995000000 1.0880000000
0.5072000000 3.8615000000 0.8626000000
0.5071000000 1.0358000000 0.6413000000
0.5066000000 1.1312000000 0.6799000000
0.5065000000 4.0206000000 0.8114000000
0.5063000000 5.2388000000 0.2127000000
0.5054000000 4.8051000000 0.4971000000
0.5054000000 4.9770000000 0.3823000000
0.5053000000 4.3946000000 0.6770000000
0.5053000000 3.8514000000 0.8674000000
0.5052000000 1.7039000000 0.8720000000
0.5052000000 4.4420000000 0.6673000000
0.5051000000 3.5722000000 0.9545000000
0.5050000000 0.2758000000 0.1863000000
0.5049000000 3.0680000000 1.1222000000
0.5048000000 4.5179000000 0.6443000000
0.5048000000 1.7520000000 0.8815000000
0.5043000000 5.4948000000 0.0413000000
0.5043000000 3.3633000000 1.0319000000
0.5042000000 3.2357000000 1.0681000000
0.5040000000 1.8758000000 0.9229000000
0.5040000000 2.4001000000 1.1008000000
0.5040000000 3.6000000000 0.9559000000
0.5039000000 3.9229000000 0.8443000000
0.5035000000 2.5650000000 1.1557000000
0.5035000000 5.5515000000 0.0796000000
0.5034000000 0.6100000000 0.4095000000
0.5030000000 4.4428000000 0.6645000000
0.5029000000 2.6371000000 1.1738000000
0.5028000000 5.3899000000 0.1062000000
0.5028000000 4.5721000000 0.6136000000
0.5027000000 4.2016000000 0.7423000000
0.5027000000 1.4822000000 0.7939000000
0.5026000000 1.8863000000 0.9267000000
0.5026000000 2.5751000000 1.1574000000
0.5024000000 2.2734000000 1.0567000000
0.5023000000 1.5972000000 0.8299000000
0.5020000000 3.5677000000 0.9547000000
0.5019000000 0.7258000000 0.4846000000
0.5018000000 5.0766000000 0.3237000000
0.5017000000 3.1157000000 1.1090000000
0.5015000000 4.4388000000 0.6622000000
0.5015000000 5.3056000000 0.1704000000
0.5013000000 5.4550000000 0.0688000000
0.5012000000 0.9316000000 0.5944000000
0.5008000000 3.2084000000 1.0725000000
0.5005000000 3.3370000000 1.0335000000
0.4999000000 2.0102000000 0.9673000000
0.4998000000 0.7390000000 0.4999000000
0.4997000000 0.1938000000 0.1374000000
0.4993000000 0.5763000000 0.3934000000
0.4993000000 4.3061000000 0.7093000000
0.4990000000 4.7800000000 0.5110000000
0.4985000000 0.9503000000 0.5994000000
0.4984000000 0.5263000000 0.3557000000
0.4979000000 3.4520000000 0.9913000000
0.4975000000 4.3935000000 0.6811000000
0.4973000000 1.1921000000 0.6957000000
0.4973000000 0.7895000000 0.5201000000
0.4970000000 2.8105000000 1.1965000000
0.4967000000 3.7474000000 0.8936000000
0.4963000000 1.0559000000 0.6521000000
0.4959000000 4.2226000000 0.7338000000
0.4941000000 2.5508000000 1.1434000000
0.2615000000 2.3594000000 0.9491000000
0.2614000000 1.2757000000 0.5801000000
0.2613000000 4.1663000000 0.6158000000
0.2592000000 4.3660000000 0.5510000000
0.2590000000 4.4760000000 0.5167000000
0.2590000000 3.1370000000 0.9614000000
0.2589000000 1.1536000000 0.5421000000
0.2585000000 2.8861000000 1.0485000000
0.2584000000 2.0258000000 0.8308000000
0.2581000000 4.3493000000 0.5576000000
0.2580000000 4.8618000000 0.3837000000
0.2579000000 4.3432000000 0.5592000000
0.2575000000 5.0896000000 0.2949000000
0.2575000000 2.8596000000 1.0542000000
0.2572000000 5.0209000000 0.3158000000
0.2570000000 2.0830000000 0.8455000000
0.2570000000 4.3840000000 0.5402000000
0.2566000000 3.2071000000 0.9378000000
0.2564000000 2.7672000000 1.0654000000
0.2564000000 4.2681000000 0.5865000000
0.2563000000 4.4945000000 0.5031000000
0.2558000000 2.8598000000 1.0535000000
0.2555000000 3.5466000000 0.8278000000
0.2555000000 3.9652000000 0.6776000000
0.2549000000 3.3483000000 0.8893000000
0.2548000000 4.0969000000 0.6439000000
0.2546000000 3.0366000000 0.9927000000
0.2545000000 4.4500000000 0.5174000000
0.2544000000 5.2121000000 0.2237000000
0.2544000000 1.0827000000 0.5144000000
0.2542000000 3.2054000000 0.9346000000
0.2541000000 3.6686000000 0.7834000000
0.2540000000 5.1685000000 0.2446000000
0.2539000000 3.0132000000 0.9966000000
0.2538000000 3.6679000000 0.7760000000
0.2537000000 3.7483000000 0.7518000000
0.2536000000 4.2834000000 0.5769000000
0.2534000000 3.3128000000 0.9018000000
0.2534000000 5.4499000000 0.0712000000
0.2531000000 1.7241000000 0.7296000000
0.2530000000 0.7528000000 0.3991000000
0.2529000000 1.5405000000 0.6702000000
0.2528000000 4.0102000000 0.6711000000
0.2527000000 0.5902000000 0.3495000000
0.2525000000 1.1398000000 0.5300000000
0.2525000000 2.8938000000 1.0338000000
0.2525000000 1.6131000000 0.6918000000
0.2524000000 1.5352000000 0.6666000000
0.2523000000 5.1853000000 0.2360000000
0.2522000000 3.4231000000 0.8635000000
0.2522000000 0.0145000000 0.0165000000
0.2523000000 4.1471000000 0.6191000000
0.2520000000 1.6682000000 0.7074000000
0.2518000000 5.0443000000 0.3084000000
0.2517000000 5.2201000000 0.2171000000
0.2515000000 1.1804000000 0.5491000000
0.2512000000 0.4213000000 0.2705000000
0.2511000000 5.3470000000 0.1337000000
0.2510000000 3.6660000000 0.7751000000
0.2509000000 3.5370000000 0.8206000000
0.2508000000 1.4810000000 0.6432000000
0.2507000000 4.9936000000 0.3385000000
0.2505000000 1.7024000000 0.7179000000
0.2503000000 3.0825000000 0.9708000000
0.2503000000 3.7179000000 0.7609000000
0.2498000000 1.9069000000 0.7844000000
0.2497000000 0.9938000000 0.4822000000
0.2496000000 0.5569000000 0.3400000000
0.2495000000 1.5503000000 0.6683000000
0.2487000000 0.1376000000 0.0971000000
0.2485000000 0.9781000000 0.4744000000
0.2483000000 0.8383000000 0.4277000000
0.2476000000 3.0889000000 0.9732000000
0.2474000000 0.0094000000 0.0094000000
0.2473000000 1.3479000000 0.6017000000
0.2456000000 2.6635000000 1.0366000000
0.2453000000 3.8415000000 0.7146000000
0.2452000000 3.8437000000 0.7199000000
0.2438000000 1.6741000000 0.7070000000
0.2433000000 0.6028000000 0.3477000000
0.0152000000 3.9948000000 0.5330000000
0.0129000000 4.8449000000 0.2420000000
0.0101000000 2.5403000000 0.8564000000
0.0096000000 5.2224000000 0.1196000000
0.0090000000 5.4624000000 0.0276000000
0.0088000000 4.7409000000 0.2826000000
0.0085000000 3.6299000000 0.6511000000
0.0082000000 3.6195000000 0.6597000000
0.0081000000 5.0895000000 0.1685000000
0.0080000000 5.4187000000 0.0535000000
0.0078000000 2.7908000000 0.9178000000
0.0078000000 2.5758000000 0.8678000000
0.0074000000 4.5077000000 0.3582000000
0.0073000000 4.0082000000 0.5192000000
0.0074000000 4.5914000000 0.3274000000
0.0070000000 0.6628000000 0.2336000000
0.0065000000 4.5290000000 0.3458000000
0.0064000000 0.7270000000 0.2522000000
0.0060000000 3.7647000000 0.6056000000
0.0058000000 4.3969000000 0.3912000000
0.0058000000 2.5183000000 0.8534000000
0.0055000000 3.2270000000 0.7894000000
0.0054000000 0.1609000000 0.0605000000
0.0055000000 5.2018000000 0.1235000000
0.0054000000 4.1973000000 0.4592000000
0.0052000000 2.3132000000 0.7796000000
0.0052000000 2.4586000000 0.8319000000
0.0051000000 2.2185000000 0.7465000000
0.0050000000 3.6838000000 0.6335000000
0.0049000000 4.0192000000 0.5208000000
0.0048000000 5.3053000000 0.0879000000
0.0047000000 4.3383000000 0.4158000000
0.0047000000 3.6928000000 0.6263000000
0.0046000000 4.4977000000 0.3617000000
0.0043000000 4.9414000000 0.2068000000
0.0043000000 2.9000000000 0.8928000000
0.0043000000 4.0381000000 0.5149000000
0.0038000000 4.7616000000 0.2656000000
0.0038000000 4.5706000000 0.3295000000
0.0036000000 3.9450000000 0.5388000000
0.0035000000 1.7963000000 0.6115000000
0.0033000000 5.2019000000 0.1215000000
0.0031000000 0.0023000000 0.0679000000
0.0029000000 4.1177000000 0.4854000000
0.0029000000 0.7425000000 0.2555000000
0.0028000000 1.3713000000 0.4705000000
0.0027000000 3.2314000000 0.7801000000
0.0023000000 1.2196000000 0.4162000000
0.0021000000 0.5193000000 0.1780000000
0.0020000000 3.1607000000 0.7979000000
0.0018000000 0.2978000000 0.1047000000
0.0018000000 1.9828000000 0.6690000000
0.0018000000 2.8800000000 0.8999000000
0.0016000000 0.4606000000 0.1572000000
0.0016000000 0.4401000000 0.1506000000
0.0013000000 1.8525000000 0.6226000000
0.0012000000 5.4612000000 0.0242000000
0.0012000000 0.3569000000 0.1203000000
0.0011000000 3.0325000000 0.8451000000
0.0011000000 0.3443000000 0.1205000000
0.0010000000 1.8950000000 0.6370000000
0.0008000000 2.0947000000 0.7077000000
0.0007000000 3.8619000000 0.5675000000
0.0005000000 1.5607000000 0.5273000000
0.0003000000 3.4688000000 0.7005000000
0.0003000000 0.3053000000 0.1109000000
0.0001000000 1.8328000000 0.6168000000
0.0000000000 1.1635000000 0.3988000000
-0.0004000000 4.1608000000 0.4725000000
-0.0006000000 0.0001000000 0.0712000000
-0.0009000000 0.1310000000 0.0512000000
-0.0010000000 3.4293000000 0.7097000000
-0.0016000000 0.6555000000 0.2220000000
-0.0020000000 1.7491000000 0.5861000000
-0.0020000000 2.3571000000 0.7856000000
-0.0028000000 1.3307000000 0.4429000000
-0.0030000000 2.7818000000 0.9146000000
-0.0040000000 1.2115000000 0.4059000000
-0.0043000000 1.0574000000 0.3535000000
-0.0055000000 1.1910000000 0.3988000000
-0.2393000000 2.2103000000 0.6095000000
-0.2397000000 4.1717000000 0.3294000000
-0.2402000000 4.4264000000 0.2414000000
-0.2407000000 1.4695000000 0.3532000000
-0.2410000000 3.0688000000 0.6911000000
-0.2415000000 0.6119000000 0.0731000000
-0.2417000000 3.0888000000 0.6876000000
-0.2422000000 4.8258000000 0.1076000000
-0.2422000000 2.9982000000 0.7219000000
-0.2423000000 5.1506000000 0.0744000000
-0.2426000000 3.5491000000 0.5292000000
-0.2428000000 2.7518000000 0.7734000000
-0.2430000000 2.3568000000 0.6469000000
-0.2432000000 3.3041000000 0.6211000000
-0.2432000000 1.4355000000 0.3429000000
-0.2432000000 4.3450000000 0.2657000000
-0.2433000000 3.7160000000 0.4786000000
-0.2434000000 5.0648000000 0.0248000000
-0.2436000000 4.9730000000 0.0541000000
-0.2437000000 5.1129000000 0.0088000000
-0.2439000000 3.0013000000 0.7141000000
-0.2441000000 4.8944000000 0.0814000000
-0.2441000000 3.7364000000 0.4683000000
-0.2442000000 5.3246000000 0.0118000000
-0.2444000000 2.3807000000 0.6549000000
-0.2445000000 2.5607000000 0.7143000000
-0.2446000000 1.1477000000 0.2476000000
-0.2446000000 4.0708000000 0.3617000000
-0.2451000000 0.4539000000 0.0168000000
-0.2451000000 3.9741000000 0.3880000000
-0.2453000000 4.8952000000 0.0897000000
-0.2454000000 2.7567000000 0.7716000000
-0.2457000000 4.9902000000 0.0458000000
-0.2457000000 5.2263000000 0.0429000000
-0.2458000000 1.9626000000 0.5193000000
-0.2459000000 1.6365000000 0.4100000000
-0.2460000000 5.2669000000 0.0271000000
-0.2460000000 2.9356000000 0.7334000000
-0.2462000000 2.1681000000 0.5887000000
-0.2462000000 4.4188000000 0.2351000000
-0.2465000000 3.7073000000 0.4743000000
-0.2466000000 1.3688000000 0.3233000000
-0.2468000000 4.2792000000 0.2878000000
-0.2469000000 1.3668000000 0.3136000000
-0.2470000000 5.3126000000 0.0185000000
-0.2471000000 1.1978000000 0.2612000000
-0.2472000000 3.3291000000 0.6025000000
-0.2473000000 2.8407000000 0.7631000000
-0.2474000000 4.1032000000 0.3473000000
-0.2475000000 2.9223000000 0.7389000000
-0.2475000000 3.9826000000 0.3915000000
-0.2477000000 2.7126000000 0.7694000000
-0.2478000000 2.6602000000 0.7457000000
-0.2479000000 1.5150000000 0.3668000000
-0.2481000000 1.9638000000 0.5191000000
-0.2482000000 5.0886000000 0.0130000000
-0.2483000000 5.2294000000 0.0376000000
-0.2485000000 2.3638000000 0.6490000000
-0.2487000000 1.2665000000 0.2909000000
-0.2487000000 0.3861000000 0.0668000000
-0.2489000000 4.3089000000 0.2734000000
-0.2490000000 0.6121000000 0.0593000000
-0.2492000000 5.3201000000 0.0132000000
-0.2492000000 3.0728000000 0.6813000000
-0.2496000000 0.5434000000 0.0403000000
-0.2498000000 2.7923000000 0.7684000000
-0.2499000000 3.9839000000 0.3799000000
-0.2501000000 1.1360000000 0.2403000000
-0.2505000000 4.3045000000 0.2793000000
-0.2506000000 2.1276000000 0.5675000000
-0.2512000000 2.1770000000 0.5851000000
-0.2512000000 2.7220000000 0.7629000000
-0.2513000000 0.5216000000 0.0285000000
-0.2515000000 0.6577000000 0.0769000000
-0.2515000000 1.5549000000 0.3795000000
-0.2520000000 2.4110000000 0.6647000000
-0.2523000000 0.4889000000 0.0273000000
-0.2539000000 5.1133000000 0.0794000000
