6.7595000000 4.4743000000 0.0350000000
6.7587000000 3.6556000000 0.0709000000
6.7570000000 3.6686000000 0.0853000000
6.7563000000 3.9705000000 0.1814000000
6.7550000000 4.1732000000 0.1406000000
6.7535000000 4.4010000000 0.0829000000
6.7516000000 4.1209000000 0.1706000000
6.5143000000 4.8113000000 0.0867000000
6.5079000000 4.1537000000 0.4048000000
6.5072000000 3.9993000000 0.4259000000
6.5065000000 3.0637000000 0.0539000000
6.5050000000 4.6378000000 0.1263000000
6.5030000000 3.3295000000 0.0678000000
6.5019000000 4.8935000000 0.0525000000
6.5008000000 3.9249000000 0.4121000000
6.5003000000 4.8604000000 0.0697000000
6.4992000000 3.2425000000 0.0970000000
6.2591000000 5.4526000000 0.0456000000
6.2583000000 4.9546000000 0.1887000000
6.2576000000 3.8582000000 0.6182000000
6.2572000000 3.2968000000 0.2935000000
6.2565000000 3.4231000000 0.3667000000
6.2555000000 4.0762000000 0.6799000000
6.2549000000 5.4645000000 0.0431000000
6.2543000000 2.5476000000 0.0131000000
6.2537000000 3.6488000000 0.4953000000
6.2531000000 5.5020000000 0.0195000000
6.2513000000 2.9502000000 0.0934000000
6.2496000000 5.1558000000 0.0802000000
6.0126000000 5.1828000000 0.2982000000
6.0104000000 4.6061000000 0.6347000000
6.0087000000 2.8975000000 0.3101000000
6.0080000000 5.9051000000 0.0369000000
6.0075000000 3.4288000000 0.6176000000
6.0071000000 5.8652000000 0.0622000000
6.0068000000 5.1168000000 0.3474000000
6.0065000000 2.1978000000 0.0496000000
6.0062000000 3.7502000000 0.8129000000
6.0060000000 2.7916000000 0.2494000000
6.0055000000 5.6145000000 0.1359000000
6.0050000000 3.0006000000 0.3722000000
6.0047000000 4.6451000000 0.6201000000
6.0037000000 2.3634000000 0.0825000000
6.0029000000 4.1655000000 0.8983000000
6.0020000000 3.6673000000 0.7621000000
6.0012000000 5.1927000000 0.3114000000
6.0006000000 2.6511000000 0.1749000000
5.9995000000 4.1206000000 0.9298000000
5.7625000000 6.3535000000 0.0246000000
5.7601000000 3.5041000000 0.9097000000
5.7591000000 3.3951000000 0.8551000000
5.7588000000 3.0872000000 0.6703000000
5.7580000000 5.0411000000 0.6391000000
5.7572000000 3.1949000000 0.7401000000
5.7565000000 4.5854000000 0.8980000000
5.7562000000 2.5879000000 0.3807000000
5.7560000000 4.0288000000 1.2014000000
5.7558000000 5.0050000000 0.6601000000
5.7551000000 2.0646000000 0.0853000000
5.7544000000 3.1467000000 0.7118000000
5.7539000000 3.6643000000 1.0070000000
5.7538000000 2.9866000000 0.6149000000
5.7535000000 2.9313000000 0.5888000000
5.7527000000 5.2255000000 0.5404000000
5.7524000000 4.0870000000 1.1830000000
5.7517000000 4.1473000000 1.1622000000
5.7514000000 2.8249000000 0.5261000000
5.7497000000 5.2830000000 0.5025000000
5.7493000000 3.4596000000 0.8981000000
5.7476000000 3.3922000000 0.8624000000
5.5130000000 6.2258000000 0.1976000000
5.5104000000 1.6432000000 0.0818000000
5.5095000000 6.1389000000 0.2596000000
5.5088000000 3.6181000000 1.2352000000
5.5083000000 5.2724000000 0.7556000000
5.5079000000 1.5161000000 0.0884000000
5.5073000000 4.4475000000 1.2297000000
5.5071000000 4.5330000000 1.1837000000
5.5069000000 5.3820000000 0.6926000000
5.5068000000 6.2811000000 0.1744000000
5.5064000000 1.8673000000 0.2186000000
5.5062000000 5.8666000000 0.4114000000
5.5060000000 6.6172000000 0.0536000000
5.5058000000 5.9516000000 0.3597000000
5.5057000000 3.2790000000 1.0347000000
5.5053000000 5.9683000000 0.3578000000
5.5049000000 2.4596000000 0.5603000000
5.5047000000 4.6071000000 1.1469000000
5.5046000000 6.5522000000 0.0936000000
5.5040000000 4.4143000000 1.2570000000
5.5038000000 1.7052000000 0.1293000000
5.5033000000 4.0721000000 1.4299000000
5.5031000000 4.4495000000 1.2340000000
5.5028000000 5.8026000000 0.4560000000
5.5025000000 2.3521000000 0.5039000000
5.5016000000 1.7710000000 0.1691000000
5.5013000000 2.3360000000 0.4983000000
5.5001000000 3.9205000000 1.4148000000
5.4995000000 1.9193000000 0.2567000000
5.2627000000 4.0247000000 1.6912000000
5.2600000000 6.7960000000 0.1226000000
5.2588000000 2.5523000000 0.8681000000
5.2584000000 3.1582000000 1.2124000000
5.2582000000 5.3700000000 0.9483000000
5.2577000000 4.0469000000 1.6934000000
5.2571000000 3.2168000000 1.2510000000
5.2564000000 7.0921000000 0.1033000000
5.2559000000 1.8419000000 0.4489000000
5.2555000000 2.4959000000 0.8266000000
5.2551000000 2.2622000000 0.7023000000
5.2548000000 5.7219000000 0.7472000000
5.2545000000 6.8230000000 0.1191000000
5.2537000000 4.5947000000 1.4041000000
5.2535000000 5.3209000000 0.9857000000
5.2530000000 5.5290000000 0.8639000000
5.2529000000 6.3832000000 0.3662000000
5.2527000000 1.2983000000 0.1415000000
5.2525000000 2.3609000000 0.7589000000
5.2518000000 5.4778000000 0.8932000000
5.2511000000 4.4305000000 1.4994000000
5.2509000000 2.4275000000 0.8002000000
5.2502000000 2.4864000000 0.8310000000
5.2497000000 2.5603000000 0.8770000000
5.2493000000 1.7484000000 0.4052000000
5.2464000000 5.8889000000 0.6610000000
5.0138000000 5.9232000000 0.8695000000
5.0102000000 7.6934000000 0.0037000000
5.0097000000 6.1907000000 0.7208000000
5.0094000000 7.4361000000 0.0787000000
5.0090000000 4.3391000000 1.7914000000
5.0083000000 4.7328000000 1.5697000000
5.0076000000 5.2046000000 1.2953000000
5.0074000000 4.7147000000 1.5751000000
5.0070000000 1.4727000000 0.4894000000
5.0067000000 1.2108000000 0.3430000000
5.0064000000 0.4697000000 0.0594000000
5.0062000000 4.3101000000 1.8192000000
5.0059000000 2.0125000000 0.8030000000
5.0056000000 7.5014000000 0.0458000000
5.0055000000 0.8991000000 0.1624000000
5.0048000000 3.6956000000 1.7764000000
5.0045000000 4.8598000000 1.4959000000
5.0042000000 5.6236000000 1.0593000000
5.0040000000 4.2339000000 1.8688000000
5.0037000000 7.2339000000 0.1245000000
5.0034000000 2.1760000000 0.9038000000
5.0031000000 1.2091000000 0.3414000000
5.0028000000 5.5659000000 1.0905000000
5.0025000000 1.5009000000 0.5108000000
5.0024000000 0.5940000000 0.0582000000
5.0020000000 6.6318000000 0.4753000000
5.0017000000 2.5399000000 1.1134000000
5.0013000000 0.4587000000 0.0581000000
5.0008000000 1.5688000000 0.5525000000
5.0000000000 7.1358000000 0.1901000000
4.9998000000 0.8974000000 0.1666000000
4.9989000000 5.2001000000 1.3032000000
4.9976000000 0.8184000000 0.1189000000
4.7633000000 7.5177000000 0.2050000000
4.7612000000 7.3367000000 0.3108000000
4.7604000000 5.3365000000 1.4682000000
4.7598000000 8.0778000000 0.0330000000
4.7594000000 3.7148000000 2.0379000000
4.7590000000 2.2817000000 1.2098000000
4.7589000000 7.9157000000 0.0455000000
4.7585000000 6.3819000000 0.8676000000
4.7581000000 5.2186000000 1.5457000000
4.7578000000 7.3498000000 0.2976000000
4.7573000000 3.7430000000 2.0523000000
4.7568000000 4.4733000000 1.9719000000
4.7565000000 2.9065000000 1.5795000000
4.7562000000 1.5297000000 0.7737000000
4.7559000000 4.6979000000 1.8460000000
4.7555000000 1.2415000000 0.6099000000
4.7552000000 0.6136000000 0.2450000000
4.7551000000 3.3467000000 1.8271000000
4.7549000000 0.1733000000 0.0617000000
4.7548000000 2.2985000000 1.2253000000
4.7545000000 2.0676000000 1.0822000000
4.7543000000 6.9733000000 0.5225000000
4.7539000000 0.4269000000 0.1353000000
4.7534000000 5.1619000000 1.5758000000
4.7533000000 4.2853000000 2.0829000000
4.7530000000 3.9956000000 2.1889000000
4.7528000000 0.5822000000 0.2337000000
4.7523000000 1.0820000000 0.5162000000
4.7521000000 0.7410000000 0.3218000000
4.7518000000 4.7996000000 1.7895000000
4.7516000000 0.9807000000 0.4571000000
4.7512000000 3.4206000000 1.8783000000
4.7504000000 4.5003000000 1.9579000000
4.7496000000 1.0775000000 0.5218000000
4.7491000000 3.4984000000 1.9252000000
4.7487000000 2.8629000000 1.5523000000
4.7480000000 1.1779000000 0.5749000000
4.7468000000 3.5890000000 1.9750000000
4.5144000000 6.9000000000 0.8097000000
4.5128000000 7.7045000000 0.3377000000
4.5119000000 6.0238000000 1.3261000000
4.5111000000 7.9485000000 0.1249000000
4.5102000000 7.5853000000 0.4178000000
4.5093000000 5.8359000000 1.4319000000
4.5080000000 4.5980000000 2.1541000000
4.5077000000 3.4403000000 2.1286000000
4.5072000000 1.8116000000 1.1893000000
4.5070000000 4.1545000000 2.4038000000
4.5068000000 4.9039000000 1.9690000000
4.5064000000 8.0078000000 0.1414000000
4.5062000000 2.0212000000 1.3106000000
4.5058000000 2.6184000000 1.6550000000
4.5054000000 4.9595000000 1.9429000000
4.5052000000 3.0919000000 1.9252000000
4.5050000000 6.7713000000 0.8931000000
4.5046000000 2.9307000000 1.8339000000
4.5045000000 3.3431000000 2.0769000000
4.5041000000 4.4272000000 2.2503000000
4.5040000000 2.0662000000 1.3371000000
4.5037000000 2.1621000000 1.3901000000
4.5032000000 5.6495000000 1.5489000000
4.5030000000 5.4251000000 1.6777000000
4.5028000000 6.1216000000 1.2662000000
4.5024000000 6.6606000000 0.9573000000
4.5023000000 0.2289000000 0.2403000000
4.5016000000 4.7720000000 2.0575000000
4.5012000000 4.6678000000 2.1168000000
4.5008000000 1.1703000000 0.8272000000
4.5007000000 4.8971000000 1.9844000000
4.4997000000 0.8580000000 0.6434000000
4.4979000000 5.4977000000 1.6377000000
4.4967000000 2.8414000000 1.7946000000
4.2633000000 2.8204000000 2.0152000000
4.2622000000 5.9058000000 1.6379000000
4.2610000000 2.9057000000 2.0669000000
4.2602000000 1.9572000000 1.5256000000
4.2598000000 6.6309000000 1.2236000000
4.2587000000 3.3129000000 2.3061000000
4.2583000000 8.0751000000 0.0574000000
4.2580000000 7.1364000000 0.9250000000
4.2580000000 4.8283000000 2.2658000000
4.2575000000 4.0497000000 2.7037000000
4.2571000000 3.0973000000 2.1791000000
4.2567000000 5.3553000000 1.9668000000
4.2565000000 5.5093000000 1.8735000000
4.2564000000 4.2273000000 2.6152000000
4.2562000000 3.1517000000 2.2152000000
4.2557000000 3.1229000000 2.2030000000
4.2556000000 3.3700000000 2.3411000000
4.2554000000 4.2828000000 2.5865000000
4.2552000000 3.7539000000 2.5651000000
4.2549000000 3.3570000000 2.3340000000
4.2546000000 1.4444000000 1.2332000000
4.2544000000 5.7310000000 1.7453000000
4.2542000000 7.2759000000 0.8356000000
4.2541000000 3.5965000000 2.4809000000
4.2540000000 2.4430000000 1.8042000000
4.2535000000 5.0301000000 2.1480000000
4.2535000000 7.6134000000 0.5238000000
4.2532000000 7.2031000000 0.8921000000
4.2528000000 1.2393000000 1.1106000000
4.2523000000 1.1987000000 1.0860000000
4.2518000000 4.0427000000 2.7104000000
4.2517000000 3.1522000000 2.2183000000
4.2511000000 0.9971000000 0.9723000000
4.2508000000 0.4766000000 0.5413000000
4.2505000000 3.9999000000 2.6889000000
4.2502000000 6.2927000000 1.4286000000
4.2498000000 7.9016000000 0.1849000000
4.2493000000 3.1507000000 2.2158000000
4.2486000000 7.2127000000 0.8937000000
4.2482000000 0.2726000000 0.3017000000
4.2476000000 3.0596000000 2.1679000000
4.0163000000 4.6941000000 2.5823000000
4.0116000000 6.4647000000 1.5679000000
4.0111000000 7.1572000000 1.0437000000
4.0105000000 4.4075000000 2.7598000000
4.0100000000 6.6285000000 1.4746000000
4.0092000000 3.2411000000 2.5184000000
4.0083000000 6.2776000000 1.6750000000
4.0080000000 7.4147000000 0.7465000000
4.0077000000 4.7285000000 2.5743000000
4.0072000000 8.0553000000 0.0762000000
4.0069000000 5.9927000000 1.8412000000
4.0064000000 6.7146000000 1.4240000000
4.0062000000 6.3726000000 1.6208000000
4.0058000000 6.7465000000 1.4157000000
4.0057000000 0.0265000000 0.0939000000
4.0054000000 2.9252000000 2.3370000000
4.0053000000 7.9535000000 0.1223000000
4.0051000000 0.0535000000 0.1262000000
4.0050000000 5.1018000000 2.3641000000
4.0048000000 7.5998000000 0.5367000000
4.0046000000 5.3166000000 2.2388000000
4.0043000000 2.7207000000 2.2200000000
4.0041000000 7.2249000000 0.9606000000
4.0038000000 4.6355000000 2.6341000000
4.0035000000 4.8652000000 2.4961000000
4.0031000000 6.3887000000 1.6208000000
4.0030000000 0.7828000000 0.8913000000
4.0028000000 4.7778000000 2.5496000000
4.0025000000 6.9159000000 1.2947000000
4.0020000000 4.4902000000 2.7160000000
4.0015000000 0.3743000000 0.4234000000
4.0013000000 4.6487000000 2.6286000000
4.0010000000 5.3954000000 2.1890000000
4.0008000000 3.6420000000 2.7573000000
4.0005000000 1.5749000000 1.5587000000
4.0001000000 6.8754000000 1.3232000000
3.9997000000 6.5783000000 1.5063000000
3.9987000000 1.2678000000 1.3800000000
3.9982000000 6.9194000000 1.2990000000
3.9974000000 0.6153000000 0.6986000000
3.7624000000 6.9753000000 1.2541000000
3.7608000000 4.7291000000 2.8207000000
3.7601000000 6.1821000000 1.9812000000
3.7593000000 7.1605000000 1.0354000000
3.7591000000 6.1143000000 2.0186000000
3.7587000000 4.8087000000 2.7741000000
3.7584000000 3.6535000000 3.0044000000
3.7581000000 5.2145000000 2.5487000000
3.7580000000 6.7657000000 1.4995000000
3.7573000000 2.0279000000 2.0683000000
3.7570000000 6.1635000000 1.9963000000
3.7568000000 2.3297000000 2.2400000000
3.7565000000 5.2581000000 2.5147000000
3.7563000000 5.7715000000 2.2188000000
3.7562000000 2.3833000000 2.2690000000
3.7559000000 7.4816000000 0.6689000000
3.7555000000 2.8104000000 2.5195000000
3.7553000000 0.2496000000 0.2757000000
3.7552000000 5.1969000000 2.5617000000
3.7551000000 3.8311000000 3.1086000000
3.7548000000 4.7666000000 2.8059000000
3.7545000000 4.0659000000 3.1944000000
3.7545000000 2.9252000000 2.5833000000
3.7542000000 5.2134000000 2.5434000000
3.7538000000 2.2937000000 2.2261000000
3.7533000000 1.9443000000 2.0203000000
3.7532000000 4.5210000000 2.9459000000
3.7530000000 5.8413000000 2.1843000000
3.7526000000 6.0359000000 2.0759000000
3.7525000000 3.7842000000 3.0869000000
3.7523000000 4.3462000000 3.0465000000
3.7520000000 6.7314000000 1.5391000000
3.7518000000 5.9515000000 2.1236000000
3.7513000000 5.1181000000 2.6096000000
3.7508000000 0.5739000000 0.6578000000
3.7507000000 0.5031000000 0.5731000000
3.7503000000 3.4529000000 2.9044000000
3.7495000000 1.3253000000 1.5223000000
3.7480000000 0.7143000000 0.8154000000
3.5127000000 2.2411000000 2.4335000000
3.5110000000 7.9909000000 0.0786000000
3.5099000000 8.0900000000 0.0367000000
3.5089000000 5.1975000000 2.8005000000
3.5085000000 6.1683000000 2.1816000000
3.5080000000 7.7347000000 0.3719000000
3.5077000000 5.3312000000 2.7301000000
3.5074000000 2.3111000000 2.4762000000
3.5072000000 3.4014000000 3.1105000000
3.5069000000 5.5826000000 2.5852000000
3.5067000000 2.2639000000 2.4618000000
3.5062000000 1.2303000000 1.4175000000
3.5059000000 1.4107000000 1.6210000000
3.5058000000 6.8936000000 1.3522000000
3.5056000000 5.5029000000 2.6303000000
3.5053000000 5.9018000000 2.3986000000
3.5048000000 1.5960000000 1.8321000000
3.5046000000 6.5078000000 1.7968000000
3.5044000000 3.8968000000 3.4008000000
3.5041000000 3.3465000000 3.0812000000
3.5040000000 3.3408000000 3.0779000000
3.5037000000 0.1070000000 0.1144000000
3.5035000000 1.9955000000 2.2853000000
3.5032000000 4.8986000000 2.9762000000
3.5030000000 6.1110000000 2.2393000000
3.5026000000 4.5000000000 3.2112000000
3.5025000000 0.4237000000 0.4822000000
3.5023000000 1.6906000000 1.9438000000
3.5022000000 2.0192000000 2.2960000000
3.5018000000 4.9794000000 2.9370000000
3.5013000000 2.4045000000 2.5403000000
3.5009000000 1.2189000000 1.4003000000
3.5005000000 5.3844000000 2.7027000000
3.5001000000 0.3021000000 0.3411000000
3.4998000000 2.3578000000 2.5148000000
3.4990000000 0.4670000000 0.5278000000
3.4985000000 1.8893000000 2.1726000000
3.4968000000 7.0498000000 1.1684000000
3.2617000000 7.7393000000 0.3707000000
3.2610000000 7.1752000000 1.0214000000
3.2600000000 7.6614000000 0.4641000000
3.2595000000 6.6311000000 1.6562000000
3.2591000000 6.2049000000 2.1517000000
3.2589000000 6.0118000000 2.3714000000
3.2582000000 2.9570000000 3.1072000000
3.2578000000 2.5577000000 2.8756000000
3.2571000000 4.7417000000 3.3196000000
3.2569000000 2.9947000000 3.1277000000
3.2563000000 4.0981000000 3.6931000000
3.2559000000 5.6524000000 2.7684000000
3.2557000000 4.0210000000 3.7029000000
3.2556000000 2.1020000000 2.4218000000
3.2552000000 7.8911000000 0.1981000000
3.2550000000 6.1174000000 2.2464000000
3.2549000000 4.8750000000 3.2509000000
3.2548000000 4.2671000000 3.5946000000
3.2545000000 6.6284000000 1.6614000000
3.2543000000 5.6312000000 2.7859000000
3.2539000000 1.4664000000 1.6914000000
3.2533000000 0.1791000000 0.1956000000
3.2531000000 4.0499000000 3.7079000000
3.2527000000 3.7002000000 3.5471000000
3.2523000000 6.7255000000 1.5462000000
3.2520000000 3.5783000000 3.4687000000
3.2516000000 1.9767000000 2.2758000000
3.2513000000 1.5207000000 1.7490000000
3.2508000000 0.9856000000 1.1326000000
3.2502000000 7.4433000000 0.7179000000
3.2488000000 0.0221000000 0.0896000000
3.2480000000 4.9298000000 3.2237000000
3.2454000000 2.1222000000 2.4401000000
3.0124000000 4.6844000000 3.5920000000
3.0108000000 2.1033000000 2.4218000000
3.0097000000 7.1390000000 1.0653000000
3.0091000000 2.5019000000 2.8859000000
3.0087000000 4.6495000000 3.6235000000
3.0082000000 4.7882000000 3.5428000000
3.0080000000 7.7031000000 0.4117000000
3.0078000000 1.5405000000 1.7772000000
3.0075000000 5.0132000000 3.4103000000
3.0072000000 6.4578000000 1.8523000000
3.0069000000 4.4200000000 3.7641000000
3.0067000000 5.6924000000 2.7459000000
3.0065000000 5.6416000000 2.8012000000
3.0063000000 2.0849000000 2.4022000000
3.0060000000 4.3998000000 3.7683000000
3.0057000000 5.5994000000 2.8500000000
3.0054000000 6.1511000000 2.2089000000
3.0051000000 7.4878000000 0.6628000000
3.0048000000 1.4048000000 1.6129000000
3.0046000000 6.2489000000 2.0934000000
3.0045000000 1.2877000000 1.4789000000
3.0042000000 3.7536000000 3.8157000000
3.0041000000 5.3493000000 3.1377000000
3.0038000000 3.5332000000 3.6918000000
3.0036000000 1.0946000000 1.2551000000
3.0035000000 3.9472000000 3.9303000000
3.0030000000 4.2260000000 3.8670000000
3.0028000000 3.5997000000 3.7308000000
3.0025000000 4.6108000000 3.6492000000
3.0020000000 3.7003000000 3.7899000000
3.0018000000 1.5237000000 1.7520000000
3.0016000000 4.8305000000 3.5229000000
3.0013000000 0.7948000000 0.9078000000
3.0010000000 3.0057000000 3.3888000000
3.0005000000 3.8097000000 3.8492000000
3.0001000000 7.0870000000 1.1206000000
2.9998000000 2.1490000000 2.4815000000
2.9991000000 2.8315000000 3.2500000000
2.9985000000 7.9640000000 0.1097000000
2.7628000000 7.9033000000 0.1813000000
2.7603000000 3.1159000000 3.5968000000
2.7598000000 7.0416000000 1.1814000000
2.7595000000 7.3537000000 0.8186000000
2.7588000000 7.6891000000 0.4272000000
2.7583000000 7.4777000000 0.6706000000
2.7578000000 1.0422000000 1.1961000000
2.7572000000 0.0543000000 0.1240000000
2.7570000000 2.7136000000 3.1350000000
2.7567000000 4.7560000000 3.7894000000
2.7564000000 3.0842000000 3.5606000000
2.7562000000 0.6900000000 0.7838000000
2.7557000000 2.7230000000 3.1371000000
2.7555000000 5.6863000000 2.7473000000
2.7554000000 4.8030000000 3.7511000000
2.7550000000 5.0349000000 3.5049000000
2.7548000000 1.6162000000 1.8593000000
2.7544000000 2.4535000000 2.8269000000
2.7542000000 5.1784000000 3.3374000000
2.7541000000 6.4516000000 1.8592000000
2.7539000000 1.4770000000 1.6995000000
2.7536000000 7.0673000000 1.1529000000
2.7535000000 6.4766000000 1.8297000000
2.7533000000 1.7984000000 2.0678000000
2.7530000000 3.6487000000 4.0097000000
2.7528000000 3.5624000000 3.9617000000
2.7525000000 7.6379000000 0.4872000000
2.7523000000 7.5529000000 0.5810000000
2.7517000000 2.0043000000 2.3096000000
2.7514000000 8.0149000000 0.1291000000
2.7511000000 5.4251000000 3.0494000000
2.7508000000 2.8150000000 3.2445000000
2.7499000000 0.1685000000 0.1855000000
2.7493000000 0.3519000000 0.3926000000
2.7477000000 0.0184000000 0.0903000000
2.7465000000 1.4835000000 1.7068000000
2.7441000000 0.8568000000 0.9797000000
2.5118000000 6.1487000000 2.2117000000
2.5105000000 3.8357000000 4.3603000000
2.5089000000 7.8724000000 0.2187000000
2.5080000000 3.8957000000 4.3963000000
2.5076000000 7.5595000000 0.5781000000
2.5074000000 5.5916000000 2.8647000000
2.5072000000 6.2852000000 2.0568000000
2.5069000000 1.0975000000 1.2543000000
2.5066000000 3.9842000000 4.4341000000
2.5062000000 3.4358000000 3.9604000000
2.5058000000 7.1805000000 1.0145000000
2.5056000000 5.0508000000 3.4854000000
2.5054000000 8.1022000000 0.1009000000
2.5049000000 1.8337000000 2.1120000000
2.5045000000 0.3604000000 0.4073000000
2.5040000000 2.1706000000 2.4992000000
2.5038000000 1.3491000000 1.5518000000
2.5036000000 0.7549000000 0.8595000000
2.5033000000 3.3287000000 3.8491000000
2.5029000000 3.5334000000 4.0765000000
2.5026000000 2.4493000000 2.8223000000
2.5022000000 2.7230000000 3.1423000000
2.5019000000 0.6909000000 0.7908000000
2.5017000000 0.2203000000 0.2389000000
2.5015000000 2.8614000000 3.3017000000
2.5009000000 1.0641000000 1.2195000000
2.5005000000 3.1217000000 3.6013000000
2.5004000000 0.0807000000 0.0828000000
2.4999000000 7.1338000000 1.0748000000
2.4996000000 0.9952000000 1.1400000000
2.4985000000 3.0472000000 3.5118000000
2.4977000000 2.3222000000 2.6759000000
2.4972000000 1.0953000000 1.2596000000
2.4960000000 0.6580000000 0.7478000000
2.4929000000 3.6353000000 4.1906000000
2.2625000000 6.6033000000 1.6881000000
2.2615000000 1.2878000000 1.4802000000
2.2605000000 7.0756000000 1.1344000000
2.2593000000 6.0203000000 2.3552000000
2.2586000000 7.6735000000 0.4409000000
2.2576000000 4.8057000000 3.7674000000
2.2574000000 7.7039000000 0.4101000000
2.2572000000 6.1949000000 2.1625000000
2.2569000000 7.1709000000 1.0263000000
2.2565000000 4.0991000000 4.5662000000
2.2562000000 7.8770000000 0.2166000000
2.2560000000 5.6406000000 2.7950000000
2.2558000000 6.0160000000 2.3721000000
2.2555000000 1.5549000000 1.7899000000
2.2552000000 3.2519000000 3.7495000000
2.2550000000 5.4074000000 3.0718000000
2.2546000000 7.2475000000 0.9433000000
2.2543000000 7.7999000000 0.3085000000
2.2538000000 6.4271000000 1.8903000000
2.2535000000 5.1772000000 3.3326000000
2.2534000000 6.1946000000 2.1601000000
2.2531000000 0.6409000000 0.7324000000
2.2529000000 7.0728000000 1.1466000000
2.2527000000 0.7727000000 0.8795000000
2.2525000000 6.6116000000 1.6802000000
2.2523000000 5.8133000000 2.5957000000
2.2520000000 4.8931000000 3.6632000000
2.2515000000 2.0754000000 2.3868000000
2.2513000000 6.5744000000 1.7176000000
2.2510000000 3.3181000000 3.8284000000
2.2507000000 2.0151000000 2.3208000000
2.2503000000 0.0789000000 0.0769000000
2.2496000000 2.5206000000 2.9019000000
2.2493000000 5.1111000000 3.4113000000
2.2489000000 3.8550000000 4.4349000000
2.2482000000 0.5172000000 0.5896000000
2.2470000000 2.3083000000 2.6643000000
2.2445000000 0.9912000000 1.1394000000
2.0107000000 6.5690000000 1.7276000000
2.0098000000 4.6365000000 3.9456000000
2.0093000000 5.2606000000 3.2433000000
2.0092000000 2.6113000000 3.0106000000
2.0088000000 7.8605000000 0.2340000000
2.0084000000 3.4117000000 3.9233000000
2.0081000000 2.6666000000 3.0736000000
2.0078000000 6.5906000000 1.7020000000
2.0073000000 7.5727000000 0.5741000000
2.0070000000 6.4706000000 1.8354000000
2.0065000000 3.8913000000 4.2523000000
2.0063000000 4.1027000000 4.2924000000
2.0059000000 7.6010000000 0.5260000000
2.0057000000 6.9589000000 1.2727000000
2.0053000000 3.6496000000 4.1117000000
2.0048000000 8.1248000000 0.0731000000
2.0045000000 4.4050000000 4.1222000000
2.0044000000 5.5391000000 2.9107000000
2.0043000000 2.1869000000 2.5192000000
2.0042000000 4.1492000000 4.2699000000
2.0040000000 4.8816000000 3.6768000000
2.0038000000 6.2946000000 2.0410000000
2.0035000000 0.4341000000 0.4938000000
2.0033000000 1.3804000000 1.5842000000
2.0030000000 0.7828000000 0.8983000000
2.0028000000 6.9914000000 1.2425000000
2.0024000000 4.0512000000 4.3032000000
2.0020000000 4.8168000000 3.7515000000
2.0015000000 0.8436000000 0.9680000000
2.0009000000 1.1077000000 1.2726000000
2.0005000000 3.3665000000 3.8772000000
2.0002000000 2.8411000000 3.2741000000
1.9995000000 4.5645000000 4.0007000000
1.9990000000 0.3370000000 0.3815000000
1.9982000000 1.7149000000 1.9737000000
1.9968000000 1.2086000000 1.3865000000
1.9956000000 5.2258000000 3.2864000000
1.7622000000 3.4173000000 3.7376000000
1.7613000000 4.2253000000 3.9780000000
1.7609000000 4.6993000000 3.7035000000
1.7592000000 3.8558000000 3.9855000000
1.7588000000 1.9460000000 2.2429000000
1.7581000000 7.4799000000 0.6754000000
1.7578000000 5.9919000000 2.3940000000
1.7575000000 6.9423000000 1.2980000000
1.7571000000 4.6478000000 3.7353000000
1.7568000000 1.4688000000 1.6942000000
1.7566000000 0.8432000000 0.9668000000
1.7564000000 0.6548000000 0.7478000000
1.7561000000 0.5570000000 0.6385000000
1.7556000000 6.4841000000 1.8269000000
1.7554000000 6.0570000000 2.3185000000
1.7550000000 1.9359000000 2.2288000000
1.7548000000 0.2378000000 0.2623000000
1.7544000000 3.7588000000 3.9250000000
1.7542000000 5.7757000000 2.6496000000
1.7540000000 3.4955000000 3.7735000000
1.7538000000 2.9877000000 3.4310000000
1.7534000000 3.2329000000 3.6239000000
1.7532000000 7.1357000000 1.0723000000
1.7529000000 6.5143000000 1.7903000000
1.7527000000 3.5986000000 3.8302000000
1.7525000000 6.8687000000 1.3805000000
1.7522000000 2.2486000000 2.5926000000
1.7520000000 1.3656000000 1.5715000000
1.7519000000 7.1135000000 1.0959000000
1.7516000000 4.3392000000 3.9051000000
1.7513000000 3.6049000000 3.8335000000
1.7510000000 3.7539000000 3.9212000000
1.7506000000 7.9714000000 0.1031000000
1.7499000000 2.0053000000 2.3149000000
1.7496000000 2.8905000000 3.3390000000
1.7492000000 1.5196000000 1.7484000000
1.7482000000 5.7175000000 2.7094000000
1.7469000000 0.4737000000 0.5369000000
1.7449000000 3.4680000000 3.7414000000
1.5119000000 5.5201000000 2.9223000000
1.5107000000 6.8866000000 1.3615000000
1.5104000000 4.5898000000 3.5194000000
1.5102000000 7.8801000000 0.2057000000
1.5088000000 8.0414000000 0.0990000000
1.5087000000 0.5586000000 0.6391000000
1.5084000000 3.1379000000 3.3154000000
1.5081000000 0.3889000000 0.4373000000
1.5078000000 7.2186000000 0.9760000000
1.5076000000 4.6696000000 3.4659000000
1.5074000000 3.3262000000 3.4265000000
1.5070000000 7.3278000000 0.8484000000
1.5068000000 7.9605000000 0.1182000000
1.5065000000 3.7488000000 3.6720000000
1.5063000000 4.0198000000 3.8064000000
1.5061000000 4.6344000000 3.4908000000
1.5057000000 2.3463000000 2.7031000000
1.5054000000 4.2582000000 3.7049000000
1.5051000000 7.1372000000 1.0671000000
1.5050000000 2.5606000000 2.9279000000
1.5048000000 2.2561000000 2.5994000000
1.5045000000 0.6119000000 0.6942000000
1.5043000000 3.8739000000 3.7362000000
1.5042000000 4.7274000000 3.4311000000
1.5040000000 3.1237000000 3.3028000000
1.5038000000 2.7243000000 3.0751000000
1.5036000000 3.1700000000 3.3275000000
1.5031000000 7.2563000000 0.9375000000
1.5028000000 4.2139000000 3.7265000000
1.5025000000 6.9667000000 1.2667000000
1.5021000000 0.8169000000 0.9312000000
1.5018000000 4.0498000000 3.8044000000
1.5017000000 7.2231000000 0.9700000000
1.5013000000 0.5797000000 0.6580000000
1.5010000000 2.6176000000 2.9921000000
1.5005000000 3.1200000000 3.2977000000
1.5002000000 4.5837000000 3.5127000000
1.4999000000 0.1570000000 0.1668000000
1.4995000000 5.2422000000 3.1295000000
1.4988000000 3.3910000000 3.4584000000
1.4975000000 1.4331000000 1.6497000000
1.4955000000 6.1654000000 2.1928000000
1.4934000000 1.9210000000 2.2139000000
1.2625000000 6.7124000000 1.5566000000
1.2607000000 5.0305000000 3.0135000000
1.2600000000 4.3970000000 3.3779000000
1.2596000000 6.3779000000 1.9501000000
1.2591000000 5.4563000000 2.7616000000
1.2583000000 8.1199000000 0.0820000000
1.2580000000 6.6087000000 1.6848000000
1.2575000000 6.1163000000 2.2476000000
1.2574000000 2.9154000000 2.9395000000
1.2572000000 5.1692000000 2.9296000000
1.2570000000 0.5306000000 0.6045000000
1.2567000000 4.2733000000 3.4458000000
1.2564000000 6.9072000000 1.3348000000
1.2562000000 5.8486000000 2.5155000000
1.2558000000 6.1984000000 2.1617000000
1.2556000000 1.7176000000 1.9764000000
1.2555000000 3.3094000000 3.1607000000
1.2552000000 6.8831000000 1.3593000000
1.2550000000 1.6940000000 1.9501000000
1.2548000000 6.3214000000 2.0138000000
1.2543000000 3.7245000000 3.4029000000
1.2540000000 0.7665000000 0.8806000000
1.2539000000 7.9544000000 0.1203000000
1.2535000000 6.0596000000 2.3127000000
1.2532000000 5.4116000000 2.7784000000
1.2529000000 2.0506000000 2.3638000000
1.2527000000 1.8310000000 2.1061000000
1.2525000000 2.1149000000 2.4158000000
1.2521000000 3.0631000000 3.0189000000
1.2517000000 2.2213000000 2.5132000000
1.2513000000 4.2205000000 3.4716000000
1.2509000000 1.5379000000 1.7672000000
1.2505000000 6.3629000000 1.9651000000
1.2498000000 2.5729000000 2.7311000000
1.2495000000 2.2582000000 2.5322000000
1.2491000000 1.6922000000 1.9443000000
1.2488000000 1.1560000000 1.3294000000
1.2480000000 3.8088000000 3.4431000000
1.2470000000 4.2223000000 3.4678000000
1.2456000000 3.3927000000 3.2012000000
1.2449000000 1.6813000000 1.9333000000
1.0106000000 3.8884000000 3.2523000000
1.0096000000 5.5913000000 2.4386000000
1.0085000000 3.8137000000 3.2036000000
1.0082000000 1.8818000000 2.0883000000
1.0075000000 7.4920000000 0.6589000000
1.0070000000 6.6273000000 1.6591000000
1.0067000000 4.9628000000 2.7993000000
1.0065000000 2.9380000000 2.7012000000
1.0063000000 0.3653000000 0.4158000000
1.0060000000 1.3760000000 1.5727000000
1.0056000000 7.1570000000 1.0445000000
1.0053000000 7.0998000000 1.1108000000
1.0049000000 0.0839000000 0.0846000000
1.0046000000 0.9460000000 1.0846000000
1.0044000000 0.7047000000 0.8075000000
1.0042000000 3.7860000000 3.1847000000
1.0040000000 3.1699000000 2.8304000000
1.0039000000 7.5364000000 0.6057000000
1.0037000000 3.3197000000 2.9117000000
1.0035000000 1.3035000000 1.4974000000
1.0029000000 5.2350000000 2.6406000000
1.0027000000 1.5363000000 1.7715000000
1.0023000000 3.2448000000 2.8719000000
1.0017000000 0.4752000000 0.5386000000
1.0013000000 1.5033000000 1.7278000000
1.0010000000 0.4028000000 0.4568000000
1.0007000000 1.7609000000 1.9936000000
1.0004000000 2.3557000000 2.3540000000
1.0002000000 1.3651000000 1.5656000000
1.0000000000 1.8202000000 2.0278000000
0.9997000000 3.4623000000 2.9879000000
0.9994000000 7.8160000000 0.2865000000
0.9991000000 0.1847000000 0.2025000000
0.9983000000 2.3879000000 2.3722000000
0.9974000000 1.7344000000 1.9738000000
0.9971000000 5.0957000000 2.7047000000
0.9944000000 2.8895000000 2.6554000000
0.7630000000 5.5722000000 2.1926000000
0.7614000000 1.5497000000 1.6534000000
0.7602000000 4.5312000000 2.8009000000
0.7592000000 7.1859000000 1.0112000000
0.7590000000 1.4742000000 1.6108000000
0.7584000000 3.0953000000 2.5424000000
0.7578000000 4.8816000000 2.5957000000
0.7576000000 7.2596000000 0.9326000000
0.7572000000 5.9673000000 1.9623000000
0.7569000000 5.8561000000 2.0369000000
0.7564000000 6.4280000000 1.6961000000
0.7561000000 6.8715000000 1.3724000000
0.7558000000 4.7103000000 2.6889000000
0.7554000000 0.9955000000 1.1385000000
0.7553000000 0.8243000000 0.9402000000
0.7549000000 6.2466000000 1.8078000000
0.7547000000 2.6320000000 2.2752000000
0.7545000000 5.5506000000 2.1967000000
0.7543000000 2.6341000000 2.2709000000
0.7542000000 4.9292000000 2.5658000000
0.7540000000 6.2937000000 1.7781000000
0.7536000000 2.7273000000 2.3257000000
0.7533000000 3.0960000000 2.5351000000
0.7532000000 5.7904000000 2.0669000000
0.7530000000 0.2339000000 0.2611000000
0.7528000000 0.9214000000 1.0580000000
0.7524000000 2.7928000000 2.3615000000
0.7523000000 5.2954000000 2.3515000000
0.7520000000 3.0870000000 2.5325000000
0.7515000000 1.8215000000 1.7999000000
0.7510000000 2.3619000000 2.1082000000
0.7507000000 0.7770000000 0.8870000000
0.7505000000 2.6089000000 2.2522000000
0.7503000000 0.6501000000 0.7354000000
0.7497000000 0.6447000000 0.7422000000
0.7488000000 2.8849000000 2.4108000000
0.7487000000 2.3222000000 2.0861000000
0.7476000000 5.5057000000 2.2275000000
0.7459000000 0.9803000000 1.1170000000
0.5140000000 3.7512000000 2.6729000000
0.5120000000 5.2058000000 2.1587000000
0.5110000000 4.8993000000 2.3381000000
0.5101000000 6.9313000000 1.1624000000
0.5099000000 3.9359000000 2.7786000000
0.5093000000 7.2560000000 0.9153000000
0.5086000000 5.1559000000 2.1885000000
0.5083000000 7.9146000000 0.1679000000
0.5079000000 4.8875000000 2.3418000000
0.5073000000 0.0626000000 0.0647000000
0.5063000000 5.0596000000 2.2408000000
0.5062000000 0.1947000000 0.2162000000
0.5058000000 6.3814000000 1.4714000000
0.5055000000 5.7753000000 1.8237000000
0.5051000000 3.8128000000 2.7029000000
0.5044000000 3.2566000000 2.3817000000
0.5040000000 6.0008000000 1.6945000000
0.5037000000 2.9571000000 2.2095000000
0.5034000000 2.6945000000 2.0531000000
0.5030000000 4.8632000000 2.3506000000
0.5029000000 6.4519000000 1.4307000000
0.5025000000 4.8772000000 2.3372000000
0.5024000000 6.0318000000 1.6687000000
0.5023000000 4.3928000000 2.6219000000
0.5020000000 0.9814000000 1.0543000000
0.5018000000 3.1540000000 2.3182000000
0.5009000000 0.3641000000 0.4062000000
0.5002000000 0.6747000000 0.7711000000
0.4996000000 2.3643000000 1.8554000000
0.4988000000 0.0501000000 0.1205000000
0.4982000000 1.7677000000 1.5112000000
0.4976000000 1.2827000000 1.2304000000
0.4945000000 2.3711000000 1.8532000000
0.2614000000 6.5059000000 1.1566000000
0.2610000000 1.1014000000 0.8840000000
0.2597000000 2.5420000000 1.7238000000
0.2592000000 3.7095000000 2.3954000000
0.2586000000 6.2470000000 1.3009000000
0.2582000000 1.8118000000 1.2999000000
0.2577000000 3.9283000000 2.5284000000
0.2574000000 2.8194000000 1.8776000000
0.2572000000 4.5466000000 2.2826000000
0.2568000000 7.8291000000 0.2716000000
0.2563000000 3.4536000000 2.2436000000
0.2561000000 6.2502000000 1.3048000000
0.2556000000 3.8260000000 2.4608000000
0.2553000000 3.7598000000 2.4239000000
0.2551000000 6.2798000000 1.2798000000
0.2548000000 4.1188000000 2.5294000000
0.2546000000 7.7826000000 0.3235000000
0.2544000000 1.5237000000 1.1262000000
0.2540000000 5.8373000000 1.5386000000
0.2538000000 0.5577000000 0.5638000000
0.2535000000 0.7227000000 0.6614000000
0.2533000000 1.6574000000 1.2074000000
0.2530000000 3.9364000000 2.5183000000
0.2529000000 4.5025000000 2.3076000000
0.2527000000 5.3418000000 1.8270000000
0.2525000000 7.6068000000 0.4941000000
0.2523000000 0.9100000000 0.7683000000
0.2521000000 0.7526000000 0.6789000000
0.2516000000 6.2416000000 1.2991000000
0.2515000000 5.7641000000 1.5702000000
0.2513000000 3.8692000000 2.4828000000
0.2508000000 5.6354000000 1.6500000000
0.2504000000 7.2659000000 0.7065000000
0.2497000000 3.1892000000 2.0805000000
0.2495000000 1.2365000000 0.9507000000
0.2491000000 4.0365000000 2.5555000000
0.2484000000 0.8606000000 0.7360000000
0.2500000000 3.0999000000 2.0311000000
0.2471000000 0.8786000000 0.7488000000
0.0156000000 7.9592000000 0.0533000000
0.0129000000 7.3733000000 0.4023000000
0.0109000000 5.4696000000 1.5062000000
0.0097000000 4.8038000000 1.8938000000
0.0089000000 3.0026000000 1.7354000000
0.0084000000 7.5292000000 0.3076000000
0.0079000000 6.9723000000 0.6276000000
0.0077000000 6.3959000000 0.9664000000
0.0068000000 1.7889000000 1.0298000000
0.0066000000 1.3838000000 0.7933000000
0.0066000000 3.6331000000 2.0959000000
0.0061000000 5.5806000000 1.4429000000
0.0060000000 6.4654000000 0.9285000000
0.0055000000 6.3246000000 1.0017000000
0.0054000000 4.9546000000 1.7972000000
0.0053000000 0.2768000000 0.1485000000
0.0049000000 0.6657000000 0.3797000000
0.0046000000 4.6634000000 1.9605000000
0.0045000000 5.6057000000 1.4214000000
0.0042000000 6.7608000000 0.7542000000
0.0040000000 3.2339000000 1.8654000000
0.0037000000 5.6371000000 1.4014000000
0.0035000000 2.2900000000 1.3200000000
0.0032000000 1.0366000000 0.5962000000
0.0030000000 0.0726000000 0.0883000000
0.0029000000 2.5307000000 1.4609000000
0.0028000000 2.7388000000 1.5798000000
0.0026000000 3.0452000000 1.7517000000
0.0023000000 2.3685000000 1.3616000000
0.0022000000 1.8516000000 1.0641000000
0.0020000000 3.1629000000 1.8223000000
0.0018000000 0.1178000000 0.0504000000
0.0014000000 4.1021000000 2.2886000000
0.0012000000 4.4876000000 2.0602000000
0.0010000000 0.4094000000 0.2304000000
0.0006000000 7.9283000000 0.0696000000
0.0004000000 1.7474000000 1.0009000000
-0.0002000000 0.8646000000 0.4849000000
-0.0007000000 6.8621000000 0.6875000000
-0.0012000000 0.6004000000 0.3349000000
-0.0019000000 2.7503000000 1.5803000000
-0.0025000000 1.7444000000 0.9921000000
-0.0041000000 4.1545000000 2.2452000000
-0.2391000000 2.6449000000 1.2812000000
-0.2397000000 6.9019000000 0.4257000000
-0.2405000000 1.5474000000 0.6484000000
-0.2416000000 6.8446000000 0.4525000000
-0.2419000000 7.5076000000 0.0666000000
-0.2420000000 1.8711000000 0.8254000000
-0.2427000000 7.6537000000 0.0575000000
-0.2428000000 4.2857000000 1.9401000000
-0.2433000000 5.0029000000 1.5155000000
-0.2437000000 0.3123000000 0.0747000000
-0.2440000000 4.1482000000 2.0132000000
-0.2443000000 6.0933000000 0.8878000000
-0.2447000000 5.0433000000 1.4903000000
-0.2450000000 3.2332000000 1.6150000000
-0.2451000000 7.1155000000 0.2994000000
-0.2453000000 7.0265000000 0.3455000000
-0.2455000000 4.8124000000 1.6290000000
-0.2457000000 6.6932000000 0.5370000000
-0.2459000000 4.5464000000 1.7780000000
-0.2461000000 3.0628000000 1.5143000000
-0.2463000000 5.1316000000 1.4414000000
-0.2467000000 1.7560000000 0.7581000000
-0.2469000000 7.1383000000 0.2782000000
-0.2471000000 6.1319000000 0.8594000000
-0.2475000000 0.5922000000 0.0782000000
-0.2478000000 4.3863000000 1.8752000000
-0.2479000000 7.6382000000 0.0575000000
-0.2481000000 4.6961000000 1.6924000000
-0.2482000000 2.8087000000 1.3691000000
-0.2487000000 0.9010000000 0.2524000000
-0.2489000000 1.1600000000 0.4099000000
-0.2492000000 6.7211000000 0.5166000000
-0.2496000000 2.7141000000 1.3084000000
-0.2499000000 7.0447000000 0.3349000000
-0.2505000000 1.3712000000 0.5298000000
-0.2507000000 0.9050000000 0.2579000000
-0.2510000000 1.3415000000 0.5145000000
-0.2518000000 2.0164000000 0.9052000000
-0.2548000000 0.4309000000 0.0580000000
-0.4898000000 2.2219000000 0.7825000000
-0.4903000000 5.7801000000 0.8230000000
-0.4909000000 3.6068000000 1.5854000000
-0.4918000000 4.0835000000 1.7881000000
-0.4925000000 6.3144000000 0.5101000000
-0.4931000000 5.4179000000 1.0283000000
-0.4934000000 1.1994000000 0.1878000000
-0.4935000000 6.0995000000 0.6335000000
-0.4939000000 0.8653000000 0.0665000000
-0.4942000000 5.8911000000 0.7582000000
-0.4944000000 4.5379000000 1.5347000000
-0.4949000000 4.3089000000 1.6713000000
-0.4954000000 0.6785000000 0.0389000000
-0.4958000000 5.1891000000 1.1593000000
-0.4960000000 0.9255000000 0.1007000000
-0.4962000000 6.0625000000 0.6536000000
-0.4965000000 6.1649000000 0.5959000000
-0.4967000000 4.6534000000 1.4652000000
-0.4969000000 2.1855000000 0.7502000000
-0.4972000000 3.2608000000 1.3820000000
-0.4975000000 5.2901000000 1.0977000000
-0.4977000000 5.0784000000 1.2239000000
-0.4979000000 5.6554000000 0.8910000000
-0.4981000000 2.3697000000 0.8594000000
-0.4984000000 4.6702000000 1.4567000000
-0.4987000000 4.9523000000 1.2891000000
-0.4990000000 6.1915000000 0.5764000000
-0.5001000000 1.0327000000 0.0908000000
-0.5003000000 1.5054000000 0.3541000000
-0.5012000000 2.7718000000 1.0912000000
-0.5025000000 1.3523000000 0.2674000000
-0.5034000000 2.7339000000 1.0631000000
-0.5073000000 5.6150000000 0.9027000000
-0.7396000000 2.6799000000 0.7962000000
-0.7406000000 4.5553000000 1.2844000000
-0.7413000000 6.2976000000 0.2691000000
-0.7428000000 1.6421000000 0.1943000000
-0.7433000000 6.4849000000 0.1624000000
-0.7437000000 4.4157000000 1.3597000000
-0.7439000000 4.2005000000 1.4906000000
-0.7442000000 5.5055000000 0.7355000000
-0.7447000000 3.6986000000 1.3801000000
-0.7451000000 5.1293000000 0.9415000000
-0.7455000000 4.4169000000 1.3539000000
-0.7458000000 1.3007000000 0.0741000000
-0.7460000000 6.8941000000 0.0699000000
-0.7464000000 1.3167000000 0.0782000000
-0.7469000000 5.1903000000 0.9083000000
-0.7472000000 3.4926000000 1.2621000000
-0.7474000000 6.9512000000 0.0341000000
-0.7477000000 3.4664000000 1.2461000000
-0.7480000000 1.9932000000 0.3945000000
-0.7483000000 5.5219000000 0.7137000000
-0.7485000000 4.0223000000 1.5439000000
-0.7487000000 1.5276000000 0.1148000000
-0.7490000000 3.1629000000 1.0702000000
-0.7494000000 1.1764000000 0.0728000000
-0.7497000000 1.8988000000 0.3307000000
-0.7498000000 4.1070000000 1.5305000000
-0.7504000000 4.2457000000 1.4460000000
-0.7507000000 1.4368000000 0.0686000000
-0.7541000000 2.3597000000 0.5941000000
-0.9878000000 5.5926000000 0.4329000000
-0.9897000000 6.2433000000 0.1248000000
-0.9913000000 4.7936000000 0.8922000000
-0.9927000000 2.9628000000 0.7105000000
-0.9933000000 4.3039000000 1.1732000000
-0.9938000000 4.7596000000 0.9099000000
-0.9940000000 5.4833000000 0.4906000000
-0.9944000000 5.3705000000 0.5526000000
-0.9946000000 3.9424000000 1.2692000000
-0.9947000000 3.6660000000 1.1089000000
-0.9950000000 3.3489000000 0.9249000000
-0.9953000000 3.6935000000 1.1281000000
-0.9955000000 1.8381000000 0.1309000000
-0.9957000000 4.8007000000 0.8796000000
-0.9964000000 3.8347000000 1.2052000000
-0.9968000000 3.1082000000 0.7859000000
-0.9970000000 2.9762000000 0.7080000000
-0.9974000000 3.1776000000 0.8292000000
-0.9978000000 5.8056000000 0.3012000000
-0.9985000000 2.2078000000 0.2638000000
-0.9993000000 4.7889000000 0.8870000000
-0.9999000000 3.9646000000 1.2771000000
-1.0004000000 2.4845000000 0.4217000000
-1.0019000000 2.4616000000 0.4077000000
-1.0030000000 4.7833000000 0.8874000000
-1.2407000000 3.4522000000 0.7444000000
-1.2422000000 6.0608000000 0.0541000000
-1.2427000000 6.1466000000 0.0089000000
-1.2433000000 4.0248000000 1.0526000000
-1.2436000000 3.6250000000 0.8431000000
-1.2440000000 3.5933000000 0.8235000000
-1.2445000000 2.2590000000 0.1253000000
-1.2449000000 3.3713000000 0.6907000000
-1.2454000000 4.9605000000 0.5374000000
-1.2457000000 5.4563000000 0.2524000000
-1.2459000000 2.9766000000 0.4659000000
-1.2461000000 3.3068000000 0.6545000000
-1.2466000000 2.5410000000 0.2125000000
-1.2468000000 4.2592000000 0.9424000000
-1.2472000000 5.9532000000 0.0433000000
-1.2477000000 6.1051000000 0.0231000000
-1.2484000000 3.0386000000 0.4961000000
-1.2490000000 2.9600000000 0.4478000000
-1.2493000000 3.8060000000 0.9336000000
-1.2514000000 3.2368000000 0.6054000000
-1.2519000000 2.7505000000 0.3228000000
-1.2528000000 2.6571000000 0.2761000000
-1.4864000000 4.6953000000 0.4503000000
-1.4902000000 4.2297000000 0.7164000000
-1.4920000000 5.0019000000 0.2669000000
-1.4926000000 5.1449000000 0.1800000000
-1.4940000000 5.2088000000 0.1424000000
-1.4944000000 5.4345000000 0.0907000000
-1.4952000000 3.5130000000 0.5261000000
-1.4955000000 3.5997000000 0.5728000000
-1.4961000000 5.5261000000 0.0360000000
-1.4967000000 3.0373000000 0.2500000000
-1.4977000000 3.2105000000 0.3416000000
-1.4982000000 3.3884000000 0.4438000000
-1.5000000000 5.3983000000 0.1060000000
-1.5008000000 2.8454000000 0.1298000000
-1.7403000000 4.8916000000 0.0867000000
-1.7413000000 4.8546000000 0.1005000000
-1.7427000000 4.0882000000 0.5402000000
-1.7439000000 3.4278000000 0.2298000000
-1.7451000000 3.0156000000 0.0585000000
-1.7456000000 4.0419000000 0.5572000000
-1.7460000000 4.1418000000 0.5113000000
-1.7467000000 2.9692000000 0.0317000000
-1.7478000000 3.0784000000 0.0933000000
-1.7486000000 2.7917000000 -0.0014000000
-1.7500000000 4.6307000000 0.2238000000
-1.9922000000 4.6988000000 0.0937000000
-1.9941000000 4.0993000000 0.2903000000
-1.9959000000 3.3040000000 0.0543000000
-1.9967000000 4.8280000000 0.0091000000
-1.9981000000 4.5460000000 0.0993000000
-1.9985000000 3.6468000000 0.0999000000
-1.9996000000 3.8248000000 0.2005000000
