4.7529000000 2.7105000000 0.1313000000
4.7528000000 3.1278000000 0.1222000000
4.7523000000 3.1464000000 0.1134000000
4.7518000000 2.1931000000 0.0084000000
4.7517000000 3.4128000000 0.0843000000
4.7516000000 2.4430000000 0.0274000000
4.7500000000 2.8580000000 0.1833000000
4.7490000000 2.3870000000 0.0830000000
4.7486000000 2.7971000000 0.1708000000
4.7481000000 2.8028000000 0.1761000000
4.7470000000 2.8372000000 0.1879000000
4.5113000000 2.7955000000 0.3400000000
4.5103000000 1.9074000000 0.0619000000
4.5092000000 2.7803000000 0.3296000000
4.5084000000 3.5470000000 0.1251000000
4.5084000000 3.7206000000 0.0621000000
4.5083000000 1.8306000000 0.0278000000
4.5082000000 1.9319000000 0.0714000000
4.5081000000 3.2116000000 0.2576000000
4.5080000000 2.5001000000 0.2257000000
4.5077000000 2.0729000000 0.0500000000
4.5073000000 2.8394000000 0.3631000000
4.5073000000 2.8996000000 0.3724000000
4.5070000000 2.9678000000 0.3618000000
4.5066000000 2.0931000000 0.0593000000
4.5061000000 2.7929000000 0.3381000000
4.5059000000 2.6389000000 0.2807000000
4.5057000000 2.1677000000 0.0920000000
4.5057000000 3.8225000000 0.0945000000
4.5048000000 3.4925000000 0.1491000000
4.5043000000 3.6586000000 0.0923000000
4.5042000000 3.0378000000 0.3300000000
4.5040000000 3.5049000000 0.1431000000
4.5039000000 2.4324000000 0.1958000000
4.5038000000 3.7567000000 0.0449000000
4.5036000000 2.1313000000 0.0772000000
4.5037000000 3.1979000000 0.2679000000
4.5033000000 2.1030000000 0.0674000000
4.5033000000 2.6987000000 0.2946000000
4.5030000000 3.5196000000 0.1442000000
4.5030000000 1.9619000000 0.0838000000
4.5023000000 3.3022000000 0.2269000000
4.5018000000 2.2946000000 0.1486000000
4.5013000000 3.5071000000 0.1512000000
4.5010000000 1.9141000000 0.0713000000
4.5008000000 2.3048000000 0.1496000000
4.5008000000 3.6306000000 0.0953000000
4.5003000000 1.8775000000 0.0496000000
4.4983000000 2.8001000000 0.3483000000
4.4978000000 2.1443000000 0.0840000000
4.4970000000 1.8119000000 0.0279000000
4.2652000000 4.2048000000 0.0316000000
4.2596000000 2.4824000000 0.3841000000
4.2589000000 2.1536000000 0.2524000000
4.2584000000 3.8920000000 0.1576000000
4.2583000000 4.1341000000 0.0670000000
4.2582000000 2.3412000000 0.3278000000
4.2579000000 2.7682000000 0.4961000000
4.2579000000 3.3949000000 0.3629000000
4.2574000000 4.0260000000 0.1084000000
4.2572000000 3.5024000000 0.3208000000
4.2570000000 2.2643000000 0.2999000000
4.2567000000 3.6992000000 0.2399000000
4.2563000000 1.5145000000 0.0766000000
4.2559000000 3.4061000000 0.3532000000
4.2553000000 3.3717000000 0.3675000000
4.2544000000 2.5869000000 0.4293000000
4.2542000000 4.1026000000 0.0812000000
4.2539000000 2.1299000000 0.2476000000
4.2538000000 2.1445000000 0.2496000000
4.2538000000 3.2400000000 0.4233000000
4.2535000000 3.3621000000 0.3756000000
4.2529000000 1.4954000000 0.0757000000
4.2529000000 3.5910000000 0.2812000000
4.2528000000 2.5274000000 0.4088000000
4.2526000000 2.6426000000 0.4554000000
4.2525000000 3.0699000000 0.4927000000
4.2524000000 1.7596000000 0.1029000000
4.2521000000 1.9182000000 0.1646000000
4.2521000000 2.8596000000 0.5272000000
4.2516000000 1.7439000000 0.0944000000
4.2516000000 2.7013000000 0.4847000000
4.2510000000 4.0727000000 0.0940000000
4.2509000000 3.0445000000 0.5022000000
4.2506000000 3.5732000000 0.2882000000
4.2500000000 1.5008000000 0.0705000000
4.2501000000 2.1848000000 0.2784000000
4.2499000000 2.3222000000 0.3275000000
4.2496000000 2.6116000000 0.4485000000
4.2485000000 3.0451000000 0.5044000000
4.2485000000 3.1667000000 0.4635000000
4.2480000000 1.8982000000 0.1670000000
4.2475000000 3.5857000000 0.2946000000
4.2463000000 3.5498000000 0.3027000000
4.2458000000 1.5217000000 0.0868000000
4.2453000000 4.3132000000 0.0838000000
4.0150000000 4.6052000000 0.0464000000
4.0118000000 2.4176000000 0.5265000000
4.0111000000 1.4316000000 0.1307000000
4.0103000000 2.7188000000 0.6481000000
4.0096000000 2.1259000000 0.4135000000
4.0094000000 3.0536000000 0.6660000000
4.0092000000 3.9632000000 0.3057000000
4.0088000000 4.1599000000 0.2235000000
4.0084000000 2.3434000000 0.5040000000
4.0074000000 3.0767000000 0.6597000000
4.0073000000 1.9771000000 0.3498000000
4.0069000000 1.6345000000 0.2212000000
4.0068000000 4.8472000000 0.0280000000
4.0061000000 2.2800000000 0.4756000000
4.0060000000 3.4477000000 0.5136000000
4.0060000000 2.1989000000 0.4438000000
4.0056000000 3.7282000000 0.3993000000
4.0055000000 1.6622000000 0.2336000000
4.0053000000 3.3498000000 0.5515000000
4.0052000000 2.3310000000 0.4951000000
4.0052000000 3.6727000000 0.4198000000
4.0048000000 4.6512000000 0.0315000000
4.0048000000 2.4047000000 0.5315000000
4.0044000000 4.8670000000 0.0263000000
4.0044000000 2.4687000000 0.5576000000
4.0041000000 1.4100000000 0.1315000000
4.0040000000 2.0024000000 0.3665000000
4.0039000000 2.7520000000 0.6706000000
4.0038000000 3.0890000000 0.6578000000
4.0038000000 4.5572000000 0.0654000000
4.0038000000 4.3058000000 0.1698000000
4.0036000000 3.4738000000 0.5037000000
4.0035000000 1.1441000000 0.0230000000
4.0034000000 2.6713000000 0.6347000000
4.0033000000 4.3166000000 0.1679000000
4.0032000000 4.8396000000 0.0408000000
4.0028000000 3.5160000000 0.4828000000
4.0026000000 2.9784000000 0.7058000000
4.0026000000 3.5575000000 0.4712000000
4.0024000000 4.3539000000 0.1514000000
4.0020000000 2.2524000000 0.4685000000
4.0013000000 1.4001000000 0.1299000000
4.0012000000 4.8181000000 0.0448000000
4.0010000000 3.5970000000 0.4535000000
4.0011000000 3.6576000000 0.4273000000
4.0009000000 2.8443000000 0.7088000000
4.0007000000 3.2475000000 0.6010000000
4.0002000000 3.9492000000 0.3141000000
3.9995000000 1.3640000000 0.1174000000
3.9983000000 4.4277000000 0.1303000000
3.9980000000 0.9256000000 0.0193000000
3.9977000000 1.1988000000 0.0497000000
3.7617000000 2.6289000000 0.7859000000
3.7614000000 1.2718000000 0.2482000000
3.7610000000 3.1976000000 0.7798000000
3.7601000000 2.5009000000 0.7349000000
3.7595000000 2.0350000000 0.5564000000
3.7588000000 2.4775000000 0.7305000000
3.7585000000 4.7683000000 0.1528000000
3.7584000000 3.8560000000 0.5187000000
3.7580000000 1.4018000000 0.2963000000
3.7580000000 4.7383000000 0.1692000000
3.7575000000 5.0293000000 0.0539000000
3.7572000000 1.9651000000 0.5230000000
3.7570000000 1.5997000000 0.3772000000
3.7567000000 0.7041000000 0.0234000000
3.7567000000 2.3444000000 0.6821000000
3.7565000000 4.5815000000 0.2310000000
3.7562000000 3.4995000000 0.6645000000
3.7563000000 3.6829000000 0.5925000000
3.7561000000 1.9671000000 0.5306000000
3.7559000000 3.4587000000 0.6829000000
3.7558000000 2.8538000000 0.8685000000
3.7558000000 2.0034000000 0.5433000000
3.7558000000 0.5563000000 0.0419000000
3.7557000000 2.1840000000 0.6139000000
3.7556000000 3.1176000000 0.8190000000
3.7556000000 3.8851000000 0.5112000000
3.7554000000 5.1715000000 0.0721000000
3.7554000000 0.5343000000 0.0308000000
3.7553000000 2.6662000000 0.8035000000
3.7552000000 0.6754000000 0.0889000000
3.7550000000 1.4053000000 0.2991000000
3.7550000000 4.3694000000 0.3148000000
3.7549000000 4.8876000000 0.1161000000
3.7548000000 5.1681000000 0.0780000000
3.7548000000 0.7103000000 0.0298000000
3.7548000000 2.4052000000 0.7026000000
3.7547000000 2.1011000000 0.5759000000
3.7546000000 4.4728000000 0.2762000000
3.7545000000 2.9098000000 0.8912000000
3.7546000000 4.7888000000 0.1502000000
3.7545000000 4.3444000000 0.3356000000
3.7544000000 3.4199000000 0.6972000000
3.7544000000 4.6848000000 0.1942000000
3.7542000000 1.5801000000 0.3753000000
3.7541000000 5.0738000000 0.0398000000
3.7541000000 0.6020000000 0.0589000000
3.7539000000 3.4274000000 0.6942000000
3.7538000000 1.7114000000 0.4212000000
3.7537000000 2.6972000000 0.8197000000
3.7536000000 1.0219000000 0.1528000000
3.7535000000 3.6519000000 0.6089000000
3.7533000000 3.1813000000 0.7894000000
3.7533000000 5.0181000000 0.0636000000
3.7530000000 0.4607000000 0.0029000000
3.7531000000 3.3138000000 0.7366000000
3.7527000000 1.8849000000 0.4923000000
3.7526000000 2.6018000000 0.7769000000
3.7524000000 1.1444000000 0.2035000000
3.7521000000 5.0437000000 0.0466000000
3.7520000000 2.8772000000 0.8837000000
3.7519000000 4.0776000000 0.4372000000
3.7518000000 3.7013000000 0.5857000000
3.7517000000 0.9420000000 0.1240000000
3.7515000000 1.5203000000 0.3496000000
3.7514000000 0.5268000000 0.0301000000
3.7514000000 1.6658000000 0.4087000000
3.7512000000 1.9860000000 0.5341000000
3.7511000000 3.0919000000 0.8341000000
3.7510000000 1.6634000000 0.4074000000
3.7509000000 2.1480000000 0.6050000000
3.7508000000 0.8849000000 0.1008000000
3.7508000000 3.1392000000 0.8092000000
3.7508000000 3.2066000000 0.7811000000
3.7504000000 3.4284000000 0.6969000000
3.7503000000 2.9229000000 0.8865000000
3.7502000000 3.7599000000 0.5677000000
3.7499000000 3.5387000000 0.6515000000
3.7496000000 4.7400000000 0.1748000000
3.7495000000 1.0371000000 0.1569000000
3.7494000000 1.0693000000 0.1761000000
3.7493000000 1.5055000000 0.3505000000
3.7490000000 2.2086000000 0.6301000000
3.7487000000 4.4996000000 0.2713000000
3.7486000000 1.5959000000 0.3816000000
3.7483000000 4.5470000000 0.2499000000
3.7482000000 1.0317000000 0.1564000000
3.7478000000 0.7031000000 0.0293000000
3.7479000000 2.6380000000 0.7945000000
3.7475000000 1.1693000000 0.2120000000
3.7469000000 1.9837000000 0.5388000000
3.7468000000 2.4718000000 0.7335000000
3.5141000000 1.5891000000 0.5428000000
3.5093000000 2.0971000000 0.7498000000
3.5089000000 5.1436000000 0.1799000000
3.5086000000 2.8517000000 1.0463000000
3.5083000000 2.3121000000 0.8375000000
3.5080000000 5.2086000000 0.1488000000
3.5079000000 4.4482000000 0.4600000000
3.5078000000 3.1233000000 0.9852000000
3.5070000000 5.5097000000 0.0417000000
3.5068000000 4.0266000000 0.6282000000
3.5066000000 5.5863000000 0.0829000000
3.5064000000 5.1373000000 0.1897000000
3.5064000000 0.7702000000 0.2198000000
3.5063000000 0.7104000000 0.1995000000
3.5062000000 5.0930000000 0.2032000000
3.5061000000 4.3398000000 0.5010000000
3.5060000000 2.7088000000 0.9956000000
3.5058000000 4.2257000000 0.5466000000
3.5058000000 0.7925000000 0.2311000000
3.5057000000 2.4399000000 0.8924000000
3.5055000000 2.9346000000 1.0513000000
3.5054000000 5.0790000000 0.2137000000
3.5053000000 3.2137000000 0.9512000000
3.5051000000 3.1570000000 0.9714000000
3.5051000000 5.3950000000 0.0792000000
3.5050000000 0.8084000000 0.2368000000
3.5048000000 2.4719000000 0.9012000000
3.5048000000 3.2756000000 0.9245000000
3.5047000000 1.4578000000 0.4954000000
3.5046000000 2.5274000000 0.9255000000
3.5046000000 0.2768000000 0.0308000000
3.5045000000 1.6731000000 0.5783000000
3.5044000000 5.2799000000 0.1318000000
3.5044000000 3.2327000000 0.9454000000
3.5041000000 2.1573000000 0.7727000000
3.5040000000 3.0888000000 0.9984000000
3.5039000000 3.3643000000 0.8886000000
3.5036000000 2.8439000000 1.0498000000
3.5036000000 2.2403000000 0.8087000000
3.5035000000 1.1041000000 0.3589000000
3.5034000000 2.2800000000 0.8288000000
3.5034000000 4.4698000000 0.4500000000
3.5033000000 0.0898000000 0.0299000000
3.5033000000 2.7884000000 1.0292000000
3.5032000000 3.0059000000 1.0372000000
3.5032000000 1.8554000000 0.6531000000
3.5031000000 3.2775000000 0.9245000000
3.5030000000 3.3464000000 0.8998000000
3.5029000000 1.0899000000 0.3557000000
3.5028000000 3.1153000000 0.9900000000
3.5025000000 4.9149000000 0.2817000000
3.5023000000 1.8382000000 0.6508000000
3.5023000000 5.4564000000 0.0575000000
3.5020000000 0.5916000000 0.1569000000
3.5019000000 1.8475000000 0.6490000000
3.5018000000 5.4909000000 0.0435000000
3.5015000000 4.4141000000 0.4711000000
3.5015000000 0.8237000000 0.2452000000
3.5014000000 5.4815000000 0.0501000000
3.5014000000 3.2555000000 0.9396000000
3.5013000000 1.7410000000 0.6151000000
3.5011000000 1.8025000000 0.6448000000
3.5007000000 1.3823000000 0.4678000000
3.5005000000 4.8206000000 0.3165000000
3.5006000000 4.2506000000 0.5386000000
3.5002000000 1.4475000000 0.4966000000
3.5000000000 0.4821000000 0.1077000000
3.4999000000 1.5390000000 0.5301000000
3.4996000000 0.4324000000 0.0882000000
3.4995000000 4.2021000000 0.5651000000
3.4990000000 3.0979000000 1.0057000000
3.4990000000 1.2100000000 0.4038000000
3.4988000000 5.1278000000 0.1958000000
3.4987000000 0.3309000000 0.0580000000
3.4985000000 0.9730000000 0.3041000000
3.4977000000 2.5961000000 0.9593000000
3.4975000000 5.0075000000 0.2430000000
3.4974000000 0.8207000000 0.2504000000
3.4973000000 1.9115000000 0.6851000000
3.4971000000 0.5698000000 0.1479000000
3.4968000000 1.4071000000 0.4807000000
3.4968000000 0.9460000000 0.3040000000
3.4963000000 1.5676000000 0.5481000000
3.2625000000 4.8925000000 0.4492000000
3.2619000000 4.9560000000 0.4213000000
3.2613000000 5.4345000000 0.2354000000
3.2608000000 4.9810000000 0.4188000000
3.2607000000 3.4746000000 1.0163000000
3.2604000000 5.7836000000 0.0432000000
3.2605000000 4.6448000000 0.5572000000
3.2598000000 2.7579000000 1.1904000000
3.2590000000 2.2732000000 0.9950000000
3.2588000000 2.1583000000 0.9488000000
3.2586000000 5.2338000000 0.3204000000
3.2583000000 4.3149000000 0.6831000000
3.2583000000 5.1973000000 0.3308000000
3.2579000000 4.3635000000 0.6638000000
3.2576000000 2.6853000000 1.1600000000
3.2575000000 5.0327000000 0.3997000000
3.2574000000 3.3587000000 1.0655000000
3.2570000000 4.6615000000 0.5448000000
3.2570000000 5.6154000000 0.1536000000
3.2567000000 3.7343000000 0.9129000000
3.2567000000 1.7968000000 0.8086000000
3.2562000000 2.0698000000 0.9086000000
3.2561000000 4.7640000000 0.5092000000
3.2559000000 0.7941000000 0.4037000000
3.2558000000 2.3169000000 1.0117000000
3.2556000000 5.1966000000 0.3313000000
3.2556000000 5.1047000000 0.3703000000
3.2555000000 1.6178000000 0.7302000000
3.2553000000 3.3086000000 1.0859000000
3.2550000000 1.8902000000 0.8448000000
3.2550000000 5.2736000000 0.3040000000
3.2548000000 3.0794000000 1.1785000000
3.2546000000 5.6331000000 0.1441000000
3.2545000000 0.9684000000 0.4758000000
3.2543000000 5.1898000000 0.3359000000
3.2543000000 3.3438000000 1.0625000000
3.2541000000 3.8389000000 0.8800000000
3.2537000000 4.2595000000 0.7134000000
3.2535000000 0.4036000000 0.2547000000
3.2535000000 4.3637000000 0.6672000000
3.2534000000 1.7079000000 0.7743000000
3.2533000000 4.7158000000 0.5277000000
3.2533000000 0.1544000000 0.1345000000
3.2532000000 5.3356000000 0.2772000000
3.2531000000 1.7081000000 0.7652000000
3.2531000000 3.2544000000 1.1071000000
3.2530000000 0.1009000000 0.0900000000
3.2530000000 1.3376000000 0.6243000000
3.2529000000 4.9830000000 0.4186000000
3.2529000000 0.4769000000 0.2827000000
3.2528000000 2.8918000000 1.2276000000
3.2527000000 1.6595000000 0.7591000000
3.2528000000 2.6303000000 1.1356000000
3.2526000000 2.5888000000 1.1232000000
3.2525000000 0.9524000000 0.4698000000
3.2525000000 4.2246000000 0.7217000000
3.2525000000 2.3694000000 1.0360000000
3.2524000000 0.4932000000 0.2871000000
3.2524000000 3.9426000000 0.8369000000
3.2523000000 4.3775000000 0.6640000000
3.2522000000 3.1807000000 1.1416000000
3.2520000000 5.4101000000 0.2541000000
3.2520000000 5.4929000000 0.2213000000
3.2517000000 4.6961000000 0.5387000000
3.2516000000 3.1302000000 1.1594000000
3.2515000000 0.2110000000 0.1544000000
3.2514000000 3.8877000000 0.8577000000
3.2514000000 1.0344000000 0.5049000000
3.2509000000 4.5403000000 0.6048000000
3.2505000000 3.1686000000 1.1410000000
3.2503000000 2.8433000000 1.2259000000
3.2503000000 2.1483000000 0.9488000000
3.2501000000 2.7487000000 1.1958000000
3.2502000000 0.1272000000 0.1100000000
3.2493000000 0.0539000000 0.0611000000
3.2490000000 5.5942000000 0.1653000000
3.2488000000 1.9702000000 0.8834000000
3.2487000000 5.7305000000 0.0774000000
3.2485000000 0.1074000000 0.0927000000
3.2484000000 1.1445000000 0.5504000000
3.2478000000 1.4041000000 0.6546000000
3.2478000000 1.0150000000 0.4967000000
3.2459000000 2.3063000000 1.0146000000
3.0140000000 1.7890000000 0.9682000000
3.0119000000 3.4521000000 1.1920000000
3.0107000000 3.2375000000 1.2806000000
3.0106000000 4.7425000000 0.6835000000
3.0104000000 2.0591000000 1.0754000000
3.0091000000 0.0142000000 0.0319000000
3.0081000000 2.9451000000 1.3898000000
3.0081000000 3.1350000000 1.3247000000
3.0080000000 2.5000000000 1.2620000000
3.0080000000 5.2433000000 0.4620000000
3.0076000000 1.8947000000 1.0132000000
3.0069000000 4.0955000000 0.9444000000
3.0067000000 2.0160000000 1.0646000000
3.0063000000 1.8348000000 0.9917000000
3.0061000000 5.2918000000 0.4266000000
3.0060000000 4.6709000000 0.7199000000
3.0060000000 5.4706000000 0.2913000000
3.0058000000 5.2936000000 0.4235000000
3.0057000000 3.1390000000 1.3280000000
3.0057000000 5.2807000000 0.4286000000
3.0056000000 5.0424000000 0.5671000000
3.0055000000 3.0226000000 1.3690000000
3.0054000000 1.6772000000 0.9315000000
3.0053000000 1.8689000000 1.0081000000
3.0052000000 0.9685000000 0.6456000000
3.0052000000 4.7025000000 0.7121000000
3.0051000000 4.8624000000 0.6382000000
3.0051000000 0.1412000000 0.1330000000
3.0050000000 0.1473000000 0.1414000000
3.0050000000 2.3787000000 1.2071000000
3.0047000000 1.3414000000 0.7966000000
3.0045000000 4.6932000000 0.7098000000
3.0045000000 4.2795000000 0.8694000000
3.0044000000 2.9702000000 1.3951000000
3.0043000000 5.5518000000 0.2265000000
3.0038000000 5.8006000000 0.0271000000
3.0039000000 3.4197000000 1.2142000000
3.0038000000 0.8135000000 0.5922000000
3.0035000000 2.9481000000 1.3939000000
3.0035000000 0.0385000000 0.0448000000
3.0034000000 5.4224000000 0.3234000000
3.0033000000 2.8117000000 1.3809000000
3.0033000000 2.3091000000 1.1844000000
3.0032000000 0.8825000000 0.6165000000
3.0031000000 2.6222000000 1.3106000000
3.0030000000 1.5341000000 0.8763000000
3.0028000000 3.3018000000 1.2641000000
3.0029000000 4.7510000000 0.6791000000
3.0027000000 4.9098000000 0.6186000000
3.0027000000 4.7036000000 0.7061000000
3.0026000000 1.7493000000 0.9537000000
3.0026000000 5.4450000000 0.3117000000
3.0023000000 2.0329000000 1.0752000000
3.0021000000 0.6274000000 0.5012000000
3.0019000000 2.0857000000 1.0939000000
3.0018000000 5.6885000000 0.1247000000
3.0018000000 2.9598000000 1.3921000000
3.0017000000 0.1810000000 0.1651000000
3.0015000000 2.4008000000 1.2179000000
3.0014000000 5.3363000000 0.4024000000
3.0013000000 3.3966000000 1.2269000000
3.0010000000 3.7118000000 1.1014000000
3.0010000000 1.7788000000 0.9721000000
3.0007000000 4.9882000000 0.5923000000
3.0006000000 0.6930000000 0.5268000000
3.0006000000 1.9970000000 1.0612000000
3.0004000000 5.0727000000 0.5579000000
3.0003000000 4.4367000000 0.8155000000
3.0003000000 2.3278000000 1.1956000000
3.0002000000 2.8769000000 1.4004000000
2.9993000000 3.6976000000 1.1051000000
2.9992000000 1.6375000000 0.9190000000
2.9989000000 0.5902000000 0.4759000000
2.9986000000 1.8894000000 1.0168000000
2.9984000000 5.7673000000 0.0549000000
2.9979000000 2.7266000000 1.3546000000
2.9977000000 2.4564000000 1.2379000000
2.9973000000 0.6128000000 0.4991000000
2.9972000000 3.4389000000 1.2164000000
2.9967000000 0.2735000000 0.2442000000
2.9963000000 0.3784000000 0.3226000000
2.9955000000 2.9578000000 1.4005000000
2.9942000000 1.0879000000 0.7013000000
2.7623000000 4.9653000000 0.6986000000
2.7622000000 0.9541000000 0.7670000000
2.7620000000 5.4116000000 0.3445000000
2.7603000000 2.2530000000 1.3297000000
2.7600000000 3.1490000000 1.4919000000
2.7583000000 3.7977000000 1.2331000000
2.7580000000 2.8406000000 1.5619000000
2.7579000000 4.2227000000 1.0663000000
2.7576000000 5.0400000000 0.6339000000
2.7573000000 0.9154000000 0.7475000000
2.7566000000 2.1807000000 1.3017000000
2.7565000000 4.1075000000 1.1088000000
2.7563000000 0.9546000000 0.7702000000
2.7565000000 3.0450000000 1.5391000000
2.7562000000 0.7274000000 0.5991000000
2.7560000000 0.7308000000 0.5991000000
2.7560000000 4.7989000000 0.8157000000
2.7560000000 0.5909000000 0.4925000000
2.7557000000 4.3799000000 1.0006000000
2.7556000000 2.8335000000 1.5635000000
2.7555000000 5.1768000000 0.5284000000
2.7555000000 0.5327000000 0.4450000000
2.7552000000 4.7942000000 0.8169000000
2.7552000000 5.0774000000 0.6021000000
2.7551000000 1.8411000000 1.1671000000
2.7551000000 4.7147000000 0.8561000000
2.7550000000 3.4801000000 1.3653000000
2.7549000000 5.7886000000 0.0403000000
2.7549000000 3.5617000000 1.3310000000
2.7548000000 4.0560000000 1.1343000000
2.7548000000 0.7477000000 0.6193000000
2.7546000000 1.0605000000 0.8381000000
2.7545000000 3.4398000000 1.3821000000
2.7545000000 2.4401000000 1.4047000000
2.7544000000 3.2982000000 1.4341000000
2.7543000000 0.3781000000 0.3186000000
2.7543000000 4.3297000000 1.0213000000
2.7540000000 1.6853000000 1.1061000000
2.7539000000 3.4775000000 1.3709000000
2.7539000000 4.6753000000 0.8779000000
2.7537000000 4.0151000000 1.1488000000
2.7536000000 1.0161000000 0.8184000000
2.7536000000 1.4928000000 1.0282000000
2.7534000000 0.2210000000 0.1909000000
2.7533000000 5.4661000000 0.2956000000
2.7532000000 1.4283000000 1.0039000000
2.7531000000 2.5755000000 1.4616000000
2.7530000000 5.2648000000 0.4566000000
2.7529000000 0.5486000000 0.4540000000
2.7528000000 4.9609000000 0.6999000000
2.7529000000 1.1568000000 0.8958000000
2.7527000000 3.9221000000 1.1873000000
2.7526000000 2.3652000000 1.3744000000
2.7525000000 1.8682000000 1.1785000000
2.7523000000 5.2263000000 0.4846000000
2.7522000000 3.6235000000 1.3123000000
2.7520000000 4.0009000000 1.1588000000
2.7520000000 1.4182000000 1.0005000000
2.7518000000 1.3629000000 0.9764000000
2.7515000000 4.9012000000 0.7453000000
2.7514000000 5.8008000000 0.0358000000
2.7512000000 5.1489000000 0.5500000000
2.7511000000 0.7282000000 0.6015000000
2.7505000000 1.7371000000 1.1330000000
2.7498000000 2.1562000000 1.2944000000
2.7498000000 1.9755000000 1.2266000000
2.7497000000 0.3283000000 0.2830000000
2.7496000000 4.6557000000 0.8899000000
2.7492000000 5.5926000000 0.1984000000
2.7490000000 1.3188000000 0.9645000000
2.7490000000 2.7573000000 1.5344000000
2.7488000000 4.4095000000 0.9958000000
2.7486000000 2.8372000000 1.5639000000
2.7479000000 0.1166000000 0.1159000000
2.7475000000 1.6723000000 1.1065000000
2.7470000000 0.8385000000 0.6909000000
2.5128000000 3.9850000000 1.3308000000
2.5113000000 2.9901000000 1.7247000000
2.5111000000 2.6112000000 1.6464000000
2.5105000000 3.4236000000 1.5622000000
2.5104000000 4.3379000000 1.1777000000
2.5103000000 4.9786000000 0.6894000000
2.5100000000 4.2838000000 1.1950000000
2.5090000000 4.5699000000 1.0116000000
2.5089000000 5.1440000000 0.5532000000
2.5083000000 1.1235000000 0.9116000000
2.5083000000 4.7696000000 0.8479000000
2.5081000000 0.7021000000 0.5842000000
2.5078000000 2.4379000000 1.5803000000
2.5075000000 2.5253000000 1.6076000000
2.5075000000 3.5592000000 1.5010000000
2.5076000000 2.6509000000 1.6596000000
2.5074000000 0.9211000000 0.7516000000
2.5071000000 2.1377000000 1.4530000000
2.5071000000 1.0578000000 0.8635000000
2.5069000000 5.3873000000 0.3598000000
2.5067000000 2.0958000000 1.4404000000
2.5066000000 5.0295000000 0.6417000000
2.5064000000 2.0924000000 1.4387000000
2.5062000000 4.3027000000 1.1951000000
2.5057000000 0.1104000000 0.1071000000
2.5056000000 5.5077000000 0.2595000000
2.5056000000 4.1767000000 1.2578000000
2.5055000000 4.8141000000 0.8141000000
2.5053000000 4.0945000000 1.2919000000
2.5054000000 2.6428000000 1.6614000000
2.5052000000 5.3964000000 0.3498000000
2.5051000000 3.4851000000 1.5356000000
2.5050000000 2.8286000000 1.7312000000
2.5050000000 1.5033000000 1.1943000000
2.5049000000 0.6946000000 0.5734000000
2.5047000000 5.2706000000 0.4561000000
2.5045000000 0.9367000000 0.7682000000
2.5045000000 5.2878000000 0.4385000000
2.5044000000 3.7315000000 1.4337000000
2.5043000000 1.8532000000 1.3434000000
2.5041000000 4.1031000000 1.2919000000
2.5040000000 3.4762000000 1.5397000000
2.5040000000 3.0332000000 1.7076000000
2.5037000000 2.2450000000 1.5013000000
2.5037000000 0.8141000000 0.6662000000
2.5036000000 4.2768000000 1.2124000000
2.5035000000 3.1030000000 1.6891000000
2.5033000000 5.3447000000 0.3964000000
2.5032000000 2.8428000000 1.7384000000
2.5031000000 3.4529000000 1.5465000000
2.5030000000 5.5026000000 0.2635000000
2.5029000000 1.7375000000 1.2991000000
2.5028000000 0.2377000000 0.2108000000
2.5027000000 2.4657000000 1.5929000000
2.5026000000 1.6430000000 1.2554000000
2.5025000000 1.8833000000 1.3618000000
2.5025000000 3.6444000000 1.4700000000
2.5023000000 2.1272000000 1.4586000000
2.5023000000 0.0680000000 0.0767000000
2.5022000000 2.7053000000 1.6847000000
2.5022000000 2.4457000000 1.5800000000
2.5021000000 0.1654000000 0.1542000000
2.5020000000 1.6611000000 1.2662000000
2.5020000000 1.6181000000 1.2534000000
2.5018000000 2.8725000000 1.7425000000
2.5016000000 2.1728000000 1.4744000000
2.5014000000 4.0498000000 1.3053000000
2.5013000000 0.2098000000 0.1919000000
2.5012000000 4.9162000000 0.7356000000
2.5010000000 4.5875000000 0.9944000000
2.5009000000 3.6841000000 1.4559000000
2.5008000000 5.6882000000 0.1200000000
2.5006000000 2.2923000000 1.5220000000
2.5005000000 3.4658000000 1.5432000000
2.5005000000 1.8496000000 1.3494000000
2.5004000000 0.8987000000 0.7340000000
2.5002000000 2.6851000000 1.6775000000
2.4998000000 2.4003000000 1.5639000000
2.4999000000 1.3720000000 1.1139000000
2.4998000000 1.1581000000 0.9370000000
2.4995000000 3.0953000000 1.6898000000
2.4993000000 4.0802000000 1.3054000000
2.4992000000 3.4558000000 1.5515000000
2.4987000000 0.7267000000 0.6020000000
2.4988000000 0.5804000000 0.4821000000
2.4984000000 1.1477000000 0.9361000000
2.4974000000 5.4880000000 0.2754000000
2.4973000000 0.5592000000 0.4625000000
2.4971000000 3.1968000000 1.6497000000
2.4966000000 4.7752000000 0.8450000000
2.2644000000 5.5815000000 0.2004000000
2.2626000000 4.7493000000 0.8624000000
2.2624000000 4.1455000000 1.3451000000
2.2601000000 1.8645000000 1.4883000000
2.2600000000 4.7816000000 0.8369000000
2.2595000000 2.6319000000 1.8202000000
2.2583000000 1.1249000000 0.9149000000
2.2582000000 3.9675000000 1.4775000000
2.2581000000 5.3432000000 0.3938000000
2.2573000000 3.4077000000 1.7356000000
2.2571000000 4.2882000000 1.2365000000
2.2570000000 0.9539000000 0.7806000000
2.2566000000 0.5299000000 0.4411000000
2.2566000000 1.0461000000 0.8568000000
2.2565000000 4.0524000000 1.4220000000
2.2565000000 3.0099000000 1.8945000000
2.2562000000 4.6821000000 0.9203000000
2.2561000000 1.2629000000 1.0249000000
2.2559000000 5.1426000000 0.5538000000
2.2555000000 1.1933000000 0.9668000000
2.2553000000 2.4583000000 1.7596000000
2.2552000000 3.7399000000 1.6112000000
2.2552000000 4.0114000000 1.4509000000
2.2551000000 3.2794000000 1.7870000000
2.2550000000 2.8484000000 1.9131000000
2.2549000000 3.8766000000 1.5401000000
2.2548000000 2.2545000000 1.6787000000
2.2547000000 3.6197000000 1.6511000000
2.2546000000 4.4216000000 1.1289000000
2.2545000000 4.9859000000 0.6778000000
2.2543000000 4.8591000000 0.7712000000
2.2542000000 2.7005000000 1.8543000000
2.2540000000 5.6733000000 0.1334000000
2.2539000000 1.1240000000 0.9155000000
2.2538000000 4.4855000000 1.0802000000
2.2536000000 4.4718000000 1.0859000000
2.2535000000 4.9173000000 0.7283000000
2.2535000000 0.4394000000 0.3718000000
2.2533000000 5.6862000000 0.1228000000
2.2533000000 4.8615000000 0.7754000000
2.2532000000 1.8715000000 1.5011000000
2.2531000000 5.1503000000 0.5452000000
2.2529000000 0.0838000000 0.0889000000
2.2528000000 1.5513000000 1.2545000000
2.2528000000 0.9858000000 0.8091000000
2.2526000000 4.2607000000 1.2521000000
2.2526000000 0.2907000000 0.2490000000
2.2524000000 2.1500000000 1.6321000000
2.2524000000 4.6928000000 0.9130000000
2.2523000000 3.9793000000 1.4743000000
2.2523000000 5.2692000000 0.4549000000
2.2521000000 4.1881000000 1.3107000000
2.2520000000 0.7729000000 0.6321000000
2.2519000000 0.7155000000 0.5917000000
2.2518000000 3.2042000000 1.8214000000
2.2519000000 2.0284000000 1.5944000000
2.2518000000 5.4985000000 0.2703000000
2.2518000000 4.9967000000 0.6726000000
2.2515000000 2.6544000000 1.8416000000
2.2515000000 2.8120000000 1.9035000000
2.2511000000 2.7439000000 1.8685000000
2.2510000000 0.8656000000 0.7102000000
2.2509000000 3.5542000000 1.6772000000
2.2508000000 0.8641000000 0.7098000000
2.2508000000 1.4322000000 1.1604000000
2.2501000000 3.9315000000 1.5010000000
2.2501000000 0.1456000000 0.1352000000
2.2498000000 2.4843000000 1.7742000000
2.2497000000 0.6790000000 0.5619000000
2.2495000000 3.1507000000 1.8486000000
2.2495000000 0.3501000000 0.2978000000
2.2494000000 1.3309000000 1.0826000000
2.2490000000 0.7384000000 0.6070000000
2.2489000000 3.6129000000 1.6557000000
2.2482000000 2.5353000000 1.7979000000
2.2481000000 2.7841000000 1.8857000000
2.2475000000 1.8589000000 1.4920000000
2.2467000000 0.6160000000 0.5064000000
2.2464000000 3.1075000000 1.8608000000
2.0130000000 4.0058000000 1.4569000000
2.0113000000 1.9837000000 1.6035000000
2.0098000000 4.0537000000 1.4244000000
2.0097000000 4.4979000000 1.0682000000
2.0090000000 5.6679000000 0.1372000000
2.0082000000 4.9009000000 0.7476000000
2.0081000000 0.9005000000 0.7338000000
2.0075000000 3.2375000000 1.9760000000
2.0074000000 1.0480000000 0.8498000000
2.0073000000 2.1191000000 1.7147000000
2.0072000000 5.0350000000 0.6384000000
2.0069000000 1.9673000000 1.5889000000
2.0067000000 2.9476000000 2.0756000000
2.0065000000 4.3479000000 1.1853000000
2.0065000000 1.5173000000 1.2317000000
2.0062000000 4.5129000000 1.0545000000
2.0061000000 3.6340000000 1.7512000000
2.0060000000 5.0222000000 0.6448000000
2.0059000000 1.5706000000 1.2697000000
2.0058000000 5.8257000000 0.0850000000
2.0057000000 5.2199000000 0.4931000000
2.0056000000 0.7403000000 0.6150000000
2.0055000000 3.8476000000 1.5864000000
2.0054000000 5.3661000000 0.3723000000
2.0054000000 4.2459000000 1.2679000000
2.0052000000 1.4004000000 1.1395000000
2.0050000000 5.2587000000 0.4627000000
2.0051000000 5.5667000000 0.2194000000
2.0050000000 5.7632000000 0.0611000000
2.0051000000 2.6834000000 2.0152000000
2.0047000000 2.0806000000 1.6710000000
2.0047000000 3.1288000000 2.0162000000
2.0045000000 2.1494000000 1.7265000000
2.0042000000 1.4334000000 1.1571000000
2.0040000000 5.2424000000 0.4758000000
2.0039000000 1.4409000000 1.1707000000
2.0039000000 2.8317000000 2.0753000000
2.0035000000 4.0248000000 1.4375000000
2.0034000000 0.3944000000 0.3342000000
2.0034000000 1.3799000000 1.1213000000
2.0033000000 5.5225000000 0.2504000000
2.0031000000 4.8582000000 0.7806000000
2.0029000000 2.8375000000 2.0804000000
2.0027000000 4.0619000000 1.4114000000
2.0026000000 3.7929000000 1.6274000000
2.0025000000 4.0404000000 1.4308000000
2.0024000000 5.6137000000 0.1788000000
2.0022000000 0.4414000000 0.3741000000
2.0019000000 0.3224000000 0.2752000000
2.0018000000 0.9908000000 0.8093000000
2.0016000000 0.8499000000 0.7001000000
2.0015000000 3.9068000000 1.5431000000
2.0013000000 2.0498000000 1.6534000000
2.0009000000 1.0145000000 0.8242000000
2.0008000000 3.1615000000 2.0137000000
2.0006000000 3.5119000000 1.8421000000
2.0000000000 1.0077000000 0.8273000000
1.9996000000 1.3607000000 1.1070000000
1.9995000000 4.5363000000 1.0332000000
1.9993000000 2.1920000000 1.7648000000
1.9990000000 3.3773000000 1.9094000000
1.9988000000 1.8618000000 1.5059000000
1.9985000000 2.0250000000 1.6338000000
1.9975000000 5.0541000000 0.6234000000
1.9973000000 0.5121000000 0.4220000000
1.9972000000 1.5105000000 1.2235000000
1.9966000000 1.5000000000 1.2169000000
1.9960000000 2.0115000000 1.6272000000
1.9929000000 4.6225000000 0.9668000000
1.7610000000 3.8889000000 1.5533000000
1.7605000000 5.3687000000 0.3713000000
1.7604000000 4.4445000000 1.1077000000
1.7592000000 0.9834000000 0.8015000000
1.7594000000 4.2910000000 1.2350000000
1.7590000000 1.4003000000 1.1298000000
1.7583000000 4.9314000000 0.7209000000
1.7578000000 5.1609000000 0.5375000000
1.7575000000 3.4143000000 1.9318000000
1.7570000000 5.1347000000 0.5570000000
1.7569000000 4.2071000000 1.2989000000
1.7568000000 3.0426000000 2.2075000000
1.7565000000 2.5087000000 2.0150000000
1.7560000000 3.7525000000 1.6546000000
1.7560000000 1.8416000000 1.4901000000
1.7560000000 4.3482000000 1.1854000000
1.7558000000 5.2847000000 0.4443000000
1.7555000000 5.8245000000 0.0838000000
1.7554000000 1.9650000000 1.5828000000
1.7553000000 1.6241000000 1.3154000000
1.7551000000 0.9912000000 0.8140000000
1.7550000000 0.1191000000 0.1166000000
1.7549000000 2.4532000000 1.9722000000
1.7549000000 0.9862000000 0.8012000000
1.7548000000 2.6925000000 2.1571000000
1.7548000000 0.3916000000 0.3322000000
1.7547000000 0.3020000000 0.2638000000
1.7544000000 5.6711000000 0.1320000000
1.7542000000 4.0535000000 1.4218000000
1.7542000000 5.2329000000 0.4830000000
1.7536000000 2.1773000000 1.7634000000
1.7534000000 0.7731000000 0.6354000000
1.7533000000 4.0230000000 1.4463000000
1.7530000000 1.1103000000 0.9030000000
1.7530000000 0.4930000000 0.4151000000
1.7528000000 3.4040000000 1.9380000000
1.7527000000 0.5446000000 0.4497000000
1.7525000000 4.1861000000 1.3132000000
1.7523000000 5.7651000000 0.0564000000
1.7521000000 0.1351000000 0.1303000000
1.7518000000 1.2877000000 1.0399000000
1.7518000000 4.3585000000 1.1814000000
1.7517000000 3.1714000000 2.1270000000
1.7517000000 1.1118000000 0.9036000000
1.7516000000 3.5789000000 1.7985000000
1.7515000000 1.1470000000 0.9349000000
1.7515000000 0.9190000000 0.7495000000
1.7511000000 4.7861000000 0.8345000000
1.7510000000 5.8307000000 0.0828000000
1.7507000000 1.6984000000 1.3733000000
1.7506000000 5.2658000000 0.4522000000
1.7503000000 5.7664000000 0.0608000000
1.7503000000 5.2551000000 0.4673000000
1.7500000000 4.0140000000 1.4517000000
1.7500000000 1.7421000000 1.4091000000
1.7498000000 1.1667000000 0.9529000000
1.7495000000 0.8472000000 0.6919000000
1.7493000000 5.5798000000 0.2038000000
1.7492000000 1.5827000000 1.2814000000
1.7490000000 3.8672000000 1.5742000000
1.7489000000 2.4896000000 2.0054000000
1.7484000000 1.1293000000 0.9194000000
1.7473000000 5.3930000000 0.3552000000
1.7472000000 1.7720000000 1.4362000000
1.7468000000 0.9163000000 0.7485000000
1.7470000000 1.1025000000 0.8914000000
1.7453000000 3.0136000000 2.2341000000
1.7444000000 5.0245000000 0.6489000000
1.5120000000 4.1212000000 1.3640000000
1.5110000000 5.4630000000 0.3007000000
1.5106000000 5.6923000000 0.1165000000
1.5097000000 4.7421000000 0.8751000000
1.5095000000 3.9956000000 1.4640000000
1.5095000000 0.7311000000 0.6087000000
1.5093000000 5.1850000000 0.5209000000
1.5092000000 5.1425000000 0.5549000000
1.5087000000 5.2065000000 0.4989000000
1.5086000000 5.3508000000 0.3847000000
1.5078000000 5.7438000000 0.0702000000
1.5068000000 3.2173000000 2.0759000000
1.5068000000 2.3774000000 1.9178000000
1.5067000000 2.0130000000 1.6173000000
1.5065000000 3.3071000000 2.0125000000
1.5064000000 2.6750000000 2.1116000000
1.5062000000 4.5086000000 1.0561000000
1.5063000000 5.2402000000 0.4769000000
1.5060000000 1.5102000000 1.2233000000
1.5060000000 5.2160000000 0.4927000000
1.5060000000 5.4885000000 0.2804000000
1.5058000000 1.9193000000 1.5499000000
1.5056000000 4.9041000000 0.7454000000
1.5055000000 0.4871000000 0.4079000000
1.5055000000 2.6213000000 2.0938000000
1.5054000000 5.4102000000 0.3374000000
1.5054000000 5.7440000000 0.0716000000
1.5050000000 2.6688000000 2.1106000000
1.5050000000 0.9350000000 0.7663000000
1.5048000000 5.2251000000 0.4868000000
1.5047000000 0.5625000000 0.4695000000
1.5048000000 5.7614000000 0.0629000000
1.5044000000 1.5555000000 1.2602000000
1.5043000000 1.1218000000 0.9175000000
1.5041000000 1.5817000000 1.2780000000
1.5041000000 4.9635000000 0.6928000000
1.5042000000 2.8481000000 2.1935000000
1.5040000000 0.4115000000 0.3534000000
1.5040000000 3.1183000000 2.1166000000
1.5036000000 5.3076000000 0.4249000000
1.5035000000 5.3346000000 0.4005000000
1.5035000000 5.3738000000 0.3761000000
1.5035000000 1.2857000000 1.0405000000
1.5033000000 1.0221000000 0.8369000000
1.5033000000 4.2237000000 1.2853000000
1.5031000000 3.6800000000 1.7159000000
1.5030000000 1.6075000000 1.3028000000
1.5028000000 0.4857000000 0.4084000000
1.5028000000 2.9151000000 2.2001000000
1.5027000000 2.3155000000 1.8619000000
1.5026000000 0.6781000000 0.5660000000
1.5025000000 0.3995000000 0.3385000000
1.5024000000 4.6153000000 0.9753000000
1.5025000000 4.8473000000 0.7897000000
1.5024000000 5.5312000000 0.2466000000
1.5023000000 4.7936000000 0.8364000000
1.5022000000 1.1555000000 0.9403000000
1.5022000000 4.3593000000 1.1814000000
1.5021000000 4.2396000000 1.2754000000
1.5020000000 5.8026000000 0.0337000000
1.5019000000 3.7971000000 1.6271000000
1.5018000000 3.8003000000 1.6200000000
1.5017000000 5.1164000000 0.5732000000
1.5018000000 0.3608000000 0.3073000000
1.5016000000 5.0908000000 0.5951000000
1.5015000000 3.1813000000 2.0919000000
1.5013000000 0.6192000000 0.5143000000
1.5010000000 4.1846000000 1.3152000000
1.5008000000 1.4678000000 1.1890000000
1.5004000000 3.8738000000 1.5649000000
1.5003000000 5.7685000000 0.0543000000
1.4999000000 3.2760000000 2.0326000000
1.4999000000 1.8363000000 1.4804000000
1.4997000000 1.6377000000 1.3277000000
1.4994000000 5.1908000000 0.5141000000
1.4984000000 1.4427000000 1.1686000000
1.4983000000 4.0413000000 1.4331000000
1.4983000000 4.9484000000 0.7047000000
1.4977000000 3.5766000000 1.7980000000
1.4973000000 3.1479000000 2.1047000000
1.4964000000 3.4275000000 1.9165000000
1.4960000000 0.2967000000 0.2579000000
1.4957000000 1.7599000000 1.4223000000
1.4928000000 2.4801000000 1.9918000000
1.2620000000 4.3753000000 1.1644000000
1.2604000000 2.2506000000 1.7764000000
1.2599000000 2.4384000000 1.8679000000
1.2585000000 2.7314000000 1.9760000000
1.2582000000 2.3021000000 1.8071000000
1.2581000000 2.7806000000 1.9918000000
1.2577000000 1.8780000000 1.5162000000
1.2575000000 1.9422000000 1.5632000000
1.2573000000 5.2563000000 0.4619000000
1.2573000000 4.6342000000 0.9539000000
1.2572000000 3.1965000000 1.9251000000
1.2570000000 1.7360000000 1.4016000000
1.2569000000 4.4764000000 1.0797000000
1.2568000000 5.1729000000 0.5317000000
1.2568000000 4.6901000000 0.9143000000
1.2565000000 1.4519000000 1.1794000000
1.2559000000 2.5125000000 1.8920000000
1.2558000000 2.2788000000 1.7891000000
1.2557000000 5.5994000000 0.1884000000
1.2554000000 3.1912000000 1.9293000000
1.2554000000 4.0085000000 1.4558000000
1.2553000000 4.8255000000 0.8028000000
1.2552000000 5.6545000000 0.1458000000
1.2552000000 0.6429000000 0.5377000000
1.2551000000 0.0972000000 0.0945000000
1.2550000000 5.0166000000 0.6557000000
1.2548000000 4.5086000000 1.0515000000
1.2547000000 0.8284000000 0.6802000000
1.2546000000 3.9948000000 1.4689000000
1.2545000000 0.7659000000 0.6338000000
1.2544000000 4.0683000000 1.4052000000
1.2543000000 1.4440000000 1.1744000000
1.2542000000 1.8463000000 1.4960000000
1.2541000000 0.6367000000 0.5347000000
1.2540000000 4.5531000000 1.0226000000
1.2539000000 3.0322000000 1.9950000000
1.2538000000 3.3336000000 1.8742000000
1.2538000000 4.4557000000 1.0985000000
1.2535000000 3.4176000000 1.8400000000
1.2534000000 0.6002000000 0.4983000000
1.2533000000 2.3250000000 1.8114000000
1.2533000000 2.2414000000 1.7653000000
1.2532000000 4.3372000000 1.1948000000
1.2532000000 5.2211000000 0.4920000000
1.2531000000 2.1080000000 1.6880000000
1.2530000000 5.4137000000 0.3319000000
1.2529000000 0.4549000000 0.3871000000
1.2528000000 3.2785000000 1.8948000000
1.2527000000 1.3939000000 1.1329000000
1.2525000000 4.7538000000 0.8611000000
1.2526000000 2.3361000000 1.8183000000
1.2525000000 4.2787000000 1.2400000000
1.2523000000 0.6602000000 0.5453000000
1.2516000000 2.1689000000 1.7375000000
1.2515000000 1.7712000000 1.4360000000
1.2515000000 4.6407000000 0.9537000000
1.2514000000 1.9712000000 1.5874000000
1.2512000000 1.9245000000 1.5511000000
1.2510000000 1.2900000000 1.0489000000
1.2509000000 1.3880000000 1.1312000000
1.2508000000 3.7213000000 1.6824000000
1.2507000000 1.9666000000 1.5939000000
1.2505000000 1.1021000000 0.8972000000
1.2504000000 1.9372000000 1.5655000000
1.2503000000 3.3555000000 1.8628000000
1.2503000000 1.0875000000 0.8900000000
1.2501000000 2.9236000000 2.0231000000
1.2499000000 1.1817000000 0.9613000000
1.2498000000 2.5266000000 1.8904000000
1.2497000000 0.1233000000 0.1257000000
1.2494000000 0.0875000000 0.0897000000
1.2493000000 1.7554000000 1.4209000000
1.2490000000 1.2243000000 0.9947000000
1.2490000000 2.3614000000 1.8234000000
1.2486000000 4.7592000000 0.8591000000
1.2485000000 2.4618000000 1.8635000000
1.2479000000 1.1294000000 0.9216000000
1.2478000000 0.2061000000 0.1903000000
1.2474000000 1.8147000000 1.4675000000
1.2472000000 0.1532000000 0.1423000000
1.2468000000 0.3789000000 0.3220000000
1.2442000000 2.6513000000 1.9360000000
1.0120000000 5.8279000000 0.0795000000
1.0120000000 2.9871000000 1.8446000000
1.0106000000 2.0940000000 1.5481000000
1.0101000000 4.8989000000 0.7499000000
1.0098000000 4.7719000000 0.8515000000
1.0098000000 4.7854000000 0.8402000000
1.0093000000 3.5464000000 1.6155000000
1.0091000000 0.2527000000 0.2262000000
1.0081000000 3.0754000000 1.8037000000
1.0080000000 4.4821000000 1.0709000000
1.0080000000 3.7468000000 1.5377000000
1.0079000000 3.8127000000 1.5145000000
1.0074000000 0.6006000000 0.5069000000
1.0071000000 0.1697000000 0.1516000000
1.0070000000 3.1286000000 1.7823000000
1.0069000000 4.2254000000 1.2871000000
1.0068000000 3.5738000000 1.6108000000
1.0067000000 5.1268000000 0.5671000000
1.0067000000 4.4980000000 1.0697000000
1.0065000000 3.0132000000 1.8328000000
1.0060000000 1.1669000000 0.9493000000
1.0060000000 3.9305000000 1.4617000000
1.0060000000 3.6173000000 1.5904000000
1.0058000000 5.5260000000 0.2548000000
1.0057000000 2.7008000000 1.7891000000
1.0057000000 4.0277000000 1.4135000000
1.0055000000 2.4294000000 1.6831000000
1.0054000000 5.4782000000 0.2856000000
1.0053000000 1.4843000000 1.2027000000
1.0051000000 5.8232000000 0.0892000000
1.0051000000 3.8264000000 1.4987000000
1.0052000000 5.1419000000 0.5543000000
1.0050000000 5.7208000000 0.0939000000
1.0049000000 2.7871000000 1.8247000000
1.0048000000 4.4324000000 1.1244000000
1.0047000000 4.6271000000 0.9625000000
1.0046000000 4.1788000000 1.3140000000
1.0045000000 5.6015000000 0.1922000000
1.0045000000 3.9040000000 1.4733000000
1.0044000000 0.9333000000 0.7676000000
1.0043000000 3.9184000000 1.4702000000
1.0044000000 2.3766000000 1.6581000000
1.0041000000 0.1537000000 0.1404000000
1.0040000000 5.3580000000 0.3849000000
1.0035000000 3.6128000000 1.5895000000
1.0035000000 0.6169000000 0.5113000000
1.0035000000 4.2779000000 1.2390000000
1.0034000000 5.0865000000 0.5988000000
1.0034000000 2.1259000000 1.5589000000
1.0033000000 4.9521000000 0.7043000000
1.0032000000 5.1343000000 0.5602000000
1.0029000000 4.7103000000 0.8959000000
1.0029000000 2.8116000000 1.8269000000
1.0028000000 3.7188000000 1.5472000000
1.0026000000 2.3083000000 1.6308000000
1.0025000000 2.8778000000 1.8503000000
1.0024000000 2.9277000000 1.8463000000
1.0024000000 0.8369000000 0.6869000000
1.0023000000 3.8183000000 1.5058000000
1.0019000000 0.6351000000 0.5230000000
1.0018000000 5.7855000000 0.0357000000
1.0017000000 5.6870000000 0.1170000000
1.0016000000 2.7635000000 1.8152000000
1.0015000000 1.2151000000 0.9942000000
1.0015000000 3.7574000000 1.5257000000
1.0014000000 2.3385000000 1.6442000000
1.0013000000 4.2523000000 1.2712000000
1.0013000000 0.2132000000 0.1883000000
1.0008000000 0.4040000000 0.3419000000
1.0007000000 2.4278000000 1.6844000000
1.0006000000 4.6471000000 0.9536000000
1.0000000000 5.1959000000 0.5128000000
1.0000000000 1.0687000000 0.8744000000
0.9999000000 0.5375000000 0.4468000000
0.9998000000 2.1749000000 1.5776000000
0.9995000000 2.2841000000 1.6221000000
0.9990000000 1.5872000000 1.2829000000
0.9991000000 1.6735000000 1.3423000000
0.9990000000 5.1628000000 0.5427000000
0.9989000000 0.6932000000 0.5745000000
0.9988000000 4.7347000000 0.8798000000
0.9986000000 0.8124000000 0.6678000000
0.9985000000 2.5532000000 1.7190000000
0.9983000000 4.1484000000 1.3290000000
0.9975000000 0.0460000000 0.0579000000
0.9970000000 4.5946000000 0.9900000000
0.9967000000 3.6762000000 1.5598000000
0.9968000000 1.6178000000 1.3047000000
0.9952000000 2.8755000000 1.8398000000
0.9954000000 0.2642000000 0.2341000000
0.9940000000 1.4785000000 1.2062000000
0.7614000000 0.2046000000 0.1870000000
0.7608000000 4.3393000000 1.1314000000
0.7605000000 4.7406000000 0.8725000000
0.7593000000 5.3170000000 0.4163000000
0.7588000000 2.4860000000 1.5360000000
0.7581000000 4.7542000000 0.8615000000
0.7578000000 4.2665000000 1.1588000000
0.7578000000 1.5646000000 1.1699000000
0.7573000000 0.3972000000 0.3372000000
0.7572000000 3.4789000000 1.4745000000
0.7569000000 1.1209000000 0.9181000000
0.7567000000 4.7695000000 0.8509000000
0.7566000000 5.2490000000 0.4707000000
0.7565000000 4.8510000000 0.7879000000
0.7563000000 1.5849000000 1.1775000000
0.7563000000 2.9005000000 1.6799000000
0.7561000000 4.7253000000 0.8901000000
0.7561000000 3.5619000000 1.4406000000
0.7560000000 5.0465000000 0.6253000000
0.7560000000 4.6363000000 0.9532000000
0.7559000000 2.5539000000 1.5594000000
0.7559000000 3.2170000000 1.5757000000
0.7558000000 0.8855000000 0.7220000000
0.7557000000 4.3292000000 1.1349000000
0.7555000000 3.7085000000 1.3766000000
0.7553000000 4.2594000000 1.1569000000
0.7552000000 2.5436000000 1.5562000000
0.7552000000 5.3249000000 0.4110000000
0.7549000000 3.0613000000 1.6366000000
0.7548000000 2.7067000000 1.6198000000
0.7548000000 2.6031000000 1.5807000000
0.7546000000 3.0895000000 1.6248000000
0.7546000000 4.8791000000 0.7608000000
0.7545000000 5.1519000000 0.5478000000
0.7545000000 2.9543000000 1.6688000000
0.7544000000 3.2064000000 1.5798000000
0.7542000000 1.6775000000 1.2111000000
0.7539000000 3.6278000000 1.4121000000
0.7538000000 1.0161000000 0.8296000000
0.7537000000 2.1076000000 1.3826000000
0.7537000000 0.5739000000 0.4824000000
0.7535000000 0.7926000000 0.6506000000
0.7534000000 2.5101000000 1.5366000000
0.7533000000 2.3162000000 1.4628000000
0.7531000000 1.6744000000 1.2084000000
0.7530000000 2.4141000000 1.5000000000
0.7529000000 1.6772000000 1.2132000000
0.7530000000 2.9675000000 1.6704000000
0.7528000000 1.9617000000 1.3196000000
0.7527000000 3.1638000000 1.5953000000
0.7527000000 4.0103000000 1.2512000000
0.7524000000 1.7820000000 1.2513000000
0.7523000000 0.3579000000 0.3053000000
0.7523000000 4.2770000000 1.1540000000
0.7521000000 1.2593000000 1.0098000000
0.7521000000 2.9743000000 1.6725000000
0.7518000000 2.9963000000 1.6605000000
0.7518000000 0.2484000000 0.2238000000
0.7517000000 2.7727000000 1.6384000000
0.7516000000 3.3405000000 1.5303000000
0.7515000000 2.1048000000 1.3804000000
0.7510000000 4.2022000000 1.1821000000
0.7509000000 1.0163000000 0.8320000000
0.7508000000 4.8341000000 0.7981000000
0.7503000000 0.7280000000 0.5990000000
0.7502000000 0.5535000000 0.4610000000
0.7502000000 4.6641000000 0.9368000000
0.7501000000 4.4156000000 1.0816000000
0.7495000000 0.3550000000 0.3003000000
0.7492000000 0.3036000000 0.2685000000
0.7491000000 1.8767000000 1.2849000000
0.7490000000 2.1369000000 1.3887000000
0.7489000000 1.6369000000 1.1887000000
0.7480000000 1.8762000000 1.2900000000
0.7479000000 0.5702000000 0.4744000000
0.7473000000 1.9348000000 1.3073000000
0.7470000000 3.5024000000 1.4538000000
0.7468000000 3.0430000000 1.6417000000
0.7463000000 0.4228000000 0.3592000000
0.7459000000 0.3111000000 0.2706000000
0.7457000000 4.7193000000 0.8887000000
0.7448000000 0.4387000000 0.3738000000
0.7443000000 0.5414000000 0.4543000000
0.7428000000 4.9244000000 0.7289000000
0.5097000000 2.3686000000 1.3141000000
0.5090000000 4.1316000000 1.0393000000
0.5083000000 3.6924000000 1.2174000000
0.5081000000 5.2390000000 0.4785000000
0.5078000000 2.6871000000 1.4436000000
0.5077000000 0.6159000000 0.5162000000
0.5074000000 1.2364000000 0.8634000000
0.5073000000 1.0979000000 0.8065000000
0.5071000000 3.5099000000 1.2846000000
0.5065000000 5.4122000000 0.3359000000
0.5065000000 5.1071000000 0.5802000000
0.5064000000 5.0758000000 0.6070000000
0.5064000000 3.1606000000 1.4235000000
0.5062000000 4.2502000000 0.9891000000
0.5060000000 5.3777000000 0.3725000000
0.5056000000 3.4868000000 1.2927000000
0.5057000000 1.0784000000 0.7992000000
0.5054000000 1.7250000000 1.0571000000
0.5054000000 5.5335000000 0.2419000000
