5.5046000000 1.8473000000 0.0061000000
5.5043000000 3.2623000000 0.4721000000
5.5039000000 4.8117000000 0.2029000000
5.5037000000 5.5655000000 0.0231000000
5.5033000000 5.2833000000 0.0729000000
5.5027000000 5.3321000000 0.0543000000
5.5018000000 2.3289000000 0.0674000000
5.5013000000 5.5347000000 0.0349000000
5.5007000000 5.1775000000 0.1199000000
5.4998000000 5.5950000000 0.0193000000
5.4986000000 3.6323000000 0.6345000000
5.4979000000 4.9795000000 0.1366000000
5.4948000000 3.4291000000 0.5567000000
5.2613000000 3.8134000000 0.8201000000
5.2610000000 5.7349000000 0.0577000000
5.2603000000 5.7618000000 0.0497000000
5.2600000000 2.4944000000 0.3187000000
5.2592000000 2.3354000000 0.2494000000
5.2587000000 1.8781000000 0.1277000000
5.2585000000 5.1491000000 0.2433000000
5.2581000000 1.5893000000 -0.0014000000
5.2573000000 5.3921000000 0.1341000000
5.2568000000 5.4447000000 0.1157000000
5.2565000000 5.5900000000 0.1299000000
5.2560000000 1.4864000000 0.0340000000
5.2559000000 4.6432000000 0.4631000000
5.2557000000 3.8357000000 0.8153000000
5.2555000000 3.8924000000 0.7849000000
5.2553000000 2.6679000000 0.3977000000
5.2550000000 3.6018000000 0.8036000000
5.2549000000 2.2035000000 0.1950000000
5.2543000000 3.9638000000 0.7643000000
5.2542000000 2.9245000000 0.5108000000
5.2540000000 5.6836000000 0.0884000000
5.2534000000 3.6675000000 0.8361000000
5.2533000000 4.5378000000 0.5045000000
5.2531000000 3.7178000000 0.9165000000
5.2528000000 1.7278000000 0.0659000000
5.2526000000 5.1916000000 0.2264000000
5.2522000000 2.7010000000 0.4225000000
5.2517000000 3.9362000000 0.7744000000
5.2512000000 3.3375000000 0.6915000000
5.2510000000 2.9634000000 0.5334000000
5.2502000000 2.9230000000 0.5156000000
5.2497000000 2.2601000000 0.2238000000
5.2491000000 2.7611000000 0.4474000000
5.2484000000 4.9362000000 0.3432000000
5.2475000000 2.8952000000 0.5036000000
5.2439000000 2.6296000000 0.3879000000
5.0115000000 3.6966000000 1.0952000000
5.0110000000 3.2330000000 0.8298000000
5.0094000000 1.8915000000 0.2426000000
5.0087000000 5.8080000000 0.1444000000
5.0085000000 5.6277000000 0.2201000000
5.0082000000 1.8534000000 0.2302000000
5.0081000000 5.2693000000 0.3795000000
5.0073000000 4.1688000000 0.8586000000
5.0070000000 3.4214000000 0.9121000000
5.0067000000 4.5506000000 0.6921000000
5.0065000000 1.4516000000 0.1353000000
5.0061000000 3.9799000000 0.9374000000
5.0058000000 5.8588000000 0.1225000000
5.0056000000 2.9798000000 0.7281000000
5.0052000000 6.1371000000 0.0735000000
5.0050000000 2.0332000000 0.3108000000
5.0048000000 3.9174000000 0.9704000000
5.0045000000 6.2504000000 0.0282000000
5.0044000000 3.0818000000 0.7692000000
5.0041000000 3.3021000000 0.8658000000
5.0040000000 5.6921000000 0.1917000000
5.0036000000 4.2505000000 0.8246000000
5.0030000000 6.3861000000 0.0451000000
5.0028000000 3.3919000000 0.9027000000
5.0026000000 5.3432000000 0.3542000000
5.0023000000 4.8641000000 0.5559000000
5.0021000000 2.2333000000 0.3993000000
5.0018000000 1.9340000000 0.2713000000
5.0016000000 6.0623000000 0.1189000000
5.0014000000 3.3781000000 0.8983000000
5.0012000000 3.1280000000 0.7862000000
5.0007000000 1.4175000000 0.1209000000
5.0005000000 3.0904000000 0.7711000000
5.0003000000 3.5743000000 0.9872000000
4.9999000000 3.3408000000 0.8818000000
4.9973000000 2.8003000000 0.6543000000
4.9963000000 2.8607000000 0.6791000000
4.7634000000 4.5170000000 0.8940000000
4.7624000000 6.2971000000 0.1184000000
4.7613000000 5.3154000000 0.5464000000
4.7603000000 4.2903000000 0.9948000000
4.7601000000 4.2606000000 1.0030000000
4.7590000000 2.6960000000 0.7854000000
4.7583000000 3.5012000000 1.1376000000
4.7581000000 6.8055000000 0.0484000000
4.7576000000 3.5966000000 1.1798000000
4.7574000000 5.3177000000 0.5465000000
4.7570000000 1.7794000000 0.3858000000
4.7568000000 4.8825000000 0.7402000000
4.7564000000 5.3539000000 0.5316000000
4.7563000000 1.1941000000 0.1340000000
4.7561000000 2.8148000000 0.8416000000
4.7557000000 1.7170000000 0.3704000000
4.7556000000 4.2156000000 1.0261000000
4.7555000000 2.7940000000 0.8268000000
4.7552000000 5.3606000000 0.5285000000
4.7550000000 1.7873000000 0.3956000000
4.7546000000 5.7968000000 0.3356000000
4.7544000000 3.3993000000 1.0971000000
4.7543000000 3.8863000000 1.1706000000
4.7540000000 2.8242000000 0.8472000000
4.7539000000 5.7874000000 0.3434000000
4.7535000000 3.4108000000 1.1001000000
4.7533000000 3.0514000000 0.9408000000
4.7531000000 2.8604000000 0.8680000000
4.7528000000 1.0743000000 0.0830000000
4.7527000000 1.7435000000 0.3796000000
4.7526000000 1.5102000000 0.2722000000
4.7523000000 1.8182000000 0.4118000000
4.7523000000 2.8907000000 0.8752000000
4.7520000000 0.6334000000 0.0446000000
4.7517000000 3.0602000000 0.9578000000
4.7514000000 6.2342000000 0.1523000000
4.7513000000 0.9192000000 0.0895000000
4.7509000000 1.3047000000 0.1882000000
4.7507000000 1.6608000000 0.3418000000
4.7502000000 1.4919000000 0.2708000000
4.7496000000 4.2682000000 1.0085000000
4.7493000000 5.9012000000 0.2994000000
4.7488000000 3.7717000000 1.2881000000
4.7478000000 1.7229000000 0.3678000000
4.7469000000 1.8159000000 0.4121000000
4.7448000000 1.3333000000 0.2030000000
4.7427000000 3.5821000000 1.1895000000
4.5150000000 6.8603000000 0.1291000000
4.5110000000 6.4889000000 0.2161000000
4.5106000000 6.5732000000 0.1852000000
4.5096000000 7.2932000000 0.0131000000
4.5095000000 6.8088000000 0.0875000000
4.5091000000 6.6265000000 0.1685000000
4.5085000000 6.8334000000 0.0722000000
4.5084000000 4.2305000000 1.2085000000
4.5080000000 5.4442000000 0.6821000000
4.5076000000 6.1147000000 0.3921000000
4.5073000000 3.8927000000 1.3593000000
4.5069000000 3.9156000000 1.3470000000
4.5068000000 4.6393000000 1.0287000000
4.5065000000 5.4397000000 0.6841000000
4.5063000000 2.2423000000 0.7823000000
4.5060000000 1.5004000000 0.4568000000
4.5059000000 4.3654000000 1.1500000000
4.5058000000 1.0530000000 0.2645000000
4.5056000000 3.7167000000 1.4806000000
4.5053000000 5.6419000000 0.5922000000
4.5052000000 4.3097000000 1.1709000000
4.5050000000 1.6121000000 0.5020000000
4.5048000000 0.8255000000 0.1588000000
4.5047000000 3.6587000000 1.3994000000
4.5045000000 2.8958000000 1.0682000000
4.5044000000 1.5528000000 0.4846000000
4.5043000000 3.5153000000 1.3333000000
4.5041000000 0.8867000000 0.1934000000
4.5037000000 2.9505000000 1.0927000000
4.5034000000 7.3059000000 0.0230000000
4.5032000000 4.1064000000 1.2621000000
4.5030000000 6.2759000000 0.3232000000
4.5026000000 2.8754000000 1.0612000000
4.5025000000 1.4802000000 0.4541000000
4.5023000000 4.2233000000 1.2154000000
4.5020000000 2.0631000000 0.7053000000
4.5019000000 2.2383000000 0.7829000000
4.5017000000 4.2136000000 1.2197000000
4.5014000000 3.6336000000 1.3904000000
4.5005000000 6.9478000000 0.0990000000
4.5003000000 1.9563000000 0.6615000000
4.5002000000 6.5252000000 0.2155000000
4.4998000000 1.9283000000 0.6449000000
4.4993000000 2.5406000000 0.9122000000
4.4984000000 1.5081000000 0.4652000000
4.4969000000 0.3162000000 0.0238000000
4.4945000000 0.5848000000 0.0654000000
4.2628000000 5.9224000000 0.6607000000
4.2621000000 5.8656000000 0.6786000000
4.2609000000 2.4313000000 1.0484000000
4.2594000000 5.5819000000 0.8035000000
4.2592000000 2.2472000000 0.9677000000
4.2588000000 6.2220000000 0.5307000000
4.2583000000 6.3645000000 0.4643000000
4.2580000000 5.6028000000 0.7964000000
4.2577000000 6.9539000000 0.2103000000
4.2573000000 5.6490000000 0.7760000000
4.2571000000 3.0388000000 1.3196000000
4.2570000000 6.4539000000 0.4321000000
4.2568000000 7.2472000000 0.0903000000
4.2567000000 4.0767000000 1.4649000000
4.2565000000 6.7891000000 0.2813000000
4.2564000000 1.9938000000 0.8603000000
4.2562000000 0.9342000000 0.4009000000
4.2561000000 0.0578000000 0.0643000000
4.2560000000 7.3763000000 0.0868000000
4.2558000000 3.6225000000 1.5688000000
4.2556000000 7.4257000000 0.0459000000
4.2555000000 7.4629000000 0.0123000000
4.2554000000 7.2741000000 0.1374000000
4.2553000000 2.5987000000 1.1149000000
4.2551000000 2.5467000000 1.0993000000
4.2550000000 3.1847000000 1.3815000000
4.2549000000 5.9561000000 0.6457000000
4.2547000000 2.8233000000 1.2290000000
4.2545000000 6.7168000000 0.3141000000
4.2543000000 6.6127000000 0.3660000000
4.2541000000 3.9068000000 1.5458000000
4.2538000000 0.0537000000 0.0586000000
4.2537000000 2.1763000000 0.9423000000
4.2535000000 1.5964000000 0.6945000000
4.2531000000 0.3453000000 0.1400000000
4.2530000000 7.0971000000 0.1511000000
4.2528000000 4.0214000000 1.4861000000
4.2527000000 4.3945000000 1.3231000000
4.2525000000 7.3677000000 0.0945000000
4.2522000000 2.2426000000 0.9730000000
4.2520000000 3.7996000000 1.5901000000
4.2520000000 1.8090000000 0.7817000000
4.2517000000 5.9515000000 0.6520000000
4.2515000000 6.8863000000 0.2444000000
4.2513000000 2.6377000000 1.1447000000
4.2511000000 0.0764000000 0.0799000000
4.2510000000 2.8835000000 1.2500000000
4.2507000000 0.1101000000 0.0990000000
4.2503000000 3.6868000000 1.6593000000
4.2498000000 2.9504000000 1.2832000000
4.2497000000 3.5976000000 1.5612000000
4.2491000000 5.5363000000 0.8335000000
4.2481000000 3.5567000000 1.5466000000
4.2475000000 4.9093000000 1.1092000000
4.2471000000 4.2243000000 1.4081000000
4.0145000000 4.9025000000 1.2827000000
4.0123000000 6.9174000000 0.4688000000
4.0119000000 4.0763000000 1.6526000000
4.0109000000 4.5209000000 1.4559000000
4.0097000000 5.7261000000 0.9317000000
4.0093000000 5.1227000000 1.1989000000
4.0090000000 7.2382000000 0.1482000000
4.0084000000 2.7135000000 1.3573000000
4.0083000000 5.3607000000 1.0911000000
4.0079000000 5.3983000000 1.0736000000
4.0077000000 3.3100000000 1.6169000000
4.0074000000 5.9932000000 0.8129000000
4.0070000000 3.4177000000 1.6700000000
4.0069000000 4.4915000000 1.4748000000
4.0066000000 3.7492000000 1.8550000000
4.0064000000 6.8401000000 0.5172000000
4.0062000000 4.3260000000 1.5436000000
4.0059000000 4.4063000000 1.5120000000
4.0058000000 4.6110000000 1.4145000000
4.0055000000 6.4035000000 0.6392000000
4.0053000000 6.7707000000 0.4799000000
4.0051000000 2.0074000000 1.0527000000
4.0049000000 2.8952000000 1.4446000000
4.0044000000 6.6298000000 0.5448000000
4.0042000000 4.8582000000 1.3111000000
4.0040000000 5.1273000000 1.1925000000
4.0039000000 2.1402000000 1.1100000000
4.0038000000 2.0447000000 1.0767000000
4.0036000000 6.6377000000 0.5380000000
4.0036000000 0.8723000000 0.5595000000
4.0035000000 5.5406000000 1.0120000000
4.0035000000 3.0302000000 1.5023000000
4.0029000000 4.7608000000 1.3597000000
4.0028000000 7.2707000000 0.1198000000
4.0027000000 1.6269000000 0.8917000000
4.0026000000 2.2583000000 1.1685000000
4.0025000000 3.2684000000 1.6050000000
4.0023000000 6.8926000000 0.4932000000
4.0021000000 5.2457000000 1.1470000000
4.0019000000 6.2519000000 0.7070000000
4.0016000000 2.0105000000 1.0590000000
4.0012000000 1.3310000000 0.7627000000
4.0008000000 1.4760000000 0.8279000000
4.0006000000 7.4856000000 0.0105000000
4.0005000000 5.0338000000 1.2409000000
4.0003000000 6.4733000000 0.6094000000
4.0002000000 2.7656000000 1.3904000000
3.9998000000 6.5452000000 0.5838000000
3.9997000000 1.1698000000 0.6957000000
3.9989000000 3.2238000000 1.5860000000
3.9982000000 1.9364000000 1.0314000000
3.9975000000 0.6459000000 0.4655000000
3.9968000000 6.0740000000 0.7899000000
3.9949000000 1.9312000000 1.0303000000
3.9927000000 0.9551000000 0.6070000000
3.7613000000 3.6506000000 1.9548000000
3.7603000000 0.9155000000 0.8125000000
3.7597000000 6.6003000000 0.7653000000
3.7592000000 1.6186000000 1.0702000000
3.7591000000 6.8064000000 0.5263000000
3.7585000000 5.8789000000 1.0525000000
3.7582000000 2.8985000000 1.6257000000
3.7580000000 4.4010000000 1.6993000000
3.7577000000 2.2698000000 1.3579000000
3.7576000000 4.0826000000 1.8362000000
3.7574000000 4.8009000000 1.5260000000
3.7572000000 4.6115000000 1.6089000000
3.7570000000 3.6653000000 1.9616000000
3.7566000000 4.2943000000 1.7431000000
3.7563000000 5.9355000000 1.0323000000
3.7561000000 2.6379000000 1.5153000000
3.7560000000 3.7918000000 1.9681000000
3.7558000000 5.8496000000 1.0664000000
3.7557000000 5.5745000000 1.1916000000
3.7556000000 1.3146000000 0.9418000000
3.7555000000 5.2092000000 1.3483000000
3.7553000000 5.8510000000 1.0628000000
3.7552000000 4.9729000000 1.4550000000
3.7549000000 7.4283000000 0.0522000000
3.7548000000 2.9226000000 1.6349000000
3.7548000000 2.2107000000 1.3294000000
3.7545000000 3.2205000000 1.7701000000
3.7546000000 2.0356000000 1.2589000000
3.7544000000 6.2626000000 0.8936000000
3.7543000000 7.2009000000 0.1794000000
3.7540000000 2.1320000000 1.2989000000
3.7538000000 1.3654000000 0.9627000000
3.7537000000 6.7394000000 0.5778000000
3.7536000000 4.2120000000 1.7835000000
3.7534000000 1.6639000000 1.0939000000
3.7533000000 2.6944000000 1.5421000000
3.7530000000 2.3459000000 1.3849000000
3.7528000000 0.4830000000 0.3725000000
3.7527000000 0.8207000000 0.6722000000
3.7526000000 1.6907000000 1.1084000000
3.7523000000 6.1719000000 0.9344000000
3.7520000000 2.2421000000 1.3473000000
3.7518000000 0.8225000000 0.6732000000
3.7515000000 7.0173000000 0.3360000000
3.7510000000 4.8250000000 1.5201000000
3.7506000000 2.9753000000 1.6690000000
3.7504000000 1.0032000000 0.8707000000
3.7502000000 2.8559000000 1.6225000000
3.7499000000 1.8831000000 1.1957000000
3.7493000000 4.6659000000 1.5891000000
3.7483000000 2.8816000000 1.6259000000
3.7478000000 0.4611000000 0.3542000000
3.5137000000 5.6285000000 1.3436000000
3.5131000000 4.0672000000 2.0273000000
3.5122000000 7.0391000000 0.3236000000
3.5110000000 4.7703000000 1.7228000000
3.5107000000 6.0732000000 1.2194000000
3.5104000000 2.9658000000 1.8450000000
3.5099000000 4.7831000000 1.7156000000
3.5092000000 3.7032000000 2.2297000000
3.5090000000 3.6901000000 2.2267000000
3.5087000000 4.5545000000 1.8206000000
3.5083000000 1.6767000000 1.2815000000
3.5079000000 4.3958000000 1.8948000000
3.5071000000 3.6859000000 2.2229000000
3.5070000000 5.2221000000 1.5285000000
3.5069000000 5.6677000000 1.3364000000
3.5067000000 7.0146000000 0.3402000000
3.5063000000 5.8970000000 1.2474000000
3.5061000000 6.8254000000 0.5112000000
3.5060000000 1.9132000000 1.3928000000
3.5058000000 2.6803000000 1.7252000000
3.5056000000 1.9547000000 1.4111000000
3.5055000000 3.8415000000 2.1326000000
3.5053000000 3.0051000000 1.8663000000
3.5050000000 1.3679000000 1.2085000000
3.5048000000 6.9515000000 0.3955000000
3.5047000000 0.1563000000 0.0915000000
3.5045000000 0.0398000000 0.0605000000
3.5045000000 1.7609000000 1.3290000000
3.5044000000 2.7404000000 1.7530000000
3.5042000000 4.4403000000 1.8786000000
3.5039000000 3.3852000000 2.0320000000
3.5037000000 6.0628000000 1.2250000000
3.5035000000 2.3190000000 1.5647000000
3.5033000000 3.8364000000 2.1369000000
3.5032000000 4.3496000000 1.9086000000
3.5030000000 1.3071000000 1.1529000000
3.5027000000 2.4671000000 1.6364000000
3.5026000000 0.3699000000 0.2791000000
3.5025000000 0.6339000000 0.5130000000
3.5023000000 3.3322000000 2.0108000000
3.5022000000 3.5736000000 2.1118000000
3.5019000000 0.1848000000 0.1217000000
3.5018000000 1.7440000000 1.3264000000
3.5015000000 0.1289000000 0.0695000000
3.5013000000 5.0698000000 1.5983000000
3.5009000000 5.1649000000 1.5623000000
3.5008000000 1.4210000000 1.2363000000
3.5004000000 0.6614000000 0.5292000000
3.5003000000 2.4043000000 1.6041000000
3.5002000000 3.8651000000 2.1267000000
3.5001000000 2.3493000000 1.5825000000
3.4997000000 0.2543000000 0.1750000000
3.4990000000 3.9957000000 2.0718000000
3.4980000000 2.2976000000 1.5623000000
3.4970000000 3.4273000000 2.0568000000
3.4962000000 6.4024000000 0.8759000000
3.4957000000 1.5148000000 1.2235000000
3.4943000000 0.3026000000 0.2183000000
3.2612000000 0.1136000000 0.1246000000
3.2607000000 6.8412000000 0.4914000000
3.2606000000 4.3898000000 2.0790000000
3.2603000000 5.9919000000 1.2371000000
3.2601000000 3.6961000000 2.4135000000
3.2595000000 1.5338000000 1.2899000000
3.2591000000 4.6864000000 1.9555000000
3.2589000000 0.4094000000 0.3136000000
3.2587000000 1.8207000000 1.5989000000
3.2581000000 4.9707000000 1.8294000000
3.2579000000 4.5833000000 1.9965000000
3.2577000000 6.9917000000 0.3655000000
3.2576000000 6.4511000000 0.8320000000
3.2573000000 0.5964000000 0.4759000000
3.2572000000 6.3937000000 0.8881000000
3.2570000000 5.5607000000 1.6302000000
3.2568000000 6.8998000000 0.4440000000
3.2566000000 5.8310000000 1.3751000000
3.2564000000 4.3763000000 2.0910000000
3.2561000000 2.9075000000 2.0086000000
3.2560000000 5.5374000000 1.6497000000
3.2559000000 5.1036000000 1.7691000000
3.2558000000 2.6784000000 1.9091000000
3.2556000000 3.7203000000 2.4286000000
3.2555000000 5.7790000000 1.4220000000
3.2554000000 3.2956000000 2.1795000000
3.2551000000 2.2076000000 1.7075000000
3.2548000000 5.9124000000 1.3005000000
3.2545000000 0.9527000000 0.7845000000
3.2542000000 1.5731000000 1.3313000000
3.2541000000 6.0878000000 1.1541000000
3.2540000000 4.8996000000 1.8582000000
3.2537000000 1.4367000000 1.2052000000
3.2535000000 3.5361000000 2.2864000000
3.2535000000 7.0727000000 0.2867000000
3.2532000000 1.0320000000 0.8580000000
3.2530000000 0.4985000000 0.3896000000
3.2528000000 0.1074000000 0.1260000000
3.2524000000 5.8797000000 1.3290000000
3.2523000000 1.9620000000 1.5994000000
3.2522000000 5.2003000000 1.7303000000
3.2519000000 1.2040000000 1.0084000000
3.2515000000 6.1762000000 1.0782000000
3.2511000000 4.2301000000 2.1569000000
3.2508000000 3.0803000000 2.0944000000
3.2505000000 2.9108000000 2.0188000000
3.2499000000 5.2559000000 1.7099000000
3.2497000000 1.4311000000 1.2017000000
3.2493000000 4.6658000000 1.9647000000
3.2492000000 1.8445000000 1.6173000000
3.2491000000 2.6583000000 1.9118000000
3.2488000000 3.8592000000 2.3252000000
3.2483000000 0.9700000000 0.7978000000
3.2476000000 6.4040000000 0.8755000000
3.2473000000 0.4867000000 0.3741000000
3.2463000000 1.0652000000 0.8802000000
3.0126000000 7.0964000000 0.2713000000
3.0115000000 6.5386000000 0.7557000000
3.0109000000 6.6677000000 0.6398000000
3.0103000000 7.4790000000 0.0166000000
3.0101000000 6.9854000000 0.3649000000
3.0094000000 4.1915000000 2.3570000000
3.0092000000 5.5562000000 1.6134000000
3.0087000000 7.3729000000 0.1005000000
3.0082000000 4.3786000000 2.2734000000
3.0076000000 2.2081000000 1.9370000000
3.0074000000 5.0472000000 1.9848000000
3.0073000000 3.4148000000 2.4218000000
3.0070000000 3.9227000000 2.4777000000
3.0066000000 3.0928000000 2.2819000000
3.0061000000 6.6317000000 0.6797000000
3.0060000000 2.6481000000 2.0891000000
3.0059000000 5.8809000000 1.3322000000
3.0057000000 1.6348000000 1.3758000000
3.0055000000 6.3934000000 0.8871000000
3.0051000000 4.5000000000 2.2248000000
3.0050000000 4.0690000000 2.4063000000
3.0048000000 1.2169000000 1.0109000000
3.0045000000 3.4393000000 2.4357000000
3.0044000000 6.1742000000 1.0734000000
3.0040000000 6.9676000000 0.3874000000
3.0037000000 5.1282000000 2.0142000000
3.0036000000 2.0886000000 1.7704000000
3.0035000000 1.9000000000 1.6074000000
3.0034000000 6.9132000000 0.4328000000
3.0033000000 3.0541000000 2.2701000000
3.0029000000 3.3810000000 2.4144000000
3.0028000000 3.5416000000 2.4795000000
3.0028000000 1.4653000000 1.2281000000
3.0026000000 4.1257000000 2.3970000000
3.0021000000 0.0334000000 0.0600000000
3.0018000000 2.8872000000 2.1986000000
3.0015000000 1.9764000000 1.6802000000
3.0015000000 6.3589000000 0.9168000000
3.0013000000 2.9763000000 2.2340000000
3.0008000000 4.3399000000 2.2941000000
3.0000000000 0.1314000000 0.0652000000
2.9997000000 2.9340000000 2.2217000000
2.9995000000 1.1942000000 0.9904000000
2.9993000000 4.0749000000 2.4151000000
2.9981000000 0.3307000000 0.2480000000
2.9974000000 1.2813000000 1.0655000000
2.9973000000 2.3838000000 1.9808000000
2.9960000000 1.6842000000 1.4241000000
2.7639000000 7.1659000000 0.2127000000
2.7615000000 6.2470000000 1.0181000000
2.7598000000 6.3238000000 0.9469000000
2.7595000000 1.7303000000 1.4603000000
2.7588000000 7.1899000000 0.1932000000
2.7586000000 7.4816000000 0.0102000000
2.7583000000 5.4040000000 1.7439000000
2.7579000000 2.6865000000 2.3524000000
2.7578000000 3.5374000000 2.6633000000
2.7574000000 6.9374000000 0.4091000000
2.7573000000 2.5623000000 2.1793000000
2.7571000000 1.7361000000 1.4718000000
2.7569000000 3.5456000000 2.6644000000
2.7569000000 3.4782000000 2.6423000000
2.7565000000 0.2663000000 0.1918000000
2.7563000000 6.7212000000 0.5910000000
2.7562000000 7.2912000000 0.0991000000
2.7558000000 6.9554000000 0.3892000000
2.7557000000 5.6740000000 1.5099000000
2.7556000000 3.8214000000 2.6996000000
2.7555000000 2.6036000000 2.2878000000
2.7554000000 6.4058000000 0.8740000000
2.7552000000 3.7135000000 2.8028000000
2.7551000000 5.2339000000 1.8970000000
2.7550000000 1.4817000000 1.2431000000
2.7548000000 3.4259000000 2.6122000000
2.7547000000 4.3482000000 2.4802000000
2.7545000000 2.5828000000 2.2740000000
2.7543000000 7.4862000000 0.0821000000
2.7540000000 1.4858000000 1.2517000000
2.7540000000 0.9020000000 0.7435000000
2.7538000000 3.4182000000 2.6149000000
2.7536000000 2.1433000000 1.8202000000
2.7533000000 1.5311000000 1.2905000000
2.7532000000 7.4416000000 0.0436000000
2.7529000000 4.4480000000 2.4395000000
2.7528000000 6.7552000000 0.5677000000
2.7526000000 1.0654000000 0.8794000000
2.7520000000 2.6254000000 2.3104000000
2.7518000000 7.1204000000 0.2507000000
2.7513000000 5.7709000000 1.4224000000
2.7509000000 0.3571000000 0.2657000000
2.7508000000 0.1052000000 0.1210000000
2.7505000000 4.2652000000 2.5151000000
2.7503000000 0.3352000000 0.2443000000
2.7503000000 2.6612000000 2.3321000000
2.7498000000 6.8402000000 0.4968000000
2.7490000000 3.0005000000 2.4394000000
2.7483000000 3.9089000000 2.6810000000
2.7477000000 1.2806000000 1.0702000000
2.7458000000 3.5081000000 2.6557000000
2.7442000000 3.6076000000 2.6977000000
2.7437000000 0.8319000000 0.6796000000
2.5124000000 4.5570000000 2.4814000000
2.5119000000 6.0394000000 1.1951000000
2.5109000000 7.1188000000 0.2512000000
2.5102000000 7.3348000000 0.1355000000
2.5093000000 3.0224000000 2.6525000000
2.5088000000 0.7116000000 0.5716000000
2.5083000000 1.2872000000 1.0812000000
2.5078000000 6.8402000000 0.4986000000
2.5078000000 7.4389000000 0.0456000000
2.5075000000 4.0490000000 2.7935000000
2.5074000000 1.7969000000 1.5210000000
2.5067000000 6.4157000000 0.8684000000
2.5065000000 0.1387000000 0.0679000000
2.5064000000 1.8319000000 1.5478000000
2.5063000000 4.4979000000 2.5320000000
2.5063000000 4.5125000000 2.5250000000
2.5061000000 6.8404000000 0.4972000000
2.5059000000 0.1076000000 0.1212000000
2.5057000000 6.3105000000 0.9577000000
2.5054000000 2.0334000000 1.7271000000
2.5052000000 6.8794000000 0.4580000000
2.5051000000 6.3262000000 0.9421000000
2.5048000000 1.4457000000 1.2169000000
2.5047000000 1.1971000000 1.0000000000
2.5045000000 6.1399000000 1.1044000000
2.5044000000 0.0714000000 0.0912000000
2.5042000000 5.1624000000 1.9546000000
2.5040000000 1.2745000000 1.0681000000
2.5039000000 0.2461000000 0.1716000000
2.5037000000 0.2814000000 0.2032000000
2.5034000000 2.4825000000 2.1118000000
2.5033000000 6.1992000000 1.0500000000
2.5032000000 5.9417000000 1.2780000000
2.5028000000 0.5426000000 0.4228000000
2.5028000000 1.7895000000 1.5157000000
2.5026000000 2.7297000000 2.3319000000
2.5024000000 2.8090000000 2.4037000000
2.5022000000 1.3119000000 1.0963000000
2.5019000000 3.3265000000 2.7647000000
2.5017000000 6.0889000000 1.1534000000
2.5015000000 3.6646000000 2.9104000000
2.5014000000 1.9682000000 1.6709000000
2.5012000000 1.2553000000 1.0394000000
2.5007000000 7.0832000000 0.2831000000
2.5002000000 5.4430000000 1.7145000000
2.5001000000 0.0080000000 0.0368000000
2.4993000000 3.9469000000 2.8480000000
2.4992000000 2.8755000000 2.4564000000
2.4983000000 0.9499000000 0.7855000000
2.4979000000 0.4636000000 0.3609000000
2.4971000000 4.1442000000 2.7633000000
2.4965000000 1.8610000000 1.5733000000
2.4955000000 0.8130000000 0.6587000000
2.2608000000 1.4998000000 1.2608000000
2.2603000000 5.8835000000 1.3273000000
2.2601000000 7.1268000000 0.2449000000
2.2595000000 5.0916000000 2.0159000000
2.2593000000 0.4083000000 0.3078000000
2.2588000000 1.0297000000 0.8553000000
2.2578000000 5.2258000000 1.9041000000
2.2578000000 3.3927000000 2.9087000000
2.2575000000 3.6373000000 3.1498000000
2.2571000000 5.5730000000 1.6006000000
2.2569000000 5.6537000000 1.5293000000
2.2566000000 0.6673000000 0.5376000000
2.2565000000 2.7403000000 2.3413000000
2.2564000000 4.5188000000 2.5181000000
2.2561000000 4.7047000000 2.3538000000
2.2560000000 2.4078000000 2.0455000000
2.2558000000 6.9062000000 0.4342000000
2.2558000000 4.0803000000 2.8982000000
2.2555000000 6.0182000000 1.2075000000
2.2554000000 4.6860000000 2.3657000000
2.2550000000 5.1497000000 1.9651000000
2.2550000000 7.3111000000 0.0873000000
2.2548000000 7.2406000000 0.1500000000
2.2548000000 5.9109000000 1.3029000000
2.2545000000 6.3630000000 0.9076000000
2.2543000000 7.0368000000 0.3267000000
2.2542000000 3.5622000000 3.1096000000
2.2539000000 4.1933000000 2.7990000000
2.2538000000 6.8509000000 0.4816000000
2.2536000000 0.9166000000 0.7547000000
2.2533000000 0.3093000000 0.2216000000
2.2532000000 4.5684000000 2.4711000000
2.2530000000 0.5377000000 0.4246000000
2.2529000000 5.4681000000 1.6881000000
2.2528000000 0.2303000000 0.1586000000
2.2525000000 1.6557000000 1.3959000000
2.2524000000 3.1766000000 2.7192000000
2.2522000000 1.9320000000 1.6359000000
2.2520000000 5.6523000000 1.5314000000
2.2518000000 2.8050000000 2.3990000000
2.2514000000 1.6079000000 1.3595000000
2.2512000000 5.6935000000 1.4905000000
2.2510000000 1.2477000000 1.0409000000
2.2508000000 5.0292000000 2.0757000000
2.2503000000 2.4060000000 2.0546000000
2.2502000000 1.1464000000 0.9498000000
2.2500000000 2.6619000000 2.2790000000
2.2498000000 0.9247000000 0.7581000000
2.2494000000 4.5246000000 2.5101000000
2.2490000000 4.7508000000 2.3156000000
2.2488000000 0.9967000000 0.8257000000
2.2483000000 1.3946000000 1.1722000000
2.2479000000 6.4648000000 0.8221000000
2.2463000000 2.4981000000 2.1283000000
2.2428000000 0.0879000000 0.1061000000
2.0136000000 4.9997000000 2.1019000000
2.0106000000 3.1212000000 2.6705000000
2.0100000000 4.6992000000 2.3611000000
2.0099000000 6.4463000000 0.8338000000
2.0094000000 5.2744000000 1.8585000000
2.0090000000 4.1864000000 2.8099000000
2.0088000000 3.4217000000 2.9948000000
2.0084000000 7.0836000000 0.2807000000
2.0081000000 2.9012000000 2.4810000000
2.0078000000 1.2645000000 1.0506000000
2.0076000000 2.6532000000 2.2663000000
2.0073000000 4.0620000000 2.9772000000
2.0071000000 6.1527000000 1.0898000000
2.0070000000 6.6647000000 0.6466000000
2.0069000000 1.9857000000 1.6784000000
2.0066000000 1.9372000000 1.6407000000
2.0063000000 2.4695000000 2.1037000000
2.0062000000 2.7133000000 2.3170000000
2.0061000000 3.9186000000 3.0680000000
2.0059000000 7.4541000000 0.0302000000
2.0058000000 3.3577000000 2.8722000000
2.0055000000 5.9684000000 1.2571000000
2.0053000000 0.4052000000 0.3114000000
2.0050000000 3.1861000000 2.7295000000
2.0044000000 4.6456000000 2.4065000000
2.0041000000 6.9821000000 0.3709000000
2.0040000000 3.8887000000 3.0915000000
2.0038000000 4.7472000000 2.3182000000
2.0036000000 0.0328000000 0.0564000000
2.0035000000 4.8347000000 2.2430000000
2.0033000000 1.0220000000 0.8403000000
2.0033000000 4.0554000000 2.9818000000
2.0031000000 1.5045000000 1.2661000000
2.0029000000 5.1177000000 1.9935000000
2.0027000000 2.0230000000 1.7190000000
2.0025000000 2.6708000000 2.2846000000
2.0024000000 4.7178000000 2.3433000000
2.0023000000 3.6686000000 3.0585000000
2.0019000000 5.6260000000 1.5536000000
2.0018000000 1.1321000000 0.9383000000
2.0015000000 3.1452000000 2.6918000000
2.0012000000 4.8904000000 2.1943000000
2.0010000000 0.3719000000 0.2793000000
2.0006000000 4.9852000000 2.1136000000
2.0001000000 1.2577000000 1.0470000000
2.0000000000 0.5105000000 0.4010000000
1.9993000000 0.8808000000 0.7195000000
1.9992000000 7.4185000000 0.0678000000
1.9989000000 7.2086000000 0.1750000000
1.9980000000 1.2480000000 1.0372000000
1.9974000000 2.9004000000 2.4799000000
1.9960000000 0.6137000000 0.4940000000
1.7664000000 5.9841000000 1.2395000000
1.7619000000 7.1492000000 0.2285000000
1.7603000000 6.2538000000 1.0021000000
1.7599000000 2.4193000000 2.0611000000
1.7593000000 5.9205000000 1.2964000000
1.7588000000 2.4555000000 2.0972000000
1.7584000000 2.2709000000 1.9308000000
1.7583000000 6.1863000000 1.0655000000
1.7574000000 3.6444000000 2.8594000000
1.7572000000 6.6227000000 0.6764000000
1.7569000000 6.3405000000 0.9299000000
1.7566000000 6.8127000000 0.5162000000
1.7563000000 6.9892000000 0.3635000000
1.7562000000 5.8132000000 1.3921000000
1.7555000000 5.7845000000 1.4145000000
1.7553000000 1.3187000000 1.1018000000
1.7552000000 3.1486000000 2.7226000000
1.7550000000 4.7230000000 2.3330000000
1.7549000000 5.2364000000 1.8868000000
1.7546000000 6.1787000000 1.0703000000
1.7543000000 0.6872000000 0.5548000000
1.7542000000 2.4121000000 2.0501000000
1.7538000000 2.6191000000 2.2351000000
1.7537000000 3.5791000000 2.8380000000
1.7535000000 5.5427000000 1.6208000000
1.7533000000 3.3663000000 2.7432000000
1.7531000000 5.4157000000 1.7352000000
1.7530000000 7.4786000000 0.0118000000
1.7527000000 2.8479000000 2.4329000000
1.7525000000 4.7379000000 2.3248000000
1.7523000000 0.0493000000 0.0749000000
1.7520000000 3.4305000000 2.7643000000
1.7518000000 1.2821000000 1.0696000000
1.7514000000 3.7999000000 2.8670000000
1.7511000000 2.2602000000 1.9235000000
1.7508000000 0.6634000000 0.5294000000
1.7501000000 2.1328000000 1.8106000000
1.7498000000 0.9960000000 0.8239000000
1.7490000000 1.2014000000 0.9963000000
1.7485000000 0.8550000000 0.7021000000
1.7482000000 1.9745000000 1.6733000000
1.7470000000 2.6632000000 2.2756000000
1.5115000000 7.0848000000 0.2783000000
1.5108000000 0.7742000000 0.6201000000
1.5098000000 0.5965000000 0.4736000000
1.5093000000 4.9904000000 2.1078000000
1.5089000000 5.8952000000 1.3182000000
1.5086000000 1.5269000000 1.2820000000
1.5084000000 6.4951000000 0.7947000000
1.5081000000 0.3906000000 0.2932000000
1.5078000000 1.6879000000 1.4216000000
1.5074000000 3.3002000000 2.5286000000
1.5071000000 4.5117000000 2.3726000000
1.5070000000 2.5446000000 2.2329000000
1.5067000000 1.5714000000 1.3256000000
1.5064000000 7.4500000000 0.0389000000
1.5063000000 1.8393000000 1.5573000000
1.5062000000 7.2915000000 0.1064000000
1.5059000000 0.1696000000 0.1044000000
1.5058000000 4.1234000000 2.5419000000
1.5055000000 5.8645000000 1.3468000000
1.5054000000 5.1512000000 1.9671000000
1.5051000000 2.5957000000 2.2756000000
1.5049000000 0.3088000000 0.2217000000
1.5046000000 5.7001000000 1.4902000000
1.5044000000 2.3446000000 1.9980000000
1.5043000000 7.2297000000 0.1572000000
1.5040000000 1.4990000000 1.2640000000
1.5039000000 1.2133000000 1.0105000000
1.5038000000 4.3025000000 2.4653000000
1.5036000000 2.9581000000 2.3786000000
1.5034000000 4.8746000000 2.2689000000
1.5030000000 1.7387000000 1.4665000000
1.5030000000 2.4018000000 2.0456000000
1.5029000000 1.1347000000 0.9428000000
1.5028000000 3.4213000000 2.5768000000
1.5026000000 5.0911000000 2.0153000000
1.5025000000 3.4857000000 2.6075000000
1.5024000000 4.0952000000 2.5532000000
1.5020000000 4.9997000000 2.0982000000
1.5018000000 6.6133000000 0.6875000000
1.5017000000 0.4534000000 0.3483000000
1.5013000000 5.7649000000 1.4304000000
1.5010000000 2.7395000000 2.2829000000
1.5009000000 1.8095000000 1.5291000000
1.5007000000 6.0380000000 1.1971000000
1.5005000000 4.0728000000 2.5590000000
1.5003000000 1.1286000000 0.9405000000
1.5002000000 2.1575000000 1.8348000000
1.4999000000 1.1391000000 0.9454000000
1.4996000000 0.8190000000 0.6696000000
1.4986000000 2.1727000000 1.8476000000
1.4979000000 0.8587000000 0.7047000000
1.4970000000 3.8157000000 2.6749000000
1.4948000000 0.3904000000 0.2966000000
1.2613000000 6.8661000000 0.4720000000
1.2610000000 5.3640000000 1.8405000000
1.2598000000 7.3386000000 0.1302000000
1.2594000000 4.0576000000 2.3823000000
1.2592000000 2.9902000000 2.2093000000
1.2588000000 0.1376000000 0.0769000000
1.2585000000 7.0857000000 0.2782000000
1.2583000000 7.2659000000 0.1222000000
1.2582000000 4.3650000000 2.2563000000
1.2580000000 6.2836000000 0.9777000000
1.2575000000 3.0038000000 2.2164000000
1.2572000000 7.2753000000 0.1183000000
1.2569000000 5.1365000000 1.9153000000
1.2567000000 0.5435000000 0.4260000000
1.2566000000 5.3005000000 1.8971000000
1.2564000000 2.9032000000 2.1703000000
1.2562000000 3.3660000000 2.3686000000
1.2558000000 6.3425000000 0.9275000000
1.2557000000 6.4255000000 0.8535000000
1.2555000000 4.2156000000 2.3193000000
1.2553000000 7.1734000000 0.2056000000
1.2552000000 0.1786000000 0.1091000000
1.2547000000 7.0239000000 0.3381000000
1.2545000000 6.5426000000 0.7483000000
1.2543000000 0.9223000000 0.7528000000
1.2542000000 3.0310000000 2.2201000000
1.2540000000 0.6935000000 0.5622000000
1.2538000000 0.9063000000 0.7441000000
1.2535000000 0.3096000000 0.2285000000
1.2531000000 0.4594000000 0.3505000000
1.2530000000 3.9483000000 2.4322000000
1.2529000000 5.2268000000 1.9335000000
1.2528000000 3.8491000000 2.4731000000
1.2527000000 1.6791000000 1.4180000000
1.2525000000 0.1698000000 0.1049000000
1.2525000000 4.3899000000 2.2350000000
1.2523000000 6.1538000000 1.0917000000
1.2521000000 6.0119000000 1.2147000000
1.2520000000 4.2644000000 2.2887000000
1.2518000000 2.4015000000 1.9478000000
1.2515000000 3.7772000000 2.5694000000
1.2509000000 5.1670000000 1.8891000000
1.2506000000 4.1118000000 2.3577000000
1.2503000000 3.6609000000 2.4887000000
1.2499000000 4.7627000000 2.0690000000
1.2496000000 5.3016000000 1.8950000000
1.2494000000 1.1422000000 0.9501000000
1.2489000000 1.0974000000 0.9053000000
1.2486000000 2.3776000000 1.9379000000
1.2484000000 1.2859000000 1.0695000000
1.2475000000 0.5269000000 0.4133000000
1.2473000000 1.3793000000 1.1572000000
1.2471000000 6.3297000000 0.9390000000
1.0166000000 3.1368000000 2.0904000000
1.0139000000 6.1096000000 1.1279000000
1.0118000000 6.3344000000 0.9329000000
1.0117000000 3.4260000000 2.2108000000
1.0110000000 7.3954000000 0.0882000000
1.0100000000 6.7186000000 0.6033000000
1.0098000000 2.9445000000 1.9994000000
1.0088000000 4.6517000000 1.9372000000
1.0086000000 6.4889000000 0.7982000000
1.0081000000 5.0846000000 1.7507000000
1.0079000000 7.2927000000 0.1022000000
1.0073000000 5.4552000000 1.5826000000
1.0071000000 5.8198000000 1.3766000000
1.0069000000 3.4089000000 2.1949000000
1.0067000000 4.6151000000 1.9537000000
1.0066000000 4.6048000000 1.9592000000
1.0064000000 3.0293000000 2.0350000000
1.0060000000 5.3992000000 1.6092000000
1.0059000000 6.8071000000 0.5181000000
1.0056000000 4.4862000000 2.0067000000
1.0055000000 1.5011000000 1.2645000000
1.0053000000 3.3847000000 2.1858000000
1.0051000000 0.1214000000 0.0621000000
1.0050000000 6.3793000000 0.8951000000
1.0048000000 6.1879000000 1.0645000000
1.0048000000 3.1870000000 2.1040000000
1.0046000000 6.6165000000 0.6857000000
1.0045000000 0.1260000000 0.0653000000
1.0044000000 7.2545000000 0.1381000000
1.0043000000 1.7291000000 1.5199000000
1.0040000000 4.3838000000 2.0503000000
1.0035000000 6.9220000000 0.4194000000
1.0031000000 0.7905000000 0.6420000000
1.0029000000 1.1246000000 0.9329000000
1.0028000000 6.1762000000 1.0766000000
1.0027000000 4.3380000000 2.0730000000
1.0023000000 4.4973000000 1.9984000000
1.0021000000 1.9497000000 1.5565000000
1.0019000000 3.7277000000 2.3941000000
1.0018000000 4.5896000000 1.9560000000
1.0016000000 0.4684000000 0.3632000000
1.0015000000 5.6648000000 1.5561000000
1.0013000000 0.4993000000 0.3888000000
1.0012000000 6.0136000000 1.2136000000
1.0010000000 4.3587000000 2.0616000000
1.0007000000 0.5601000000 0.4399000000
1.0006000000 4.9690000000 1.7923000000
1.0004000000 7.1399000000 0.2300000000
0.9996000000 3.6674000000 2.3035000000
0.9991000000 1.4269000000 1.1979000000
0.9990000000 7.4740000000 0.0255000000
0.9988000000 0.5631000000 0.4491000000
0.9985000000 0.0523000000 0.0809000000
0.9982000000 0.6245000000 0.4961000000
0.9980000000 0.4552000000 0.3517000000
0.9974000000 3.8815000000 2.2663000000
0.9973000000 1.0319000000 0.8513000000
0.9965000000 2.2720000000 1.6924000000
0.9928000000 0.7263000000 0.5870000000
0.7645000000 4.9062000000 1.6466000000
0.7630000000 6.1154000000 1.1783000000
0.7628000000 6.4615000000 0.8267000000
0.7617000000 5.8317000000 1.2407000000
0.7607000000 7.4924000000 0.0800000000
0.7600000000 6.9443000000 0.3981000000
0.7595000000 1.9006000000 1.3565000000
0.7591000000 5.4510000000 1.4097000000
0.7583000000 0.5355000000 0.4211000000
0.7580000000 0.0990000000 0.1185000000
0.7578000000 3.0517000000 1.8573000000
0.7577000000 4.9750000000 1.6060000000
0.7576000000 4.8304000000 1.6764000000
0.7575000000 3.7387000000 2.2029000000
0.7574000000 6.4261000000 0.8547000000
0.7573000000 5.0492000000 1.5736000000
0.7571000000 4.2438000000 1.9234000000
0.7568000000 1.0445000000 0.8639000000
0.7565000000 1.5743000000 1.2074000000
0.7560000000 3.1150000000 1.8806000000
0.7559000000 4.3483000000 1.8807000000
0.7558000000 7.1246000000 0.2506000000
0.7556000000 6.0174000000 1.1588000000
0.7555000000 1.0693000000 0.8827000000
0.7553000000 3.3526000000 1.9831000000
0.7552000000 6.4601000000 0.8220000000
0.7549000000 3.7167000000 2.2071000000
0.7548000000 2.9810000000 1.8228000000
0.7546000000 6.3653000000 0.9121000000
0.7545000000 3.2116000000 1.9175000000
0.7543000000 4.8215000000 1.6746000000
0.7542000000 2.4022000000 1.5721000000
0.7540000000 7.1778000000 0.2005000000
0.7537000000 4.1618000000 1.9610000000
0.7533000000 0.0931000000 0.1139000000
0.7530000000 6.4720000000 0.8178000000
0.7529000000 1.9346000000 1.3622000000
0.7528000000 2.7967000000 1.7416000000
0.7527000000 2.8674000000 1.7656000000
0.7526000000 6.9436000000 0.4094000000
0.7524000000 1.3271000000 1.1641000000
0.7522000000 4.6023000000 1.7630000000
0.7520000000 3.2762000000 1.9489000000
0.7518000000 0.2620000000 0.1850000000
0.7518000000 3.1181000000 1.8840000000
0.7515000000 4.3092000000 1.8846000000
0.7512000000 1.5451000000 1.1954000000
0.7510000000 3.5293000000 2.0568000000
0.7506000000 3.5003000000 2.0480000000
0.7504000000 6.9272000000 0.4162000000
0.7502000000 2.6452000000 1.6731000000
0.7501000000 0.3675000000 0.2743000000
0.7498000000 1.9560000000 1.3718000000
0.7496000000 5.8734000000 1.2108000000
0.7495000000 3.5868000000 2.0809000000
0.7493000000 3.2829000000 1.9501000000
0.7485000000 3.3798000000 1.9933000000
0.7479000000 4.4609000000 1.8273000000
0.7468000000 0.5679000000 0.4499000000
0.7466000000 0.2789000000 0.2011000000
0.7455000000 4.9832000000 1.5952000000
0.5119000000 5.3336000000 1.2717000000
0.5117000000 5.3695000000 1.2446000000
0.5112000000 4.4794000000 1.6380000000
0.5100000000 5.8805000000 1.0290000000
0.5088000000 3.0516000000 1.6664000000
0.5086000000 7.1083000000 0.2551000000
0.5082000000 6.7415000000 0.5848000000
0.5080000000 5.8932000000 1.0217000000
0.5078000000 6.1474000000 0.9083000000
0.5073000000 2.4264000000 1.3939000000
0.5071000000 3.7759000000 2.0047000000
0.5070000000 3.4960000000 1.8634000000
0.5069000000 3.9083000000 1.8827000000
0.5068000000 2.0819000000 1.2373000000
0.5065000000 5.3426000000 1.2597000000
0.5064000000 4.4867000000 1.6268000000
0.5061000000 3.8045000000 1.9280000000
0.5059000000 4.0971000000 1.8074000000
0.5057000000 2.0639000000 1.2443000000
0.5055000000 7.3232000000 0.0749000000
0.5053000000 5.6707000000 1.1132000000
0.5051000000 1.9764000000 1.1952000000
0.5048000000 2.8189000000 1.5645000000
0.5046000000 5.8647000000 1.0263000000
0.5045000000 3.6183000000 1.9080000000
0.5043000000 5.0426000000 1.3848000000
0.5041000000 1.0841000000 0.8086000000
0.5040000000 4.3070000000 1.7091000000
0.5038000000 7.2730000000 0.1178000000
0.5035000000 2.0433000000 1.2240000000
0.5035000000 6.3871000000 0.7940000000
0.5033000000 3.0821000000 1.6745000000
0.5032000000 0.7062000000 0.5691000000
0.5031000000 0.2937000000 0.2103000000
0.5028000000 0.0021000000 0.0300000000
0.5027000000 0.2781000000 0.1980000000
0.5025000000 0.0570000000 0.0788000000
0.5023000000 4.5640000000 1.5960000000
0.5022000000 4.0162000000 1.8287000000
0.5020000000 4.2947000000 1.7063000000
0.5017000000 0.2824000000 0.2020000000
0.5013000000 4.3657000000 1.6799000000
0.5007000000 3.5363000000 1.8700000000
0.5005000000 1.0421000000 0.7854000000
0.5001000000 0.0899000000 0.1064000000
0.5000000000 3.3019000000 1.7734000000
0.4994000000 5.1712000000 1.3324000000
0.4991000000 5.0302000000 1.3924000000
0.4986000000 0.0563000000 0.0778000000
0.4970000000 1.0889000000 0.7990000000
0.2665000000 4.4380000000 1.4754000000
0.2599000000 6.2996000000 0.6562000000
0.2597000000 0.9401000000 0.5614000000
0.2588000000 1.8060000000 0.9430000000
0.2579000000 1.8051000000 0.9388000000
0.2577000000 5.5317000000 0.9862000000
0.2576000000 1.0279000000 0.5947000000
0.2573000000 5.6102000000 0.9569000000
0.2571000000 0.6237000000 0.4229000000
0.2570000000 4.5055000000 1.4377000000
0.2566000000 5.2015000000 1.1317000000
0.2565000000 4.0947000000 1.6184000000
0.2564000000 4.2800000000 1.5320000000
0.2562000000 4.8991000000 1.2664000000
0.2559000000 3.0135000000 1.4584000000
0.2553000000 0.7195000000 0.4644000000
0.2552000000 1.8701000000 0.9599000000
0.2550000000 4.9894000000 1.2247000000
0.2547000000 7.0834000000 0.3392000000
0.2546000000 6.2744000000 0.6600000000
0.2545000000 7.2560000000 0.1327000000
0.2543000000 6.8590000000 0.4088000000
0.2542000000 3.0688000000 1.4835000000
0.2539000000 0.4931000000 0.4270000000
0.2538000000 2.2995000000 1.1509000000
0.2538000000 5.8281000000 0.8556000000
0.2537000000 3.5942000000 1.7105000000
0.2535000000 0.4318000000 0.3955000000
0.2533000000 0.0843000000 0.1010000000
0.2531000000 5.4265000000 1.0312000000
0.2529000000 3.1436000000 1.5127000000
0.2527000000 1.6816000000 0.8811000000
0.2525000000 1.4445000000 0.7713000000
0.2523000000 4.3029000000 1.5216000000
0.2519000000 1.4220000000 0.7657000000
0.2517000000 1.9583000000 1.0005000000
0.2515000000 2.5494000000 1.2548000000
0.2512000000 2.0640000000 1.0372000000
0.2511000000 3.4994000000 1.6681000000
0.2508000000 6.5089000000 0.5572000000
0.2508000000 4.4665000000 1.4482000000
0.2505000000 1.2404000000 0.6802000000
0.2499000000 1.4830000000 0.7883000000
0.2496000000 4.5761000000 1.4017000000
0.2493000000 5.9043000000 0.8139000000
0.2491000000 5.8240000000 0.8516000000
0.2490000000 1.7628000000 0.9120000000
0.2488000000 4.9742000000 1.2278000000
0.2480000000 0.1314000000 0.0662000000
0.2473000000 2.4868000000 1.2259000000
0.2464000000 0.0831000000 0.1021000000
0.0128000000 5.1927000000 0.9546000000
0.0111000000 0.3784000000 0.1297000000
0.0105000000 4.3204000000 1.3301000000
0.0099000000 6.1687000000 0.5246000000
0.0088000000 3.5280000000 1.4898000000
0.0085000000 4.3201000000 1.3272000000
0.0080000000 7.3168000000 0.0991000000
0.0077000000 6.2327000000 0.4923000000
0.0073000000 4.4327000000 1.2802000000
0.0071000000 3.4384000000 1.4539000000
0.0070000000 5.9912000000 0.5975000000
0.0067000000 5.1525000000 0.9667000000
0.0066000000 6.8719000000 0.2123000000
0.0064000000 1.0571000000 0.4198000000
0.0059000000 7.1730000000 0.0867000000
0.0057000000 6.9785000000 0.1680000000
0.0054000000 6.4833000000 0.3825000000
0.0053000000 3.6336000000 1.5421000000
0.0052000000 3.2776000000 1.3843000000
0.0051000000 3.4791000000 1.4739000000
0.0048000000 0.8363000000 0.3233000000
0.0045000000 6.7062000000 0.2875000000
0.0040000000 3.1185000000 1.3186000000
0.0038000000 0.7996000000 0.3071000000
0.0038000000 2.3896000000 0.9968000000
0.0035000000 5.2457000000 0.9216000000
0.0034000000 2.9026000000 1.2233000000
0.0031000000 3.3604000000 1.4259000000
0.0030000000 2.6115000000 1.0929000000
0.0029000000 1.3343000000 0.5373000000
0.0026000000 3.1156000000 1.3142000000
0.0025000000 5.4980000000 0.8080000000
0.0024000000 0.9473000000 0.3663000000
0.0022000000 3.7838000000 1.5518000000
0.0020000000 3.6157000000 1.5321000000
0.0020000000 0.8957000000 0.3433000000
0.0017000000 4.9474000000 1.0513000000
0.0016000000 2.1500000000 0.8891000000
0.0014000000 5.2938000000 0.9004000000
0.0013000000 6.7007000000 0.2882000000
0.0010000000 2.4297000000 1.0181000000
0.0010000000 2.3223000000 0.9609000000
0.0009000000 4.5066000000 1.2480000000
0.0001000000 4.6956000000 1.1529000000
-0.0003000000 6.8725000000 0.2144000000
-0.0005000000 2.7550000000 1.1520000000
-0.0008000000 5.2280000000 0.9337000000
-0.0010000000 2.7760000000 1.1571000000
-0.0017000000 3.2148000000 1.3586000000
-0.0023000000 6.0389000000 0.5709000000
-0.0028000000 4.2793000000 1.3385000000
-0.0036000000 5.0137000000 1.0171000000
-0.0057000000 0.4766000000 0.1604000000
-0.2372000000 6.8997000000 0.0945000000
-0.2392000000 1.4344000000 0.4016000000
-0.2397000000 3.9551000000 1.3016000000
-0.2400000000 0.4061000000 0.0262000000
-0.2411000000 7.2085000000 0.0363000000
-0.2414000000 5.2083000000 0.7528000000
-0.2416000000 3.3824000000 1.2472000000
-0.2420000000 5.8680000000 0.4602000000
-0.2422000000 1.2825000000 0.3291000000
-0.2427000000 4.8197000000 0.9213000000
-0.2431000000 0.4825000000 0.0541000000
-0.2432000000 4.9828000000 0.8522000000
-0.2434000000 6.6897000000 0.1054000000
-0.2435000000 2.3702000000 0.8043000000
-0.2437000000 2.8338000000 1.0022000000
-0.2440000000 1.1921000000 0.2913000000
-0.2445000000 6.1807000000 0.3231000000
-0.2446000000 4.7488000000 0.9519000000
-0.2447000000 3.3374000000 1.2264000000
-0.2449000000 0.2235000000 0.0121000000
-0.2450000000 1.6438000000 0.4851000000
-0.2453000000 0.8076000000 0.1228000000
-0.2454000000 1.1503000000 0.2713000000
-0.2455000000 5.1380000000 0.7773000000
-0.2456000000 6.7089000000 0.0964000000
-0.2457000000 3.1603000000 1.1502000000
-0.2458000000 3.7311000000 1.4571000000
-0.2462000000 3.6411000000 1.3511000000
-0.2464000000 4.8631000000 0.9024000000
-0.2466000000 2.1403000000 0.7011000000
-0.2468000000 5.2459000000 0.7388000000
-0.2469000000 6.3219000000 0.2562000000
-0.2471000000 1.8298000000 0.5654000000
-0.2472000000 5.1172000000 0.7873000000
-0.2474000000 0.8111000000 0.1223000000
-0.2475000000 4.8648000000 0.9004000000
-0.2477000000 0.5294000000 0.0730000000
-0.2481000000 0.7077000000 0.0776000000
-0.2482000000 6.8238000000 0.1171000000
-0.2486000000 3.0717000000 1.0986000000
-0.2489000000 2.8484000000 1.0071000000
-0.2491000000 5.0688000000 0.8099000000
-0.2494000000 2.1937000000 0.7220000000
-0.2496000000 5.6864000000 0.5370000000
-0.2499000000 1.4742000000 0.4123000000
-0.2502000000 1.5839000000 0.4556000000
-0.2503000000 7.2326000000 0.0136000000
-0.2506000000 4.9797000000 0.8471000000
-0.2507000000 2.0022000000 0.6363000000
-0.2512000000 6.2186000000 0.3064000000
-0.2515000000 3.8084000000 1.3573000000
-0.2521000000 0.3858000000 0.0108000000
-0.2526000000 0.8579000000 0.1414000000
-0.2532000000 2.3804000000 0.8011000000
-0.2535000000 0.4545000000 0.0344000000
-0.2537000000 0.4892000000 0.0516000000
-0.2571000000 2.4048000000 0.8106000000
-0.4896000000 1.5741000000 0.2697000000
-0.4907000000 4.1318000000 1.0319000000
-0.4909000000 4.5750000000 0.8411000000
-0.4913000000 5.1114000000 0.6027000000
-0.4923000000 2.9341000000 0.8585000000
-0.4924000000 5.9295000000 0.2557000000
-0.4927000000 3.3364000000 1.0382000000
-0.4932000000 4.9520000000 0.6760000000
-0.4934000000 6.5731000000 0.0441000000
-0.4940000000 6.0392000000 0.1950000000
-0.4945000000 0.7357000000 0.0474000000
-0.4949000000 1.6435000000 0.2998000000
-0.4952000000 3.7283000000 1.2665000000
-0.4953000000 4.8664000000 0.7104000000
-0.4955000000 4.3872000000 0.9221000000
-0.4957000000 0.8721000000 0.0294000000
-0.4960000000 3.0104000000 0.8872000000
-0.4959000000 4.5197000000 0.8625000000
-0.4962000000 3.7229000000 1.2652000000
-0.4964000000 6.7476000000 0.0435000000
-0.4967000000 2.6069000000 0.7137000000
-0.4969000000 3.7772000000 1.2490000000
-0.4970000000 1.8174000000 0.3742000000
-0.4971000000 2.6092000000 0.7185000000
-0.4973000000 5.4792000000 0.4403000000
-0.4977000000 6.3071000000 0.0786000000
-0.4978000000 4.3991000000 0.9105000000
-0.4979000000 2.0014000000 0.4482000000
-0.4982000000 2.9739000000 0.8737000000
-0.4985000000 6.2468000000 0.1070000000
-0.4986000000 3.6341000000 1.1591000000
-0.4990000000 2.6071000000 0.7132000000
