6.7618000000 4.3841000000 0.0089000000
6.7578000000 4.2877000000 0.0443000000
6.7549000000 3.5942000000 0.0212000000
6.7520000000 4.1564000000 0.0183000000
6.5103000000 3.1686000000 0.0268000000
6.5100000000 4.2115000000 0.1476000000
6.5073000000 3.8484000000 0.1867000000
6.5063000000 4.2660000000 0.1241000000
6.5051000000 4.0374000000 0.2027000000
6.5043000000 4.2244000000 0.1411000000
6.5028000000 4.6470000000 0.0681000000
6.5002000000 4.4570000000 0.0626000000
6.2613000000 3.8444000000 0.3293000000
6.2604000000 3.5713000000 0.2334000000
6.2599000000 3.6725000000 0.2725000000
6.2571000000 3.1507000000 0.0954000000
6.2562000000 4.0619000000 0.3432000000
6.2555000000 2.9829000000 0.0353000000
6.2552000000 4.1944000000 0.2994000000
6.2544000000 3.9884000000 0.3535000000
6.2537000000 2.9080000000 0.0083000000
6.2530000000 4.7524000000 0.1135000000
6.2519000000 3.1912000000 0.1056000000
6.2513000000 4.9971000000 0.0267000000
6.2503000000 4.9125000000 0.0615000000
6.2475000000 2.9143000000 0.0213000000
6.0138000000 4.8797000000 0.2040000000
6.0099000000 5.6266000000 0.0290000000
6.0079000000 3.6075000000 0.3978000000
6.0072000000 5.6977000000 0.0081000000
6.0064000000 5.4457000000 0.0237000000
6.0061000000 4.7997000000 0.2429000000
6.0053000000 3.3785000000 0.3237000000
6.0050000000 2.8381000000 0.1397000000
6.0045000000 4.6167000000 0.3038000000
6.0038000000 3.5489000000 0.3828000000
6.0035000000 4.0838000000 0.4869000000
6.0032000000 2.6759000000 0.0808000000
6.0022000000 5.6924000000 0.0097000000
6.0015000000 4.7094000000 0.2783000000
6.0009000000 2.6643000000 0.0759000000
5.9998000000 3.9987000000 0.5035000000
5.7617000000 5.6702000000 0.0858000000
5.7608000000 6.0301000000 0.0357000000
5.7589000000 5.8759000000 0.0183000000
5.7580000000 3.2042000000 0.3993000000
5.7575000000 3.1031000000 0.3738000000
5.7571000000 1.9814000000 0.0665000000
5.7567000000 5.6173000000 0.1039000000
5.7563000000 2.9041000000 0.3066000000
5.7560000000 4.1824000000 0.5962000000
5.7557000000 5.0988000000 0.2847000000
5.7554000000 3.3724000000 0.4675000000
5.7553000000 3.9562000000 0.6594000000
5.7548000000 4.3240000000 0.5512000000
5.7543000000 5.8935000000 0.0235000000
5.7540000000 1.8787000000 0.0307000000
5.7535000000 3.9442000000 0.6525000000
5.7528000000 2.6141000000 0.2104000000
5.7519000000 1.9290000000 0.0460000000
5.7515000000 2.3365000000 0.1149000000
5.7506000000 2.5237000000 0.1811000000
5.7495000000 2.1792000000 0.0633000000
5.7488000000 2.7308000000 0.2473000000
5.7475000000 4.9657000000 0.3441000000
5.5130000000 4.6914000000 0.5675000000
5.5124000000 6.2384000000 0.0409000000
5.5118000000 5.4792000000 0.3024000000
5.5105000000 2.0643000000 0.1621000000
5.5095000000 5.7397000000 0.2137000000
5.5082000000 1.3977000000 0.0145000000
5.5071000000 5.0347000000 0.4616000000
5.5066000000 2.2969000000 0.2534000000
5.5060000000 4.1928000000 0.7459000000
5.5057000000 2.7395000000 0.3959000000
5.5054000000 1.4484000000 0.0265000000
5.5053000000 3.1089000000 0.5250000000
5.5047000000 1.9864000000 0.1461000000
5.5044000000 2.1670000000 0.1995000000
5.5039000000 5.5733000000 0.2769000000
5.5036000000 3.0451000000 0.5047000000
5.5032000000 4.5400000000 0.6280000000
5.5030000000 4.5924000000 0.6090000000
5.5026000000 3.3890000000 0.6258000000
5.5018000000 3.8976000000 0.8018000000
5.5011000000 2.8930000000 0.4486000000
5.5009000000 1.9173000000 0.1165000000
5.5005000000 2.8774000000 0.4501000000
5.5003000000 5.6903000000 0.2338000000
5.4992000000 2.5770000000 0.3427000000
5.4970000000 2.9746000000 0.4843000000
5.2627000000 5.7353000000 0.3609000000
5.2603000000 3.0325000000 0.6463000000
5.2587000000 3.7806000000 0.8966000000
5.2584000000 4.8380000000 0.6651000000
5.2580000000 3.2162000000 0.7141000000
5.2577000000 1.0277000000 0.0344000000
5.2566000000 2.8276000000 0.5808000000
5.2565000000 2.2887000000 0.3906000000
5.2562000000 6.4603000000 0.1169000000
5.2560000000 1.2225000000 0.0318000000
5.2558000000 5.0179000000 0.6059000000
5.2556000000 1.8586000000 0.2414000000
5.2552000000 4.4002000000 0.8185000000
5.2549000000 1.3173000000 0.0565000000
5.2545000000 1.3296000000 0.0669000000
5.2544000000 3.3693000000 0.7647000000
5.2542000000 5.6418000000 0.3928000000
5.2539000000 4.6135000000 0.7499000000
5.2537000000 2.4212000000 0.4359000000
5.2534000000 4.1301000000 0.9171000000
5.2530000000 1.5499000000 0.1409000000
5.2528000000 2.4146000000 0.4376000000
5.2524000000 1.1008000000 0.0586000000
5.2523000000 1.3501000000 0.0723000000
5.2520000000 1.7740000000 0.2190000000
5.2518000000 3.9960000000 0.9512000000
5.2512000000 1.9786000000 0.2879000000
5.2510000000 3.0243000000 0.6453000000
5.2508000000 5.2280000000 0.5370000000
5.2502000000 6.8258000000 0.0702000000
5.2500000000 2.2309000000 0.3761000000
5.2489000000 6.4026000000 0.1468000000
5.2478000000 2.4350000000 0.4470000000
5.0135000000 7.3507000000 0.0297000000
5.0116000000 3.5003000000 0.9527000000
5.0105000000 5.9025000000 0.4512000000
5.0103000000 6.0028000000 0.4231000000
5.0092000000 6.9086000000 0.1063000000
5.0088000000 6.9678000000 0.0890000000
5.0078000000 1.4871000000 0.2634000000
5.0073000000 3.9835000000 1.0972000000
5.0069000000 4.5766000000 0.9098000000
5.0067000000 6.1759000000 0.3668000000
5.0063000000 3.3605000000 0.9010000000
5.0059000000 2.7677000000 0.7060000000
5.0052000000 7.4481000000 0.0007000000
5.0049000000 5.7182000000 0.5210000000
5.0048000000 3.8830000000 1.0889000000
5.0044000000 5.4747000000 0.6021000000
5.0041000000 3.7500000000 1.0440000000
5.0039000000 1.2963000000 0.2029000000
5.0035000000 1.5982000000 0.3047000000
5.0032000000 1.0259000000 0.1104000000
5.0029000000 2.2490000000 0.5331000000
5.0022000000 1.5117000000 0.2816000000
5.0021000000 3.1034000000 0.8205000000
5.0014000000 1.9097000000 0.4145000000
5.0011000000 5.2570000000 0.6795000000
5.0008000000 1.9136000000 0.4155000000
5.0005000000 2.4526000000 0.6037000000
5.0003000000 4.5845000000 0.9138000000
4.9996000000 2.0666000000 0.4664000000
4.9993000000 5.5661000000 0.5710000000
4.9985000000 1.3736000000 0.2307000000
4.9980000000 1.2405000000 0.1838000000
4.7616000000 0.9643000000 0.2307000000
4.7610000000 6.3054000000 0.4648000000
4.7600000000 6.7784000000 0.3009000000
4.7589000000 7.5939000000 0.0216000000
4.7585000000 0.3908000000 0.0373000000
4.7583000000 4.4052000000 1.1121000000
4.7581000000 1.9991000000 0.5874000000
4.7579000000 3.2399000000 1.0114000000
4.7576000000 5.3037000000 0.8067000000
4.7571000000 4.5142000000 1.0795000000
4.7565000000 1.7788000000 0.5114000000
4.7560000000 3.3749000000 1.0589000000
4.7557000000 2.4922000000 0.7616000000
4.7554000000 0.6260000000 0.1199000000
4.7552000000 7.2467000000 0.1476000000
4.7549000000 4.0218000000 1.2444000000
4.7547000000 0.7427000000 0.1594000000
4.7545000000 0.3550000000 0.0282000000
4.7543000000 2.5227000000 0.7636000000
4.7538000000 2.6872000000 0.8297000000
4.7537000000 6.9532000000 0.2465000000
4.7533000000 2.8243000000 0.8763000000
4.7530000000 6.4707000000 0.4131000000
4.7525000000 7.4281000000 0.0850000000
4.7522000000 3.9927000000 1.2476000000
4.7518000000 2.2184000000 0.6745000000
4.7510000000 4.9527000000 0.9365000000
4.7506000000 5.3127000000 0.8039000000
4.7502000000 3.1601000000 0.9919000000
4.7495000000 1.0318000000 0.2577000000
4.7465000000 1.3430000000 0.3700000000
4.5136000000 5.9879000000 0.7257000000
4.5126000000 0.9856000000 0.3877000000
4.5117000000 7.3871000000 0.2397000000
4.5102000000 6.8444000000 0.4258000000
4.5094000000 4.2449000000 1.3186000000
4.5090000000 5.8265000000 0.7777000000
4.5081000000 6.4365000000 0.5680000000
4.5077000000 4.2115000000 1.3297000000
4.5074000000 6.7064000000 0.4749000000
4.5070000000 5.4048000000 0.9246000000
4.5068000000 1.7763000000 0.6594000000
4.5065000000 5.0451000000 1.0404000000
4.5063000000 2.0247000000 0.7486000000
4.5059000000 7.2221000000 0.3008000000
4.5057000000 6.9379000000 0.3989000000
4.5055000000 0.5479000000 0.2326000000
4.5062000000 2.8846000000 1.0416000000
4.5050000000 6.7313000000 0.4653000000
4.5048000000 7.2790000000 0.2827000000
4.5046000000 6.1332000000 0.6705000000
4.5044000000 3.2431000000 1.1648000000
4.5039000000 2.3228000000 0.8515000000
4.5037000000 3.9188000000 1.3968000000
4.5035000000 0.1144000000 0.0792000000
4.5033000000 6.3728000000 0.5914000000
4.5030000000 0.7611000000 0.3127000000
4.5025000000 3.1576000000 1.1358000000
4.5023000000 5.0232000000 1.0574000000
4.5021000000 7.3872000000 0.2458000000
4.5018000000 5.6611000000 0.8375000000
4.5012000000 4.6842000000 1.1743000000
4.5005000000 1.4694000000 0.5590000000
4.4999000000 4.0944000000 1.3799000000
4.4995000000 7.2114000000 0.3126000000
4.4990000000 0.2120000000 0.1164000000
4.4968000000 1.7195000000 0.6515000000
4.4960000000 0.9288000000 0.3756000000
4.4940000000 2.1210000000 0.7858000000
4.2631000000 4.3845000000 1.4162000000
4.2603000000 2.1706000000 0.9419000000
4.2598000000 7.0630000000 0.4981000000
4.2593000000 5.5259000000 1.0235000000
4.2590000000 7.5198000000 0.2998000000
4.2586000000 6.8018000000 0.5920000000
4.2582000000 5.7799000000 0.9380000000
4.2575000000 6.2073000000 0.7952000000
4.2573000000 2.5719000000 1.0791000000
4.2571000000 6.0714000000 0.8468000000
4.2570000000 2.0595000000 0.9063000000
4.2567000000 4.6524000000 1.3240000000
4.2564000000 1.3998000000 0.6813000000
4.2562000000 2.3912000000 1.0181000000
4.2561000000 0.0822000000 0.0637000000
4.2558000000 5.9456000000 0.8860000000
4.2556000000 4.3521000000 1.4338000000
4.2554000000 0.9539000000 0.5254000000
4.2552000000 0.8057000000 0.4780000000
4.2548000000 2.6144000000 1.0992000000
4.2543000000 1.7446000000 0.7953000000
4.2540000000 1.7313000000 0.8013000000
4.2538000000 4.3563000000 1.4306000000
4.2536000000 0.9693000000 0.5371000000
4.2532000000 5.2491000000 1.1275000000
4.2530000000 5.9284000000 0.8921000000
4.2528000000 1.7764000000 0.8186000000
4.2526000000 6.0390000000 0.8555000000
4.2524000000 6.9383000000 0.5472000000
4.2522000000 2.3882000000 1.0250000000
4.2516000000 1.0232000000 0.5509000000
4.2511000000 4.3212000000 1.4483000000
4.2506000000 2.4745000000 1.0532000000
4.2504000000 0.9143000000 0.5158000000
4.2499000000 1.2931000000 0.6506000000
4.2495000000 2.2010000000 0.9586000000
4.2490000000 0.9684000000 0.5353000000
4.2483000000 1.0982000000 0.5861000000
4.2474000000 6.4474000000 0.7232000000
4.2453000000 1.9192000000 0.8627000000
4.0146000000 5.5624000000 1.1592000000
4.0124000000 5.2627000000 1.2683000000
4.0110000000 6.8456000000 0.7195000000
4.0104000000 3.8289000000 1.6567000000
4.0097000000 2.5046000000 1.2039000000
4.0090000000 6.5091000000 0.8376000000
4.0083000000 4.0722000000 1.6762000000
4.0078000000 5.3946000000 1.2252000000
4.0075000000 5.8928000000 1.0549000000
4.0073000000 1.9955000000 1.0272000000
4.0068000000 3.9937000000 1.6873000000
4.0064000000 5.8267000000 1.0761000000
4.0062000000 7.9280000000 0.0150000000
4.0060000000 7.5918000000 0.2529000000
4.0057000000 2.4801000000 1.2037000000
4.0055000000 4.9746000000 1.3697000000
4.0053000000 5.4964000000 1.1816000000
4.0051000000 2.0994000000 1.0677000000
4.0050000000 4.4968000000 1.5332000000
4.0046000000 0.9185000000 0.6357000000
4.0043000000 0.9993000000 0.6781000000
4.0039000000 1.0889000000 0.7150000000
4.0036000000 7.9198000000 0.0256000000
4.0035000000 4.7860000000 1.4291000000
4.0032000000 7.6478000000 0.2076000000
4.0030000000 0.5752000000 0.4053000000
4.0028000000 5.5928000000 1.1567000000
4.0026000000 3.9779000000 1.6989000000
4.0023000000 7.2199000000 0.5014000000
4.0021000000 1.2930000000 0.7958000000
4.0018000000 0.4703000000 0.3279000000
4.0015000000 3.7123000000 1.6285000000
4.0010000000 1.8262000000 0.9770000000
4.0008000000 5.0276000000 1.3559000000
4.0002000000 0.0570000000 0.0450000000
3.9998000000 2.2973000000 1.1436000000
3.9982000000 3.1715000000 1.4366000000
3.9971000000 1.0945000000 0.7182000000
3.9957000000 0.7376000000 0.5130000000
3.7639000000 7.3589000000 0.4065000000
3.7635000000 5.3997000000 1.3662000000
3.7626000000 0.8544000000 0.5916000000
3.7606000000 1.9931000000 1.1784000000
3.7599000000 0.6527000000 0.4560000000
3.7592000000 3.4184000000 1.6690000000
3.7590000000 5.5893000000 1.3093000000
3.7585000000 7.7838000000 0.1149000000
3.7578000000 6.7637000000 0.8147000000
3.7574000000 2.0235000000 1.1923000000
3.7570000000 4.7032000000 1.6059000000
3.7568000000 1.4940000000 0.9965000000
3.7565000000 5.1077000000 1.4740000000
3.7560000000 1.4396000000 0.9782000000
3.7558000000 5.6774000000 1.2720000000
3.7556000000 1.4923000000 0.9999000000
3.7555000000 5.2950000000 1.4067000000
3.7553000000 0.6787000000 0.4731000000
3.7551000000 5.0945000000 1.4707000000
3.7549000000 6.3494000000 1.0456000000
3.7545000000 6.1902000000 1.1011000000
3.7541000000 2.8626000000 1.4798000000
3.7539000000 7.5711000000 0.2650000000
3.7536000000 7.1235000000 0.5658000000
3.7533000000 3.6737000000 1.7606000000
3.7530000000 1.6731000000 1.0749000000
3.7528000000 5.2610000000 1.4158000000
3.7527000000 4.2259000000 1.7729000000
3.7525000000 6.2908000000 1.0717000000
3.7523000000 4.1113000000 1.8183000000
3.7518000000 3.7454000000 1.7854000000
3.7515000000 6.1808000000 1.1051000000
3.7513000000 3.0153000000 1.5310000000
3.7509000000 0.7182000000 0.4958000000
3.7500000000 1.8048000000 1.1220000000
3.7489000000 0.7979000000 0.5473000000
3.7470000000 4.9939000000 1.5183000000
3.5127000000 4.0897000000 1.9610000000
3.5116000000 7.8827000000 0.0449000000
3.5109000000 5.4005000000 1.5160000000
3.5097000000 3.4071000000 1.8094000000
3.5093000000 5.3521000000 1.5336000000
3.5088000000 2.3484000000 1.4492000000
3.5080000000 7.4388000000 0.3516000000
3.5077000000 4.2774000000 1.8990000000
3.5073000000 2.6170000000 1.5393000000
3.5068000000 2.3113000000 1.4385000000
3.5067000000 2.2841000000 1.4270000000
3.5062000000 2.8093000000 1.6098000000
3.5060000000 7.1043000000 0.5845000000
3.5057000000 7.1548000000 0.5474000000
3.5055000000 7.4079000000 0.3772000000
3.5051000000 2.5775000000 1.5267000000
3.5048000000 0.4646000000 0.3289000000
3.5046000000 6.4673000000 1.0179000000
3.5042000000 0.0042000000 0.0076000000
3.5040000000 7.8646000000 0.0674000000
3.5039000000 5.3546000000 1.5396000000
3.5037000000 4.3482000000 1.8779000000
3.5035000000 5.4025000000 1.5176000000
3.5033000000 3.6912000000 1.9151000000
3.5030000000 6.8571000000 0.7564000000
3.5027000000 4.9666000000 1.6698000000
3.5023000000 7.1231000000 0.5668000000
3.5019000000 1.4970000000 1.0344000000
3.5015000000 1.1989000000 0.8269000000
3.5012000000 1.0959000000 0.7576000000
3.5008000000 4.2510000000 1.9143000000
3.5003000000 2.7097000000 1.5760000000
3.5000000000 1.5366000000 1.0593000000
3.4995000000 2.3817000000 1.4654000000
3.4992000000 1.4376000000 0.9886000000
3.4986000000 1.9637000000 1.3115000000
3.4982000000 1.3052000000 0.9006000000
3.4955000000 3.3327000000 1.7956000000
3.2680000000 6.1513000000 1.2322000000
3.2632000000 6.1941000000 1.2128000000
3.2603000000 7.0177000000 0.6372000000
3.2601000000 6.5378000000 0.9684000000
3.2590000000 7.5873000000 0.2539000000
3.2585000000 2.5166000000 1.6596000000
3.2583000000 5.2232000000 1.7272000000
3.2579000000 2.6664000000 1.7067000000
3.2575000000 7.0764000000 0.6013000000
3.2573000000 6.7175000000 0.8515000000
3.2566000000 1.2751000000 0.8816000000
3.2563000000 3.6391000000 2.0410000000
3.2559000000 3.9847000000 2.1410000000
3.2557000000 0.8796000000 0.6121000000
3.2556000000 3.3820000000 1.9562000000
3.2553000000 7.6018000000 0.2375000000
3.2550000000 1.0018000000 0.6947000000
3.2547000000 7.9425000000 0.0852000000
3.2545000000 5.8190000000 1.4648000000
3.2543000000 0.1985000000 0.1430000000
3.2540000000 0.9405000000 0.6487000000
3.2536000000 2.2054000000 1.5082000000
3.2534000000 5.4660000000 1.6438000000
3.2530000000 4.8185000000 1.8685000000
3.2530000000 5.8576000000 1.4357000000
3.2526000000 7.7064000000 0.1650000000
3.2522000000 2.7646000000 1.7358000000
3.2521000000 0.7225000000 0.5016000000
3.2519000000 3.1639000000 1.8772000000
3.2516000000 2.2794000000 1.5569000000
3.2514000000 1.1644000000 0.8003000000
3.2512000000 1.1872000000 0.8200000000
3.2509000000 4.4986000000 1.9828000000
3.2506000000 3.8554000000 2.1202000000
3.2503000000 2.0031000000 1.3782000000
3.2495000000 1.3959000000 0.9662000000
3.2490000000 2.9319000000 1.8013000000
3.2485000000 0.9475000000 0.6569000000
3.2475000000 3.8413000000 2.1166000000
3.2449000000 1.8637000000 1.2814000000
3.2430000000 0.9946000000 0.6874000000
3.0125000000 6.4959000000 1.0021000000
3.0114000000 4.8649000000 2.0005000000
3.0108000000 0.4012000000 0.2805000000
3.0104000000 6.4743000000 1.0109000000
3.0101000000 4.0850000000 2.2601000000
3.0090000000 5.3475000000 1.7880000000
3.0088000000 4.2555000000 2.2049000000
3.0083000000 7.3618000000 0.4059000000
3.0080000000 6.1584000000 1.2319000000
3.0076000000 2.4307000000 1.6724000000
3.0073000000 6.2758000000 1.1514000000
3.0068000000 3.8870000000 2.2710000000
3.0067000000 7.8278000000 0.0890000000
3.0062000000 7.0532000000 0.6184000000
3.0060000000 5.3666000000 1.7676000000
3.0058000000 3.2808000000 2.0703000000
3.0053000000 4.1558000000 2.2453000000
3.0052000000 7.6351000000 0.2227000000
3.0049000000 6.3709000000 1.0839000000
3.0047000000 1.4315000000 0.9836000000
3.0045000000 2.5557000000 1.7554000000
3.0042000000 3.6222000000 2.1854000000
3.0056000000 6.9734000000 0.6771000000
3.0040000000 3.9956000000 2.2809000000
3.0038000000 5.5111000000 1.6773000000
3.0036000000 2.4739000000 1.7031000000
3.0031000000 2.2173000000 1.5273000000
3.0029000000 2.6440000000 1.8060000000
3.0026000000 4.8211000000 2.0230000000
3.0021000000 0.1960000000 0.1461000000
3.0017000000 2.8787000000 1.9340000000
3.0013000000 7.6634000000 0.2008000000
3.0011000000 1.8500000000 1.2770000000
3.0004000000 1.0680000000 0.7384000000
3.0001000000 1.4281000000 0.9818000000
2.9996000000 1.9192000000 1.3191000000
2.9991000000 1.5811000000 1.0897000000
2.9980000000 7.9474000000 0.0749000000
2.9938000000 0.3789000000 0.2687000000
2.7614000000 7.0751000000 0.6042000000
2.7603000000 3.3450000000 2.2294000000
2.7594000000 6.2670000000 1.1599000000
2.7591000000 6.3149000000 1.1235000000
2.7585000000 4.3631000000 2.3143000000
2.7580000000 7.0319000000 0.6340000000
2.7576000000 7.1772000000 0.5345000000
2.7574000000 1.9743000000 1.3579000000
2.7571000000 7.0958000000 0.5881000000
2.7568000000 7.0927000000 0.5928000000
2.7566000000 4.5148000000 2.2627000000
2.7562000000 1.8832000000 1.2965000000
2.7560000000 0.7043000000 0.4790000000
2.7557000000 4.2045000000 2.3698000000
2.7555000000 4.6273000000 2.2295000000
2.7553000000 5.1846000000 1.8907000000
2.7552000000 2.4296000000 1.6761000000
2.7550000000 5.0483000000 1.9896000000
2.7548000000 6.9529000000 0.6892000000
2.7547000000 1.7774000000 1.2275000000
2.7542000000 5.5183000000 1.6675000000
2.7540000000 7.5123000000 0.3027000000
2.7538000000 4.1571000000 2.3879000000
2.7536000000 6.7505000000 0.8252000000
2.7533000000 2.8547000000 1.9595000000
2.7530000000 6.3052000000 1.1321000000
2.7528000000 4.2674000000 2.3498000000
2.7526000000 3.0802000000 2.1140000000
2.7524000000 0.7230000000 0.5010000000
2.7520000000 1.7685000000 1.2218000000
2.7518000000 1.3017000000 0.9009000000
2.7515000000 6.1563000000 1.2310000000
2.7511000000 1.5800000000 1.0930000000
2.7506000000 1.2185000000 0.8376000000
2.7503000000 4.9568000000 2.0498000000
2.7500000000 4.5435000000 2.2564000000
2.7491000000 0.2386000000 0.1698000000
2.7488000000 0.2830000000 0.1982000000
2.7483000000 1.7502000000 1.2085000000
2.7464000000 5.4032000000 1.7484000000
2.7429000000 2.7525000000 1.8901000000
2.5123000000 7.2484000000 0.4869000000
2.5118000000 6.4411000000 1.0347000000
2.5101000000 7.1215000000 0.5680000000
2.5083000000 4.7777000000 2.1769000000
2.5076000000 4.7896000000 2.1666000000
2.5073000000 5.8303000000 1.4553000000
2.5068000000 5.7962000000 1.4801000000
2.5066000000 3.2567000000 2.2434000000
2.5064000000 3.8008000000 2.5437000000
2.5058000000 4.9233000000 2.0704000000
2.5054000000 1.9534000000 1.3475000000
2.5052000000 0.1792000000 0.1364000000
2.5050000000 7.6120000000 0.2361000000
2.5048000000 0.0853000000 0.0630000000
2.5046000000 3.8020000000 2.5373000000
2.5044000000 2.7052000000 1.8549000000
2.5043000000 1.0263000000 0.7129000000
2.5041000000 3.4731000000 2.3862000000
2.5040000000 5.0900000000 1.9683000000
2.5038000000 5.6552000000 1.5746000000
2.5037000000 5.7180000000 1.5351000000
2.5035000000 3.1954000000 2.1972000000
2.5031000000 6.8604000000 0.7483000000
2.5024000000 5.8148000000 1.4626000000
2.5020000000 6.1955000000 1.2076000000
2.5018000000 3.4724000000 2.3825000000
2.5013000000 0.3401000000 0.2382000000
2.5010000000 1.0369000000 0.7194000000
2.5008000000 2.0101000000 1.3778000000
2.5003000000 6.5629000000 0.9528000000
2.5001000000 1.4755000000 1.0183000000
2.4998000000 0.6814000000 0.4761000000
2.4993000000 5.2310000000 1.8641000000
2.4976000000 2.1633000000 1.4920000000
2.4970000000 0.2589000000 0.1834000000
2.2625000000 7.4824000000 0.3223000000
2.2619000000 6.4653000000 1.0243000000
2.2612000000 6.5568000000 0.9580000000
2.2608000000 4.3699000000 2.4522000000
2.2598000000 5.9066000000 1.4033000000
2.2592000000 6.2693000000 1.1548000000
2.2583000000 4.3124000000 2.4980000000
2.2580000000 5.4489000000 1.7146000000
2.2578000000 4.0948000000 2.6281000000
2.2577000000 2.9680000000 2.0444000000
2.2572000000 4.2554000000 2.5280000000
2.2569000000 6.8700000000 0.7409000000
2.2566000000 1.5309000000 1.0567000000
2.2564000000 6.1355000000 1.2447000000
2.2563000000 3.3272000000 2.2847000000
2.2559000000 1.3605000000 0.9426000000
2.2557000000 1.9593000000 1.3496000000
2.2555000000 0.6793000000 0.4644000000
2.2552000000 3.1263000000 2.1487000000
2.2548000000 6.9990000000 0.6565000000
2.2543000000 7.6230000000 0.2274000000
2.2542000000 4.8305000000 2.1404000000
2.2540000000 2.3542000000 1.6201000000
2.2539000000 5.6198000000 1.6012000000
2.2537000000 1.7775000000 1.2291000000
2.2536000000 3.7870000000 2.5999000000
2.2534000000 3.8386000000 2.6188000000
2.2531000000 0.7412000000 0.5130000000
2.2530000000 1.0847000000 0.7490000000
2.2528000000 6.1719000000 1.2176000000
2.2526000000 0.2774000000 0.1978000000
2.2525000000 6.2412000000 1.1724000000
2.2520000000 7.9066000000 0.0358000000
2.2518000000 0.6797000000 0.4771000000
2.2515000000 6.0013000000 1.3386000000
2.2513000000 2.8127000000 1.9324000000
2.2510000000 2.8280000000 1.9467000000
2.2506000000 0.4439000000 0.3081000000
2.2503000000 7.4942000000 0.3147000000
2.2493000000 5.7186000000 1.5368000000
2.2487000000 1.8096000000 1.2497000000
2.2459000000 2.7929000000 1.9177000000
2.0145000000 6.1699000000 1.2244000000
2.0133000000 7.8410000000 0.0780000000
2.0109000000 6.7277000000 0.8360000000
2.0103000000 3.8414000000 2.5098000000
2.0096000000 2.9928000000 2.0566000000
2.0095000000 5.5455000000 1.6544000000
2.0091000000 7.8148000000 0.0935000000
2.0083000000 5.5279000000 1.6564000000
2.0078000000 7.1119000000 0.5779000000
2.0071000000 7.6556000000 0.2038000000
2.0069000000 1.0173000000 0.7042000000
2.0065000000 3.0840000000 2.1185000000
2.0062000000 7.2837000000 0.4660000000
2.0056000000 7.2174000000 0.5090000000
2.0055000000 2.7031000000 1.8545000000
2.0053000000 0.7292000000 0.5095000000
2.0048000000 2.8690000000 1.9705000000
2.0046000000 4.8430000000 2.1316000000
2.0044000000 5.4540000000 1.7125000000
2.0041000000 1.7561000000 1.2162000000
2.0038000000 6.7879000000 0.8015000000
2.0034000000 1.9914000000 1.3698000000
2.0032000000 1.3931000000 0.9607000000
2.0030000000 7.4085000000 0.3672000000
2.0027000000 1.7381000000 1.1929000000
2.0025000000 5.4957000000 1.6794000000
2.0023000000 5.3874000000 1.7605000000
2.0019000000 0.5713000000 0.4001000000
2.0016000000 0.2198000000 0.1570000000
2.0013000000 2.8812000000 1.9765000000
2.0010000000 2.4965000000 1.7203000000
2.0003000000 6.6391000000 0.8994000000
1.9998000000 1.1603000000 0.8002000000
1.9993000000 4.9648000000 2.0470000000
1.9979000000 1.4906000000 1.0265000000
1.9963000000 0.1672000000 0.1180000000
1.9923000000 0.7149000000 0.4970000000
1.7609000000 5.9400000000 1.3772000000
1.7603000000 7.2470000000 0.4862000000
1.7598000000 6.3632000000 1.0848000000
1.7591000000 0.6001000000 0.4157000000
1.7587000000 4.3164000000 2.2889000000
1.7583000000 5.2719000000 1.8361000000
1.7580000000 4.8876000000 2.0806000000
1.7575000000 5.2670000000 1.8406000000
1.7572000000 4.9428000000 2.0532000000
1.7568000000 6.3493000000 1.1009000000
1.7566000000 7.8210000000 0.0822000000
1.7562000000 3.0838000000 2.1008000000
1.7560000000 3.4043000000 2.2145000000
1.7559000000 3.0646000000 2.0900000000
1.7556000000 6.5934000000 0.9315000000
1.7552000000 3.4406000000 2.2257000000
1.7548000000 3.0675000000 2.0896000000
1.7546000000 7.7984000000 0.1075000000
1.7544000000 5.3060000000 1.8128000000
1.7541000000 5.3767000000 1.7654000000
1.7540000000 6.8507000000 0.7562000000
1.7538000000 7.8121000000 0.0994000000
1.7536000000 2.1278000000 1.4678000000
1.7533000000 5.0940000000 1.9590000000
1.7530000000 4.1536000000 2.3422000000
1.7526000000 2.6050000000 1.7958000000
1.7524000000 5.9375000000 1.3824000000
1.7521000000 2.1348000000 1.4697000000
1.7519000000 4.7920000000 2.1258000000
1.7512000000 6.3033000000 1.1328000000
1.7510000000 4.5344000000 2.2138000000
1.7506000000 4.0026000000 2.3856000000
1.7502000000 5.2797000000 1.8234000000
1.7493000000 0.7778000000 0.5385000000
1.7487000000 1.6571000000 1.1415000000
1.7475000000 2.1003000000 1.4445000000
1.7459000000 1.0848000000 0.7495000000
1.5126000000 6.8660000000 0.7461000000
1.5108000000 4.8920000000 1.9534000000
1.5100000000 7.6607000000 0.1979000000
1.5093000000 6.1926000000 1.2093000000
1.5089000000 7.0996000000 0.5887000000
1.5083000000 4.8699000000 1.9494000000
1.5077000000 7.9206000000 0.0188000000
1.5074000000 4.3889000000 2.1166000000
1.5070000000 5.4335000000 1.7204000000
1.5067000000 5.1995000000 1.8400000000
1.5064000000 3.4944000000 2.1033000000
1.5061000000 3.5254000000 2.1044000000
1.5058000000 7.3001000000 0.4453000000
1.5055000000 3.6112000000 2.1352000000
1.5053000000 7.6903000000 0.1774000000
1.5050000000 2.6536000000 1.7990000000
1.5046000000 4.8435000000 1.9645000000
1.5044000000 7.5503000000 0.2735000000
1.5043000000 5.9276000000 1.3865000000
1.5040000000 1.0449000000 0.7279000000
1.5038000000 3.5806000000 2.1251000000
1.5036000000 6.6658000000 0.8809000000
1.5030000000 5.2908000000 1.7969000000
1.5028000000 2.0637000000 1.4186000000
1.5025000000 3.6377000000 2.1452000000
1.5024000000 6.6139000000 0.9184000000
1.5020000000 5.3020000000 1.7910000000
1.5018000000 5.4068000000 1.7320000000
1.5014000000 6.2182000000 1.1882000000
1.5012000000 3.2101000000 1.9929000000
1.5005000000 1.5176000000 1.0427000000
1.5004000000 5.1605000000 1.8459000000
1.4994000000 2.5829000000 1.7628000000
1.4989000000 3.4678000000 2.0853000000
1.4982000000 2.3669000000 1.6286000000
1.4969000000 0.3631000000 0.2532000000
1.4933000000 4.5977000000 2.0379000000
1.2610000000 6.4957000000 0.9957000000
1.2594000000 7.4894000000 0.3161000000
1.2586000000 6.4776000000 1.0114000000
1.2582000000 3.9668000000 2.1025000000
1.2578000000 1.5635000000 1.0768000000
1.2576000000 2.1482000000 1.4677000000
1.2572000000 5.7933000000 1.4695000000
1.2570000000 7.0626000000 0.6077000000
1.2565000000 7.4595000000 0.3433000000
1.2562000000 1.1632000000 0.8055000000
1.2560000000 0.7136000000 0.5013000000
1.2554000000 0.6499000000 0.4543000000
1.2553000000 0.0762000000 0.0567000000
1.2548000000 2.9166000000 1.7433000000
1.2545000000 4.5054000000 1.9306000000
1.2542000000 3.2489000000 1.8641000000
1.2539000000 1.3290000000 0.9170000000
1.2537000000 2.3721000000 1.5594000000
1.2535000000 4.0316000000 2.0898000000
1.2533000000 2.8007000000 1.7114000000
1.2530000000 7.3132000000 0.4410000000
1.2528000000 0.2864000000 0.2032000000
1.2526000000 6.8307000000 0.7711000000
1.2524000000 0.8998000000 0.6227000000
1.2522000000 0.5627000000 0.3953000000
1.2521000000 7.7799000000 0.1239000000
1.2520000000 5.1634000000 1.7116000000
1.2518000000 3.8478000000 2.0643000000
1.2513000000 2.6282000000 1.6575000000
1.2511000000 1.3661000000 0.9426000000
1.2508000000 1.6886000000 1.1672000000
1.2504000000 2.5118000000 1.6089000000
1.2500000000 4.7377000000 1.8433000000
1.2497000000 1.1663000000 0.8038000000
1.2484000000 1.7351000000 1.1911000000
1.0127000000 4.3939000000 1.8238000000
1.0103000000 6.2750000000 1.1390000000
1.0090000000 4.5790000000 1.7589000000
1.0079000000 0.2883000000 0.2012000000
1.0076000000 7.9705000000 0.0670000000
1.0073000000 5.1339000000 1.5600000000
1.0071000000 2.9581000000 1.6162000000
1.0069000000 0.9920000000 0.6833000000
1.0064000000 6.4648000000 1.0195000000
1.0061000000 6.5240000000 0.9769000000
1.0058000000 2.9524000000 1.6116000000
1.0055000000 5.3226000000 1.5011000000
1.0053000000 2.2493000000 1.3734000000
1.0049000000 5.3324000000 1.5055000000
1.0048000000 4.0253000000 1.9412000000
1.0047000000 0.9903000000 0.6884000000
1.0044000000 3.9588000000 1.9528000000
1.0041000000 4.9209000000 1.6362000000
1.0038000000 0.8666000000 0.6012000000
1.0037000000 3.9562000000 1.9490000000
1.0035000000 0.4880000000 0.3419000000
1.0033000000 0.1057000000 0.0800000000
1.0032000000 5.3336000000 1.4972000000
1.0027000000 7.0528000000 0.6159000000
1.0025000000 4.3317000000 1.8341000000
1.0024000000 7.5122000000 0.3031000000
1.0019000000 4.9817000000 1.6159000000
1.0011000000 7.6711000000 0.1928000000
1.0008000000 7.0015000000 0.6491000000
1.0004000000 6.6860000000 0.8667000000
0.9999000000 4.2893000000 1.8505000000
0.9995000000 1.0673000000 0.7388000000
0.9991000000 1.8956000000 1.2517000000
0.9981000000 1.5488000000 1.0672000000
0.9970000000 0.1941000000 0.1391000000
0.9960000000 6.5161000000 0.9850000000
0.7640000000 6.4491000000 0.9754000000
0.7621000000 6.6972000000 0.8458000000
0.7610000000 4.9798000000 1.4728000000
0.7601000000 6.9946000000 0.6589000000
0.7597000000 5.5150000000 1.2896000000
0.7588000000 6.1240000000 1.0777000000
0.7583000000 1.6582000000 1.0273000000
0.7580000000 6.1144000000 1.0867000000
0.7575000000 5.1521000000 1.4155000000
0.7568000000 7.7924000000 0.1093000000
0.7564000000 6.6080000000 0.9055000000
0.7560000000 6.0739000000 1.0929000000
0.7557000000 0.4059000000 0.2823000000
0.7553000000 1.7763000000 1.0653000000
0.7548000000 6.9102000000 0.7170000000
0.7546000000 1.3266000000 0.8968000000
0.7543000000 4.0943000000 1.7726000000
0.7541000000 6.9962000000 0.6574000000
0.7540000000 7.8901000000 0.0440000000
0.7538000000 5.5894000000 1.2590000000
0.7536000000 4.0583000000 1.7812000000
0.7533000000 2.5872000000 1.3372000000
0.7531000000 2.2929000000 1.2366000000
0.7529000000 3.7760000000 1.7477000000
0.7527000000 4.9918000000 1.4686000000
0.7525000000 2.7356000000 1.3922000000
0.7523000000 1.4884000000 0.9617000000
0.7520000000 6.8179000000 0.7756000000
0.7518000000 6.9542000000 0.6865000000
0.7514000000 1.7316000000 1.0466000000
0.7512000000 1.7264000000 1.0403000000
0.7510000000 1.8914000000 1.1026000000
0.7507000000 0.4790000000 0.3335000000
0.7502000000 3.6613000000 1.7110000000
0.7497000000 2.2268000000 1.2162000000
0.7492000000 0.8830000000 0.6128000000
0.7485000000 0.9631000000 0.6630000000
0.7474000000 6.5707000000 0.9089000000
0.7459000000 1.3918000000 0.9246000000
0.5124000000 7.2702000000 0.4723000000
0.5108000000 5.5436000000 1.1356000000
0.5105000000 6.9651000000 0.6384000000
0.5090000000 7.2056000000 0.5118000000
0.5085000000 4.7649000000 1.3946000000
0.5080000000 6.4551000000 0.8242000000
0.5075000000 7.6549000000 0.2061000000
0.5071000000 0.4777000000 0.3360000000
0.5069000000 1.7520000000 0.9086000000
0.5068000000 1.2877000000 0.7490000000
0.5065000000 1.8035000000 0.9285000000
0.5064000000 2.5851000000 1.1891000000
0.5061000000 3.8282000000 1.6169000000
0.5057000000 0.8738000000 0.5954000000
0.5053000000 6.6489000000 0.7525000000
0.5050000000 2.6717000000 1.2204000000
0.5049000000 3.3387000000 1.4595000000
0.5042000000 5.3961000000 1.1772000000
0.5040000000 5.8764000000 1.0181000000
0.5038000000 1.0763000000 0.6741000000
0.5036000000 0.2701000000 0.1856000000
0.5034000000 3.4495000000 1.4858000000
0.5033000000 6.2340000000 0.8915000000
0.5030000000 5.3561000000 1.1942000000
0.5027000000 2.0996000000 1.0257000000
0.5025000000 0.0233000000 0.0260000000
0.5023000000 2.8893000000 1.2873000000
0.5021000000 0.2405000000 0.1733000000
0.5018000000 3.3901000000 1.4690000000
0.5009000000 6.0265000000 0.9606000000
0.5006000000 3.3457000000 1.4487000000
0.5000000000 1.4733000000 0.8086000000
0.4997000000 0.4658000000 0.3228000000
0.4993000000 1.5484000000 0.8295000000
0.4977000000 0.3395000000 0.2403000000
0.2635000000 4.2156000000 1.4428000000
0.2606000000 3.1873000000 1.2541000000
0.2602000000 7.8785000000 0.0551000000
0.2595000000 6.8154000000 0.5504000000
0.2588000000 2.4908000000 1.0104000000
0.2580000000 6.5382000000 0.6412000000
0.2576000000 7.2149000000 0.4129000000
0.2574000000 0.7998000000 0.4281000000
0.2570000000 5.4009000000 1.0287000000
0.2564000000 7.0497000000 0.4658000000
0.2561000000 1.3620000000 0.6246000000
0.2559000000 2.4651000000 1.0014000000
0.2557000000 4.0684000000 1.4880000000
0.2554000000 4.0591000000 1.4914000000
0.2552000000 2.2271000000 0.9217000000
0.2551000000 0.5543000000 0.3490000000
0.2549000000 4.3494000000 1.3974000000
0.2547000000 6.1148000000 0.7860000000
0.2545000000 3.5603000000 1.3702000000
0.2542000000 2.1388000000 0.8888000000
0.2538000000 4.1041000000 1.4702000000
0.2532000000 1.2129000000 0.5779000000
0.2528000000 4.2620000000 1.4211000000
0.2526000000 4.4599000000 1.3532000000
0.2523000000 5.8066000000 0.8858000000
0.2517000000 3.4285000000 1.3276000000
0.2515000000 7.3918000000 0.3489000000
0.2511000000 2.0434000000 0.8592000000
0.2505000000 0.1245000000 0.0905000000
0.2503000000 4.2660000000 1.4196000000
0.2498000000 1.0091000000 0.5012000000
0.2491000000 1.2054000000 0.5680000000
0.2483000000 1.8767000000 0.7998000000
0.2460000000 1.3703000000 0.6213000000
0.0126000000 6.0531000000 0.6562000000
0.0108000000 7.5050000000 0.1574000000
0.0098000000 3.8563000000 1.3293000000
0.0095000000 7.4807000000 0.1712000000
0.0088000000 6.0974000000 0.6482000000
0.0085000000 7.0697000000 0.3156000000
0.0082000000 5.4521000000 0.8639000000
0.0078000000 7.9595000000 0.0625000000
0.0069000000 6.4753000000 0.5161000000
0.0065000000 7.2925000000 0.2332000000
0.0061000000 3.0514000000 1.0557000000
0.0058000000 1.0906000000 0.3822000000
0.0056000000 3.1560000000 1.0923000000
0.0054000000 6.9605000000 0.3447000000
0.0052000000 7.6600000000 0.1031000000
0.0048000000 4.5681000000 1.1666000000
0.0046000000 5.6131000000 0.8076000000
0.0042000000 2.4774000000 0.8574000000
0.0040000000 6.2651000000 0.5890000000
0.0034000000 0.7258000000 0.2616000000
0.0032000000 4.2713000000 1.2669000000
0.0029000000 3.4750000000 1.1956000000
0.0025000000 3.6022000000 1.2426000000
0.0023000000 1.2292000000 0.4280000000
0.0018000000 7.4566000000 0.1754000000
0.0013000000 0.8311000000 0.2921000000
0.0009000000 1.9069000000 0.6620000000
0.0003000000 0.1251000000 0.0452000000
-0.0001000000 5.2301000000 0.9364000000
-0.0006000000 0.6677000000 0.2373000000
-0.0017000000 2.2299000000 0.7711000000
-0.0023000000 0.1450000000 0.0554000000
-0.0035000000 1.0678000000 0.3628000000
-0.0047000000 2.7406000000 0.9475000000
-0.0070000000 1.1687000000 0.4021000000
-0.2395000000 5.9747000000 0.5395000000
-0.2402000000 4.5579000000 1.0293000000
-0.2411000000 3.0878000000 0.9177000000
-0.2417000000 3.0415000000 0.9072000000
-0.2423000000 1.6612000000 0.4343000000
-0.2424000000 1.2344000000 0.2784000000
-0.2429000000 6.8418000000 0.2384000000
-0.2430000000 5.6675000000 0.6445000000
-0.2433000000 2.1044000000 0.5818000000
-0.2435000000 3.5626000000 1.0820000000
-0.2440000000 5.9546000000 0.5431000000
-0.2445000000 2.0006000000 0.5476000000
-0.2447000000 7.0347000000 0.1752000000
-0.2449000000 6.0625000000 0.5050000000
-0.2452000000 4.9593000000 0.8866000000
-0.2457000000 0.9825000000 0.2025000000
-0.2460000000 2.1523000000 0.6026000000
-0.2463000000 4.6119000000 0.9988000000
-0.2467000000 1.1124000000 0.2420000000
-0.2469000000 3.6234000000 1.1063000000
-0.2472000000 5.9762000000 0.5309000000
-0.2475000000 6.2137000000 0.4530000000
-0.2477000000 2.5351000000 0.7266000000
-0.2479000000 2.5625000000 0.7460000000
-0.2482000000 2.3386000000 0.6634000000
-0.2484000000 5.6384000000 0.6506000000
-0.2487000000 1.0734000000 0.2306000000
-0.2488000000 5.6945000000 0.6293000000
-0.2492000000 3.0560000000 0.9056000000
-0.2496000000 1.0011000000 0.2049000000
-0.2500000000 0.9241000000 0.1771000000
-0.2504000000 1.5861000000 0.3984000000
-0.2508000000 1.6401000000 0.4215000000
-0.2515000000 1.3760000000 0.3297000000
-0.2523000000 2.7105000000 0.7815000000
-0.2541000000 2.2494000000 0.6233000000
-0.2579000000 2.7405000000 0.7889000000
-0.4881000000 5.8471000000 0.4326000000
-0.4902000000 6.8412000000 0.0972000000
-0.4909000000 1.4637000000 0.2206000000
-0.4914000000 6.2870000000 0.2805000000
-0.4922000000 7.1103000000 0.0775000000
-0.4925000000 5.5802000000 0.5245000000
-0.4932000000 5.4399000000 0.5706000000
-0.4935000000 3.0378000000 0.7584000000
-0.4937000000 5.2054000000 0.6478000000
-0.4940000000 5.6370000000 0.5058000000
-0.4945000000 2.4920000000 0.5637000000
-0.4948000000 7.1114000000 0.0769000000
-0.4949000000 7.1656000000 0.0504000000
-0.4952000000 1.9936000000 0.3926000000
-0.4954000000 5.8445000000 0.4344000000
-0.4956000000 3.9838000000 1.0566000000
-0.4961000000 4.1534000000 1.0126000000
-0.4962000000 3.9182000000 1.0435000000
-0.4965000000 6.4545000000 0.2282000000
-0.4967000000 4.7629000000 0.8005000000
-0.4968000000 4.0526000000 1.0463000000
-0.4972000000 3.1561000000 0.7875000000
-0.4973000000 1.6342000000 0.2703000000
-0.4977000000 2.9394000000 0.7198000000
-0.4980000000 3.5079000000 0.9132000000
-0.4985000000 1.8780000000 0.3578000000
-0.4992000000 1.0885000000 0.0826000000
-0.4994000000 1.3919000000 0.1829000000
-0.4999000000 2.2329000000 0.4751000000
-0.5005000000 1.6087000000 0.2640000000
-0.5009000000 4.3442000000 0.9467000000
-0.5016000000 1.0606000000 0.0700000000
-0.5026000000 5.2587000000 0.6324000000
-0.5042000000 6.8021000000 0.1014000000
-0.7390000000 6.1548000000 0.1844000000
-0.7397000000 4.9304000000 0.5987000000
-0.7422000000 6.8174000000 0.0299000000
-0.7430000000 5.6790000000 0.3387000000
-0.7431000000 4.1687000000 0.8576000000
-0.7438000000 1.9915000000 0.2500000000
-0.7442000000 3.7224000000 0.8379000000
-0.7446000000 6.5007000000 0.0579000000
-0.7455000000 6.5473000000 0.0376000000
-0.7459000000 2.8737000000 0.5528000000
-0.7462000000 5.1527000000 0.5161000000
-0.7465000000 1.1184000000 0.0210000000
-0.7467000000 3.7988000000 0.8608000000
-0.7469000000 4.1540000000 0.8622000000
-0.7471000000 2.5486000000 0.4350000000
-0.7473000000 3.4597000000 0.7525000000
-0.7475000000 5.6804000000 0.3342000000
-0.7477000000 3.8512000000 0.8880000000
-0.7479000000 3.3605000000 0.7133000000
-0.7481000000 5.0123000000 0.5713000000
-0.7484000000 5.4830000000 0.4069000000
-0.7488000000 1.8610000000 0.1971000000
-0.7497000000 4.3865000000 0.7794000000
-0.7501000000 6.1649000000 0.1714000000
-0.7505000000 4.6776000000 0.6807000000
-0.7510000000 3.7023000000 0.8260000000
-0.7524000000 2.2138000000 0.3206000000
-0.7536000000 6.2015000000 0.1585000000
-0.9856000000 5.6448000000 0.2032000000
-0.9902000000 5.9493000000 0.1042000000
-0.9915000000 4.0811000000 0.7428000000
-0.9921000000 2.7953000000 0.3793000000
-0.9929000000 6.2636000000 0.0662000000
-0.9930000000 4.9211000000 0.4524000000
-0.9932000000 3.7417000000 0.6962000000
-0.9935000000 3.0748000000 0.4657000000
-0.9939000000 3.4585000000 0.5984000000
-0.9941000000 2.1641000000 0.1592000000
-0.9943000000 1.6427000000 0.0594000000
-0.9950000000 1.6479000000 0.0574000000
-0.9952000000 2.6978000000 0.3403000000
-0.9955000000 2.9084000000 0.4104000000
-0.9960000000 6.4359000000 -0.0011000000
-0.9964000000 3.0632000000 0.4656000000
-0.9968000000 5.6396000000 0.2060000000
-0.9969000000 3.3576000000 0.5629000000
-0.9975000000 4.2526000000 0.6811000000
-0.9978000000 4.6127000000 0.5483000000
-0.9980000000 5.2135000000 0.3465000000
-0.9982000000 4.0259000000 0.7517000000
-0.9990000000 3.1047000000 0.4826000000
-0.9997000000 1.9129000000 0.0708000000
-1.0011000000 5.2292000000 0.3441000000
-1.0020000000 3.4680000000 0.6001000000
-1.0040000000 5.3832000000 0.2874000000
-1.2391000000 3.6454000000 0.5144000000
-1.2399000000 5.7234000000 0.0296000000
-1.2406000000 2.5284000000 0.1365000000
-1.2418000000 5.3331000000 0.1630000000
-1.2424000000 4.6751000000 0.3883000000
-1.2431000000 5.0553000000 0.2623000000
-1.2435000000 5.7485000000 0.0179000000
-1.2437000000 4.6215000000 0.4054000000
-1.2439000000 5.6975000000 0.0325000000
-1.2441000000 5.6091000000 0.0682000000
-1.2443000000 5.3540000000 0.1535000000
-1.2450000000 5.4151000000 0.1326000000
-1.2457000000 5.9649000000 0.0211000000
-1.2462000000 3.7219000000 0.5437000000
-1.2467000000 3.7549000000 0.5511000000
-1.2473000000 3.6871000000 0.5323000000
-1.2477000000 2.1210000000 0.0734000000
-1.2487000000 5.5615000000 0.0805000000
-1.2494000000 4.2055000000 0.5453000000
-1.2496000000 3.1140000000 0.3326000000
-1.2506000000 2.4893000000 0.1151000000
-1.2511000000 5.3943000000 0.1432000000
-1.2552000000 3.3241000000 0.4071000000
-1.4907000000 2.4935000000 0.0488000000
-1.4917000000 3.8609000000 0.4443000000
-1.4927000000 3.3561000000 0.2688000000
-1.4940000000 5.4336000000 0.0531000000
-1.4949000000 3.8439000000 0.4432000000
-1.4953000000 2.7417000000 0.0615000000
-1.4961000000 4.2724000000 0.3728000000
-1.4970000000 3.3385000000 0.2645000000
-1.4980000000 2.3778000000 0.0061000000
-1.4987000000 4.7523000000 0.2039000000
-1.4992000000 3.4070000000 0.2806000000
-1.4999000000 4.1882000000 0.4049000000
-1.5003000000 4.9702000000 0.1305000000
-1.5022000000 2.4008000000 0.0077000000
-1.5050000000 3.4797000000 0.3072000000
-1.7414000000 4.7874000000 0.0579000000
-1.7424000000 3.6853000000 0.2303000000
-1.7426000000 3.7241000000 0.2482000000
-1.7432000000 3.1953000000 0.0632000000
-1.7435000000 4.3487000000 0.2036000000
-1.7449000000 3.9710000000 0.3179000000
-1.7454000000 3.7501000000 0.2576000000
-1.7462000000 5.1384000000 0.0047000000
-1.7470000000 4.0795000000 0.2882000000
-1.7477000000 5.1518000000 -0.0004000000
-1.7482000000 3.1371000000 0.0471000000
-1.7488000000 3.7877000000 0.2695000000
-1.7515000000 3.7029000000 0.2407000000
-1.7527000000 3.5387000000 0.1779000000
-1.9935000000 4.3340000000 0.0648000000
-1.9941000000 4.4105000000 0.0355000000
-1.9957000000 3.3229000000 0.0364000000
-1.9968000000 3.8394000000 0.1387000000
-1.9987000000 3.7974000000 0.1212000000
-1.9999000000 4.2309000000 0.0967000000
