7.0114000000 3.7901000000 0.0565000000
7.0053000000 3.5983000000 0.0308000000
7.0049000000 4.0787000000 0.1584000000
7.0038000000 4.3785000000 0.0961000000
7.0030000000 4.4597000000 0.1245000000
7.0022000000 3.6272000000 0.0502000000
7.0000000000 4.6777000000 0.0738000000
6.9971000000 4.3572000000 0.1137000000
6.7603000000 4.5999000000 0.2058000000
6.7583000000 4.2363000000 0.4176000000
6.7578000000 3.2166000000 0.0623000000
6.7570000000 4.1749000000 0.4350000000
6.7560000000 3.2167000000 0.0527000000
6.7558000000 4.9637000000 0.0824000000
6.7545000000 4.1653000000 0.4370000000
6.7536000000 5.0379000000 0.0431000000
6.7525000000 4.3570000000 0.3584000000
6.7490000000 5.1446000000 0.0575000000
6.7463000000 3.1546000000 0.0363000000
6.5105000000 4.0105000000 0.6050000000
6.5086000000 4.9853000000 0.2390000000
6.5079000000 3.8931000000 0.5449000000
6.5069000000 5.1012000000 0.1734000000
6.5064000000 3.0328000000 0.1272000000
6.5060000000 4.6189000000 0.4541000000
6.5052000000 2.8036000000 0.0682000000
6.5048000000 3.3370000000 0.2273000000
6.5044000000 5.1711000000 0.1357000000
6.5036000000 5.5839000000 0.0423000000
6.5026000000 4.9279000000 0.2786000000
6.5021000000 3.2626000000 0.1881000000
6.5006000000 3.2742000000 0.1949000000
6.4997000000 4.2029000000 0.6788000000
6.4990000000 3.5970000000 0.3842000000
6.4985000000 3.9251000000 0.5774000000
6.2615000000 5.6507000000 0.1029000000
6.2591000000 3.7305000000 0.6997000000
6.2583000000 5.3719000000 0.2665000000
6.2570000000 5.9449000000 0.0836000000
6.2563000000 3.2457000000 0.4247000000
6.2561000000 2.3279000000 0.0503000000
6.2559000000 3.3846000000 0.5018000000
6.2556000000 4.6554000000 0.6808000000
6.2555000000 5.6632000000 0.1043000000
6.2553000000 2.3326000000 0.0477000000
6.2548000000 5.4390000000 0.2330000000
6.2543000000 5.4827000000 0.2101000000
6.2541000000 3.1649000000 0.3785000000
6.2535000000 4.0928000000 0.9108000000
6.2531000000 3.6313000000 0.6497000000
6.2527000000 5.7742000000 0.1206000000
6.2523000000 2.5386000000 0.0931000000
6.2513000000 2.2466000000 0.0031000000
6.2506000000 2.3697000000 0.0726000000
6.2498000000 5.1085000000 0.4268000000
6.2488000000 3.0420000000 0.3156000000
6.2457000000 2.6229000000 0.0738000000
6.0116000000 4.9844000000 0.7392000000
6.0104000000 6.0144000000 0.1446000000
6.0091000000 6.0942000000 0.0992000000
6.0083000000 4.6451000000 0.9379000000
6.0074000000 5.8278000000 0.2545000000
6.0068000000 6.3725000000 0.0888000000
6.0062000000 5.1517000000 0.6489000000
6.0058000000 4.2198000000 1.1619000000
6.0054000000 4.1948000000 1.1722000000
6.0050000000 5.9448000000 0.1912000000
6.0046000000 5.2286000000 0.6045000000
6.0040000000 5.1662000000 0.6354000000
6.0037000000 3.5061000000 0.8277000000
6.0035000000 5.7300000000 0.3130000000
6.0033000000 2.8327000000 0.4315000000
6.0031000000 2.9116000000 0.4831000000
6.0026000000 2.5855000000 0.2965000000
6.0023000000 4.0758000000 1.1555000000
6.0018000000 4.7046000000 0.9069000000
6.0007000000 5.8576000000 0.2399000000
6.0005000000 3.9723000000 1.1012000000
6.0000000000 4.0760000000 1.1524000000
5.9996000000 5.2548000000 0.5889000000
5.9981000000 5.9005000000 0.2162000000
5.7634000000 1.8379000000 0.1072000000
5.7613000000 2.6531000000 0.5768000000
5.7610000000 5.4863000000 0.6989000000
5.7595000000 6.5521000000 0.0848000000
5.7585000000 6.5574000000 0.0805000000
5.7576000000 5.2722000000 0.8223000000
5.7573000000 4.3687000000 1.3412000000
5.7571000000 3.4015000000 1.0112000000
5.7566000000 4.3281000000 1.3677000000
5.7561000000 4.5704000000 1.2268000000
5.7559000000 4.1078000000 1.4232000000
5.7555000000 2.2373000000 0.3420000000
5.7548000000 3.9351000000 1.3235000000
5.7546000000 4.6460000000 1.1847000000
5.7544000000 4.9646000000 1.0015000000
5.7542000000 3.5297000000 1.0823000000
5.7536000000 4.6757000000 1.1681000000
5.7534000000 2.2101000000 0.3295000000
5.7529000000 5.3370000000 0.7894000000
5.7528000000 6.2171000000 0.2821000000
5.7523000000 5.0158000000 0.9741000000
5.7518000000 5.5916000000 0.6444000000
5.7514000000 4.4508000000 1.3003000000
5.7511000000 3.2053000000 0.9005000000
5.7497000000 3.9151000000 1.3160000000
5.7490000000 1.4441000000 0.0419000000
5.7455000000 2.0081000000 0.2259000000
5.5121000000 5.9228000000 0.7001000000
5.5108000000 6.4920000000 0.3680000000
5.5100000000 5.8007000000 0.7680000000
5.5086000000 5.7484000000 0.7970000000
5.5081000000 3.4242000000 1.2743000000
5.5076000000 3.6949000000 1.4314000000
5.5074000000 5.6561000000 0.8552000000
5.5068000000 6.0202000000 0.6457000000
5.5067000000 5.4450000000 0.9735000000
5.5063000000 7.0053000000 0.0800000000
5.5058000000 3.4208000000 1.2745000000
5.5054000000 7.3391000000 0.0336000000
5.5050000000 3.5164000000 1.3284000000
5.5048000000 6.6877000000 0.2600000000
5.5045000000 7.3096000000 0.0438000000
5.5043000000 6.7481000000 0.2251000000
5.5040000000 2.9444000000 1.0045000000
5.5036000000 6.0127000000 0.6495000000
5.5034000000 4.7215000000 1.3953000000
5.5028000000 3.9472000000 1.5789000000
5.5026000000 4.8284000000 1.3343000000
5.5024000000 2.7098000000 0.8688000000
5.5021000000 1.9442000000 0.4264000000
5.5018000000 2.7533000000 0.8911000000
5.5013000000 2.3012000000 0.6308000000
5.5005000000 4.6824000000 1.4191000000
5.5001000000 2.6143000000 0.8176000000
5.4992000000 6.5729000000 0.3267000000
5.4986000000 4.0732000000 1.6537000000
5.4985000000 1.0913000000 0.0892000000
5.4953000000 1.0619000000 0.0736000000
5.2623000000 7.3141000000 0.1406000000
5.2610000000 5.7110000000 1.0695000000
5.2597000000 2.9275000000 1.2323000000
5.2592000000 5.8245000000 0.9975000000
5.2590000000 1.9136000000 0.6549000000
5.2588000000 3.4825000000 1.5536000000
5.2584000000 4.2945000000 1.8826000000
5.2579000000 4.1091000000 1.9168000000
5.2577000000 7.7957000000 0.0213000000
5.2572000000 6.7324000000 0.4795000000
5.2569000000 3.3262000000 1.4656000000
5.2565000000 4.7644000000 1.6128000000
5.2563000000 7.2081000000 0.2055000000
5.2560000000 2.5904000000 1.0400000000
5.2558000000 3.8664000000 1.7718000000
5.2556000000 2.5896000000 1.0440000000
5.2552000000 4.3764000000 1.8367000000
5.2549000000 6.4337000000 0.6590000000
5.2547000000 5.8866000000 0.9678000000
5.2545000000 4.0822000000 1.9017000000
5.2543000000 6.0351000000 0.8858000000
5.2540000000 3.1580000000 1.3689000000
5.2536000000 3.9969000000 1.8552000000
5.2534000000 6.9142000000 0.3791000000
5.2529000000 5.3847000000 1.2578000000
5.2527000000 2.1417000000 0.7841000000
5.2523000000 3.6058000000 1.6283000000
5.2514000000 3.5156000000 1.5789000000
5.2510000000 7.4005000000 0.1071000000
5.2502000000 2.2329000000 0.8428000000
5.2499000000 7.5767000000 0.0818000000
5.2490000000 2.5120000000 1.0106000000
5.2485000000 1.0118000000 0.1412000000
5.2470000000 2.7878000000 1.1615000000
5.0144000000 3.1682000000 1.6112000000
5.0134000000 3.2059000000 1.6417000000
5.0127000000 6.0129000000 1.1455000000
5.0111000000 3.5749000000 1.8536000000
5.0106000000 5.3920000000 1.4999000000
5.0096000000 3.8876000000 2.0383000000
5.0091000000 7.8413000000 0.0867000000
5.0088000000 6.6873000000 0.7561000000
5.0085000000 4.8554000000 1.8075000000
5.0083000000 3.7679000000 1.9717000000
5.0080000000 5.8767000000 1.2223000000
5.0078000000 6.2727000000 0.9928000000
5.0075000000 3.3200000000 1.7056000000
5.0072000000 6.9223000000 0.6187000000
5.0069000000 3.0675000000 1.5648000000
5.0067000000 6.0847000000 1.1020000000
5.0065000000 6.3350000000 0.9603000000
5.0061000000 8.1843000000 0.0459000000
5.0056000000 7.4745000000 0.3078000000
5.0052000000 2.3792000000 1.1693000000
5.0051000000 2.8198000000 1.4233000000
5.0050000000 6.1005000000 1.0990000000
5.0048000000 7.2872000000 0.4131000000
5.0044000000 5.8455000000 1.2432000000
5.0043000000 4.4364000000 2.0576000000
5.0040000000 5.5656000000 1.4084000000
5.0035000000 3.3751000000 1.7445000000
5.0027000000 2.8835000000 1.4671000000
5.0024000000 5.8630000000 1.2368000000
5.0022000000 0.8423000000 0.2903000000
5.0020000000 2.0787000000 0.9971000000
5.0015000000 3.4999000000 1.8194000000
5.0011000000 5.4707000000 1.4628000000
5.0009000000 1.8386000000 0.8590000000
5.0006000000 4.6435000000 1.9394000000
5.0001000000 1.8045000000 0.8456000000
4.9995000000 1.7244000000 0.7988000000
4.9990000000 4.9894000000 1.7398000000
4.9986000000 5.0553000000 1.7050000000
4.9983000000 0.4485000000 0.0693000000
4.9958000000 2.2170000000 1.0865000000
4.7631000000 7.9129000000 0.2937000000
4.7615000000 6.4149000000 1.1556000000
4.7603000000 2.8686000000 1.6977000000
4.7592000000 3.3959000000 2.0005000000
4.7590000000 3.3541000000 1.9760000000
4.7587000000 4.1511000000 2.4225000000
4.7583000000 2.5175000000 1.4980000000
4.7580000000 5.1543000000 1.8875000000
4.7577000000 1.5805000000 0.9626000000
4.7574000000 4.7656000000 2.1091000000
4.7572000000 5.3812000000 1.7559000000
4.7570000000 1.5691000000 0.9556000000
4.7568000000 4.9409000000 2.0130000000
4.7567000000 5.0866000000 1.9291000000
4.7564000000 6.5104000000 1.1026000000
4.7562000000 0.9842000000 0.6189000000
4.7557000000 5.8152000000 1.5067000000
4.7553000000 5.2015000000 1.8641000000
4.7550000000 2.9602000000 1.7552000000
4.7548000000 6.0968000000 1.3494000000
4.7545000000 7.6888000000 0.4342000000
4.7544000000 0.6542000000 0.4334000000
4.7542000000 8.2863000000 0.0381000000
4.7538000000 3.9728000000 2.3400000000
4.7535000000 7.6411000000 0.4540000000
4.7533000000 5.7613000000 1.5444000000
4.7530000000 5.8786000000 1.4776000000
4.7527000000 3.4498000000 2.0425000000
4.7524000000 3.4970000000 2.0687000000
4.7521000000 1.7749000000 1.0792000000
4.7519000000 6.5851000000 1.0633000000
4.7516000000 6.3400000000 1.2097000000
4.7514000000 1.3554000000 0.8357000000
4.7512000000 1.7046000000 1.0370000000
4.7508000000 1.6918000000 1.0289000000
4.7506000000 4.4866000000 2.2793000000
4.7503000000 6.1635000000 1.3209000000
4.7497000000 2.6351000000 1.5679000000
4.7494000000 3.3902000000 2.0064000000
4.7488000000 6.0550000000 1.3759000000
4.7475000000 3.3243000000 1.9739000000
4.5159000000 8.0798000000 0.3032000000
4.5127000000 5.1489000000 2.1405000000
4.5118000000 5.9692000000 1.6624000000
4.5111000000 5.1777000000 2.1179000000
4.5100000000 7.9112000000 0.4778000000
4.5088000000 3.8032000000 2.4893000000
4.5083000000 6.9176000000 1.1222000000
4.5080000000 7.9148000000 0.4776000000
4.5077000000 6.7380000000 1.2239000000
4.5073000000 4.7785000000 2.3510000000
4.5070000000 1.0784000000 0.9201000000
4.5068000000 2.6824000000 1.8400000000
4.5064000000 0.5990000000 0.6244000000
4.5062000000 6.3702000000 1.4361000000
4.5060000000 3.5405000000 2.3385000000
4.5056000000 0.8914000000 0.8096000000
4.5050000000 1.1626000000 0.9725000000
4.5049000000 0.1271000000 0.1375000000
4.5048000000 7.7269000000 0.6389000000
4.5045000000 5.7420000000 1.7994000000
4.5045000000 2.7579000000 1.8846000000
4.5043000000 2.8505000000 1.9376000000
4.5040000000 6.3087000000 1.4769000000
4.5038000000 4.0758000000 2.6473000000
4.5037000000 0.1766000000 0.1873000000
4.5035000000 1.7000000000 1.2858000000
4.5031000000 5.1964000000 2.1205000000
4.5029000000 5.4306000000 1.9857000000
4.5024000000 6.4402000000 1.4013000000
4.5022000000 5.0174000000 2.2175000000
4.5020000000 2.8392000000 1.9433000000
4.5017000000 4.5106000000 2.5154000000
4.5015000000 0.7093000000 0.7132000000
4.5012000000 4.0096000000 2.6074000000
4.5010000000 0.5021000000 0.5484000000
4.5007000000 4.0623000000 2.6467000000
4.5005000000 0.0255000000 0.0921000000
4.5003000000 1.9864000000 1.4501000000
4.4998000000 3.0494000000 2.0620000000
4.4995000000 0.9045000000 0.8259000000
4.4983000000 1.7182000000 1.2996000000
4.4971000000 0.3273000000 0.3606000000
4.2676000000 5.8828000000 1.9540000000
4.2622000000 6.6853000000 1.5053000000
4.2616000000 5.9765000000 1.9130000000
4.2603000000 7.6779000000 0.7631000000
4.2597000000 8.1044000000 0.2807000000
4.2596000000 3.8369000000 2.7551000000
4.2591000000 6.7838000000 1.4449000000
4.2586000000 6.2518000000 1.7539000000
4.2583000000 2.5969000000 2.0418000000
4.2580000000 5.2370000000 2.3385000000
4.2579000000 5.4394000000 2.2225000000
4.2573000000 6.1203000000 1.8336000000
4.2572000000 3.5935000000 2.6169000000
4.2570000000 6.1281000000 1.8229000000
4.2568000000 7.6663000000 0.7741000000
4.2565000000 7.8652000000 0.5432000000
4.2562000000 4.0903000000 2.9019000000
4.2560000000 3.7188000000 2.6904000000
4.2559000000 1.4231000000 1.3706000000
4.2554000000 7.4346000000 1.0175000000
4.2553000000 5.0457000000 2.4450000000
4.2551000000 2.1075000000 1.7619000000
4.2550000000 4.4050000000 2.8238000000
4.2547000000 6.7696000000 1.4589000000
4.2545000000 0.4356000000 0.4909000000
4.2539000000 8.1823000000 0.1832000000
4.2535000000 0.9075000000 1.0181000000
4.2533000000 6.5972000000 1.5613000000
4.2528000000 5.6940000000 2.0854000000
4.2526000000 3.9480000000 2.8249000000
4.2524000000 6.5339000000 1.5961000000
4.2522000000 4.9851000000 2.4907000000
4.2520000000 1.8758000000 1.6309000000
4.2519000000 5.3832000000 2.2580000000
4.2517000000 7.3722000000 1.0962000000
4.2513000000 5.4811000000 2.2006000000
4.2510000000 1.3148000000 1.3081000000
4.2507000000 5.5405000000 2.1703000000
4.2503000000 3.9199000000 2.8089000000
4.2495000000 1.1159000000 1.1950000000
4.2490000000 4.1593000000 2.9365000000
4.2480000000 0.1821000000 0.2013000000
4.0122000000 5.7139000000 2.3073000000
4.0107000000 7.4902000000 0.9722000000
4.0101000000 6.0942000000 2.0905000000
4.0099000000 4.0585000000 3.1293000000
4.0096000000 7.4037000000 1.0772000000
4.0094000000 6.1834000000 2.0400000000
4.0088000000 1.6924000000 1.7679000000
4.0080000000 0.6768000000 0.7687000000
4.0073000000 2.6726000000 2.3355000000
4.0072000000 6.6211000000 1.7903000000
4.0065000000 3.0562000000 2.5600000000
4.0063000000 6.9407000000 1.5931000000
4.0060000000 1.2604000000 1.4335000000
4.0059000000 4.8332000000 2.8198000000
4.0057000000 5.0503000000 2.7011000000
4.0055000000 6.6420000000 1.7765000000
4.0054000000 6.5324000000 1.8480000000
4.0050000000 4.0649000000 3.1427000000
4.0047000000 0.6865000000 0.7809000000
4.0045000000 4.5780000000 2.9674000000
4.0043000000 6.9546000000 1.5755000000
4.0042000000 1.6258000000 1.7404000000
4.0040000000 1.5019000000 1.6504000000
4.0038000000 0.3765000000 0.4195000000
4.0036000000 1.2697000000 1.4493000000
4.0034000000 0.5690000000 0.6437000000
4.0031000000 0.7076000000 0.8044000000
4.0028000000 0.4158000000 0.4614000000
4.0026000000 3.8189000000 3.0017000000
4.0024000000 0.7349000000 0.8315000000
4.0018000000 1.6565000000 1.7541000000
4.0014000000 3.6605000000 2.9105000000
4.0010000000 1.2024000000 1.3718000000
4.0007000000 3.3711000000 2.7396000000
4.0002000000 2.2963000000 2.1264000000
3.9998000000 7.3316000000 1.1593000000
3.9992000000 5.2953000000 2.5635000000
3.9988000000 6.0811000000 2.1067000000
3.9977000000 0.3629000000 0.4105000000
3.9967000000 3.9013000000 3.0516000000
3.7613000000 5.2114000000 2.8410000000
3.7605000000 3.6053000000 3.1214000000
3.7598000000 7.2156000000 1.2903000000
3.7592000000 2.7228000000 2.6073000000
3.7589000000 4.9946000000 2.9723000000
3.7588000000 3.8072000000 3.2380000000
3.7585000000 3.0460000000 2.7981000000
3.7582000000 7.0453000000 1.4866000000
3.7575000000 5.9262000000 2.4395000000
3.7574000000 6.3671000000 2.1813000000
3.7571000000 2.8439000000 2.6794000000
3.7568000000 5.2661000000 2.8234000000
3.7567000000 6.2026000000 2.2846000000
3.7563000000 4.0270000000 3.3698000000
3.7561000000 4.7408000000 3.1218000000
3.7558000000 7.4117000000 1.0660000000
3.7557000000 5.1110000000 2.9106000000
3.7555000000 6.8805000000 1.6788000000
3.7553000000 2.3302000000 2.3907000000
3.7549000000 6.6349000000 1.9619000000
3.7548000000 4.8753000000 3.0478000000
3.7545000000 6.8632000000 1.7048000000
3.7540000000 0.5423000000 0.6120000000
3.7539000000 0.5993000000 0.6805000000
3.7535000000 1.5600000000 1.7857000000
3.7533000000 2.6664000000 2.5859000000
3.7528000000 6.0341000000 2.3755000000
3.7527000000 5.3666000000 2.7676000000
3.7525000000 0.4659000000 0.5251000000
3.7521000000 3.4459000000 3.0341000000
3.7520000000 2.7780000000 2.6437000000
3.7517000000 2.5317000000 2.5051000000
3.7513000000 4.1672000000 3.4402000000
3.7509000000 1.5122000000 1.7339000000
3.7507000000 4.7749000000 3.1091000000
3.7503000000 1.4923000000 1.7047000000
3.7501000000 8.0467000000 0.3379000000
3.7498000000 4.7421000000 3.1321000000
3.7495000000 8.0754000000 0.2998000000
3.7493000000 1.3457000000 1.5392000000
3.7474000000 3.5883000000 3.1209000000
3.7471000000 1.4694000000 1.6781000000
3.5151000000 7.6490000000 0.7927000000
3.5125000000 5.3640000000 3.0078000000
3.5110000000 3.0511000000 3.0436000000
3.5103000000 7.3408000000 1.1503000000
3.5098000000 6.4840000000 2.1361000000
3.5095000000 7.2771000000 1.2177000000
3.5090000000 7.8052000000 0.6137000000
3.5086000000 7.8002000000 0.6195000000
3.5083000000 5.6499000000 2.8443000000
3.5076000000 6.6106000000 1.9896000000
3.5074000000 6.2436000000 2.4090000000
3.5071000000 2.6977000000 2.8447000000
3.5069000000 5.6012000000 2.8778000000
3.5066000000 6.0497000000 2.6041000000
3.5065000000 3.6076000000 3.3722000000
3.5060000000 4.9620000000 3.2496000000
3.5057000000 0.6417000000 0.7276000000
3.5056000000 3.1934000000 3.1355000000
3.5053000000 8.2947000000 0.1274000000
3.5051000000 4.1066000000 3.6621000000
3.5046000000 6.6292000000 1.9728000000
3.5045000000 3.6187000000 3.3761000000
3.5042000000 2.0408000000 2.3451000000
3.5038000000 0.0783000000 0.0738000000
3.5034000000 0.6506000000 0.7401000000
3.5032000000 7.0908000000 1.4419000000
3.5030000000 1.5747000000 1.7983000000
3.5025000000 6.6666000000 1.9230000000
3.5019000000 7.0818000000 1.4476000000
3.5013000000 4.0056000000 3.6101000000
3.5010000000 2.7830000000 2.9036000000
3.5006000000 1.4459000000 1.6596000000
3.5003000000 3.6192000000 3.3886000000
3.5000000000 0.3789000000 0.4214000000
3.4994000000 6.1189000000 2.5429000000
3.4990000000 0.1721000000 0.1902000000
3.4982000000 1.0807000000 1.2305000000
3.4944000000 0.4674000000 0.5257000000
3.2633000000 4.5052000000 3.7533000000
3.2602000000 7.5060000000 0.9569000000
3.2598000000 6.9358000000 1.6161000000
3.2591000000 4.7833000000 3.5950000000
3.2586000000 7.3595000000 1.1291000000
3.2583000000 6.2208000000 2.4379000000
3.2577000000 6.9643000000 1.5868000000
3.2572000000 1.2130000000 1.3847000000
3.2568000000 7.7254000000 0.7079000000
3.2564000000 4.3205000000 3.8699000000
3.2562000000 3.8908000000 3.7896000000
3.2558000000 6.3833000000 2.2504000000
3.2555000000 2.7910000000 3.1339000000
3.2550000000 1.5495000000 1.7719000000
3.2548000000 5.5176000000 3.1742000000
3.2547000000 1.2766000000 1.4574000000
3.2543000000 7.4012000000 1.0779000000
3.2542000000 6.1686000000 2.5000000000
3.2540000000 5.6634000000 3.0637000000
3.2538000000 1.2863000000 1.4688000000
3.2535000000 4.6419000000 3.6853000000
3.2534000000 2.4824000000 2.8412000000
3.2531000000 4.2116000000 3.9169000000
3.2530000000 0.2302000000 0.2539000000
3.2528000000 3.5500000000 3.5939000000
3.2525000000 1.1398000000 1.3027000000
3.2523000000 2.1059000000 2.4133000000
3.2521000000 7.9636000000 0.4310000000
3.2518000000 4.6946000000 3.6514000000
3.2516000000 1.9135000000 2.1921000000
3.2511000000 3.6914000000 3.6771000000
3.2506000000 2.1009000000 2.4040000000
3.2500000000 1.9204000000 2.2024000000
3.2498000000 0.3470000000 0.3865000000
3.2486000000 1.1917000000 1.3522000000
3.2478000000 5.1439000000 3.4018000000
3.0128000000 4.8534000000 3.8038000000
3.0121000000 4.4053000000 4.0655000000
3.0109000000 6.3910000000 2.2505000000
3.0104000000 7.2644000000 1.2373000000
3.0098000000 6.1019000000 2.5800000000
3.0095000000 7.4136000000 1.0659000000
3.0088000000 6.2860000000 2.3635000000
3.0085000000 7.6695000000 0.7714000000
3.0080000000 3.9589000000 4.0754000000
3.0079000000 7.4134000000 1.0611000000
3.0077000000 4.2629000000 4.1436000000
3.0074000000 4.6531000000 3.9272000000
3.0073000000 2.8979000000 3.3232000000
3.0070000000 8.4010000000 0.0801000000
3.0067000000 4.3731000000 4.0800000000
3.0063000000 4.9016000000 3.7782000000
3.0059000000 1.0974000000 1.2500000000
3.0057000000 5.3543000000 3.4429000000
3.0055000000 8.3205000000 0.0968000000
3.0053000000 7.4738000000 0.9962000000
3.0051000000 5.3586000000 3.4321000000
3.0050000000 3.2056000000 3.6179000000
3.0045000000 3.4721000000 3.7986000000
3.0044000000 2.0129000000 2.3064000000
3.0040000000 3.0210000000 3.4628000000
3.0038000000 4.7887000000 3.8425000000
3.0035000000 6.3668000000 2.2698000000
3.0033000000 1.7552000000 2.0115000000
3.0030000000 4.4259000000 4.0520000000
3.0028000000 4.1339000000 4.1608000000
3.0026000000 0.6749000000 0.7676000000
3.0023000000 3.6889000000 3.9208000000
3.0020000000 3.7799000000 3.9710000000
3.0016000000 0.5488000000 0.6217000000
3.0012000000 0.6598000000 0.7509000000
3.0009000000 5.1759000000 3.6125000000
3.0005000000 0.3974000000 0.4474000000
3.0001000000 0.8542000000 0.9711000000
2.9998000000 0.5791000000 0.6530000000
2.9990000000 0.1458000000 0.1550000000
2.9983000000 1.3844000000 1.5781000000
2.9973000000 2.9493000000 3.3895000000
2.9948000000 1.7633000000 2.0169000000
2.7623000000 7.6087000000 0.8512000000
2.7607000000 4.9658000000 3.8815000000
2.7598000000 7.1337000000 1.3861000000
2.7594000000 8.2249000000 0.1265000000
2.7586000000 5.6133000000 3.1369000000
2.7582000000 6.7161000000 1.8665000000
2.7578000000 4.8657000000 3.9839000000
2.7575000000 6.9700000000 1.5692000000
2.7571000000 7.9959000000 0.3993000000
2.7564000000 5.4572000000 3.3154000000
2.7563000000 1.8785000000 2.1552000000
2.7561000000 0.3846000000 0.4333000000
2.7558000000 8.3281000000 0.0891000000
2.7558000000 3.7507000000 4.2055000000
2.7554000000 0.1457000000 0.1558000000
2.7553000000 0.3213000000 0.3540000000
2.7551000000 6.8330000000 1.7328000000
2.7550000000 6.0622000000 2.6239000000
2.7548000000 8.1463000000 0.2240000000
2.7545000000 4.1626000000 4.4229000000
2.7543000000 2.8202000000 3.2347000000
2.7541000000 1.8678000000 2.1373000000
2.7540000000 7.5010000000 0.9628000000
2.7537000000 2.5660000000 2.9372000000
2.7533000000 5.3457000000 3.4504000000
2.7530000000 1.8025000000 2.0646000000
2.7529000000 0.9006000000 1.0236000000
2.7527000000 5.4323000000 3.3445000000
2.7525000000 0.1441000000 0.1539000000
2.7523000000 3.6004000000 4.1012000000
2.7520000000 6.1328000000 2.5351000000
2.7515000000 4.9752000000 3.8709000000
2.7515000000 1.0679000000 1.2190000000
2.7510000000 2.8448000000 3.2590000000
2.7507000000 0.8522000000 0.9706000000
2.7505000000 2.6032000000 2.9834000000
2.7502000000 2.0447000000 2.3416000000
2.7490000000 2.5549000000 2.9349000000
2.7480000000 3.4180000000 3.9196000000
2.7473000000 3.5872000000 4.0964000000
2.7458000000 4.0533000000 4.3849000000
2.5131000000 7.5688000000 0.8888000000
2.5112000000 1.4159000000 1.6158000000
2.5103000000 5.3989000000 3.3801000000
2.5100000000 6.5528000000 2.0578000000
2.5093000000 6.8227000000 1.7462000000
2.5090000000 2.5064000000 2.8803000000
2.5087000000 7.6507000000 0.7885000000
2.5083000000 4.0674000000 4.6156000000
2.5081000000 3.2107000000 3.6845000000
2.5079000000 7.1114000000 1.4105000000
2.5075000000 5.3299000000 3.4670000000
2.5073000000 8.3102000000 0.1084000000
2.5070000000 4.5679000000 4.3394000000
2.5067000000 7.6181000000 0.8300000000
2.5066000000 8.1047000000 0.2669000000
2.5064000000 1.8163000000 2.0766000000
2.5062000000 4.7153000000 4.1743000000
2.5059000000 6.5308000000 2.0792000000
2.5055000000 1.1277000000 1.2870000000
2.5053000000 6.6856000000 1.9030000000
2.5052000000 2.7340000000 3.1376000000
2.5050000000 7.4549000000 1.0113000000
2.5049000000 3.1481000000 3.6107000000
2.5046000000 0.7509000000 0.8531000000
2.5044000000 1.5394000000 1.7550000000
2.5041000000 1.8831000000 2.1528000000
2.5040000000 6.1058000000 2.5681000000
2.5038000000 3.1936000000 3.6615000000
2.5036000000 0.8461000000 0.9604000000
2.5034000000 0.4589000000 0.5154000000
2.5030000000 0.2615000000 0.2922000000
2.5030000000 3.8505000000 4.4182000000
2.5027000000 5.1605000000 3.6549000000
2.5025000000 6.5083000000 2.0986000000
2.5023000000 5.5666000000 3.1967000000
2.5020000000 5.5956000000 3.1575000000
2.5016000000 2.1351000000 2.4511000000
2.5015000000 3.1629000000 3.6261000000
2.5010000000 6.6659000000 1.9256000000
2.5007000000 5.4956000000 3.2750000000
2.5002000000 3.7566000000 4.3165000000
2.5000000000 2.7775000000 3.1839000000
2.4989000000 3.0748000000 3.5218000000
2.4973000000 2.4405000000 2.7956000000
2.2616000000 7.9382000000 0.4578000000
2.2605000000 4.4514000000 4.4579000000
2.2594000000 3.8259000000 4.3717000000
2.2586000000 7.9063000000 0.4997000000
2.2585000000 2.4810000000 2.8444000000
2.2583000000 0.1529000000 0.1654000000
2.2574000000 0.3802000000 0.4237000000
2.2568000000 3.4496000000 3.9528000000
2.2567000000 8.3353000000 0.0776000000
2.2562000000 7.6035000000 0.8467000000
2.2560000000 2.2449000000 2.5731000000
2.2558000000 5.9919000000 2.7034000000
2.2555000000 5.0342000000 3.8029000000
2.2555000000 2.7523000000 3.1600000000
2.2552000000 5.1064000000 3.7250000000
2.2550000000 6.7119000000 1.8740000000
2.2547000000 3.6835000000 4.2338000000
2.2543000000 4.3387000000 4.5381000000
2.2541000000 5.5238000000 3.2450000000
2.2538000000 4.0529000000 4.5652000000
2.2536000000 8.2073000000 0.1538000000
2.2535000000 5.5464000000 3.2140000000
2.2532000000 5.5282000000 3.2367000000
2.2530000000 6.3847000000 2.2507000000
2.2528000000 4.2703000000 4.5835000000
2.2526000000 2.0227000000 2.3123000000
2.2523000000 6.7365000000 1.8453000000
2.2521000000 0.4972000000 0.5658000000
2.2517000000 0.8237000000 0.9356000000
2.2515000000 4.0848000000 4.5929000000
2.2511000000 1.5640000000 1.7879000000
2.2506000000 2.5167000000 2.8838000000
2.2505000000 7.1460000000 1.3730000000
2.2496000000 0.1405000000 0.1488000000
2.2493000000 2.2266000000 2.5500000000
2.2490000000 4.1791000000 4.6115000000
2.2473000000 3.6059000000 4.1405000000
2.0139000000 8.3542000000 0.0593000000
2.0119000000 7.5200000000 0.9434000000
2.0113000000 2.4722000000 2.8385000000
2.0102000000 3.1442000000 3.6063000000
2.0095000000 6.0529000000 2.6315000000
2.0087000000 7.6974000000 0.7407000000
2.0084000000 2.7526000000 3.1578000000
2.0078000000 8.1168000000 0.2596000000
2.0071000000 3.4784000000 3.9695000000
2.0069000000 7.0090000000 1.5330000000
2.0064000000 5.8527000000 2.8598000000
2.0062000000 6.1053000000 2.5802000000
2.0059000000 6.3789000000 2.2613000000
2.0055000000 7.7554000000 0.6718000000
2.0052000000 4.5370000000 4.1852000000
2.0049000000 0.9968000000 1.1376000000
2.0045000000 1.9169000000 2.1907000000
2.0044000000 2.8081000000 3.2176000000
2.0042000000 0.6290000000 0.7103000000
2.0039000000 6.6395000000 1.9607000000
2.0037000000 6.6774000000 1.9152000000
2.0035000000 0.7532000000 0.8531000000
2.0033000000 2.4469000000 2.8018000000
2.0030000000 4.2754000000 4.3301000000
2.0028000000 3.8340000000 4.1888000000
2.0027000000 4.0511000000 4.3138000000
2.0022000000 4.4825000000 4.2055000000
2.0020000000 2.4454000000 2.8025000000
2.0015000000 2.7350000000 3.1372000000
2.0012000000 4.7081000000 4.0817000000
2.0010000000 2.9579000000 3.3914000000
2.0006000000 3.9062000000 4.2316000000
2.0001000000 3.5546000000 4.0056000000
1.9988000000 5.8995000000 2.8071000000
1.9974000000 5.3308000000 3.4630000000
1.9958000000 1.0363000000 1.1822000000
1.9894000000 0.4025000000 0.4522000000
1.7625000000 2.0011000000 2.2904000000
1.7613000000 7.1664000000 1.3475000000
1.7600000000 8.3718000000 0.0375000000
1.7595000000 5.3603000000 3.4134000000
1.7588000000 8.1220000000 0.2552000000
1.7583000000 7.4751000000 0.9950000000
1.7579000000 4.7393000000 3.8207000000
1.7575000000 6.3360000000 2.3118000000
1.7571000000 4.5298000000 3.9430000000
1.7569000000 6.7402000000 1.8430000000
1.7565000000 3.3153000000 3.6470000000
1.7563000000 7.6612000000 0.7803000000
1.7559000000 0.4763000000 0.5376000000
1.7558000000 4.7690000000 3.7998000000
1.7555000000 2.5234000000 2.8971000000
1.7553000000 3.9476000000 4.0074000000
1.7550000000 6.3729000000 2.2627000000
1.7548000000 8.3328000000 0.0808000000
1.7544000000 1.2797000000 1.4593000000
1.7541000000 1.0452000000 1.1933000000
1.7539000000 1.4925000000 1.7071000000
1.7537000000 7.0999000000 1.4288000000
1.7535000000 1.2227000000 1.3989000000
1.7532000000 2.0738000000 2.3771000000
1.7529000000 3.8382000000 3.9467000000
1.7527000000 4.8955000000 3.7219000000
1.7524000000 3.1166000000 3.5088000000
1.7522000000 5.1078000000 3.5997000000
1.7520000000 1.1673000000 1.3265000000
1.7518000000 7.5430000000 0.9224000000
1.7513000000 5.4834000000 3.2865000000
1.7511000000 1.8039000000 2.0668000000
1.7506000000 1.6641000000 1.9113000000
1.7500000000 1.4598000000 1.6642000000
1.7491000000 0.4549000000 0.5149000000
1.7487000000 4.9132000000 3.7087000000
1.7485000000 0.7355000000 0.8352000000
1.7477000000 4.4204000000 3.9881000000
1.7468000000 0.0463000000 0.1160000000
1.5144000000 8.1769000000 0.1854000000
1.5132000000 6.1597000000 2.5090000000
1.5112000000 8.2198000000 0.1409000000
1.5103000000 7.9594000000 0.4373000000
1.5099000000 7.7339000000 0.6953000000
1.5091000000 7.0688000000 1.4629000000
1.5086000000 2.4460000000 2.8046000000
1.5080000000 5.9813000000 2.7178000000
1.5077000000 2.7937000000 3.1005000000
1.5075000000 2.5226000000 2.8736000000
1.5073000000 5.4822000000 3.1379000000
1.5068000000 6.2029000000 2.4584000000
1.5063000000 6.0432000000 2.6434000000
1.5061000000 4.0632000000 3.8302000000
1.5058000000 5.2492000000 3.2741000000
1.5056000000 3.8766000000 3.7238000000
1.5052000000 4.8893000000 3.4805000000
1.5049000000 6.1127000000 2.5647000000
1.5047000000 2.3149000000 2.6486000000
1.5046000000 3.5316000000 3.5243000000
1.5045000000 0.2330000000 0.2636000000
1.5043000000 2.2510000000 2.5802000000
1.5040000000 1.5920000000 1.8240000000
1.5039000000 0.0346000000 0.0967000000
1.5036000000 2.1163000000 2.4254000000
1.5035000000 2.0973000000 2.4067000000
1.5033000000 6.0884000000 2.5965000000
1.5030000000 2.8374000000 3.1205000000
1.5028000000 0.5631000000 0.6424000000
1.5026000000 0.5965000000 0.6736000000
1.5024000000 3.4670000000 3.4867000000
1.5022000000 1.2256000000 1.3955000000
1.5018000000 4.2197000000 3.8479000000
1.5016000000 3.3769000000 3.4264000000
1.5015000000 0.2358000000 0.2597000000
1.5009000000 1.8409000000 2.1079000000
1.5007000000 0.8560000000 0.9715000000
1.5005000000 1.8785000000 2.1517000000
1.5001000000 2.0156000000 2.3110000000
1.4993000000 7.1644000000 1.3536000000
1.4984000000 2.4840000000 2.8486000000
1.4978000000 3.7583000000 3.6448000000
1.4972000000 6.1979000000 2.4593000000
1.4951000000 3.8781000000 3.7119000000
1.2660000000 8.3727000000 0.0378000000
1.2633000000 6.1166000000 2.5136000000
1.2607000000 3.8699000000 3.4687000000
1.2602000000 6.1797000000 2.4646000000
1.2594000000 5.7627000000 2.7320000000
1.2582000000 1.9327000000 2.2151000000
1.2581000000 3.4819000000 3.2455000000
1.2577000000 7.6890000000 0.7472000000
1.2575000000 7.6576000000 0.7835000000
1.2571000000 5.2583000000 3.0199000000
1.2566000000 1.4988000000 1.7110000000
1.2564000000 7.1042000000 1.4180000000
1.2561000000 1.2287000000 1.4038000000
1.2560000000 3.7524000000 3.4016000000
1.2557000000 2.5336000000 2.7046000000
1.2555000000 1.5900000000 1.8219000000
1.2553000000 7.4253000000 1.0506000000
1.2551000000 3.9595000000 3.5158000000
1.2550000000 6.7028000000 1.8870000000
1.2545000000 7.0812000000 1.4495000000
1.2542000000 6.2771000000 2.3611000000
1.2540000000 4.5095000000 3.4525000000
1.2537000000 1.9017000000 2.1771000000
1.2535000000 8.1590000000 0.2016000000
1.2532000000 0.9630000000 1.1030000000
1.2530000000 7.2409000000 1.2639000000
1.2527000000 2.8184000000 2.8565000000
1.2525000000 1.5207000000 1.7407000000
1.2521000000 3.5950000000 3.3070000000
1.2518000000 1.2184000000 1.3924000000
1.2516000000 6.9343000000 1.6155000000
1.2512000000 5.9255000000 2.6323000000
1.2507000000 3.4384000000 3.2169000000
1.2503000000 2.9295000000 2.9245000000
1.2497000000 1.5522000000 1.7768000000
1.2489000000 6.6597000000 1.9380000000
1.2476000000 1.1931000000 1.3665000000
1.2473000000 5.0772000000 3.1152000000
1.2452000000 2.5713000000 2.7118000000
1.0130000000 7.1791000000 1.3353000000
1.0111000000 6.8960000000 1.6641000000
1.0104000000 2.4564000000 2.4092000000
1.0100000000 4.6689000000 3.1150000000
1.0093000000 5.4577000000 2.6602000000
1.0089000000 6.7013000000 1.8731000000
1.0083000000 3.1364000000 2.7943000000
1.0080000000 6.2436000000 2.2034000000
1.0076000000 4.6045000000 3.1424000000
1.0072000000 7.8103000000 0.6085000000
1.0071000000 2.4458000000 2.3993000000
1.0068000000 7.0961000000 1.4340000000
1.0067000000 5.6342000000 2.5540000000
1.0065000000 5.5955000000 2.5790000000
1.0062000000 5.1179000000 2.8467000000
1.0057000000 4.6986000000 3.0923000000
1.0055000000 0.4606000000 0.5157000000
1.0053000000 6.1463000000 2.2577000000
1.0048000000 2.6720000000 2.5249000000
1.0045000000 7.8946000000 0.5176000000
1.0043000000 2.9299000000 2.6785000000
1.0041000000 7.0621000000 1.4693000000
1.0039000000 1.3749000000 1.5689000000
1.0037000000 5.4928000000 2.6398000000
1.0035000000 6.3381000000 2.1490000000
1.0033000000 1.0796000000 1.2314000000
1.0032000000 0.0736000000 0.0730000000
1.0030000000 7.2387000000 1.2673000000
1.0028000000 3.9850000000 3.2860000000
1.0027000000 3.3396000000 2.9116000000
1.0025000000 2.6101000000 2.4921000000
1.0023000000 2.1854000000 2.2468000000
1.0021000000 1.6989000000 1.9235000000
1.0018000000 6.5968000000 1.9799000000
1.0017000000 2.1359000000 2.2192000000
1.0010000000 5.0332000000 2.8921000000
1.0007000000 6.6422000000 1.9393000000
1.0002000000 0.9823000000 1.1230000000
0.9997000000 4.8925000000 2.9719000000
0.9994000000 6.6982000000 1.8742000000
0.9993000000 0.1068000000 0.1102000000
0.9983000000 1.3326000000 1.5210000000
0.9979000000 4.0131000000 3.2946000000
0.9938000000 0.4623000000 0.5219000000
0.7611000000 5.1949000000 2.5584000000
0.7600000000 7.6513000000 0.7902000000
0.7596000000 6.3223000000 1.9108000000
0.7588000000 7.8192000000 0.6042000000
0.7586000000 7.4685000000 1.0091000000
0.7582000000 5.1974000000 2.5572000000
0.7578000000 3.6192000000 2.8227000000
0.7573000000 7.2741000000 1.2260000000
0.7568000000 7.5582000000 0.8995000000
0.7565000000 4.4354000000 2.9992000000
0.7562000000 2.9552000000 2.4421000000
0.7560000000 0.4201000000 0.4775000000
0.7556000000 6.1677000000 1.9974000000
0.7555000000 1.7984000000 1.7758000000
0.7553000000 0.2293000000 0.2504000000
0.7550000000 6.6570000000 1.7140000000
0.7547000000 1.4237000000 1.5584000000
0.7543000000 3.5134000000 2.7652000000
0.7540000000 2.5850000000 2.2245000000
0.7539000000 0.9034000000 1.0257000000
0.7535000000 5.5165000000 2.3667000000
0.7534000000 3.5083000000 2.7580000000
0.7530000000 3.0929000000 2.5227000000
0.7529000000 2.0797000000 1.9351000000
0.7528000000 2.6930000000 2.2873000000
0.7526000000 0.6815000000 0.7694000000
0.7524000000 5.1622000000 2.5732000000
0.7520000000 4.2453000000 3.1013000000
0.7518000000 3.5846000000 2.8057000000
0.7512000000 3.9598000000 3.0177000000
0.7506000000 2.3001000000 2.0609000000
0.7504000000 6.4175000000 1.8507000000
0.7501000000 4.1993000000 3.1092000000
0.7499000000 1.0002000000 1.1406000000
0.7497000000 1.5182000000 1.6110000000
0.7494000000 0.7910000000 0.8959000000
0.7491000000 2.2172000000 2.0110000000
0.7481000000 1.8206000000 1.7817000000
0.7470000000 0.2271000000 0.2521000000
0.7455000000 0.2030000000 0.2182000000
0.5144000000 8.2541000000 0.0973000000
0.5130000000 8.1303000000 0.2386000000
0.5116000000 6.4044000000 1.6194000000
0.5110000000 3.8053000000 2.6866000000
0.5100000000 6.0885000000 1.7998000000
0.5096000000 2.7353000000 2.0697000000
0.5093000000 7.2859000000 1.1056000000
0.5087000000 5.1330000000 2.3488000000
0.5080000000 7.7510000000 0.6781000000
0.5074000000 0.8921000000 0.9953000000
0.5067000000 0.4175000000 0.4673000000
0.5065000000 3.2398000000 2.3565000000
0.5063000000 1.0795000000 1.1088000000
0.5061000000 5.3497000000 2.2191000000
0.5060000000 0.5895000000 0.6633000000
0.5057000000 5.1560000000 2.3327000000
0.5055000000 3.5896000000 2.5587000000
0.5052000000 5.3983000000 2.1923000000
0.5050000000 6.6050000000 1.4945000000
0.5048000000 1.4545000000 1.3319000000
0.5045000000 2.8927000000 2.1568000000
0.5044000000 0.1672000000 0.1820000000
0.5043000000 5.4038000000 2.1837000000
0.5040000000 2.8622000000 2.1374000000
0.5038000000 2.5389000000 1.9519000000
0.5035000000 6.9330000000 1.3031000000
0.5032000000 0.0329000000 0.1028000000
0.5028000000 4.8061000000 2.5276000000
0.5026000000 1.7860000000 1.5187000000
0.5023000000 1.1951000000 1.1799000000
0.5016000000 4.4747000000 2.7231000000
0.5014000000 4.4723000000 2.7231000000
0.5012000000 4.4099000000 2.7523000000
0.5009000000 0.7064000000 0.8002000000
0.5005000000 4.0901000000 2.8381000000
0.5003000000 2.3002000000 1.8134000000
0.4998000000 2.0380000000 1.6650000000
0.4993000000 3.0227000000 2.2243000000
0.4988000000 3.4994000000 2.4982000000
0.4985000000 7.1410000000 1.1794000000
0.4976000000 1.8249000000 1.5325000000
0.4946000000 0.5682000000 0.6405000000
0.2635000000 3.5322000000 2.2812000000
0.2614000000 5.3542000000 1.9737000000
0.2603000000 7.8678000000 0.5062000000
0.2596000000 2.6205000000 1.7550000000
0.2588000000 5.1049000000 2.1129000000
0.2583000000 2.3878000000 1.6184000000
0.2581000000 5.1362000000 2.0878000000
0.2576000000 5.7215000000 1.7592000000
0.2573000000 6.4721000000 1.3252000000
0.2567000000 8.1405000000 0.2317000000
0.2565000000 2.2899000000 1.5641000000
0.2562000000 4.2216000000 2.5996000000
0.2560000000 0.9817000000 0.8132000000
0.2557000000 1.5104000000 1.1121000000
0.2556000000 5.7544000000 1.7411000000
0.2554000000 2.0464000000 1.4183000000
0.2550000000 0.0484000000 0.1198000000
0.2548000000 3.2580000000 2.1212000000
0.2546000000 6.9757000000 1.0358000000
0.2544000000 6.0904000000 1.5434000000
0.2542000000 2.7497000000 1.8214000000
0.2540000000 5.2034000000 2.0552000000
0.2538000000 5.5645000000 1.8434000000
0.2535000000 1.4909000000 1.0981000000
0.2534000000 2.2046000000 1.5107000000
0.2533000000 6.0607000000 1.5610000000
0.2530000000 5.8064000000 1.7074000000
0.2528000000 0.6872000000 0.6349000000
0.2525000000 5.2334000000 2.0350000000
0.2523000000 4.4749000000 2.4730000000
0.2521000000 1.2788000000 0.9794000000
0.2520000000 5.2206000000 2.0460000000
0.2516000000 2.6830000000 1.7797000000
0.2513000000 1.1474000000 0.9004000000
0.2508000000 2.0913000000 1.4432000000
0.2505000000 0.7483000000 0.6693000000
0.2503000000 7.1221000000 0.9453000000
0.2497000000 5.5545000000 1.8479000000
0.2494000000 3.3303000000 2.1512000000
0.2492000000 0.1759000000 0.1903000000
0.2489000000 2.9285000000 1.9273000000
0.2482000000 0.3280000000 0.3529000000
0.2465000000 2.8387000000 1.8644000000
0.2416000000 0.9135000000 0.7542000000
0.0114000000 4.7564000000 2.0673000000
0.0100000000 6.6459000000 0.9825000000
0.0094000000 0.5834000000 0.3316000000
0.0085000000 6.4039000000 1.1149000000
0.0082000000 1.7818000000 1.0217000000
0.0076000000 1.3671000000 0.7833000000
0.0069000000 8.3608000000 0.0255000000
0.0065000000 8.3196000000 0.0646000000
0.0062000000 7.6250000000 0.4107000000
0.0061000000 1.8331000000 1.0514000000
0.0057000000 5.0441000000 1.9019000000
0.0053000000 2.5170000000 1.4366000000
0.0052000000 2.0242000000 1.1619000000
0.0048000000 5.9953000000 1.3453000000
0.0046000000 2.0360000000 1.1635000000
0.0045000000 1.4290000000 0.8128000000
0.0043000000 4.4235000000 2.2564000000
0.0040000000 5.0264000000 1.9014000000
0.0039000000 4.1672000000 2.3762000000
0.0038000000 2.6223000000 1.5062000000
0.0034000000 0.1684000000 0.0857000000
0.0033000000 2.0710000000 1.1819000000
0.0031000000 3.8686000000 2.2221000000
0.0029000000 1.5135000000 0.8653000000
0.0028000000 4.1247000000 2.3543000000
0.0026000000 0.5224000000 0.2944000000
0.0024000000 5.0320000000 1.8941000000
0.0021000000 3.5194000000 2.0188000000
0.0018000000 6.0878000000 1.2932000000
0.0015000000 2.4871000000 1.4230000000
0.0013000000 5.5890000000 1.5759000000
0.0011000000 3.8352000000 2.1986000000
0.0009000000 6.5054000000 1.0501000000
0.0003000000 1.2884000000 0.7296000000
-0.0001000000 4.7517000000 2.0586000000
-0.0010000000 5.7520000000 1.4805000000
-0.0014000000 2.7371000000 1.5568000000
-0.0020000000 1.5815000000 0.8934000000
-0.0037000000 5.8073000000 1.4443000000
-0.2381000000 6.6219000000 0.7389000000
-0.2396000000 6.8683000000 0.6019000000
-0.2411000000 5.9362000000 1.1396000000
-0.2415000000 2.3508000000 1.1014000000
-0.2417000000 0.6892000000 0.1456000000
-0.2424000000 7.9445000000 0.0468000000
-0.2427000000 5.6231000000 1.3144000000
-0.2429000000 0.5449000000 0.0598000000
-0.2433000000 4.0993000000 2.1049000000
-0.2435000000 3.2332000000 1.6060000000
-0.2440000000 4.4786000000 1.9730000000
-0.2441000000 5.1782000000 1.5684000000
-0.2442000000 1.4714000000 0.5902000000
-0.2445000000 4.5415000000 1.9308000000
-0.2449000000 0.9252000000 0.2815000000
-0.2451000000 1.5078000000 0.6167000000
-0.2455000000 1.6642000000 0.7078000000
-0.2461000000 8.1364000000 0.0171000000
-0.2463000000 2.8808000000 1.3985000000
-0.2465000000 0.7379000000 0.1705000000
-0.2466000000 1.2559000000 0.4626000000
-0.2467000000 6.5578000000 0.7712000000
-0.2469000000 0.9551000000 0.2944000000
-0.2473000000 4.3387000000 2.0540000000
-0.2475000000 3.0478000000 1.4990000000
-0.2477000000 1.0192000000 0.3272000000
-0.2479000000 0.3298000000 0.0830000000
-0.2481000000 1.9478000000 0.8670000000
-0.2483000000 6.2673000000 0.9413000000
-0.2487000000 4.4098000000 2.0060000000
-0.2490000000 2.0938000000 0.9432000000
-0.2494000000 7.5580000000 0.1908000000
-0.2499000000 1.9456000000 0.8583000000
-0.2505000000 3.3904000000 1.6865000000
-0.2512000000 7.6134000000 0.1586000000
-0.2515000000 1.2718000000 0.4663000000
-0.2522000000 3.7646000000 1.9026000000
-0.2527000000 4.1641000000 2.1147000000
-0.2548000000 1.0521000000 0.3414000000
-0.4891000000 6.5458000000 0.5365000000
-0.4897000000 4.2933000000 1.8365000000
-0.4905000000 7.0299000000 0.2559000000
-0.4917000000 2.0359000000 0.6721000000
-0.4922000000 7.6485000000 0.0493000000
-0.4924000000 7.6489000000 0.0471000000
-0.4930000000 5.9645000000 0.8656000000
-0.4932000000 6.7093000000 0.4390000000
-0.4935000000 7.1118000000 0.2074000000
-0.4939000000 5.5433000000 1.1125000000
-0.4941000000 7.3886000000 0.1220000000
-0.4942000000 4.2891000000 1.8341000000
-0.4946000000 4.7375000000 1.5681000000
-0.4948000000 1.9424000000 0.6146000000
-0.4951000000 5.7380000000 1.0002000000
-0.4953000000 5.1800000000 1.3172000000
-0.4957000000 6.4033000000 0.6173000000
-0.4960000000 2.2885000000 0.8138000000
-0.4962000000 5.9407000000 0.8796000000
-0.4964000000 4.7173000000 1.5859000000
-0.4965000000 4.1986000000 1.8646000000
-0.4967000000 4.4990000000 1.7083000000
-0.4972000000 3.4047000000 1.4498000000
-0.4975000000 0.7105000000 0.0531000000
-0.4976000000 0.6549000000 0.0182000000
-0.4979000000 4.6142000000 1.6428000000
-0.4987000000 2.1843000000 0.7489000000
-0.4989000000 5.6667000000 1.0323000000
-0.4992000000 2.7959000000 1.0984000000
-0.4999000000 1.4207000000 0.3032000000
-0.5002000000 4.6112000000 1.6449000000
-0.5008000000 6.2968000000 0.6684000000
-0.5015000000 3.8603000000 1.7133000000
-0.5017000000 6.1955000000 0.7243000000
-0.5026000000 1.4053000000 0.2942000000
-0.5042000000 1.2848000000 0.2245000000
-0.7377000000 3.6478000000 1.3501000000
-0.7391000000 5.0512000000 1.1488000000
-0.7411000000 3.7176000000 1.3879000000
-0.7427000000 4.9271000000 1.2144000000
-0.7431000000 7.2073000000 0.0494000000
-0.7433000000 4.5485000000 1.4378000000
-0.7440000000 2.9928000000 0.9721000000
-0.7443000000 6.6541000000 0.2254000000
-0.7446000000 5.5708000000 0.8465000000
-0.7448000000 2.4851000000 0.6769000000
-0.7454000000 5.6661000000 0.7900000000
-0.7457000000 3.4297000000 1.2210000000
-0.7461000000 1.9871000000 0.3922000000
-0.7465000000 6.0365000000 0.5734000000
-0.7467000000 3.1330000000 1.0469000000
-0.7470000000 2.1268000000 0.4653000000
-0.7474000000 1.4523000000 0.0840000000
-0.7475000000 3.0605000000 1.0006000000
-0.7480000000 3.2888000000 1.1295000000
-0.7482000000 3.0083000000 0.9696000000
-0.7487000000 1.8092000000 0.2790000000
-0.7495000000 2.0542000000 0.4249000000
-0.7497000000 5.7039000000 0.7656000000
-0.7501000000 1.4996000000 0.1038000000
-0.7504000000 2.0760000000 0.4343000000
-0.7515000000 1.2801000000 0.0530000000
-0.7521000000 6.9668000000 0.1077000000
-0.9878000000 5.1053000000 0.8725000000
-0.9909000000 6.3521000000 0.1533000000
-0.9915000000 5.6813000000 0.5287000000
-0.9926000000 2.3875000000 0.3738000000
-0.9932000000 4.3434000000 1.3079000000
-0.9934000000 3.5131000000 1.0216000000
-0.9936000000 5.2650000000 0.7742000000
-0.9940000000 4.3361000000 1.3100000000
-0.9945000000 5.9166000000 0.3987000000
-0.9954000000 6.6537000000 0.0458000000
-0.9957000000 5.2960000000 0.7523000000
-0.9961000000 3.8376000000 1.2046000000
-0.9965000000 6.7555000000 0.0566000000
-0.9965000000 2.4176000000 0.3872000000
-0.9971000000 3.4806000000 1.0011000000
-0.9973000000 5.5059000000 0.6293000000
-0.9980000000 2.2444000000 0.2836000000
-0.9986000000 4.4764000000 1.2169000000
-0.9990000000 4.7302000000 1.0770000000
-0.9995000000 5.0520000000 0.8835000000
-0.9999000000 1.7538000000 0.0739000000
-1.0006000000 3.8206000000 1.1899000000
-1.0018000000 1.6514000000 0.0829000000
-1.0022000000 3.5398000000 1.0252000000
-1.0039000000 3.0986000000 0.7684000000
-1.2409000000 6.2176000000 0.0520000000
-1.2414000000 3.4376000000 0.7321000000
-1.2425000000 5.5034000000 0.3877000000
-1.2436000000 2.1527000000 0.0642000000
-1.2438000000 4.0886000000 1.0981000000
-1.2440000000 5.2507000000 0.5316000000
-1.2446000000 4.1091000000 1.1130000000
-1.2450000000 2.0126000000 0.0527000000
-1.2452000000 4.6652000000 0.8652000000
-1.2456000000 5.9693000000 0.1158000000
-1.2460000000 3.4671000000 0.7430000000
-1.2461000000 3.5202000000 0.7655000000
-1.2466000000 3.2267000000 0.6049000000
-1.2469000000 2.9795000000 0.4642000000
-1.2472000000 5.3598000000 0.4632000000
-1.2475000000 2.8771000000 0.4047000000
-1.2477000000 5.1222000000 0.6018000000
-1.2483000000 6.2983000000 0.0735000000
-1.2490000000 4.8224000000 0.7772000000
-1.2503000000 4.2353000000 1.1094000000
-1.2508000000 4.7015000000 0.8377000000
-1.2512000000 4.7167000000 0.8343000000
-1.2525000000 3.2217000000 0.5950000000
-1.4856000000 5.4667000000 0.1690000000
-1.4890000000 4.9662000000 0.4547000000
-1.4911000000 5.1212000000 0.3597000000
-1.4921000000 5.8515000000 0.0870000000
-1.4928000000 3.9425000000 0.7681000000
-1.4935000000 4.9597000000 0.4486000000
-1.4940000000 2.7007000000 0.1260000000
-1.4950000000 2.4398000000 0.0521000000
-1.4957000000 3.8593000000 0.7178000000
-1.4960000000 2.6184000000 0.0801000000
-1.4962000000 2.5549000000 0.0360000000
-1.4967000000 3.4177000000 0.4601000000
-1.4973000000 2.5605000000 0.0446000000
-1.4979000000 4.6880000000 0.6036000000
-1.4984000000 3.7482000000 0.6527000000
-1.4991000000 4.2763000000 0.8389000000
-1.4997000000 3.1236000000 0.2914000000
-1.5008000000 2.3637000000 0.0045000000
-1.5021000000 3.9495000000 0.7662000000
-1.7365000000 4.6009000000 0.4123000000
-1.7410000000 4.8331000000 0.2762000000
-1.7424000000 3.0169000000 0.0650000000
-1.7430000000 4.4818000000 0.4710000000
-1.7435000000 4.3698000000 0.5387000000
-1.7438000000 4.9151000000 0.2271000000
-1.7452000000 3.9359000000 0.5110000000
-1.7454000000 3.5773000000 0.3054000000
-1.7465000000 4.9328000000 0.2169000000
-1.7471000000 3.4760000000 0.2489000000
-1.7478000000 4.0360000000 0.5690000000
-1.7480000000 2.9512000000 0.1003000000
-1.7492000000 4.7325000000 0.3254000000
-1.7520000000 3.4633000000 0.2337000000
-1.7530000000 3.7042000000 0.3718000000
-1.9895000000 4.3540000000 0.3014000000
-1.9921000000 5.0702000000 0.0406000000
-1.9933000000 4.4091000000 0.2702000000
-1.9940000000 4.7457000000 0.0718000000
-1.9952000000 4.9159000000 0.0497000000
-1.9961000000 5.0129000000 0.0675000000
-1.9981000000 3.3176000000 0.0530000000
-1.9988000000 4.3745000000 0.2870000000
-1.9995000000 4.2074000000 0.3601000000
