5.7569000000 3.1877000000 0.0591000000
5.7549000000 2.9178000000 0.0110000000
5.7517000000 3.2931000000 0.1069000000
5.7499000000 3.1631000000 0.0540000000
5.5116000000 3.4871000000 0.2475000000
5.5072000000 3.8524000000 0.0858000000
5.5067000000 2.4792000000 0.0050000000
5.5063000000 4.3296000000 0.0210000000
5.5060000000 4.0774000000 0.0616000000
5.5059000000 4.1704000000 0.0177000000
5.5048000000 4.0412000000 0.0712000000
5.5043000000 4.2795000000 0.0429000000
5.5037000000 3.8074000000 0.1076000000
5.5033000000 3.3727000000 0.2530000000
5.5023000000 3.2638000000 0.2172000000
5.5008000000 3.2277000000 0.2076000000
5.2643000000 2.9570000000 0.2712000000
5.2605000000 2.7671000000 0.1802000000
5.2592000000 2.0623000000 0.0093000000
5.2578000000 2.6112000000 0.1141000000
5.2572000000 4.0119000000 0.2076000000
5.2566000000 3.8065000000 0.3052000000
5.2564000000 2.9395000000 0.2635000000
5.2560000000 3.2711000000 0.4162000000
5.2557000000 2.4203000000 0.1074000000
5.2555000000 2.7914000000 0.1989000000
5.2552000000 3.8029000000 0.3095000000
5.2550000000 3.1707000000 0.3652000000
5.2548000000 2.4707000000 0.1226000000
5.2544000000 3.1664000000 0.3670000000
5.2530000000 3.2285000000 0.3941000000
5.2525000000 4.7669000000 0.0192000000
5.2516000000 4.1429000000 0.1517000000
5.2501000000 4.0719000000 0.1861000000
5.2493000000 3.0245000000 0.3086000000
5.2481000000 2.3292000000 0.0653000000
5.0112000000 3.1340000000 0.5473000000
5.0101000000 1.8695000000 0.0457000000
5.0080000000 3.0842000000 0.5252000000
5.0074000000 2.8275000000 0.4158000000
5.0068000000 3.9123000000 0.4543000000
5.0066000000 2.1709000000 0.1127000000
5.0064000000 2.4854000000 0.2606000000
5.0058000000 3.2609000000 0.6047000000
5.0054000000 2.6751000000 0.3397000000
5.0049000000 4.8816000000 0.0816000000
5.0047000000 3.4175000000 0.7438000000
5.0041000000 1.9038000000 0.0635000000
5.0037000000 3.1893000000 0.5794000000
5.0035000000 3.7692000000 0.5244000000
5.0032000000 2.4923000000 0.2616000000
5.0031000000 3.0277000000 0.5028000000
5.0027000000 2.7976000000 0.4024000000
5.0024000000 2.9953000000 0.4897000000
5.0021000000 2.0900000000 0.0793000000
5.0017000000 2.2208000000 0.1368000000
5.0005000000 2.5386000000 0.2832000000
5.0002000000 3.2908000000 0.6241000000
4.9992000000 2.6730000000 0.3430000000
4.9986000000 2.2466000000 0.1500000000
4.9973000000 3.3114000000 0.6327000000
4.7645000000 5.4008000000 0.0436000000
4.7609000000 4.8645000000 0.2092000000
4.7607000000 2.9763000000 0.6795000000
4.7597000000 4.6789000000 0.2945000000
4.7596000000 4.0045000000 0.6119000000
4.7590000000 3.1281000000 0.7426000000
4.7585000000 4.0384000000 0.5969000000
4.7583000000 2.5776000000 0.4979000000
4.7580000000 4.6703000000 0.3017000000
4.7578000000 5.4573000000 0.0227000000
4.7573000000 1.6936000000 0.0969000000
4.7568000000 2.1176000000 0.2780000000
4.7566000000 4.1123000000 0.5617000000
4.7562000000 3.3155000000 0.8303000000
4.7555000000 1.1794000000 0.0032000000
4.7550000000 3.6500000000 0.7759000000
4.7548000000 1.5639000000 0.1080000000
4.7546000000 2.5760000000 0.4921000000
4.7544000000 3.6168000000 0.7834000000
4.7541000000 3.1525000000 0.7592000000
4.7539000000 1.8489000000 0.1625000000
4.7534000000 2.0824000000 0.2674000000
4.7534000000 5.2730000000 0.1068000000
4.7532000000 1.9223000000 0.1923000000
4.7525000000 3.8756000000 0.6708000000
4.7523000000 1.5661000000 0.1115000000
4.7516000000 3.9145000000 0.6532000000
4.7513000000 4.5402000000 0.3688000000
4.7505000000 4.7765000000 0.2526000000
4.7502000000 3.3034000000 0.8284000000
4.7493000000 4.5032000000 0.3840000000
4.7489000000 2.1663000000 0.3142000000
4.7486000000 1.3837000000 0.0331000000
4.7477000000 2.7607000000 0.5864000000
4.7436000000 1.2158000000 0.0294000000
4.5134000000 4.8040000000 0.4391000000
4.5114000000 5.5950000000 0.0758000000
4.5103000000 1.7570000000 0.3086000000
4.5102000000 4.7854000000 0.4436000000
4.5092000000 2.6378000000 0.7208000000
4.5089000000 2.7934000000 0.7824000000
4.5086000000 5.3471000000 0.1916000000
4.5080000000 6.0443000000 0.0227000000
4.5073000000 1.0204000000 0.0483000000
4.5070000000 1.1019000000 0.0947000000
4.5069000000 1.5563000000 0.2238000000
4.5067000000 3.8573000000 0.8735000000
4.5066000000 2.4104000000 0.6110000000
4.5064000000 1.5489000000 0.2210000000
4.5061000000 1.6829000000 0.2835000000
4.5060000000 1.7449000000 0.3110000000
4.5059000000 1.9217000000 0.3897000000
4.5057000000 1.8379000000 0.3524000000
4.5056000000 3.0698000000 0.9167000000
4.5055000000 4.3130000000 0.6656000000
4.5053000000 1.9294000000 0.3929000000
4.5050000000 3.7123000000 0.9523000000
4.5048000000 4.1036000000 0.7655000000
4.5045000000 4.5148000000 0.5766000000
4.5039000000 1.0113000000 0.0533000000
4.5036000000 4.5843000000 0.5474000000
4.5035000000 1.4655000000 0.1817000000
4.5033000000 2.6076000000 0.7019000000
4.5031000000 2.3646000000 0.5950000000
4.5029000000 3.1769000000 0.9658000000
4.5027000000 1.3956000000 0.1550000000
4.5025000000 1.6344000000 0.2670000000
4.5020000000 6.0984000000 0.0073000000
4.5010000000 0.9171000000 0.0082000000
4.5010000000 1.8560000000 0.3641000000
4.5005000000 2.7246000000 0.7648000000
4.5003000000 4.6022000000 0.5401000000
4.4994000000 2.5962000000 0.7069000000
4.4993000000 2.1428000000 0.4991000000
4.4985000000 3.7151000000 0.9503000000
4.2621000000 6.1493000000 0.0959000000
4.2614000000 3.8862000000 1.0591000000
4.2608000000 1.0907000000 0.2061000000
4.2602000000 2.3323000000 0.7782000000
4.2598000000 5.3817000000 0.3725000000
4.2592000000 5.7340000000 0.2089000000
4.2590000000 6.2631000000 0.0525000000
4.2585000000 3.4180000000 1.2567000000
4.2581000000 6.4156000000 0.0521000000
4.2573000000 0.7924000000 0.0750000000
4.2570000000 4.0934000000 0.9627000000
4.2569000000 1.5938000000 0.4431000000
4.2566000000 4.0571000000 0.9793000000
4.2565000000 0.5190000000 0.0230000000
4.2563000000 1.8960000000 0.5727000000
4.2560000000 3.3778000000 1.3118000000
4.2559000000 2.6553000000 0.9349000000
4.2557000000 0.7937000000 0.0759000000
4.2555000000 5.9496000000 0.1213000000
4.2551000000 5.0366000000 0.5314000000
4.2549000000 3.5579000000 1.2101000000
4.2544000000 6.0058000000 0.0911000000
4.2543000000 2.4549000000 0.8346000000
4.2541000000 1.8871000000 0.5732000000
4.2540000000 1.7846000000 0.5328000000
4.2537000000 5.1907000000 0.4647000000
4.2533000000 3.4644000000 1.2412000000
4.2531000000 0.6496000000 0.0824000000
4.2528000000 2.4515000000 0.8347000000
4.2525000000 0.7568000000 0.1364000000
4.2524000000 5.1729000000 0.4730000000
4.2520000000 0.3216000000 0.0107000000
4.2518000000 1.8989000000 0.5841000000
4.2515000000 6.0173000000 0.0867000000
4.2515000000 2.2937000000 0.7666000000
4.2513000000 2.3139000000 0.7714000000
4.2510000000 3.2841000000 1.2104000000
4.2504000000 4.2583000000 0.8938000000
4.2497000000 2.4158000000 0.8232000000
4.2493000000 4.4090000000 0.8283000000
4.2492000000 1.0899000000 0.2137000000
4.2488000000 5.6345000000 0.2628000000
4.2480000000 1.3723000000 0.3455000000
4.2467000000 1.0220000000 0.1857000000
4.0131000000 6.3752000000 0.1173000000
4.0126000000 6.4510000000 0.0751000000
4.0104000000 4.7711000000 0.8517000000
4.0100000000 5.2974000000 0.6093000000
4.0098000000 4.5121000000 0.9662000000
4.0089000000 5.3282000000 0.5958000000
4.0087000000 1.3108000000 0.5023000000
4.0084000000 0.7007000000 0.2339000000
4.0079000000 0.3156000000 0.1315000000
4.0080000000 5.5628000000 0.4860000000
4.0077000000 4.7361000000 0.8644000000
4.0076000000 2.6882000000 1.1388000000
4.0073000000 1.4788000000 0.5834000000
4.0068000000 5.1854000000 0.6641000000
4.0067000000 2.6320000000 1.1147000000
4.0066000000 1.7484000000 0.7122000000
4.0064000000 3.6968000000 1.3488000000
4.0062000000 5.3253000000 0.5990000000
4.0060000000 3.1228000000 1.3412000000
4.0058000000 3.3185000000 1.4230000000
4.0056000000 5.9724000000 0.3099000000
4.0054000000 5.4306000000 0.5482000000
4.0051000000 6.0483000000 0.2731000000
4.0050000000 2.1940000000 0.9159000000
4.0048000000 6.2304000000 0.1879000000
4.0047000000 5.2532000000 0.6317000000
4.0045000000 4.2772000000 1.0805000000
4.0043000000 6.3830000000 0.1187000000
4.0040000000 4.7272000000 0.8772000000
4.0039000000 5.8220000000 0.3715000000
4.0037000000 3.4759000000 1.4464000000
4.0035000000 0.7404000000 0.2488000000
4.0033000000 4.6831000000 0.8960000000
4.0032000000 3.9653000000 1.2218000000
4.0030000000 0.8426000000 0.2972000000
4.0029000000 0.9288000000 0.3368000000
4.0029000000 4.9241000000 0.7846000000
4.0027000000 1.2956000000 0.5069000000
4.0024000000 4.1672000000 1.1299000000
4.0021000000 3.2754000000 1.4104000000
4.0018000000 0.8612000000 0.3064000000
4.0015000000 4.5528000000 0.9566000000
4.0014000000 4.9140000000 0.7902000000
4.0011000000 0.5699000000 0.1778000000
4.0010000000 2.6817000000 1.1393000000
4.0008000000 4.7765000000 0.8569000000
4.0006000000 1.0832000000 0.4092000000
4.0003000000 0.9259000000 0.3400000000
4.0001000000 1.7239000000 0.7058000000
3.9996000000 5.4617000000 0.5445000000
3.9992000000 0.3416000000 0.0743000000
3.9987000000 2.6782000000 1.1384000000
3.9983000000 0.9418000000 0.3423000000
3.9982000000 5.5593000000 0.4928000000
3.9981000000 2.0439000000 0.8427000000
3.9979000000 0.1517000000 0.0680000000
3.9951000000 1.4250000000 0.5686000000
3.7608000000 2.3444000000 1.1797000000
3.7595000000 2.5031000000 1.2496000000
3.7590000000 0.2813000000 0.2034000000
3.7588000000 5.8079000000 0.5741000000
3.7585000000 5.7712000000 0.5884000000
3.7580000000 5.2208000000 0.8437000000
3.7578000000 2.4810000000 1.2371000000
3.7573000000 2.7724000000 1.3680000000
3.7570000000 3.1343000000 1.5330000000
3.7568000000 5.4734000000 0.7284000000
3.7565000000 6.5898000000 0.1707000000
3.7564000000 6.3479000000 0.3286000000
3.7562000000 3.5445000000 1.6102000000
3.7562000000 5.8779000000 0.5459000000
3.7560000000 3.2768000000 1.6024000000
3.7556000000 5.3766000000 0.7767000000
3.7550000000 4.2640000000 1.2816000000
3.7550000000 2.3035000000 1.1599000000
3.7548000000 6.0974000000 0.4455000000
3.7546000000 0.8298000000 0.4935000000
3.7542000000 2.2792000000 1.1508000000
3.7541000000 2.5968000000 1.2953000000
3.7538000000 3.2687000000 1.6014000000
3.7536000000 0.8802000000 0.5097000000
3.7534000000 2.9006000000 1.4333000000
3.7533000000 6.0051000000 0.4908000000
3.7529000000 1.5833000000 0.8298000000
3.7527000000 1.2820000000 0.6965000000
3.7525000000 1.7029000000 0.8896000000
3.7524000000 4.5913000000 1.1373000000
3.7516000000 3.5120000000 1.6282000000
3.7515000000 6.3327000000 0.3388000000
3.7514000000 5.0922000000 0.9089000000
3.7511000000 4.5020000000 1.1807000000
3.7510000000 4.2878000000 1.2726000000
3.7506000000 2.9733000000 1.4701000000
3.7504000000 1.9781000000 1.0185000000
3.7502000000 0.2781000000 0.2035000000
3.7497000000 3.7332000000 1.5295000000
3.7495000000 4.0725000000 1.3708000000
3.7491000000 3.6799000000 1.5537000000
3.7488000000 1.1570000000 0.6455000000
3.7484000000 6.7920000000 0.0718000000
3.7477000000 1.0957000000 0.6121000000
3.7456000000 1.7325000000 0.9096000000
3.5134000000 6.4919000000 0.2770000000
3.5126000000 6.7256000000 0.1312000000
3.5114000000 5.8453000000 0.7507000000
3.5110000000 4.6754000000 1.2810000000
3.5107000000 3.9785000000 1.5999000000
3.5100000000 4.6448000000 1.3006000000
3.5094000000 0.5861000000 0.4947000000
3.5093000000 2.2109000000 1.3096000000
3.5087000000 1.1969000000 0.8490000000
3.5079000000 6.3954000000 0.3604000000
3.5077000000 5.2491000000 1.0325000000
3.5075000000 3.6814000000 1.7466000000
3.5071000000 1.5775000000 1.0220000000
3.5070000000 3.8228000000 1.6829000000
3.5065000000 1.1606000000 0.8364000000
3.5063000000 4.8018000000 1.2322000000
3.5062000000 4.0988000000 1.5550000000
3.5060000000 4.7917000000 1.2342000000
3.5058000000 1.7096000000 1.0903000000
3.5056000000 5.2005000000 1.0540000000
3.5055000000 0.9336000000 0.7318000000
3.5053000000 0.7511000000 0.7031000000
3.5050000000 0.7768000000 0.7193000000
3.5048000000 3.1982000000 1.7637000000
3.5047000000 6.1808000000 0.5525000000
3.5044000000 3.9318000000 1.6346000000
3.5040000000 4.9404000000 1.1710000000
3.5039000000 3.5546000000 1.7992000000
3.5037000000 6.3693000000 0.3804000000
3.5036000000 5.3818000000 0.9722000000
3.5033000000 4.2324000000 1.4939000000
3.5030000000 2.5114000000 1.4580000000
3.5029000000 4.4899000000 1.3759000000
3.5025000000 5.7799000000 0.7919000000
3.5021000000 5.6942000000 0.8330000000
3.5020000000 3.9782000000 1.6141000000
3.5018000000 1.5192000000 1.0070000000
3.5011000000 3.3526000000 1.8390000000
3.5008000000 5.8763000000 0.7535000000
3.5007000000 3.3717000000 1.9078000000
3.5004000000 0.9059000000 0.7232000000
3.5002000000 0.9498000000 0.7433000000
3.4995000000 3.7396000000 1.7223000000
3.4993000000 3.4431000000 1.9184000000
3.4983000000 0.0585000000 0.0882000000
3.4979000000 4.3410000000 1.4464000000
3.4944000000 2.4056000000 1.4138000000
3.2628000000 4.3125000000 1.6447000000
3.2611000000 1.9899000000 1.4088000000
3.2604000000 2.4529000000 1.6139000000
3.2598000000 4.3627000000 1.6309000000
3.2595000000 2.4419000000 1.6203000000
3.2592000000 2.6564000000 1.7154000000
3.2589000000 6.5874000000 0.1860000000
3.2588000000 6.3284000000 0.4246000000
3.2585000000 0.3857000000 0.3114000000
3.2583000000 0.8406000000 0.7303000000
3.2572000000 6.7316000000 0.1296000000
3.2571000000 0.5253000000 0.4429000000
3.2570000000 6.4532000000 0.3057000000
3.2568000000 6.2763000000 0.4725000000
3.2565000000 5.2391000000 1.2277000000
3.2563000000 0.3069000000 0.2382000000
3.2559000000 5.6001000000 1.0530000000
3.2556000000 6.3031000000 0.4463000000
3.2553000000 3.6147000000 1.9769000000
3.2552000000 6.3758000000 0.3793000000
3.2550000000 6.0590000000 0.6652000000
3.2545000000 1.3377000000 1.1127000000
3.2543000000 5.1280000000 1.2825000000
3.2542000000 5.1905000000 1.2537000000
3.2540000000 3.9728000000 1.8134000000
3.2539000000 1.4018000000 1.1419000000
3.2536000000 3.7378000000 1.9200000000
3.2533000000 1.7294000000 1.2911000000
3.2532000000 0.3537000000 0.2814000000
3.2531000000 1.7100000000 1.2858000000
3.2529000000 0.1971000000 0.1416000000
3.2528000000 5.0151000000 1.3355000000
3.2525000000 4.8764000000 1.3986000000
3.2523000000 1.3750000000 1.1383000000
3.2520000000 0.5365000000 0.4542000000
3.2519000000 0.9216000000 0.8027000000
3.2518000000 0.4496000000 0.3682000000
3.2516000000 0.3560000000 0.2854000000
3.2512000000 4.0531000000 1.7772000000
3.2509000000 0.2841000000 0.2122000000
3.2503000000 3.0813000000 1.9135000000
3.2500000000 0.4525000000 0.3720000000
3.2498000000 1.5740000000 1.2303000000
3.2480000000 4.2421000000 1.6960000000
3.2474000000 2.0774000000 1.4585000000
3.2427000000 1.7980000000 1.3384000000
3.0135000000 5.0104000000 1.5348000000
3.0120000000 5.1351000000 1.4587000000
3.0108000000 4.8680000000 1.5976000000
3.0102000000 4.7445000000 1.6539000000
3.0094000000 0.2577000000 0.1988000000
3.0093000000 5.8439000000 0.8636000000
3.0090000000 0.5606000000 0.4684000000
3.0086000000 5.0029000000 1.5317000000
3.0085000000 2.1340000000 1.6747000000
3.0078000000 3.5687000000 2.1904000000
3.0076000000 2.3478000000 1.7694000000
3.0071000000 5.6581000000 1.0390000000
3.0070000000 2.8706000000 2.0101000000
3.0068000000 5.7876000000 0.9120000000
3.0063000000 2.8488000000 2.0016000000
3.0061000000 2.2963000000 1.7499000000
3.0060000000 1.9504000000 1.5923000000
3.0059000000 5.5486000000 1.1345000000
3.0058000000 5.5911000000 1.0967000000
3.0055000000 5.5869000000 1.0978000000
3.0053000000 0.6782000000 0.5791000000
3.0052000000 1.8978000000 1.5670000000
3.0051000000 5.8547000000 0.8500000000
3.0048000000 4.6342000000 1.7088000000
3.0045000000 5.2840000000 1.3581000000
3.0044000000 0.2095000000 0.1499000000
3.0042000000 2.7599000000 1.9644000000
3.0041000000 2.1283000000 1.6724000000
3.0040000000 5.6688000000 1.0245000000
3.0036000000 4.8424000000 1.6135000000
3.0033000000 4.0727000000 1.9647000000
3.0032000000 4.9121000000 1.5857000000
3.0029000000 2.7961000000 1.9798000000
3.0028000000 4.9263000000 1.5767000000
3.0025000000 6.0433000000 0.6811000000
3.0023000000 5.6406000000 1.0560000000
3.0021000000 4.5760000000 1.7322000000
3.0019000000 1.6790000000 1.5331000000
3.0015000000 2.8317000000 1.9981000000
3.0013000000 0.0224000000 0.0514000000
3.0010000000 0.3409000000 0.2662000000
3.0007000000 1.5392000000 1.3587000000
3.0005000000 0.1987000000 0.1392000000
3.0003000000 1.4380000000 1.2724000000
2.9998000000 6.1049000000 0.6264000000
2.9996000000 1.5142000000 1.3476000000
2.9986000000 5.9663000000 0.7514000000
2.9982000000 4.8385000000 1.6203000000
2.9979000000 0.8261000000 0.7142000000
2.9978000000 4.5671000000 1.7397000000
2.9970000000 5.1794000000 1.4532000000
2.9966000000 3.7665000000 2.1131000000
2.9961000000 2.1666000000 1.7022000000
2.9942000000 5.8089000000 0.8945000000
2.7628000000 6.5842000000 0.1949000000
2.7602000000 4.1819000000 2.1025000000
2.7597000000 6.8021000000 0.0618000000
2.7593000000 5.1700000000 1.4757000000
2.7590000000 5.5153000000 1.1603000000
2.7583000000 5.3526000000 1.3123000000
2.7581000000 5.1513000000 1.4975000000
2.7580000000 1.3007000000 1.1497000000
2.7579000000 4.3770000000 2.0191000000
2.7576000000 5.1520000000 1.4937000000
2.7573000000 6.4185000000 0.3419000000
2.7570000000 3.8155000000 2.2786000000
2.7565000000 5.2049000000 1.4474000000
2.7563000000 0.2017000000 0.1440000000
2.7558000000 3.3059000000 2.4028000000
2.7556000000 2.7488000000 2.1528000000
2.7553000000 4.8226000000 1.7814000000
2.7553000000 1.8096000000 1.6143000000
2.7551000000 3.6107000000 2.3716000000
2.7549000000 4.5976000000 1.9202000000
2.7548000000 5.0206000000 1.6114000000
2.7547000000 0.3861000000 0.3148000000
2.7544000000 4.6412000000 1.8994000000
2.7539000000 3.8198000000 2.2764000000
2.7535000000 6.8654000000 0.0812000000
2.7533000000 2.6783000000 2.1231000000
2.7532000000 4.5594000000 1.9416000000
2.7530000000 1.3097000000 1.1486000000
2.7526000000 3.3809000000 2.5089000000
2.7524000000 1.2590000000 1.1089000000
2.7518000000 6.6860000000 0.0940000000
2.7516000000 2.9155000000 2.2327000000
2.7514000000 5.8786000000 0.8370000000
2.7511000000 1.3205000000 1.1683000000
2.7509000000 0.4131000000 0.3334000000
2.7507000000 0.0529000000 0.0799000000
2.7505000000 2.8303000000 2.1892000000
2.7503000000 5.4192000000 1.2513000000
2.7498000000 4.4222000000 1.9978000000
2.7494000000 3.0022000000 2.2778000000
2.7490000000 4.9197000000 1.7070000000
2.7487000000 2.5599000000 2.0753000000
2.7481000000 2.5120000000 2.0521000000
2.7464000000 5.0367000000 1.6017000000
2.7447000000 2.8139000000 2.1954000000
2.7429000000 5.3735000000 1.2939000000
2.5111000000 6.4136000000 0.3462000000
2.5099000000 0.5328000000 0.4494000000
2.5095000000 3.6854000000 2.5247000000
2.5089000000 3.9233000000 2.4225000000
2.5088000000 3.3015000000 2.6025000000
2.5079000000 4.6950000000 1.9098000000
2.5077000000 5.4324000000 1.2391000000
2.5074000000 4.0279000000 2.3749000000
2.5073000000 5.6415000000 1.0486000000
2.5071000000 6.3562000000 0.3970000000
2.5068000000 4.9016000000 1.7248000000
2.5066000000 4.2541000000 2.2606000000
2.5062000000 4.0296000000 2.3787000000
2.5058000000 6.6950000000 0.0839000000
2.5056000000 5.9459000000 0.7682000000
2.5054000000 2.5033000000 2.3044000000
2.5053000000 6.3717000000 0.3823000000
2.5052000000 5.0208000000 1.6144000000
2.5049000000 4.4162000000 2.1567000000
2.5046000000 1.4723000000 1.3019000000
2.5045000000 4.1257000000 2.3269000000
2.5042000000 6.0902000000 0.6377000000
2.5039000000 6.7755000000 0.0833000000
2.5038000000 4.5583000000 2.0341000000
2.5037000000 4.5249000000 2.0692000000
2.5035000000 0.2342000000 0.1809000000
2.5033000000 3.9320000000 2.4254000000
2.5029000000 3.1665000000 2.5390000000
2.5028000000 6.0099000000 0.7088000000
2.5026000000 6.8093000000 0.0551000000
2.5024000000 1.2505000000 1.1007000000
2.5023000000 0.5870000000 0.4972000000
2.5020000000 0.2551000000 0.1928000000
2.5019000000 6.7252000000 0.1342000000
2.5017000000 3.4783000000 2.6336000000
2.5015000000 6.8394000000 0.0312000000
2.5014000000 6.7497000000 0.1131000000
2.5008000000 0.1595000000 0.1092000000
2.5005000000 5.7934000000 0.9118000000
2.5005000000 1.5907000000 1.4092000000
2.5001000000 1.6125000000 1.4301000000
2.4998000000 1.1176000000 0.9809000000
2.4996000000 4.3719000000 2.1924000000
2.4994000000 0.9261000000 0.8030000000
2.4988000000 2.6654000000 2.3191000000
2.4986000000 1.8047000000 1.6029000000
2.4978000000 1.2361000000 1.0835000000
2.4956000000 2.6689000000 2.3237000000
2.2620000000 5.8811000000 0.8277000000
2.2602000000 6.5129000000 0.2516000000
2.2581000000 4.8254000000 1.7971000000
2.2577000000 6.4784000000 0.2818000000
2.2575000000 5.3730000000 1.2943000000
2.2573000000 3.3972000000 2.9064000000
2.2571000000 3.5281000000 2.8075000000
2.2570000000 3.6572000000 2.7387000000
2.2567000000 2.5421000000 2.2865000000
2.2565000000 6.8284000000 0.0328000000
2.2564000000 4.6164000000 1.9819000000
2.2563000000 5.7735000000 0.9336000000
2.2561000000 3.3728000000 2.8942000000
2.2559000000 4.3236000000 2.2503000000
2.2558000000 3.3880000000 2.9032000000
2.2556000000 5.7935000000 0.9119000000
2.2555000000 0.0923000000 0.1214000000
2.2553000000 5.2894000000 1.3726000000
2.2551000000 4.9018000000 1.7237000000
2.2549000000 1.0096000000 0.8760000000
2.2547000000 5.9122000000 0.8018000000
2.2546000000 0.3362000000 0.2654000000
2.2545000000 0.9666000000 0.8463000000
2.2544000000 2.7409000000 2.4562000000
2.2542000000 1.0387000000 0.9046000000
2.2540000000 6.3121000000 0.4388000000
2.2538000000 4.2469000000 2.3213000000
2.2537000000 1.2194000000 1.0781000000
2.2537000000 5.1764000000 1.4776000000
2.2532000000 0.2725000000 0.2090000000
2.2530000000 2.7562000000 2.4742000000
2.2529000000 4.7129000000 1.9036000000
2.2527000000 3.3047000000 2.8035000000
2.2525000000 1.5763000000 1.3954000000
2.2523000000 5.1623000000 1.4877000000
2.2522000000 3.6217000000 2.7643000000
2.2518000000 0.3866000000 0.3111000000
2.2517000000 2.9535000000 2.7110000000
2.2515000000 0.2643000000 0.2017000000
2.2514000000 3.3723000000 2.8919000000
2.2512000000 3.0875000000 2.7089000000
2.2510000000 3.3408000000 2.8221000000
2.2508000000 6.8337000000 0.0398000000
2.2506000000 5.5020000000 1.1714000000
2.2500000000 0.1580000000 0.1031000000
2.2498000000 2.2011000000 1.9713000000
2.2496000000 2.4681000000 2.2089000000
2.2493000000 0.3579000000 0.2852000000
2.2488000000 3.7167000000 2.7193000000
2.2485000000 0.2902000000 0.2244000000
2.2482000000 1.5078000000 1.3355000000
2.2476000000 6.6874000000 0.0970000000
2.2473000000 1.7750000000 1.5829000000
2.2469000000 0.1069000000 0.1295000000
2.0129000000 3.4208000000 3.0201000000
2.0118000000 2.8556000000 2.5632000000
2.0108000000 6.0656000000 0.6646000000
2.0093000000 5.6627000000 1.0268000000
2.0089000000 4.9716000000 1.6607000000
2.0088000000 1.9107000000 1.7071000000
2.0082000000 5.5797000000 1.1070000000
2.0078000000 1.3484000000 1.1907000000
2.0072000000 3.6579000000 2.8562000000
2.0069000000 6.6129000000 0.1618000000
2.0068000000 6.7762000000 0.0909000000
2.0064000000 3.0713000000 2.7623000000
2.0060000000 1.0334000000 0.9011000000
2.0058000000 3.7993000000 2.7287000000
2.0057000000 3.2055000000 2.8920000000
2.0056000000 6.0941000000 0.6352000000
2.0052000000 1.4659000000 1.2998000000
2.0048000000 6.2655000000 0.4788000000
2.0046000000 5.3141000000 1.3447000000
2.0045000000 2.8497000000 2.5605000000
2.0044000000 3.0328000000 2.7293000000
2.0040000000 4.0490000000 2.5051000000
2.0036000000 3.1570000000 2.8398000000
2.0035000000 4.4491000000 2.1389000000
2.0034000000 5.8531000000 0.8555000000
2.0033000000 4.0842000000 2.4729000000
2.0032000000 6.5325000000 0.2367000000
2.0031000000 0.8695000000 0.7545000000
2.0030000000 2.3819000000 2.1304000000
2.0028000000 3.0577000000 2.7513000000
2.0024000000 3.2496000000 2.9241000000
2.0023000000 1.9473000000 1.7410000000
2.0023000000 3.0384000000 2.7366000000
2.0022000000 2.6371000000 2.3699000000
2.0020000000 1.0045000000 0.8805000000
2.0018000000 2.1358000000 1.9040000000
2.0016000000 0.2419000000 0.1773000000
2.0015000000 5.9270000000 0.7903000000
2.0013000000 3.5042000000 3.0126000000
2.0012000000 4.0325000000 2.5188000000
2.0010000000 1.3675000000 1.2077000000
2.0007000000 1.0969000000 0.9629000000
2.0004000000 0.2815000000 0.2167000000
1.9998000000 0.9013000000 0.7770000000
1.9995000000 0.6333000000 0.5349000000
1.9987000000 1.7592000000 1.5676000000
1.9978000000 2.9802000000 2.6858000000
1.9974000000 1.2041000000 1.0549000000
1.9970000000 1.1948000000 1.0534000000
1.9969000000 0.1651000000 0.1074000000
1.9941000000 3.7554000000 2.7686000000
1.7602000000 6.5167000000 0.2500000000
1.7598000000 6.8210000000 0.0444000000
1.7593000000 4.5648000000 2.0246000000
1.7590000000 6.4482000000 0.3132000000
1.7584000000 4.7056000000 1.9064000000
1.7583000000 6.5936000000 0.1811000000
1.7572000000 0.5985000000 0.5067000000
1.7569000000 4.3028000000 2.2731000000
1.7565000000 3.3246000000 2.8665000000
1.7564000000 0.3327000000 0.2633000000
1.7562000000 6.8245000000 0.0435000000
1.7560000000 2.5615000000 2.3034000000
1.7558000000 0.9179000000 0.7913000000
1.7557000000 4.5951000000 2.0077000000
1.7556000000 6.4173000000 0.3421000000
1.7554000000 4.7157000000 1.8940000000
1.7550000000 0.6634000000 0.5662000000
1.7547000000 2.1395000000 1.9153000000
1.7542000000 4.2996000000 2.2794000000
1.7540000000 3.8309000000 2.6919000000
1.7538000000 4.9984000000 1.6317000000
1.7536000000 5.9738000000 0.7463000000
1.7535000000 4.4454000000 2.1376000000
1.7534000000 0.3322000000 0.2618000000
1.7533000000 0.9308000000 0.8119000000
1.7532000000 1.3298000000 1.1740000000
1.7530000000 2.6173000000 2.3461000000
1.7529000000 2.6396000000 2.3707000000
1.7527000000 6.2181000000 0.5218000000
1.7523000000 4.5215000000 2.0710000000
1.7517000000 0.1011000000 0.1237000000
1.7512000000 5.0375000000 1.5939000000
1.7504000000 1.7305000000 1.5356000000
1.7499000000 2.0752000000 1.8571000000
1.7495000000 4.5814000000 2.0181000000
1.7492000000 0.7865000000 0.6742000000
1.7486000000 1.5141000000 1.3442000000
1.7479000000 4.4014000000 2.1795000000
1.7474000000 1.2240000000 1.0750000000
1.7471000000 1.9910000000 1.7734000000
1.5113000000 5.3858000000 1.2768000000
1.5098000000 5.5639000000 1.1179000000
1.5093000000 2.4300000000 2.1791000000
1.5088000000 3.2015000000 2.6081000000
1.5082000000 4.5239000000 2.0676000000
1.5077000000 5.4293000000 1.2427000000
1.5074000000 3.6301000000 2.6153000000
1.5073000000 5.2113000000 1.4421000000
1.5071000000 4.3369000000 2.2357000000
1.5069000000 5.3202000000 1.3424000000
1.5067000000 2.9402000000 2.4913000000
1.5065000000 5.3669000000 1.3023000000
1.5064000000 5.6276000000 1.0575000000
1.5061000000 2.5801000000 2.3721000000
1.5060000000 3.6549000000 2.5986000000
1.5058000000 4.4374000000 2.1498000000
1.5055000000 4.3144000000 2.2445000000
1.5054000000 4.4134000000 2.1698000000
1.5053000000 2.1934000000 1.9602000000
1.5051000000 4.7233000000 1.8823000000
1.5048000000 0.8350000000 0.7195000000
1.5046000000 3.2364000000 2.6269000000
1.5045000000 5.9845000000 0.7368000000
1.5045000000 5.7422000000 0.9527000000
1.5040000000 3.1471000000 2.5789000000
1.5038000000 3.9345000000 2.4779000000
1.5035000000 5.3126000000 1.3502000000
1.5034000000 4.7901000000 1.8256000000
1.5031000000 2.3039000000 2.0632000000
1.5030000000 1.8151000000 1.6195000000
1.5027000000 3.8213000000 2.5211000000
1.5026000000 2.7902000000 2.4176000000
1.5020000000 1.1089000000 0.9726000000
1.5019000000 3.4740000000 2.6788000000
1.5018000000 4.0580000000 2.4208000000
1.5015000000 1.5841000000 1.4075000000
1.5013000000 1.9752000000 1.7576000000
1.5012000000 6.2613000000 0.4825000000
1.5007000000 0.0794000000 0.1069000000
1.5003000000 0.4390000000 0.3601000000
1.5001000000 4.1632000000 2.4240000000
1.4999000000 2.6790000000 2.4323000000
1.4991000000 3.8284000000 2.5192000000
1.4989000000 3.9906000000 2.4466000000
1.4985000000 3.5715000000 2.6340000000
1.4976000000 0.8691000000 0.7522000000
1.4973000000 2.6299000000 2.4033000000
1.4971000000 4.7283000000 1.8866000000
1.4938000000 4.4802000000 2.1124000000
1.2640000000 5.1279000000 1.5180000000
1.2601000000 2.1888000000 2.0147000000
1.2591000000 3.5465000000 2.4554000000
1.2589000000 6.3641000000 0.3871000000
1.2588000000 2.2022000000 2.0193000000
1.2586000000 5.7102000000 0.9890000000
1.2584000000 5.0603000000 1.5799000000
1.2579000000 5.4268000000 1.2473000000
1.2578000000 5.4043000000 1.2663000000
1.2576000000 5.2860000000 1.3783000000
1.2575000000 4.5430000000 1.9975000000
1.2573000000 2.1256000000 1.9582000000
1.2569000000 0.1408000000 0.0901000000
1.2568000000 0.2770000000 0.2142000000
1.2567000000 3.0772000000 2.3567000000
1.2565000000 4.9901000000 1.6446000000
1.2561000000 2.3562000000 2.0326000000
1.2560000000 0.9031000000 0.7823000000
1.2557000000 1.7337000000 1.5423000000
1.2555000000 0.8981000000 0.7814000000
1.2553000000 3.4185000000 2.5698000000
1.2552000000 5.5829000000 1.1002000000
1.2549000000 5.6688000000 1.0246000000
1.2548000000 5.4616000000 1.2154000000
1.2546000000 0.1742000000 0.1147000000
1.2545000000 5.7564000000 0.9404000000
1.2544000000 6.8262000000 0.0444000000
1.2543000000 0.6663000000 0.5650000000
1.2543000000 4.7678000000 1.8444000000
1.2540000000 6.7484000000 0.1136000000
1.2538000000 5.4637000000 1.2120000000
1.2536000000 6.2051000000 0.5333000000
1.2534000000 1.7772000000 1.5827000000
1.2533000000 2.4935000000 2.0961000000
1.2531000000 0.4013000000 0.3295000000
1.2530000000 2.6423000000 2.1540000000
1.2528000000 0.1886000000 0.1298000000
1.2526000000 1.5075000000 1.3327000000
1.2525000000 1.1012000000 0.9627000000
1.2524000000 4.6839000000 1.9107000000
1.2522000000 2.3850000000 2.0389000000
1.2520000000 0.4905000000 0.4090000000
1.2517000000 0.2165000000 0.1550000000
1.2515000000 1.7607000000 1.5708000000
1.2512000000 2.2118000000 2.0193000000
1.2509000000 2.6977000000 2.1792000000
1.2502000000 1.2467000000 1.0938000000
1.2491000000 4.9816000000 1.6567000000
1.2489000000 4.9406000000 1.6894000000
1.2484000000 2.2619000000 1.9779000000
1.2476000000 4.9848000000 1.6471000000
1.2470000000 3.5170000000 2.4601000000
1.2435000000 1.8847000000 1.6756000000
1.0109000000 6.4518000000 0.3138000000
1.0096000000 4.0866000000 2.0141000000
1.0095000000 4.7590000000 1.7015000000
1.0089000000 6.8215000000 0.0435000000
1.0087000000 4.9473000000 1.6191000000
1.0085000000 4.0472000000 2.0314000000
1.0079000000 6.1936000000 0.5492000000
1.0071000000 3.4117000000 2.3685000000
1.0070000000 5.4360000000 1.2393000000
1.0068000000 2.6153000000 1.9413000000
1.0064000000 3.2386000000 2.2332000000
1.0061000000 4.2998000000 1.9147000000
1.0060000000 0.6901000000 0.5898000000
1.0059000000 0.9668000000 0.8427000000
1.0057000000 4.2906000000 1.9205000000
1.0055000000 1.8261000000 1.6469000000
1.0053000000 5.1003000000 1.5248000000
1.0052000000 0.3983000000 0.3218000000
1.0050000000 0.7286000000 0.6278000000
1.0048000000 4.6775000000 1.7360000000
1.0046000000 2.0817000000 1.7051000000
1.0045000000 4.9609000000 1.6075000000
1.0043000000 1.7209000000 1.5912000000
1.0042000000 0.7010000000 0.5976000000
1.0039000000 6.0073000000 0.7122000000
1.0035000000 1.6671000000 1.5377000000
1.0034000000 2.9879000000 2.1140000000
1.0033000000 0.9262000000 0.8046000000
1.0030000000 1.4906000000 1.3238000000
1.0031000000 6.2773000000 0.4692000000
1.0028000000 2.7079000000 1.9873000000
1.0026000000 4.3468000000 1.8927000000
1.0025000000 4.9751000000 1.6000000000
1.0024000000 0.9349000000 0.8137000000
1.0020000000 3.9422000000 2.0702000000
1.0018000000 4.2411000000 1.9373000000
1.0016000000 0.2871000000 0.2250000000
1.0013000000 1.5611000000 1.3898000000
1.0010000000 4.9194000000 1.6231000000
1.0008000000 3.0962000000 2.1629000000
1.0007000000 2.0572000000 1.6861000000
1.0005000000 0.8329000000 0.7180000000
1.0000000000 5.0045000000 1.5774000000
0.9998000000 5.4111000000 1.2646000000
0.9997000000 3.5575000000 2.2484000000
0.9995000000 5.7709000000 0.9284000000
0.9991000000 1.1348000000 0.9942000000
0.9981000000 2.1081000000 1.7112000000
0.9973000000 0.0862000000 0.1109000000
0.9969000000 4.9225000000 1.6173000000
0.9960000000 1.1740000000 1.0322000000
0.7623000000 6.6273000000 0.1514000000
0.7618000000 4.6162000000 1.5768000000
0.7609000000 5.6326000000 1.0581000000
0.7608000000 2.6610000000 1.7705000000
0.7592000000 1.6763000000 1.3213000000
0.7586000000 4.2985000000 1.7147000000
0.7582000000 5.4071000000 1.2136000000
0.7579000000 5.6893000000 1.0057000000
0.7573000000 6.0440000000 0.6824000000
0.7570000000 4.5502000000 1.5977000000
0.7566000000 4.7632000000 1.5041000000
0.7563000000 2.1822000000 1.5512000000
0.7561000000 2.4933000000 1.6961000000
0.7555000000 3.4280000000 2.0955000000
0.7553000000 0.1516000000 0.0931000000
0.7551000000 5.6098000000 1.0588000000
0.7550000000 2.3867000000 1.6448000000
0.7546000000 4.1993000000 1.7626000000
0.7545000000 4.6638000000 1.5486000000
0.7543000000 3.2342000000 2.0298000000
0.7542000000 1.7120000000 1.3387000000
0.7541000000 1.4473000000 1.2153000000
0.7539000000 2.7155000000 1.7973000000
0.7538000000 1.8286000000 1.3883000000
0.7537000000 3.2587000000 2.0425000000
0.7534000000 6.7845000000 0.0791000000
0.7530000000 2.3700000000 1.6374000000
0.7528000000 3.1432000000 1.9870000000
0.7528000000 3.3052000000 2.0617000000
0.7526000000 3.0483000000 1.9451000000
0.7524000000 1.7359000000 1.3422000000
0.7523000000 1.6671000000 1.3184000000
0.7523000000 4.2413000000 1.7354000000
0.7521000000 2.3606000000 1.6347000000
0.7519000000 1.6342000000 1.2951000000
0.7519000000 3.6458000000 2.0144000000
0.7518000000 5.1992000000 1.3038000000
0.7517000000 4.6586000000 1.5430000000
0.7515000000 0.2023000000 0.1459000000
0.7513000000 3.9228000000 1.8846000000
0.7512000000 0.6221000000 0.5239000000
0.7507000000 4.6054000000 1.5706000000
0.7506000000 3.4686000000 2.0777000000
0.7504000000 5.7535000000 0.9482000000
0.7503000000 0.9941000000 0.8672000000
0.7498000000 3.1594000000 1.9920000000
0.7494000000 5.4226000000 1.1918000000
0.7489000000 3.7194000000 1.9740000000
0.7488000000 6.2069000000 0.5294000000
0.7480000000 2.5689000000 1.7218000000
0.7449000000 0.7992000000 0.6862000000
0.5128000000 5.5329000000 0.9617000000
0.5115000000 6.8125000000 0.0543000000
0.5110000000 2.4142000000 1.4668000000
0.5103000000 3.7338000000 1.7803000000
0.5091000000 4.2619000000 1.5338000000
0.5088000000 4.6626000000 1.3528000000
0.5083000000 6.8115000000 0.0561000000
0.5075000000 4.1941000000 1.5660000000
0.5074000000 5.6357000000 0.9078000000
0.5073000000 2.6066000000 1.5536000000
0.5068000000 1.8649000000 1.2162000000
0.5066000000 4.2887000000 1.5171000000
0.5064000000 2.4476000000 1.4758000000
0.5062000000 0.1028000000 0.1355000000
0.5061000000 1.0720000000 0.8431000000
0.5055000000 3.1519000000 1.7972000000
0.5054000000 6.6224000000 0.1535000000
0.5051000000 5.0107000000 1.1940000000
0.5049000000 4.5862000000 1.3878000000
0.5048000000 4.3532000000 1.4952000000
0.5046000000 5.3540000000 1.0271000000
0.5045000000 1.1813000000 0.8939000000
0.5043000000 1.5002000000 1.0425000000
0.5041000000 3.9263000000 1.6829000000
0.5039000000 4.2502000000 1.5342000000
0.5038000000 5.7493000000 0.8557000000
0.5037000000 3.7423000000 1.7685000000
0.5034000000 0.7126000000 0.6090000000
0.5033000000 4.9356000000 1.2256000000
0.5031000000 6.3028000000 0.4516000000
0.5027000000 0.2226000000 0.1595000000
0.5023000000 6.0146000000 0.6896000000
0.5023000000 5.2942000000 1.0664000000
0.5022000000 3.6939000000 1.7883000000
0.5019000000 0.5274000000 0.4406000000
0.5017000000 6.4063000000 0.3548000000
0.5012000000 0.3995000000 0.3232000000
0.5008000000 2.0455000000 1.2896000000
0.5008000000 5.8229000000 0.8242000000
0.5003000000 2.3151000000 1.4145000000
0.4999000000 6.3494000000 0.3992000000
0.4998000000 3.4994000000 1.8788000000
0.4996000000 6.4140000000 0.3432000000
0.4992000000 3.3288000000 1.8756000000
0.4990000000 3.6603000000 1.8056000000
0.4985000000 5.4048000000 1.0015000000
0.4981000000 4.2653000000 1.5257000000
0.4975000000 1.4177000000 1.0037000000
0.4969000000 0.6133000000 0.5157000000
0.4957000000 4.0104000000 1.6440000000
0.2625000000 6.1582000000 0.4729000000
0.2600000000 3.9824000000 1.4642000000
0.2593000000 6.5992000000 0.1806000000
0.2586000000 6.0798000000 0.5024000000
0.2577000000 5.6326000000 0.7119000000
0.2573000000 6.3624000000 0.3609000000
0.2569000000 4.0316000000 1.4450000000
0.2567000000 3.8992000000 1.5010000000
0.2564000000 0.2158000000 0.1525000000
0.2558000000 5.1768000000 0.9187000000
0.2556000000 1.0399000000 0.6322000000
0.2554000000 5.4214000000 0.8043000000
0.2551000000 4.2064000000 1.3598000000
0.2549000000 4.3731000000 1.2849000000
0.2546000000 6.1513000000 0.4757000000
0.2543000000 3.2162000000 1.6227000000
0.2540000000 2.0348000000 1.0922000000
0.2538000000 2.0911000000 1.1158000000
0.2536000000 1.2869000000 0.7484000000
0.2535000000 4.7005000000 1.1339000000
0.2531000000 4.4928000000 1.2268000000
0.2529000000 0.8741000000 0.5628000000
0.2528000000 4.1017000000 1.4075000000
0.2525000000 0.0066000000 0.0437000000
0.2523000000 5.6437000000 0.6972000000
0.2521000000 5.4811000000 0.7774000000
0.2520000000 3.6829000000 1.5978000000
0.2519000000 2.6962000000 1.3867000000
0.2517000000 1.7590000000 0.9616000000
0.2515000000 0.8869000000 0.5656000000
0.2514000000 0.8773000000 0.5581000000
0.2513000000 3.8043000000 1.5389000000
0.2511000000 6.3055000000 0.3921000000
0.2510000000 4.4484000000 1.2515000000
0.2507000000 3.8301000000 1.5330000000
0.2505000000 1.1933000000 0.6972000000
0.2503000000 1.0155000000 0.6199000000
0.2502000000 0.7895000000 0.5230000000
0.2497000000 3.5555000000 1.6560000000
0.2493000000 0.7569000000 0.4998000000
0.2486000000 0.2358000000 0.1777000000
0.2476000000 4.8548000000 1.0601000000
0.2468000000 1.8028000000 0.9724000000
0.2457000000 1.5332000000 0.8526000000
0.0153000000 6.6764000000 0.1207000000
0.0138000000 2.5223000000 1.1208000000
0.0113000000 6.2982000000 0.2113000000
0.0098000000 5.8230000000 0.4294000000
0.0090000000 1.9603000000 0.8591000000
0.0088000000 4.2959000000 1.1283000000
0.0086000000 3.6860000000 1.4067000000
0.0081000000 0.7544000000 0.3085000000
0.0080000000 5.4088000000 0.6166000000
0.0079000000 1.3525000000 0.5811000000
0.0078000000 4.1771000000 1.1768000000
0.0078000000 5.4668000000 0.5917000000
0.0076000000 2.9614000000 1.3201000000
0.0071000000 4.9422000000 0.8271000000
0.0069000000 3.5720000000 1.4516000000
0.0060000000 3.2894000000 1.4644000000
0.0059000000 3.7620000000 1.3694000000
0.0056000000 6.0552000000 0.3192000000
0.0055000000 5.0358000000 0.7875000000
0.0054000000 0.1791000000 0.1236000000
0.0052000000 5.4346000000 0.6046000000
0.0050000000 1.7313000000 0.7544000000
0.0045000000 4.4723000000 1.0392000000
0.0046000000 1.2497000000 0.5361000000
0.0043000000 4.0248000000 1.2377000000
0.0040000000 3.6447000000 1.4227000000
0.0040000000 6.5061000000 0.1149000000
0.0038000000 3.4212000000 1.5815000000
0.0037000000 5.3255000000 0.6517000000
0.0030000000 0.9960000000 0.4131000000
0.0028000000 1.4318000000 0.6168000000
0.0027000000 2.7916000000 1.2302000000
0.0026000000 4.1537000000 1.1832000000
0.0025000000 0.7515000000 0.3018000000
0.0025000000 5.2180000000 0.7024000000
0.0024000000 0.3754000000 0.1381000000
0.0023000000 0.2925000000 0.0932000000
0.0021000000 1.9056000000 0.8246000000
0.0021000000 2.8130000000 1.2438000000
0.0019000000 4.1575000000 1.1811000000
0.0017000000 1.8992000000 0.8245000000
0.0015000000 0.8951000000 0.3662000000
0.0014000000 0.0899000000 0.0591000000
0.0013000000 1.3259000000 0.5647000000
0.0010000000 2.1665000000 0.9486000000
0.0010000000 0.9411000000 0.3925000000
0.0008000000 0.0187000000 0.0306000000
0.0003000000 4.4573000000 1.0533000000
-0.0002000000 6.4604000000 0.1311000000
-0.0004000000 4.4483000000 1.0464000000
-0.0010000000 2.9243000000 1.2961000000
-0.0017000000 2.1689000000 0.9476000000
-0.0024000000 0.3876000000 0.1372000000
-0.0027000000 1.6387000000 0.7079000000
-0.0033000000 0.3361000000 0.1028000000
-0.0067000000 3.6407000000 1.4093000000
-0.2389000000 5.3090000000 0.4692000000
-0.2392000000 4.5814000000 0.8034000000
-0.2403000000 5.2859000000 0.4797000000
-0.2410000000 5.9196000000 0.1870000000
-0.2413000000 5.0738000000 0.5763000000
-0.2424000000 6.1692000000 0.0699000000
-0.2427000000 6.1220000000 0.0950000000
-0.2433000000 4.5848000000 0.7930000000
-0.2434000000 2.2763000000 0.8088000000
-0.2436000000 1.2371000000 0.3363000000
-0.2437000000 2.0308000000 0.6916000000
-0.2439000000 0.4775000000 0.0622000000
-0.2440000000 2.9005000000 1.0888000000
-0.2444000000 4.8657000000 0.6600000000
-0.2445000000 1.1027000000 0.2742000000
-0.2448000000 5.8880000000 0.2008000000
-0.2449000000 4.4332000000 0.8608000000
-0.2452000000 0.6000000000 0.1164000000
-0.2454000000 3.2280000000 1.2420000000
-0.2456000000 2.7158000000 1.0024000000
-0.2457000000 5.1350000000 0.5406000000
-0.2458000000 2.8158000000 1.0419000000
-0.2461000000 1.8110000000 0.5870000000
-0.2463000000 6.4459000000 0.0177000000
-0.2465000000 2.6542000000 0.9737000000
-0.2466000000 3.4255000000 1.3083000000
-0.2467000000 5.4488000000 0.3970000000
-0.2470000000 2.8407000000 1.0579000000
-0.2472000000 4.0234000000 1.0469000000
-0.2473000000 1.9647000000 0.6608000000
-0.2474000000 1.1908000000 0.3085000000
-0.2477000000 6.0614000000 0.1224000000
-0.2479000000 3.0673000000 1.1609000000
-0.2480000000 2.4039000000 0.8604000000
-0.2481000000 6.3435000000 0.0671000000
-0.2484000000 2.0448000000 0.6966000000
-0.2487000000 6.0603000000 0.1185000000
-0.2488000000 5.5451000000 0.3539000000
-0.2493000000 6.5744000000 0.0334000000
-0.2495000000 5.8733000000 0.2041000000
-0.2500000000 1.4273000000 0.4106000000
-0.2507000000 3.3005000000 1.2644000000
-0.2511000000 3.6113000000 1.2317000000
-0.2516000000 1.3365000000 0.3678000000
-0.2520000000 1.8204000000 0.5956000000
-0.2520000000 3.3129000000 1.2697000000
-0.2526000000 0.9521000000 0.1959000000
-0.4866000000 3.3384000000 1.0973000000
-0.4893000000 5.5382000000 0.1639000000
-0.4906000000 4.2215000000 0.7627000000
-0.4914000000 1.4135000000 0.2182000000
-0.4922000000 4.5700000000 0.5988000000
-0.4926000000 5.3905000000 0.2283000000
-0.4928000000 3.5167000000 1.0817000000
-0.4929000000 4.0128000000 0.8544000000
-0.4931000000 2.8335000000 0.8534000000
-0.4934000000 5.4627000000 0.1973000000
-0.4936000000 4.1796000000 0.7791000000
-0.4938000000 5.5149000000 0.1714000000
-0.4940000000 2.4786000000 0.7037000000
-0.4942000000 4.5748000000 0.6007000000
-0.4943000000 5.2161000000 0.3079000000
-0.4947000000 2.7458000000 0.8234000000
-0.4949000000 4.8397000000 0.4808000000
-0.4952000000 2.7359000000 0.8187000000
-0.4955000000 3.7398000000 0.9779000000
-0.4957000000 0.9704000000 0.0852000000
-0.4961000000 1.2075000000 0.1180000000
-0.4962000000 5.2596000000 0.2807000000
-0.4964000000 3.4553000000 1.0930000000
-0.4965000000 5.2357000000 0.3011000000
-0.4968000000 2.4100000000 0.6677000000
-0.4970000000 3.7647000000 0.9673000000
-0.4972000000 1.9075000000 0.4361000000
-0.4973000000 5.0730000000 0.3762000000
-0.4975000000 2.4715000000 0.6945000000
-0.4977000000 1.8550000000 0.4124000000
-0.4981000000 1.2333000000 0.1291000000
-0.4983000000 4.3275000000 0.7114000000
-0.4985000000 6.0039000000 0.0131000000
-0.4987000000 2.6770000000 0.7850000000
-0.4988000000 2.2216000000 0.5818000000
-0.4993000000 3.7942000000 0.9521000000
-0.4997000000 3.4995000000 1.0860000000
-0.5002000000 1.9141000000 0.4341000000
-0.5009000000 2.9030000000 0.8898000000
-0.5012000000 3.1979000000 1.0249000000
-0.5015000000 1.6119000000 0.2998000000
-0.5018000000 0.8572000000 0.0298000000
-0.5026000000 1.4365000000 0.2184000000
-0.5039000000 3.6878000000 0.9988000000
-0.5043000000 4.8573000000 0.4603000000
-0.5069000000 0.6927000000 0.0256000000
-0.7379000000 4.6207000000 0.3846000000
-0.7392000000 5.2112000000 0.1206000000
-0.7405000000 5.3368000000 0.1324000000
-0.7416000000 3.2201000000 0.8435000000
-0.7427000000 5.1808000000 0.1293000000
-0.7430000000 1.3939000000 0.0829000000
-0.7431000000 4.8908000000 0.2607000000
-0.7435000000 1.1158000000 0.0343000000
-0.7441000000 4.2549000000 0.5490000000
-0.7442000000 2.2505000000 0.4013000000
-0.7446000000 5.7584000000 0.0163000000
-0.7450000000 4.4688000000 0.4481000000
-0.7452000000 3.0559000000 0.7631000000
-0.7454000000 4.5454000000 0.4150000000
-0.7459000000 4.1702000000 0.5854000000
-0.7462000000 5.1858000000 0.1221000000
-0.7465000000 5.3684000000 0.1164000000
-0.7467000000 3.6603000000 0.8191000000
-0.7469000000 1.3717000000 0.0710000000
-0.7475000000 1.5832000000 0.0951000000
-0.7476000000 4.2744000000 0.5340000000
-0.7478000000 4.7679000000 0.3108000000
-0.7480000000 4.7365000000 0.3271000000
-0.7483000000 4.7916000000 0.2998000000
-0.7487000000 1.6315000000 0.1093000000
-0.7488000000 2.0039000000 0.2802000000
-0.7491000000 4.7420000000 0.3222000000
-0.7498000000 3.4840000000 0.9002000000
-0.7500000000 4.5331000000 0.4140000000
-0.7504000000 5.4891000000 0.0536000000
-0.7510000000 2.8306000000 0.6602000000
-0.7519000000 3.2784000000 0.8626000000
-0.7540000000 1.8384000000 0.1980000000
-0.9887000000 4.9005000000 0.1365000000
-0.9905000000 3.8217000000 0.5556000000
-0.9913000000 5.0536000000 0.0634000000
-0.9934000000 3.7431000000 0.5846000000
-0.9936000000 4.5786000000 0.2060000000
-0.9937000000 3.5566000000 0.6704000000
-0.9940000000 2.2011000000 0.1780000000
-0.9942000000 4.4868000000 0.2468000000
-0.9946000000 2.3098000000 0.2259000000
-0.9947000000 2.1524000000 0.1525000000
-0.9952000000 4.0353000000 0.4486000000
-0.9955000000 1.7456000000 0.0426000000
-0.9957000000 5.0346000000 0.0654000000
-0.9964000000 2.1699000000 0.1625000000
-0.9967000000 3.4539000000 0.7018000000
-0.9972000000 3.4153000000 0.7925000000
-0.9977000000 2.0151000000 0.0919000000
-0.9979000000 3.5889000000 0.6501000000
-0.9983000000 1.8871000000 0.1083000000
-0.9990000000 4.8275000000 0.0850000000
-0.9991000000 4.7843000000 0.1019000000
-0.9994000000 2.4005000000 0.2608000000
-1.0005000000 3.9521000000 0.4808000000
-1.0016000000 3.3191000000 0.6800000000
-1.0020000000 2.9984000000 0.5345000000
-1.0023000000 2.8783000000 0.4796000000
-1.0031000000 1.9075000000 0.1157000000
-1.0037000000 3.1681000000 0.6140000000
-1.2409000000 3.5284000000 0.4874000000
-1.2422000000 2.5203000000 0.1219000000
-1.2432000000 3.3782000000 0.5815000000
-1.2434000000 3.2731000000 0.4756000000
-1.2438000000 2.2823000000 0.0920000000
-1.2441000000 3.2180000000 0.4472000000
-1.2445000000 4.1532000000 0.1953000000
-1.2450000000 4.3846000000 0.0919000000
-1.2452000000 2.8839000000 0.2863000000
-1.2454000000 4.7239000000 0.0113000000
-1.2460000000 4.1396000000 0.2062000000
-1.2466000000 2.0930000000 0.0771000000
-1.2470000000 3.4065000000 0.5855000000
-1.2471000000 3.8091000000 0.3598000000
-1.2475000000 2.4859000000 0.1062000000
-1.2477000000 2.8080000000 0.2581000000
-1.2483000000 3.7633000000 0.3729000000
-1.2490000000 4.5704000000 0.0838000000
-1.2494000000 3.4286000000 0.5107000000
-1.2502000000 2.6157000000 0.1651000000
-1.2506000000 2.3282000000 0.1074000000
-1.2510000000 2.2904000000 0.0922000000
-1.2512000000 3.6334000000 0.4329000000
-1.2528000000 3.7566000000 0.3709000000
-1.2543000000 2.2507000000 0.0677000000
-1.4887000000 3.9724000000 0.0850000000
-1.4924000000 3.9841000000 0.0808000000
-1.4932000000 3.2499000000 0.2602000000
-1.4936000000 3.9725000000 0.0834000000
-1.4946000000 2.7400000000 0.1116000000
-1.4958000000 4.1112000000 0.0974000000
-1.4963000000 3.9697000000 0.0819000000
-1.4965000000 2.4772000000 0.0578000000
-1.4969000000 4.2274000000 0.0388000000
-1.4973000000 3.2484000000 0.2552000000
-1.4979000000 4.0147000000 0.1340000000
-1.4980000000 2.9689000000 0.1270000000
-1.4998000000 3.1294000000 0.2039000000
-1.5006000000 4.3065000000 0.0805000000
-1.5009000000 4.4704000000 -0.0004000000
-1.5011000000 2.7788000000 0.1141000000
-1.5021000000 2.4568000000 0.0440000000
-1.7418000000 3.2888000000 0.0789000000
-1.7422000000 3.0782000000 0.0591000000
-1.7438000000 3.1766000000 0.1033000000
-1.7449000000 3.0628000000 0.0538000000
-1.7456000000 3.5034000000 0.0967000000
-1.7459000000 3.6628000000 0.1067000000
-1.7471000000 2.7995000000 0.0013000000
