6.7610000000 4.4093000000 0.0399000000
6.7579000000 4.2325000000 0.0559000000
6.7564000000 4.3853000000 0.0543000000
6.7551000000 4.0694000000 0.1378000000
6.7532000000 3.4960000000 0.0514000000
6.7518000000 3.8704000000 0.0893000000
6.5102000000 4.9001000000 0.0885000000
6.5088000000 4.2303000000 0.2898000000
6.5073000000 3.6862000000 0.2176000000
6.5058000000 3.4478000000 0.0968000000
6.5053000000 5.0027000000 0.0341000000
6.5037000000 4.7534000000 0.0979000000
6.5030000000 3.4785000000 0.1140000000
6.5008000000 3.7548000000 0.2583000000
6.4975000000 3.7541000000 0.2641000000
6.2580000000 3.1302000000 0.1477000000
6.2575000000 2.6470000000 0.0553000000
6.2570000000 4.5969000000 0.3324000000
6.2565000000 4.7508000000 0.2458000000
6.2558000000 5.4345000000 0.0365000000
6.2552000000 2.8676000000 0.0933000000
6.2549000000 4.0892000000 0.5944000000
6.2546000000 4.2357000000 0.5166000000
6.2537000000 3.0803000000 0.1308000000
6.2520000000 4.9547000000 0.1457000000
6.2506000000 3.8896000000 0.5615000000
6.2483000000 4.0495000000 0.6007000000
6.0128000000 4.3827000000 0.6625000000
6.0101000000 5.6864000000 0.0504000000
6.0097000000 5.5701000000 0.1174000000
6.0088000000 2.9495000000 0.2861000000
6.0085000000 2.9396000000 0.2811000000
6.0073000000 3.7428000000 0.7016000000
6.0070000000 4.1791000000 0.7703000000
6.0065000000 2.1245000000 0.0031000000
6.0059000000 2.8949000000 0.2599000000
6.0056000000 4.7422000000 0.4797000000
6.0050000000 2.7691000000 0.1922000000
6.0043000000 5.5943000000 0.1006000000
6.0039000000 2.5878000000 0.0993000000
6.0029000000 3.0357000000 0.3388000000
6.0028000000 3.2759000000 0.4628000000
6.0020000000 3.6659000000 0.6674000000
6.0007000000 4.9978000000 0.3440000000
6.0000000000 2.6980000000 0.1637000000
5.9997000000 3.5314000000 0.5992000000
5.9992000000 4.6202000000 0.5512000000
5.9958000000 2.1793000000 0.0477000000
5.7635000000 5.9652000000 0.0582000000
5.7604000000 5.0150000000 0.5563000000
5.7597000000 5.9344000000 0.0789000000
5.7592000000 6.1940000000 0.0865000000
5.7587000000 3.6529000000 0.8842000000
5.7582000000 2.6427000000 0.3545000000
5.7575000000 6.2440000000 0.0651000000
5.7565000000 2.8222000000 0.4506000000
5.7562000000 4.5922000000 0.7849000000
5.7558000000 3.0032000000 0.5506000000
5.7555000000 2.4420000000 0.2507000000
5.7553000000 3.5089000000 0.8122000000
5.7548000000 4.1358000000 1.0266000000
5.7543000000 3.3494000000 0.7310000000
5.7539000000 5.7945000000 0.1562000000
5.7534000000 1.8153000000 0.0714000000
5.7530000000 3.6176000000 0.8714000000
5.7528000000 5.3094000000 0.4106000000
5.7525000000 4.6522000000 0.7517000000
5.7520000000 3.5876000000 0.8575000000
5.7517000000 4.8019000000 0.6760000000
5.7513000000 4.0375000000 1.0623000000
5.7482000000 4.1690000000 1.0115000000
5.7460000000 4.8805000000 0.6362000000
5.5100000000 1.6568000000 0.0652000000
5.5095000000 2.5517000000 0.5370000000
5.5090000000 5.6681000000 0.4461000000
5.5085000000 2.8232000000 0.6728000000
5.5078000000 4.8682000000 0.8667000000
5.5075000000 6.3632000000 0.0789000000
5.5073000000 6.7244000000 0.0442000000
5.5065000000 1.5338000000 0.0790000000
5.5062000000 4.9572000000 0.8216000000
5.5058000000 6.5729000000 0.0487000000
5.5055000000 4.1970000000 1.2210000000
5.5051000000 4.2612000000 1.1896000000
5.5049000000 2.1572000000 0.3262000000
5.5044000000 6.5420000000 0.0643000000
5.5038000000 6.2289000000 0.1526000000
5.5029000000 1.2564000000 0.0091000000
5.5025000000 1.4206000000 0.0147000000
5.5021000000 4.4086000000 1.1049000000
5.5015000000 3.8127000000 1.2039000000
5.5012000000 4.5279000000 1.0496000000
5.4994000000 1.8775000000 0.1849000000
5.4974000000 3.8232000000 1.2102000000
5.2638000000 5.3165000000 0.8528000000
5.2609000000 2.0852000000 0.5078000000
5.2601000000 3.5172000000 1.2659000000
5.2582000000 4.6862000000 1.1888000000
5.2579000000 6.1735000000 0.4110000000
5.2577000000 1.7707000000 0.3490000000
5.2573000000 4.9527000000 1.0495000000
5.2570000000 6.6304000000 0.1712000000
5.2566000000 7.1703000000 0.0374000000
5.2563000000 4.6672000000 1.1915000000
5.2561000000 2.6599000000 0.8228000000
5.2558000000 1.8878000000 0.4166000000
5.2555000000 2.1434000000 0.5502000000
5.2552000000 2.6849000000 0.8345000000
5.2550000000 2.1952000000 0.5726000000
5.2548000000 5.5760000000 0.7235000000
5.2545000000 7.0883000000 0.0786000000
5.2543000000 6.3571000000 0.3099000000
5.2540000000 3.5005000000 1.2585000000
5.2538000000 5.1120000000 0.9682000000
5.2535000000 4.0742000000 1.5072000000
5.2530000000 4.5680000000 1.2535000000
5.2528000000 4.9788000000 1.0423000000
5.2525000000 2.3637000000 0.6667000000
5.2522000000 1.7502000000 0.3482000000
5.2514000000 4.2189000000 1.4432000000
5.2501000000 1.9208000000 0.4354000000
5.2492000000 1.7775000000 0.3620000000
5.2481000000 6.6032000000 0.1886000000
5.2473000000 1.0890000000 0.0814000000
5.0143000000 7.5628000000 0.0428000000
5.0110000000 6.3234000000 0.5561000000
5.0101000000 3.3183000000 1.3945000000
5.0098000000 4.3487000000 1.5957000000
5.0091000000 3.9731000000 1.7255000000
5.0087000000 2.7536000000 1.0964000000
5.0080000000 5.9865000000 0.7318000000
5.0077000000 4.3760000000 1.5824000000
5.0075000000 6.5989000000 0.4108000000
5.0072000000 4.3293000000 1.6086000000
5.0062000000 6.7258000000 0.3422000000
5.0059000000 7.5928000000 0.0356000000
5.0055000000 6.9955000000 0.2029000000
5.0053000000 5.6476000000 0.9128000000
5.0051000000 3.5943000000 1.5437000000
5.0048000000 1.3781000000 0.3749000000
5.0047000000 6.0981000000 0.6730000000
5.0043000000 5.2353000000 1.1299000000
5.0040000000 6.2828000000 0.5804000000
5.0039000000 0.6382000000 0.0616000000
5.0035000000 2.9585000000 1.2088000000
5.0034000000 3.8280000000 1.6670000000
5.0032000000 7.3467000000 0.1008000000
5.0030000000 5.9073000000 0.7799000000
5.0028000000 3.6684000000 1.5820000000
5.0024000000 6.9893000000 0.2173000000
5.0020000000 1.9482000000 0.6758000000
5.0014000000 0.6530000000 0.0660000000
5.0010000000 7.5832000000 0.0457000000
5.0004000000 2.9680000000 1.2134000000
4.9983000000 3.1428000000 1.3056000000
4.9973000000 2.7560000000 1.1065000000
4.7631000000 6.4035000000 0.7446000000
4.7619000000 6.7755000000 0.5384000000
4.7606000000 5.2757000000 1.3354000000
4.7598000000 5.9511000000 0.9738000000
4.7593000000 5.8338000000 1.0368000000
4.7589000000 4.9599000000 1.4973000000
4.7585000000 3.3122000000 1.6115000000
4.7582000000 2.4368000000 1.1580000000
4.7578000000 0.3647000000 0.0704000000
4.7575000000 6.0968000000 0.9056000000
4.7571000000 0.0843000000 0.0686000000
4.7569000000 1.5403000000 0.6852000000
4.7567000000 4.7255000000 1.6262000000
4.7565000000 4.4563000000 1.7660000000
4.7561000000 1.2510000000 0.5346000000
4.7558000000 6.2053000000 0.8447000000
4.7556000000 1.3485000000 0.5842000000
4.7552000000 3.1326000000 1.5266000000
4.7550000000 8.0322000000 0.0377000000
4.7548000000 4.2846000000 1.8541000000
4.7547000000 0.8300000000 0.3144000000
4.7543000000 5.5893000000 1.1683000000
4.7540000000 4.6033000000 1.6877000000
4.7538000000 5.0687000000 1.4471000000
4.7534000000 4.4270000000 1.7813000000
4.7530000000 0.1619000000 0.0422000000
4.7528000000 5.9609000000 0.9764000000
4.7525000000 3.2557000000 1.5924000000
4.7523000000 0.8417000000 0.3194000000
4.7520000000 5.9055000000 1.0043000000
4.7518000000 4.1538000000 1.9306000000
4.7516000000 1.2425000000 0.5360000000
4.7514000000 1.2478000000 0.5389000000
4.7509000000 2.5348000000 1.2093000000
4.7505000000 2.1718000000 1.0243000000
4.7496000000 8.0275000000 0.0397000000
4.7490000000 0.3657000000 0.0771000000
4.7469000000 0.3609000000 0.0749000000
4.5144000000 6.1278000000 1.1129000000
4.5118000000 7.2241000000 0.5351000000
4.5103000000 7.6764000000 0.2988000000
4.5099000000 3.6011000000 1.9916000000
4.5096000000 3.6732000000 2.0304000000
4.5091000000 5.6560000000 1.3595000000
4.5089000000 5.3295000000 1.5383000000
4.5087000000 5.3569000000 1.5183000000
4.5081000000 2.0932000000 1.2077000000
4.5079000000 0.9716000000 0.6135000000
4.5078000000 7.7129000000 0.2697000000
4.5075000000 5.8002000000 1.2915000000
4.5072000000 3.6952000000 2.0500000000
4.5069000000 4.4726000000 1.9907000000
4.5066000000 2.8300000000 1.5909000000
4.5064000000 7.1944000000 0.5538000000
4.5060000000 7.5268000000 0.3820000000
4.5058000000 1.1286000000 0.7017000000
4.5052000000 5.6931000000 1.3424000000
4.5049000000 2.0809000000 1.1969000000
4.5047000000 0.9860000000 0.6281000000
4.5043000000 2.6771000000 1.5087000000
4.5041000000 3.0616000000 1.7147000000
4.5035000000 1.4267000000 0.8591000000
4.5033000000 1.5253000000 0.9083000000
4.5032000000 4.2831000000 2.0850000000
4.5030000000 7.0530000000 0.6309000000
4.5026000000 0.7709000000 0.5060000000
4.5023000000 2.6465000000 1.4921000000
4.5020000000 1.3454000000 0.8129000000
4.5018000000 4.6688000000 1.8895000000
4.5015000000 1.9918000000 1.1522000000
4.5010000000 3.9975000000 2.1990000000
4.5007000000 3.9005000000 2.1650000000
4.5003000000 0.6151000000 0.4357000000
4.5001000000 0.5972000000 0.4203000000
4.4997000000 1.6350000000 0.9708000000
4.4983000000 0.7628000000 0.5153000000
4.4975000000 2.9982000000 1.6849000000
4.4934000000 0.1799000000 0.1507000000
4.2624000000 4.7563000000 2.0567000000
4.2607000000 0.0482000000 0.1029000000
4.2599000000 4.4982000000 2.2021000000
4.2595000000 4.9360000000 1.9639000000
4.2588000000 2.5201000000 1.6582000000
4.2586000000 7.8164000000 0.2224000000
4.2584000000 3.5181000000 2.1842000000
4.2581000000 5.0347000000 1.9191000000
4.2578000000 4.3597000000 2.2704000000
4.2574000000 3.8690000000 2.3613000000
4.2572000000 8.0342000000 0.0780000000
4.2570000000 5.6945000000 1.5742000000
4.2568000000 7.5654000000 0.4894000000
4.2567000000 6.0729000000 1.3743000000
4.2561000000 7.9143000000 0.1227000000
4.2560000000 0.3189000000 0.3061000000
4.2556000000 5.4350000000 1.7080000000
4.2553000000 7.3326000000 0.6956000000
4.2551000000 5.5115000000 1.6722000000
4.2549000000 4.8560000000 2.0098000000
4.2545000000 0.0880000000 0.0703000000
4.2544000000 6.7149000000 1.0375000000
4.2541000000 8.0594000000 0.0469000000
4.2538000000 6.6989000000 1.0452000000
4.2533000000 3.3079000000 2.0727000000
4.2529000000 1.9194000000 1.3430000000
4.2527000000 0.6051000000 0.5952000000
4.2525000000 7.2087000000 0.7844000000
4.2515000000 4.0929000000 2.4182000000
4.2512000000 0.8411000000 0.7776000000
4.2503000000 6.3703000000 1.2242000000
4.2498000000 1.0271000000 0.8785000000
4.2492000000 0.4014000000 0.3937000000
4.2470000000 1.7924000000 1.2850000000
4.0173000000 7.7527000000 0.2937000000
4.0117000000 4.3467000000 2.5011000000
4.0108000000 5.1449000000 2.0839000000
4.0104000000 2.8618000000 2.0608000000
4.0095000000 5.7606000000 1.7595000000
4.0093000000 6.0705000000 1.6015000000
4.0084000000 7.2904000000 0.7749000000
4.0078000000 7.3485000000 0.7184000000
4.0075000000 3.9050000000 2.6094000000
4.0071000000 7.3576000000 0.7116000000
4.0067000000 4.9065000000 2.2100000000
4.0063000000 4.6610000000 2.3414000000
4.0059000000 4.2516000000 2.5561000000
4.0055000000 2.9975000000 2.1335000000
4.0053000000 5.8241000000 1.7290000000
4.0050000000 1.0207000000 1.0305000000
4.0048000000 5.6858000000 1.8014000000
4.0046000000 2.9087000000 2.0943000000
4.0042000000 5.6481000000 1.8273000000
4.0037000000 4.5553000000 2.3970000000
4.0036000000 0.5205000000 0.5238000000
4.0033000000 1.2305000000 1.2097000000
4.0031000000 1.5330000000 1.3714000000
4.0029000000 0.1182000000 0.1013000000
4.0028000000 4.8261000000 2.2558000000
4.0026000000 2.4229000000 1.8403000000
4.0023000000 6.8729000000 1.1707000000
4.0020000000 0.1829000000 0.1663000000
4.0018000000 1.0089000000 1.0278000000
4.0017000000 1.8543000000 1.5373000000
4.0013000000 5.5262000000 1.8916000000
4.0008000000 7.3457000000 0.7176000000
4.0005000000 4.1445000000 2.6188000000
3.9998000000 3.6624000000 2.4907000000
3.9988000000 0.8960000000 0.9197000000
3.9985000000 2.6935000000 1.9821000000
3.7654000000 5.1648000000 2.2973000000
3.7633000000 3.2656000000 2.4996000000
3.7599000000 5.3853000000 2.1903000000
3.7597000000 4.1499000000 2.8335000000
3.7590000000 4.4172000000 2.7004000000
3.7587000000 4.5335000000 2.6357000000
3.7581000000 6.8767000000 1.2128000000
3.7575000000 5.5188000000 2.1169000000
3.7572000000 3.3287000000 2.5382000000
3.7570000000 3.8418000000 2.8064000000
3.7566000000 4.5088000000 2.6491000000
3.7563000000 4.4260000000 2.6884000000
3.7560000000 4.6328000000 2.5855000000
3.7559000000 3.9182000000 2.8501000000
3.7557000000 1.3996000000 1.4461000000
3.7554000000 7.9849000000 0.0463000000
3.7552000000 3.6089000000 2.6873000000
3.7548000000 1.6705000000 1.6675000000
3.7546000000 0.5298000000 0.5306000000
3.7541000000 0.3576000000 0.3508000000
3.7539000000 7.9854000000 0.0452000000
3.7535000000 7.4423000000 0.6116000000
3.7534000000 1.7549000000 1.7142000000
3.7532000000 0.3784000000 0.3767000000
3.7530000000 2.7647000000 2.2467000000
3.7528000000 1.4164000000 1.4649000000
3.7523000000 0.6245000000 0.6345000000
3.7522000000 0.7851000000 0.8082000000
3.7520000000 4.0173000000 2.8872000000
3.7517000000 2.2589000000 1.9759000000
3.7514000000 6.1944000000 1.7720000000
3.7513000000 1.3212000000 1.3715000000
3.7508000000 2.6431000000 2.1844000000
3.7503000000 1.2428000000 1.2840000000
3.7498000000 6.1972000000 1.7687000000
3.7488000000 1.9431000000 1.8152000000
3.5158000000 7.7482000000 0.2961000000
3.5122000000 5.2477000000 2.4821000000
3.5104000000 8.0966000000 0.0745000000
3.5090000000 6.4211000000 1.6915000000
3.5085000000 4.2095000000 3.0331000000
3.5080000000 3.8159000000 3.0225000000
3.5078000000 4.5746000000 2.8391000000
3.5077000000 5.0645000000 2.5838000000
3.5068000000 6.0008000000 2.0766000000
3.5067000000 2.5508000000 2.3605000000
3.5065000000 6.3588000000 1.7564000000
3.5063000000 5.1155000000 2.5538000000
3.5060000000 5.4923000000 2.3623000000
3.5058000000 6.2289000000 1.8932000000
3.5057000000 4.5884000000 2.8400000000
3.5053000000 3.2845000000 2.7424000000
3.5052000000 1.1145000000 1.1463000000
3.5050000000 1.5345000000 1.5873000000
3.5048000000 5.0973000000 2.5701000000
3.5042000000 2.9523000000 2.5679000000
3.5040000000 3.5797000000 2.8980000000
3.5039000000 7.4340000000 0.6230000000
3.5035000000 4.1428000000 3.0682000000
3.5033000000 0.7402000000 0.7581000000
3.5029000000 7.3341000000 0.7239000000
3.5025000000 4.2720000000 3.0036000000
3.5021000000 0.9764000000 1.0046000000
3.5018000000 0.2068000000 0.1887000000
3.5015000000 4.4021000000 2.9392000000
3.5010000000 5.8739000000 2.1672000000
3.5005000000 3.2932000000 2.7519000000
3.4994000000 7.3712000000 0.6899000000
3.4955000000 3.1007000000 2.6529000000
3.2621000000 4.6393000000 3.0354000000
3.2609000000 3.1516000000 2.8949000000
3.2597000000 5.9425000000 2.1933000000
3.2592000000 7.4567000000 0.6055000000
3.2587000000 6.6522000000 1.4441000000
3.2583000000 3.2725000000 2.9582000000
3.2578000000 7.7170000000 0.3291000000
3.2577000000 4.4750000000 3.1215000000
3.2572000000 3.7072000000 3.1907000000
3.2567000000 3.5440000000 3.1055000000
3.2565000000 8.0548000000 0.0446000000
3.2562000000 1.6843000000 1.7429000000
3.2559000000 7.5280000000 0.5234000000
3.2556000000 5.9603000000 2.1781000000
3.2552000000 6.1813000000 1.9390000000
3.2551000000 2.9636000000 2.8042000000
3.2549000000 3.7553000000 3.2239000000
3.2546000000 1.8281000000 1.8970000000
3.2542000000 7.5519000000 0.5056000000
3.2539000000 2.7510000000 2.6904000000
3.2536000000 3.9625000000 3.3308000000
3.2533000000 2.3775000000 2.4557000000
3.2531000000 4.1529000000 3.2920000000
3.2528000000 0.3685000000 0.3646000000
3.2526000000 1.8492000000 1.9234000000
3.2524000000 1.8625000000 1.9396000000
3.2518000000 6.4256000000 1.6911000000
3.2515000000 2.6471000000 2.6390000000
3.2513000000 0.4957000000 0.4978000000
3.2511000000 6.4545000000 1.6556000000
3.2508000000 2.5686000000 2.5967000000
3.2503000000 0.9906000000 1.0188000000
3.2500000000 3.9833000000 3.3225000000
3.2496000000 0.8899000000 0.9175000000
3.2488000000 4.9853000000 2.8577000000
3.2482000000 6.5341000000 1.5731000000
3.2478000000 0.3922000000 0.3888000000
3.2473000000 6.4992000000 1.6073000000
3.2460000000 2.8890000000 2.7706000000
3.2439000000 1.0476000000 1.0728000000
3.0116000000 6.3701000000 1.7430000000
3.0103000000 4.7503000000 3.2042000000
3.0101000000 1.4662000000 1.5204000000
3.0095000000 7.8804000000 0.1568000000
3.0089000000 7.2610000000 0.8101000000
3.0086000000 6.1639000000 1.9649000000
3.0082000000 0.4398000000 0.4375000000
3.0078000000 5.7989000000 2.3416000000
3.0076000000 6.5741000000 1.5317000000
3.0074000000 6.7688000000 1.3258000000
3.0071000000 0.4266000000 0.4229000000
3.0064000000 6.8783000000 1.2098000000
3.0061000000 6.2784000000 1.8393000000
3.0059000000 1.2648000000 1.3121000000
3.0057000000 0.1803000000 0.1673000000
3.0052000000 4.7315000000 3.2092000000
3.0050000000 0.2998000000 0.2921000000
3.0048000000 2.2215000000 2.3166000000
3.0045000000 3.6923000000 3.4138000000
3.0043000000 4.7442000000 3.2105000000
3.0039000000 2.4201000000 2.5224000000
3.0038000000 4.6578000000 3.2537000000
3.0037000000 2.8900000000 2.9745000000
3.0035000000 6.1278000000 1.9989000000
3.0032000000 6.3343000000 1.7803000000
3.0028000000 1.6488000000 1.7148000000
3.0025000000 5.0304000000 3.0522000000
3.0023000000 6.1885000000 1.9335000000
3.0018000000 3.5864000000 3.3632000000
3.0016000000 2.3670000000 2.4691000000
3.0013000000 2.5831000000 2.6936000000
3.0009000000 1.0021000000 1.0275000000
3.0005000000 3.5964000000 3.3669000000
2.9997000000 1.9312000000 2.0101000000
2.9995000000 6.3420000000 1.7666000000
2.9991000000 0.5503000000 0.5540000000
2.9989000000 2.3071000000 2.4022000000
2.9981000000 0.2135000000 0.2009000000
2.9972000000 0.3546000000 0.3517000000
2.7640000000 7.9048000000 0.1284000000
2.7603000000 6.3929000000 1.7201000000
2.7586000000 5.1339000000 3.0452000000
2.7583000000 7.8389000000 0.2052000000
2.7581000000 2.6114000000 2.7258000000
2.7573000000 5.6820000000 2.4641000000
2.7566000000 5.3656000000 2.7989000000
2.7564000000 7.4288000000 0.6281000000
2.7560000000 5.7333000000 2.4088000000
2.7558000000 2.5550000000 2.6661000000
2.7555000000 4.5650000000 3.5273000000
2.7553000000 2.0210000000 2.1020000000
2.7550000000 6.4513000000 1.6628000000
2.7547000000 2.9489000000 3.0709000000
2.7545000000 6.6549000000 1.4418000000
2.7542000000 4.4368000000 3.6020000000
2.7538000000 3.0733000000 3.2069000000
2.7538000000 1.8809000000 1.9495000000
2.7534000000 4.8124000000 3.3624000000
2.7530000000 1.8880000000 1.9626000000
2.7528000000 2.3152000000 2.4073000000
2.7526000000 0.7597000000 0.7756000000
2.7524000000 7.4946000000 0.5643000000
2.7523000000 1.4141000000 1.4715000000
2.7520000000 0.4095000000 0.4085000000
2.7515000000 4.0055000000 3.7936000000
2.7511000000 1.6417000000 1.7043000000
2.7507000000 2.6823000000 2.7953000000
2.7505000000 3.1520000000 3.2927000000
2.7502000000 2.7172000000 2.8314000000
2.7498000000 0.9631000000 0.9860000000
2.7495000000 1.2452000000 1.2875000000
2.7489000000 0.4493000000 0.4479000000
2.7476000000 3.4211000000 3.5065000000
2.7462000000 2.5533000000 2.6611000000
2.5130000000 5.6774000000 2.4739000000
2.5107000000 7.6800000000 0.3692000000
2.5087000000 5.2364000000 2.9402000000
2.5078000000 3.4683000000 3.6237000000
2.5076000000 2.9914000000 3.1246000000
2.5074000000 3.6756000000 3.8199000000
2.5072000000 3.1715000000 3.3137000000
2.5068000000 6.7424000000 1.3539000000
2.5067000000 7.6956000000 0.3468000000
2.5063000000 5.1150000000 3.0597000000
2.5062000000 3.3224000000 3.4754000000
2.5058000000 4.9346000000 3.2573000000
2.5056000000 7.8788000000 0.1550000000
2.5055000000 3.1885000000 3.3288000000
2.5051000000 0.5017000000 0.5013000000
2.5047000000 2.0777000000 2.1611000000
2.5044000000 2.4630000000 2.5677000000
2.5042000000 5.9326000000 2.2042000000
2.5040000000 1.0131000000 1.0370000000
2.5038000000 3.2658000000 3.4126000000
2.5037000000 3.0751000000 3.2118000000
2.5035000000 7.6292000000 0.4201000000
2.5034000000 3.5550000000 3.7173000000
2.5030000000 1.3927000000 1.4426000000
2.5026000000 6.2119000000 1.9123000000
2.5024000000 0.5629000000 0.5721000000
2.5022000000 5.9816000000 2.1535000000
2.5019000000 0.7341000000 0.7446000000
2.5015000000 7.8137000000 0.2263000000
2.5014000000 6.5510000000 1.5538000000
2.5010000000 4.0892000000 4.0141000000
2.5005000000 1.7080000000 1.7776000000
2.5000000000 5.4670000000 2.6964000000
2.4996000000 2.8314000000 2.9521000000
2.4993000000 4.0593000000 4.0152000000
2.4990000000 2.4751000000 2.5760000000
2.4988000000 0.3779000000 0.3712000000
2.4980000000 4.1437000000 3.9867000000
2.4967000000 1.0153000000 1.0464000000
2.2654000000 6.5184000000 1.5854000000
2.2609000000 1.4279000000 1.4782000000
2.2604000000 2.4344000000 2.5392000000
2.2600000000 5.7961000000 2.3505000000
2.2590000000 7.5738000000 0.4798000000
2.2587000000 7.5757000000 0.4821000000
2.2584000000 4.0317000000 4.1373000000
2.2582000000 5.7841000000 2.3579000000
2.2580000000 3.7448000000 3.9097000000
2.2578000000 5.6893000000 2.4618000000
2.2575000000 2.6128000000 2.7252000000
2.2569000000 8.0684000000 0.0304000000
2.2568000000 6.2248000000 1.8972000000
2.2565000000 6.1955000000 1.9280000000
2.2563000000 3.7970000000 3.9662000000
2.2560000000 5.8071000000 2.3353000000
2.2557000000 7.8537000000 0.1859000000
2.2553000000 2.7953000000 2.9149000000
2.2551000000 4.8955000000 3.2919000000
2.2549000000 6.2842000000 1.8338000000
2.2544000000 3.1745000000 3.3130000000
2.2543000000 6.4241000000 1.6949000000
2.2541000000 2.0565000000 2.1354000000
2.2539000000 5.7071000000 2.4357000000
2.2536000000 5.0326000000 3.1504000000
2.2535000000 2.6940000000 2.8079000000
2.2531000000 0.6756000000 0.6841000000
2.2527000000 6.3383000000 1.7813000000
2.2523000000 6.6567000000 1.4406000000
2.2522000000 5.0002000000 3.1816000000
2.2519000000 1.6886000000 1.7517000000
2.2518000000 6.1634000000 1.9601000000
2.2510000000 5.9127000000 2.2226000000
2.2509000000 0.5521000000 0.5552000000
2.2501000000 4.2600000000 3.9539000000
2.2498000000 3.6067000000 3.7628000000
2.2493000000 0.4449000000 0.4421000000
2.2486000000 6.3997000000 1.7133000000
2.2480000000 4.8085000000 3.3930000000
2.2472000000 3.0405000000 3.1751000000
2.2464000000 0.0659000000 0.0484000000
2.0139000000 5.5260000000 2.6297000000
2.0100000000 7.4324000000 0.6284000000
2.0087000000 8.0062000000 0.1027000000
2.0085000000 5.0685000000 3.1152000000
2.0083000000 7.9004000000 0.1375000000
2.0080000000 6.6162000000 1.4889000000
2.0077000000 5.7548000000 2.3902000000
2.0073000000 3.1730000000 3.3059000000
2.0068000000 8.0328000000 0.0692000000
2.0065000000 5.4543000000 2.7036000000
2.0061000000 4.0702000000 3.8789000000
2.0056000000 6.7617000000 1.3309000000
2.0055000000 4.1028000000 3.8826000000
2.0050000000 6.5979000000 1.5044000000
2.0049000000 5.3689000000 2.7963000000
2.0045000000 4.2706000000 3.7965000000
2.0044000000 7.1771000000 0.8934000000
2.0040000000 1.0873000000 1.1233000000
2.0036000000 4.7056000000 3.4939000000
2.0031000000 1.6259000000 1.6860000000
2.0029000000 6.0677000000 2.0661000000
2.0026000000 3.5987000000 3.6925000000
2.0024000000 0.4271000000 0.4219000000
2.0023000000 3.3237000000 3.4718000000
2.0021000000 2.5338000000 2.6458000000
2.0018000000 0.6814000000 0.6937000000
2.0015000000 5.0838000000 3.0977000000
2.0007000000 7.1511000000 0.9247000000
2.0004000000 7.7197000000 0.3231000000
1.9997000000 7.7212000000 0.3286000000
1.9990000000 0.5640000000 0.5685000000
1.9987000000 4.6288000000 3.5637000000
1.9976000000 1.4863000000 1.5415000000
1.9956000000 5.1115000000 3.0653000000
1.7640000000 5.2259000000 2.9452000000
1.7622000000 7.8587000000 0.1801000000
1.7615000000 6.0923000000 2.0343000000
1.7603000000 7.7828000000 0.2574000000
1.7599000000 6.7908000000 1.3009000000
1.7593000000 7.1527000000 0.9253000000
1.7589000000 5.0235000000 3.1458000000
1.7586000000 2.6305000000 2.7406000000
1.7580000000 0.7385000000 0.7500000000
1.7574000000 7.2623000000 0.8064000000
1.7570000000 7.3486000000 0.7124000000
1.7568000000 4.4494000000 3.4740000000
1.7566000000 7.6137000000 0.4276000000
1.7564000000 2.8145000000 2.9412000000
1.7561000000 3.9038000000 3.6274000000
1.7559000000 2.7134000000 2.8295000000
1.7556000000 8.1028000000 0.0690000000
1.7554000000 6.4793000000 1.6312000000
1.7552000000 0.2703000000 0.2612000000
1.7548000000 2.6964000000 2.8145000000
1.7546000000 7.8237000000 0.2181000000
1.7543000000 7.1560000000 0.9166000000
1.7541000000 8.0948000000 0.0773000000
1.7539000000 3.7266000000 3.5358000000
1.7537000000 1.3857000000 1.4346000000
1.7535000000 4.3988000000 3.4895000000
1.7533000000 5.1930000000 2.9822000000
1.7530000000 6.5952000000 1.5041000000
1.7528000000 3.2395000000 3.2748000000
1.7525000000 3.0103000000 3.1248000000
1.7521000000 5.2408000000 2.9318000000
1.7519000000 2.4834000000 2.5850000000
1.7515000000 6.9545000000 1.1328000000
1.7511000000 1.8209000000 1.8907000000
1.7506000000 2.2788000000 2.3735000000
1.7504000000 3.4690000000 3.3918000000
1.7498000000 1.2122000000 1.2490000000
1.7496000000 1.6601000000 1.7217000000
1.7489000000 0.1973000000 0.1840000000
1.7477000000 1.3950000000 1.4405000000
1.7470000000 2.9579000000 3.0597000000
1.5123000000 6.7582000000 1.3359000000
1.5115000000 0.9194000000 0.9402000000
1.5101000000 3.8483000000 3.3773000000
1.5097000000 7.7181000000 0.3250000000
1.5094000000 3.2012000000 3.0357000000
1.5083000000 1.7812000000 1.8511000000
1.5081000000 1.3758000000 1.4185000000
1.5076000000 7.8192000000 0.2166000000
1.5075000000 7.9127000000 0.1207000000
1.5070000000 7.3049000000 0.7602000000
1.5065000000 5.4827000000 2.6636000000
1.5062000000 6.7934000000 1.2994000000
1.5058000000 4.7107000000 3.1041000000
1.5054000000 2.5612000000 2.6561000000
1.5053000000 2.0659000000 2.1451000000
1.5051000000 2.9962000000 2.9228000000
1.5048000000 5.8520000000 2.2922000000
1.5046000000 3.9917000000 3.4297000000
1.5043000000 7.7974000000 0.2384000000
1.5040000000 0.6017000000 0.6038000000
1.5036000000 4.1626000000 3.3917000000
1.5034000000 3.3500000000 3.1037000000
1.5033000000 1.7066000000 1.7710000000
1.5032000000 1.5878000000 1.6458000000
1.5030000000 6.4652000000 1.6473000000
1.5028000000 2.7277000000 2.7761000000
1.5026000000 3.6197000000 3.2501000000
1.5025000000 6.2515000000 1.8690000000
1.5023000000 1.9710000000 2.0533000000
1.5020000000 2.6338000000 2.7156000000
1.5016000000 4.0234000000 3.4383000000
1.5013000000 6.4376000000 1.6708000000
1.5007000000 6.9757000000 1.1084000000
1.5000000000 0.8630000000 0.8838000000
1.4995000000 6.6673000000 1.4347000000
1.4989000000 0.5174000000 0.5238000000
1.4987000000 3.1572000000 3.0069000000
1.4983000000 4.7007000000 3.1025000000
1.4958000000 1.8930000000 1.9664000000
1.2629000000 6.7304000000 1.3650000000
1.2600000000 5.2899000000 2.5736000000
1.2590000000 1.6248000000 1.6803000000
1.2585000000 0.4342000000 0.4363000000
1.2583000000 5.3278000000 2.5497000000
1.2578000000 5.9640000000 2.1578000000
1.2574000000 7.9973000000 0.1032000000
1.2568000000 5.2679000000 2.5829000000
1.2564000000 4.7720000000 2.8452000000
1.2562000000 3.6010000000 3.0217000000
1.2560000000 6.2082000000 1.9120000000
1.2558000000 7.9460000000 0.0878000000
1.2556000000 4.6158000000 2.9237000000
1.2554000000 0.8127000000 0.8284000000
1.2553000000 5.4825000000 2.4732000000
1.2550000000 2.2110000000 2.2672000000
1.2548000000 5.2875000000 2.5715000000
1.2546000000 3.5064000000 2.9630000000
1.2543000000 3.7528000000 3.0939000000
1.2543000000 2.3861000000 2.3767000000
1.2536000000 8.0320000000 0.0677000000
1.2534000000 3.5540000000 2.9893000000
1.2530000000 3.9057000000 3.1703000000
1.2528000000 5.0593000000 2.6909000000
1.2526000000 1.6980000000 1.7620000000
1.2522000000 0.0927000000 0.0714000000
1.2519000000 2.8238000000 2.6078000000
1.2513000000 3.8479000000 3.1377000000
1.2508000000 5.1512000000 2.6430000000
1.2501000000 3.2582000000 2.8270000000
1.2498000000 2.9007000000 2.6462000000
1.2497000000 2.6741000000 2.5194000000
1.2488000000 1.9872000000 2.0621000000
1.2483000000 1.1686000000 1.2086000000
1.2479000000 3.6533000000 3.0280000000
1.2476000000 1.4138000000 1.4686000000
1.2453000000 0.1539000000 0.1360000000
1.0136000000 5.0697000000 2.4641000000
1.0101000000 5.8804000000 2.0376000000
1.0091000000 1.7335000000 1.7802000000
1.0087000000 4.6175000000 2.7039000000
1.0084000000 6.6226000000 1.4791000000
1.0080000000 6.1100000000 1.9145000000
1.0075000000 4.7347000000 2.6375000000
1.0070000000 5.2767000000 2.3538000000
1.0065000000 4.8917000000 2.5549000000
1.0061000000 1.7292000000 1.7805000000
1.0058000000 5.2807000000 2.3504000000
1.0055000000 0.1657000000 0.1484000000
1.0052000000 3.5339000000 2.7507000000
1.0050000000 0.8941000000 0.9177000000
1.0047000000 5.4549000000 2.2553000000
1.0045000000 2.8585000000 2.3928000000
1.0044000000 3.2030000000 2.5725000000
1.0040000000 6.9229000000 1.1654000000
1.0038000000 3.4449000000 2.7046000000
1.0037000000 2.4791000000 2.1931000000
1.0035000000 4.0334000000 2.9852000000
1.0034000000 5.0383000000 2.4738000000
1.0032000000 0.1468000000 0.1278000000
1.0028000000 0.1459000000 0.1290000000
1.0026000000 2.6170000000 2.2682000000
1.0023000000 0.2593000000 0.2512000000
1.0020000000 7.3144000000 0.7510000000
1.0013000000 5.4644000000 2.2496000000
1.0008000000 0.5880000000 0.5952000000
1.0000000000 4.7312000000 2.6321000000
0.9995000000 2.8191000000 2.3646000000
0.9988000000 4.7088000000 2.6422000000
0.9971000000 1.4163000000 1.4663000000
0.9965000000 5.7064000000 2.1135000000
0.9958000000 1.1088000000 1.1406000000
0.9929000000 0.5161000000 0.5191000000
0.7610000000 6.9955000000 1.0876000000
0.7606000000 5.7482000000 1.8813000000
0.7597000000 1.5519000000 1.4799000000
0.7590000000 6.1177000000 1.6856000000
0.7582000000 3.7562000000 2.6388000000
0.7578000000 3.8100000000 2.6730000000
0.7575000000 6.8005000000 1.2767000000
0.7570000000 6.8287000000 1.2519000000
0.7567000000 5.0185000000 2.2593000000
0.7565000000 0.9986000000 1.0222000000
0.7562000000 7.0528000000 1.0270000000
0.7559000000 0.5298000000 0.5372000000
0.7555000000 0.0619000000 0.0380000000
0.7553000000 6.0669000000 1.7119000000
0.7549000000 6.2883000000 1.5904000000
0.7548000000 2.3234000000 1.8874000000
0.7546000000 4.9689000000 2.2867000000
0.7544000000 3.8551000000 2.6876000000
0.7541000000 7.8891000000 0.1514000000
0.7539000000 7.5823000000 0.4686000000
0.7536000000 4.1360000000 2.7167000000
0.7534000000 6.2732000000 1.5981000000
0.7532000000 5.5891000000 1.9626000000
0.7531000000 5.9925000000 1.7440000000
0.7530000000 7.2683000000 0.8012000000
0.7526000000 5.1162000000 2.2026000000
0.7524000000 0.1571000000 0.1403000000
0.7520000000 0.0702000000 0.0492000000
0.7519000000 5.8830000000 1.7958000000
0.7517000000 2.3972000000 1.9219000000
0.7509000000 0.3925000000 0.3834000000
0.7507000000 4.2878000000 2.6340000000
0.7502000000 1.6944000000 1.5535000000
0.7495000000 1.6822000000 1.5496000000
0.7492000000 0.0084000000 0.0592000000
0.7480000000 0.1816000000 0.1668000000
0.7465000000 3.8863000000 2.7015000000
0.5129000000 5.2863000000 1.8992000000
0.5111000000 6.7042000000 1.1509000000
0.5100000000 7.3020000000 0.7645000000
0.5091000000 7.3056000000 0.7573000000
0.5088000000 5.4636000000 1.8008000000
0.5082000000 0.4112000000 0.4102000000
0.5080000000 2.7598000000 1.8920000000
0.5075000000 6.3304000000 1.3484000000
0.5073000000 3.0335000000 2.0370000000
0.5070000000 8.0492000000 0.0577000000
0.5068000000 4.9515000000 2.0740000000
0.5065000000 0.4800000000 0.4836000000
0.5063000000 4.6112000000 2.2483000000
0.5060000000 5.6287000000 1.7110000000
0.5058000000 1.0568000000 0.9967000000
0.5056000000 1.7173000000 1.3357000000
0.5053000000 7.3289000000 0.7344000000
0.5050000000 7.3181000000 0.7461000000
0.5048000000 2.0430000000 1.5099000000
0.5046000000 7.1994000000 0.8545000000
0.5045000000 0.1036000000 0.0823000000
0.5041000000 1.0651000000 0.9924000000
0.5038000000 2.9756000000 2.0012000000
0.5036000000 7.2499000000 0.8061000000
0.5034000000 2.6712000000 1.8414000000
0.5031000000 0.4906000000 0.4934000000
0.5028000000 2.9650000000 1.9935000000
0.5025000000 0.5913000000 0.5989000000
0.5023000000 1.0279000000 0.9744000000
0.5022000000 7.9663000000 0.0645000000
0.5020000000 6.2224000000 1.3902000000
0.5016000000 5.1861000000 1.9387000000
0.5012000000 6.4632000000 1.2705000000
0.5010000000 2.1432000000 1.5585000000
0.5008000000 4.1085000000 2.5037000000
0.5007000000 4.0561000000 2.5188000000
0.5003000000 1.0687000000 0.9961000000
0.5000000000 1.9776000000 1.4729000000
0.4997000000 0.6224000000 0.6332000000
0.4990000000 2.6345000000 1.8151000000
0.4985000000 1.4198000000 1.1773000000
0.4974000000 2.2548000000 1.6096000000
0.4972000000 4.0853000000 2.5129000000
0.4967000000 1.7033000000 1.3252000000
0.4958000000 0.9089000000 0.8867000000
0.2653000000 7.1360000000 0.6999000000
0.2610000000 4.7931000000 1.9219000000
0.2599000000 5.7386000000 1.4306000000
0.2585000000 5.8109000000 1.3879000000
0.2583000000 5.7665000000 1.4147000000
0.2576000000 0.4799000000 0.4517000000
0.2573000000 7.8112000000 0.2244000000
0.2570000000 6.0716000000 1.2523000000
0.2567000000 5.3362000000 1.6337000000
0.2562000000 4.1344000000 2.2669000000
0.2560000000 2.7931000000 1.6778000000
0.2558000000 5.1379000000 1.7443000000
0.2554000000 3.7049000000 2.1552000000
0.2552000000 1.6861000000 1.0957000000
0.2551000000 3.7878000000 2.1997000000
0.2548000000 6.1172000000 1.2280000000
0.2547000000 2.8186000000 1.6858000000
0.2545000000 5.6688000000 1.4597000000
0.2544000000 4.6883000000 1.9789000000
0.2540000000 4.4710000000 2.0881000000
0.2538000000 5.3482000000 1.6272000000
0.2535000000 4.1138000000 2.2803000000
0.2534000000 0.6408000000 0.5450000000
0.2530000000 5.9300000000 1.3194000000
0.2528000000 4.2680000000 2.1976000000
0.2526000000 1.1023000000 0.7853000000
0.2525000000 2.5840000000 1.5625000000
0.2519000000 3.0712000000 1.8219000000
0.2515000000 3.5821000000 2.0875000000
0.2513000000 0.9467000000 0.7007000000
0.2511000000 0.4704000000 0.4413000000
0.2509000000 5.6521000000 1.4688000000
0.2507000000 2.4082000000 1.4733000000
0.2499000000 0.4796000000 0.4362000000
0.2490000000 3.0447000000 1.8078000000
0.2483000000 1.6953000000 1.0978000000
0.2473000000 3.8235000000 2.2085000000
0.2453000000 1.5770000000 1.0291000000
0.0115000000 2.2356000000 1.1589000000
0.0093000000 4.3513000000 1.9307000000
0.0083000000 6.7085000000 0.6899000000
0.0082000000 7.3995000000 0.3197000000
0.0078000000 7.9365000000 0.0312000000
0.0072000000 2.3035000000 1.1976000000
0.0069000000 7.0755000000 0.4976000000
0.0067000000 3.4628000000 1.8078000000
0.0064000000 2.9502000000 1.5367000000
0.0060000000 6.0382000000 1.0441000000
0.0056000000 5.8214000000 1.1529000000
0.0054000000 4.0082000000 2.0689000000
0.0050000000 5.2379000000 1.4647000000
0.0048000000 3.3885000000 1.7590000000
0.0045000000 7.9215000000 0.0487000000
0.0043000000 0.1029000000 0.0976000000
0.0041000000 1.8037000000 0.9257000000
0.0039000000 7.7842000000 0.1182000000
0.0037000000 7.8878000000 0.0718000000
0.0035000000 1.8842000000 0.9709000000
0.0033000000 2.5208000000 1.3021000000
0.0030000000 2.2188000000 1.1426000000
0.0028000000 0.7130000000 0.3530000000
0.0025000000 3.6595000000 1.9044000000
0.0023000000 2.0345000000 1.0530000000
0.0019000000 4.3669000000 1.9158000000
0.0018000000 3.1712000000 1.6435000000
0.0016000000 3.1104000000 1.6134000000
0.0013000000 4.5256000000 1.8296000000
0.0012000000 0.8394000000 0.4113000000
0.0009000000 5.2236000000 1.4630000000
0.0006000000 6.3631000000 0.8612000000
0.0004000000 6.9143000000 0.5708000000
0.0001000000 1.2533000000 0.6343000000
-0.0004000000 3.8171000000 1.9824000000
-0.0005000000 2.9588000000 1.5268000000
-0.0008000000 3.0039000000 1.5613000000
-0.0013000000 7.7078000000 0.1570000000
-0.0017000000 2.2643000000 1.1649000000
-0.0044000000 2.5648000000 1.3201000000
-0.2348000000 4.4072000000 1.6771000000
-0.2401000000 4.6733000000 1.5342000000
-0.2409000000 6.9115000000 0.3591000000
-0.2413000000 3.4449000000 1.5632000000
-0.2417000000 6.6899000000 0.4779000000
-0.2424000000 2.5818000000 1.1147000000
-0.2428000000 0.6565000000 0.0977000000
-0.2433000000 4.8006000000 1.4668000000
-0.2439000000 7.1751000000 0.2183000000
-0.2442000000 5.2018000000 1.2529000000
-0.2444000000 1.6077000000 0.5973000000
-0.2449000000 5.1503000000 1.2811000000
-0.2451000000 1.9741000000 0.7894000000
-0.2453000000 4.0712000000 1.8271000000
-0.2458000000 1.5441000000 0.5630000000
-0.2462000000 3.3548000000 1.5145000000
-0.2464000000 5.9498000000 0.8546000000
-0.2466000000 5.5931000000 1.0408000000
-0.2468000000 1.4420000000 0.5123000000
-0.2471000000 0.5620000000 0.0490000000
-0.2472000000 2.2985000000 0.9590000000
-0.2474000000 5.9545000000 0.8544000000
-0.2477000000 3.0665000000 1.3600000000
-0.2483000000 2.6955000000 1.1709000000
-0.2486000000 2.1009000000 0.8570000000
-0.2489000000 1.7527000000 0.6715000000
-0.2492000000 6.1526000000 0.7472000000
-0.2494000000 0.4526000000 0.0591000000
-0.2502000000 3.6146000000 1.6502000000
-0.2507000000 1.0386000000 0.2938000000
-0.2509000000 3.0256000000 1.3377000000
-0.2513000000 5.5732000000 1.0470000000
-0.2515000000 7.5937000000 0.0647000000
-0.2524000000 0.8068000000 0.1706000000
-0.2529000000 0.5977000000 0.0575000000
-0.2555000000 2.3591000000 0.9852000000
-0.4885000000 3.2734000000 1.2527000000
-0.4900000000 4.3257000000 1.4910000000
-0.4906000000 6.1664000000 0.5173000000
-0.4910000000 2.5475000000 0.8644000000
-0.4918000000 6.0542000000 0.5731000000
-0.4922000000 6.5672000000 0.3078000000
-0.4923000000 2.6560000000 0.9214000000
-0.4925000000 2.8010000000 0.9996000000
-0.4928000000 1.9135000000 0.5269000000
-0.4932000000 4.2465000000 1.5312000000
-0.4937000000 5.1120000000 1.0727000000
-0.4940000000 5.2419000000 1.0069000000
-0.4946000000 7.1670000000 0.0668000000
-0.4950000000 3.7147000000 1.4754000000
-0.4952000000 3.4530000000 1.3439000000
-0.4955000000 0.8604000000 0.0477000000
-0.4956000000 4.9545000000 1.1522000000
-0.4960000000 4.6623000000 1.3047000000
-0.4963000000 4.5029000000 1.3936000000
-0.4965000000 1.9858000000 0.5689000000
-0.4967000000 6.9921000000 0.0765000000
-0.4968000000 6.0602000000 0.5777000000
-0.4970000000 1.6281000000 0.3814000000
-0.4974000000 5.4889000000 0.8743000000
-0.4977000000 1.1882000000 0.1416000000
-0.4980000000 4.1610000000 1.5646000000
-0.4982000000 1.0720000000 0.0957000000
-0.4985000000 3.1605000000 1.1786000000
-0.4986000000 3.2840000000 1.2504000000
-0.4988000000 1.7606000000 0.4442000000
-0.4993000000 1.7227000000 0.4216000000
-0.4996000000 5.9216000000 0.6461000000
-0.5000000000 0.8779000000 0.0593000000
-0.5009000000 1.0638000000 0.0820000000
-0.5014000000 2.2903000000 0.7241000000
-0.5017000000 1.9400000000 0.5436000000
-0.5034000000 6.7807000000 0.1842000000
-0.7370000000 5.5356000000 0.6303000000
-0.7389000000 5.4018000000 0.6892000000
-0.7415000000 3.8285000000 1.3121000000
-0.7421000000 5.7164000000 0.5290000000
-0.7429000000 5.6125000000 0.5878000000
-0.7430000000 5.0470000000 0.8784000000
-0.7437000000 6.9246000000 0.0411000000
-0.7440000000 5.1685000000 0.8165000000
-0.7445000000 6.1687000000 0.2894000000
-0.7447000000 3.4861000000 1.1305000000
-0.7450000000 6.1500000000 0.2974000000
-0.7452000000 1.1623000000 0.0596000000
-0.7454000000 1.3029000000 0.0569000000
-0.7457000000 3.4784000000 1.1256000000
-0.7461000000 5.0326000000 0.8828000000
-0.7464000000 1.2801000000 0.0403000000
-0.7466000000 6.9735000000 0.0113000000
-0.7467000000 3.5511000000 1.1644000000
-0.7471000000 3.4216000000 1.0953000000
-0.7475000000 6.0213000000 0.3659000000
-0.7477000000 2.2682000000 0.4885000000
-0.7478000000 4.2858000000 1.2743000000
-0.7480000000 5.3054000000 0.7359000000
-0.7484000000 3.8892000000 1.3420000000
-0.7485000000 3.9400000000 1.3645000000
-0.7491000000 3.0115000000 0.8759000000
-0.7500000000 1.8583000000 0.2683000000
-0.7509000000 2.7349000000 0.7274000000
-0.7520000000 2.7698000000 0.7471000000
-0.7524000000 3.0296000000 0.8851000000
-0.7542000000 2.4892000000 0.6024000000
-0.9897000000 5.0106000000 0.6757000000
-0.9902000000 4.3278000000 1.0321000000
-0.9922000000 4.2633000000 1.0654000000
-0.9925000000 4.0039000000 1.1589000000
-0.9930000000 6.2116000000 0.1158000000
-0.9940000000 4.3413000000 1.0222000000
-0.9943000000 5.3138000000 0.5069000000
-0.9950000000 6.2664000000 0.0810000000
-0.9956000000 5.8043000000 0.2504000000
-0.9958000000 3.9277000000 1.1339000000
-0.9961000000 4.8541000000 0.7521000000
-0.9963000000 5.8324000000 0.2367000000
-0.9965000000 2.4460000000 0.3528000000
-0.9970000000 1.6470000000 0.0828000000
-0.9975000000 2.1367000000 0.1900000000
-0.9978000000 2.7382000000 0.5085000000
-0.9983000000 4.4214000000 0.9747000000
-0.9986000000 1.6192000000 0.0671000000
-0.9991000000 1.9818000000 0.1111000000
-0.9995000000 2.4986000000 0.3811000000
-0.9997000000 1.9460000000 0.0869000000
-1.0008000000 3.0460000000 0.6675000000
-1.0030000000 5.9655000000 0.1630000000
-1.0064000000 2.4117000000 0.3262000000
-1.2415000000 3.8296000000 0.8545000000
-1.2423000000 3.8707000000 0.8799000000
-1.2430000000 4.4878000000 0.7134000000
-1.2433000000 3.5748000000 0.7222000000
-1.2438000000 4.5805000000 0.6703000000
-1.2443000000 4.7347000000 0.5881000000
-1.2448000000 4.2343000000 0.8579000000
-1.2452000000 6.1248000000 0.0030000000
-1.2456000000 4.3363000000 0.7962000000
-1.2460000000 5.5136000000 0.1694000000
-1.2464000000 4.3132000000 0.8039000000
-1.2467000000 5.0508000000 0.4182000000
-1.2470000000 5.2270000000 0.3239000000
-1.2476000000 4.3399000000 0.7901000000
-1.2479000000 5.1796000000 0.3501000000
-1.2488000000 3.4860000000 0.6754000000
-1.2494000000 4.1845000000 0.8701000000
-1.2524000000 2.3653000000 0.0773000000
-1.4902000000 3.4603000000 0.4369000000
-1.4913000000 3.3811000000 0.3932000000
-1.4926000000 5.5785000000 0.0608000000
-1.4931000000 5.3940000000 0.0844000000
-1.4939000000 4.4236000000 0.5216000000
-1.4943000000 4.3638000000 0.5574000000
-1.4952000000 4.9143000000 0.2651000000
-1.4958000000 3.2384000000 0.3142000000
-1.4964000000 3.4920000000 0.4477000000
-1.4969000000 4.8047000000 0.3212000000
-1.4975000000 3.5697000000 0.4917000000
-1.4980000000 3.3891000000 0.3854000000
-1.4982000000 4.5495000000 0.4544000000
-1.4989000000 3.1850000000 0.2841000000
-1.4999000000 3.6950000000 0.5567000000
-1.5007000000 4.6154000000 0.4124000000
-1.5024000000 4.0865000000 0.6957000000
-1.5042000000 4.5896000000 0.4312000000
-1.7390000000 3.7862000000 0.3797000000
-1.7409000000 4.9734000000 0.0825000000
-1.7424000000 4.5328000000 0.2377000000
-1.7430000000 3.7157000000 0.3464000000
-1.7435000000 3.9701000000 0.4640000000
-1.7457000000 5.0782000000 0.0221000000
-1.7462000000 3.2434000000 0.0904000000
-1.7476000000 3.9091000000 0.4427000000
-1.7482000000 4.0614000000 0.4629000000
-1.7490000000 3.3460000000 0.1411000000
-1.7507000000 4.2839000000 0.3593000000
-1.9910000000 4.4103000000 0.0783000000
-1.9945000000 3.9282000000 0.2174000000
-1.9956000000 3.3600000000 0.0679000000
-1.9962000000 4.3988000000 0.0799000000
-1.9968000000 3.3355000000 0.0640000000
-1.9972000000 4.2840000000 0.1393000000
-1.9989000000 3.4122000000 0.0239000000
