4.5040000000 2.8562000000 0.4779000000
4.5035000000 3.7293000000 0.0568000000
4.5034000000 2.8274000000 0.4752000000
4.5026000000 2.3815000000 0.1188000000
4.5022000000 3.2057000000 0.1845000000
4.5021000000 3.2739000000 0.1397000000
4.5009000000 3.0363000000 0.3046000000
4.5001000000 2.8459000000 0.4800000000
4.5000000000 1.9788000000 0.0709000000
4.4999000000 1.9138000000 0.0270000000
4.4989000000 2.7559000000 0.3745000000
4.4956000000 3.3448000000 0.1715000000
4.2660000000 4.1561000000 0.0461000000
4.2616000000 1.9515000000 0.1031000000
4.2608000000 4.1247000000 0.0737000000
4.2605000000 4.0964000000 0.0118000000
4.2602000000 2.3258000000 0.3667000000
4.2587000000 3.6604000000 0.1640000000
4.2585000000 3.2675000000 0.4332000000
4.2569000000 2.1721000000 0.2610000000
4.2568000000 3.1684000000 0.4915000000
4.2562000000 1.8159000000 0.1043000000
4.2561000000 3.2126000000 0.4714000000
4.2560000000 2.0707000000 0.1938000000
4.2558000000 2.8891000000 0.7540000000
4.2556000000 2.6570000000 0.5981000000
4.2547000000 2.5979000000 0.5578000000
4.2545000000 3.9410000000 0.0537000000
4.2546000000 4.0247000000 0.0744000000
4.2545000000 2.6750000000 0.6043000000
4.2544000000 3.3721000000 0.3663000000
4.2543000000 4.1990000000 0.0296000000
4.2541000000 2.6832000000 0.6152000000
4.2540000000 2.4317000000 0.4418000000
4.2540000000 2.4524000000 0.4590000000
4.2537000000 4.0332000000 0.0672000000
4.2533000000 2.4150000000 0.4388000000
4.2532000000 2.2647000000 0.3273000000
4.2528000000 3.9756000000 0.0306000000
4.2527000000 3.0995000000 0.5575000000
4.2526000000 3.4116000000 0.3416000000
4.2522000000 1.8272000000 0.1127000000
4.2519000000 2.4871000000 0.4870000000
4.2514000000 2.2117000000 0.2983000000
4.2510000000 3.0619000000 0.5828000000
4.2506000000 4.0775000000 0.0365000000
4.2504000000 2.3359000000 0.3774000000
4.2500000000 1.8522000000 0.1313000000
4.2499000000 2.5030000000 0.4972000000
4.2498000000 1.5526000000 0.0791000000
4.2493000000 3.5100000000 0.2817000000
4.2493000000 2.2180000000 0.3078000000
4.2492000000 2.6961000000 0.6308000000
4.2483000000 3.2277000000 0.4688000000
4.2483000000 3.7787000000 0.1740000000
4.2482000000 3.4855000000 0.2924000000
4.2468000000 3.3764000000 0.3731000000
4.2463000000 2.8919000000 0.6870000000
4.0120000000 3.5972000000 0.4974000000
4.0114000000 2.9638000000 0.9319000000
4.0100000000 4.3350000000 0.0762000000
4.0099000000 2.4957000000 0.7726000000
4.0096000000 3.3865000000 0.6411000000
4.0096000000 2.4763000000 0.7622000000
4.0095000000 4.4380000000 0.0800000000
4.0092000000 4.0325000000 0.2051000000
4.0085000000 2.7796000000 0.9668000000
4.0085000000 4.5176000000 0.0286000000
4.0083000000 4.1478000000 0.1244000000
4.0083000000 3.2603000000 0.7326000000
4.0083000000 3.7921000000 0.3711000000
4.0082000000 3.7647000000 0.3863000000
4.0078000000 3.8122000000 0.3564000000
4.0074000000 4.6037000000 0.0435000000
4.0073000000 2.1231000000 0.5288000000
4.0069000000 2.9033000000 0.9781000000
4.0067000000 4.0348000000 0.2082000000
4.0066000000 3.6741000000 0.4508000000
4.0063000000 2.8154000000 1.0456000000
4.0062000000 1.2553000000 0.0114000000
4.0061000000 3.6706000000 0.4546000000
4.0060000000 4.1986000000 0.1748000000
4.0055000000 4.4201000000 0.0190000000
4.0055000000 4.2323000000 0.1515000000
4.0052000000 2.8739000000 1.0490000000
4.0051000000 2.9862000000 0.9212000000
4.0050000000 3.5295000000 0.5509000000
4.0049000000 4.1404000000 0.1326000000
4.0048000000 3.8838000000 0.3152000000
4.0047000000 1.1113000000 0.0712000000
4.0045000000 1.5357000000 0.1333000000
4.0045000000 4.2424000000 0.1435000000
4.0043000000 1.0279000000 0.0104000000
4.0039000000 1.6597000000 0.2113000000
4.0038000000 4.5512000000 0.0060000000
4.0037000000 4.4934000000 0.0475000000
4.0034000000 2.8155000000 1.0465000000
4.0029000000 2.3857000000 0.7119000000
4.0025000000 3.1028000000 0.8430000000
4.0024000000 1.1275000000 0.0017000000
4.0023000000 1.9061000000 0.3819000000
4.0022000000 2.1743000000 0.5637000000
4.0020000000 1.9228000000 0.3906000000
4.0011000000 2.5227000000 0.8004000000
4.0010000000 3.8536000000 0.3345000000
4.0010000000 1.9175000000 0.3938000000
4.0008000000 3.9144000000 0.2909000000
3.9999000000 1.1730000000 0.0408000000
3.9993000000 4.1138000000 0.1622000000
3.9992000000 3.7678000000 0.3968000000
3.9988000000 3.7790000000 0.3855000000
3.9979000000 4.0604000000 0.2010000000
3.9970000000 4.6179000000 0.0470000000
3.9948000000 3.6131000000 0.5082000000
3.9941000000 1.7667000000 0.2977000000
3.7620000000 5.0079000000 0.0587000000
3.7609000000 1.8529000000 0.6310000000
3.7608000000 3.9750000000 0.5346000000
3.7604000000 3.0971000000 1.1332000000
3.7602000000 4.5705000000 0.1343000000
3.7600000000 4.1602000000 0.4147000000
3.7595000000 4.1221000000 0.4350000000
3.7594000000 0.5994000000 0.0085000000
3.7592000000 4.8363000000 0.0316000000
3.7591000000 4.8771000000 0.0748000000
3.7589000000 3.4606000000 0.8900000000
3.7581000000 2.3830000000 0.9898000000
3.7580000000 0.9905000000 0.1252000000
3.7578000000 4.4492000000 0.2188000000
3.7578000000 2.3529000000 0.9733000000
3.7573000000 5.0552000000 0.0356000000
3.7571000000 4.6494000000 0.1576000000
3.7571000000 1.3403000000 0.2882000000
3.7570000000 1.1871000000 0.1830000000
3.7568000000 3.2780000000 1.0124000000
3.7565000000 3.4352000000 0.9078000000
3.7564000000 1.7202000000 0.5479000000
3.7562000000 2.3732000000 0.9896000000
3.7558000000 3.7574000000 0.6882000000
3.7557000000 4.6034000000 0.1176000000
3.7556000000 4.8352000000 0.0315000000
3.7552000000 4.0527000000 0.4871000000
3.7550000000 1.2576000000 0.2362000000
3.7548000000 3.3568000000 0.9637000000
3.7546000000 2.8002000000 1.3391000000
3.7546000000 2.4512000000 1.0484000000
3.7545000000 3.3225000000 0.9857000000
3.7544000000 0.7276000000 0.0236000000
3.7542000000 5.1022000000 0.0035000000
3.7541000000 1.6297000000 0.4853000000
3.7539000000 0.6280000000 0.0328000000
3.7535000000 2.7832000000 1.2704000000
3.7534000000 1.7773000000 0.5964000000
3.7533000000 3.3589000000 0.9677000000
3.7533000000 0.7766000000 0.0566000000
3.7532000000 3.0907000000 1.1462000000
3.7532000000 3.5918000000 0.8033000000
3.7531000000 2.3985000000 1.0095000000
3.7530000000 2.8309000000 1.3596000000
3.7529000000 0.8401000000 0.0314000000
3.7525000000 3.4854000000 0.8784000000
3.7525000000 0.6060000000 0.0185000000
3.7524000000 0.6797000000 0.0761000000
3.7523000000 1.0904000000 0.1250000000
3.7523000000 3.2321000000 1.0501000000
3.7520000000 1.9728000000 0.7269000000
3.7518000000 4.8404000000 0.0355000000
3.7516000000 1.5396000000 0.4311000000
3.7513000000 2.4781000000 1.0657000000
3.7513000000 1.5880000000 0.4629000000
3.7509000000 2.3712000000 0.9951000000
3.7507000000 4.5650000000 0.1464000000
3.7503000000 4.3644000000 0.2848000000
3.7503000000 2.3469000000 0.9783000000
3.7500000000 3.1491000000 1.1085000000
3.7499000000 2.1299000000 0.8330000000
3.7499000000 0.6664000000 0.0670000000
3.7495000000 1.7853000000 0.5994000000
3.7494000000 1.0965000000 0.1285000000
3.7490000000 0.9558000000 0.1158000000
3.7488000000 2.4971000000 1.0809000000
3.7481000000 0.7395000000 0.0430000000
3.7478000000 0.8942000000 0.0726000000
3.7477000000 2.0468000000 0.7752000000
3.5104000000 3.9360000000 0.8593000000
3.5102000000 5.0064000000 0.1282000000
3.5100000000 1.5309000000 0.7006000000
3.5079000000 5.4346000000 0.0731000000
3.5078000000 1.8668000000 0.9390000000
3.5075000000 3.6623000000 1.0423000000
3.5074000000 3.3480000000 1.2572000000
3.5071000000 5.3247000000 0.0699000000
3.5070000000 4.1689000000 0.7042000000
3.5069000000 5.2249000000 0.0603000000
3.5065000000 0.7690000000 0.1955000000
3.5063000000 1.1642000000 0.4614000000
3.5062000000 5.2701000000 0.0366000000
3.5058000000 0.2564000000 0.0759000000
3.5058000000 1.6063000000 0.7614000000
3.5057000000 3.7255000000 1.0124000000
3.5057000000 5.0792000000 0.1602000000
3.5055000000 4.2266000000 0.6653000000
3.5055000000 3.3455000000 1.2631000000
3.5054000000 5.3773000000 0.0332000000
3.5053000000 3.0034000000 1.4937000000
3.5052000000 3.1091000000 1.4261000000
3.5050000000 0.5712000000 0.1364000000
3.5047000000 2.8294000000 1.6450000000
3.5045000000 1.3283000000 0.5717000000
3.5044000000 3.0888000000 1.4369000000
3.5039000000 3.3061000000 1.2905000000
3.5039000000 1.6140000000 0.7678000000
3.5036000000 4.3947000000 0.5558000000
3.5035000000 4.0227000000 0.8058000000
3.5033000000 3.7305000000 1.0024000000
3.5032000000 0.5389000000 0.1203000000
3.5030000000 3.0381000000 1.4759000000
3.5030000000 2.1114000000 1.1109000000
3.5029000000 1.3526000000 0.5921000000
3.5027000000 2.0497000000 1.0719000000
3.5027000000 3.7964000000 0.9599000000
3.5025000000 0.1753000000 0.0151000000
3.5024000000 4.3914000000 0.5553000000
3.5023000000 4.5775000000 0.4339000000
3.5022000000 0.1694000000 0.0161000000
3.5022000000 2.3817000000 1.2908000000
3.5020000000 0.3528000000 0.0722000000
3.5018000000 4.4398000000 0.5266000000
3.5018000000 2.0440000000 1.0618000000
3.5016000000 0.8419000000 0.2526000000
3.5015000000 3.3438000000 1.2654000000
3.5013000000 2.6971000000 1.5138000000
3.5012000000 5.1781000000 0.1046000000
3.5011000000 0.3063000000 0.0370000000
3.5008000000 0.5429000000 0.1233000000
3.5007000000 2.6470000000 1.4749000000
3.5001000000 4.5967000000 0.4246000000
3.4999000000 5.0610000000 0.1035000000
3.4998000000 1.7776000000 0.8843000000
3.4997000000 1.1118000000 0.4400000000
3.4994000000 3.2334000000 1.3452000000
3.4990000000 1.1117000000 0.4315000000
3.4983000000 4.6667000000 0.3777000000
3.4971000000 3.0378000000 1.4785000000
3.4961000000 0.6197000000 0.1040000000
3.4953000000 3.0277000000 1.4922000000
3.4945000000 2.0910000000 1.1044000000
3.2612000000 5.2509000000 0.2595000000
3.2606000000 3.4570000000 1.4782000000
3.2603000000 0.8206000000 0.5238000000
3.2601000000 5.1093000000 0.3606000000
3.2600000000 3.7317000000 1.2903000000
3.2597000000 4.1494000000 1.0050000000
3.2593000000 3.1204000000 1.7095000000
3.2592000000 5.6748000000 0.0801000000
3.2589000000 5.0310000000 0.4035000000
3.2583000000 5.3202000000 0.2152000000
3.2579000000 4.3795000000 0.8497000000
3.2578000000 3.5734000000 1.3993000000
3.2573000000 4.8076000000 0.5642000000
3.2574000000 5.3573000000 0.1860000000
3.2573000000 1.0529000000 0.6856000000
3.2574000000 1.8096000000 1.1909000000
3.2572000000 3.0378000000 1.7614000000
3.2569000000 4.4004000000 0.8350000000
3.2568000000 2.4624000000 1.6335000000
3.2568000000 0.0409000000 0.0486000000
3.2567000000 4.8727000000 0.5238000000
3.2566000000 1.8283000000 1.2079000000
3.2565000000 4.8534000000 0.5291000000
3.2565000000 2.0813000000 1.3806000000
3.2564000000 3.9508000000 1.1450000000
3.2563000000 5.3682000000 0.1842000000
3.2560000000 1.6534000000 1.0883000000
3.2559000000 1.2731000000 0.8351000000
3.2559000000 4.5825000000 0.7137000000
3.2557000000 2.9687000000 1.8142000000
3.2556000000 2.2873000000 1.5204000000
3.2555000000 5.2745000000 0.2535000000
3.2552000000 3.9937000000 1.1139000000
3.2553000000 1.3942000000 0.9115000000
3.2550000000 4.3489000000 0.8705000000
3.2547000000 3.3858000000 1.5289000000
3.2546000000 0.6891000000 0.4435000000
3.2546000000 1.0747000000 0.6929000000
3.2544000000 1.8327000000 1.2136000000
3.2543000000 2.6809000000 1.7819000000
3.2541000000 4.0425000000 1.0899000000
3.2541000000 1.1189000000 0.7328000000
3.2540000000 1.9939000000 1.3246000000
3.2537000000 3.3538000000 1.5521000000
3.2535000000 0.3306000000 0.1999000000
3.2533000000 3.1832000000 1.6736000000
3.2533000000 1.4536000000 0.9537000000
3.2530000000 0.5009000000 0.3079000000
3.2529000000 5.3948000000 0.1656000000
3.2529000000 4.5542000000 0.7344000000
3.2528000000 1.6714000000 1.1076000000
3.2526000000 2.5217000000 1.6822000000
3.2525000000 2.5754000000 1.7184000000
3.2525000000 4.9090000000 0.4998000000
3.2523000000 5.1526000000 0.3352000000
3.2519000000 4.9271000000 0.4870000000
3.2519000000 2.9972000000 1.7979000000
3.2518000000 2.0768000000 1.3748000000
3.2517000000 0.0233000000 0.0970000000
3.2517000000 3.1421000000 1.6971000000
3.2516000000 1.9894000000 1.3209000000
3.2515000000 0.1155000000 0.1044000000
3.2514000000 4.6757000000 0.6581000000
3.2515000000 0.5172000000 0.3233000000
3.2513000000 5.2725000000 0.2573000000
3.2511000000 5.3412000000 0.2122000000
3.2511000000 2.4946000000 1.6614000000
3.2510000000 4.0431000000 1.0891000000
3.2510000000 0.0284000000 0.1028000000
3.2510000000 3.7197000000 1.3015000000
3.2507000000 5.5667000000 0.1110000000
3.2506000000 3.2627000000 1.6158000000
3.2503000000 5.3361000000 0.2097000000
3.2501000000 2.0993000000 1.3984000000
3.2497000000 1.0319000000 0.6813000000
3.2497000000 4.2807000000 0.9333000000
3.2496000000 1.1664000000 0.7672000000
3.2485000000 5.5523000000 0.1175000000
3.2483000000 1.2929000000 0.8536000000
3.2480000000 0.9670000000 0.6289000000
3.2480000000 3.2601000000 1.6220000000
3.2479000000 2.6163000000 1.7582000000
3.2473000000 0.6210000000 0.4036000000
3.2471000000 2.3492000000 1.5718000000
3.2468000000 2.1444000000 1.4341000000
3.2457000000 1.8304000000 1.2235000000
3.2451000000 1.1645000000 0.7737000000
3.2450000000 3.8341000000 1.2343000000
3.2445000000 0.1688000000 0.1649000000
3.0106000000 1.8836000000 1.5369000000
3.0105000000 5.5718000000 0.1666000000
3.0100000000 1.9541000000 1.5838000000
3.0097000000 1.9984000000 1.6138000000
3.0094000000 3.0660000000 2.0339000000
3.0091000000 2.1617000000 1.7246000000
3.0087000000 1.8662000000 1.5220000000
3.0085000000 2.7002000000 2.0894000000
3.0083000000 3.2285000000 1.9252000000
3.0082000000 2.2026000000 1.7445000000
3.0077000000 3.3486000000 1.8434000000
3.0077000000 2.6987000000 2.0913000000
3.0073000000 3.5934000000 1.6824000000
3.0072000000 1.4307000000 1.2285000000
3.0070000000 4.7368000000 0.9079000000
3.0069000000 2.2409000000 1.7707000000
3.0068000000 3.3012000000 1.8757000000
3.0066000000 5.2033000000 0.5626000000
3.0064000000 1.0432000000 0.9677000000
3.0062000000 3.3579000000 1.8412000000
3.0056000000 4.5799000000 1.0151000000
3.0053000000 1.8397000000 1.5034000000
3.0053000000 3.9527000000 1.4340000000
3.0051000000 5.3553000000 0.3845000000
3.0049000000 2.9300000000 2.1307000000
3.0047000000 5.6768000000 0.0275000000
3.0046000000 0.8138000000 0.8196000000
3.0045000000 3.1830000000 1.9603000000
3.0045000000 3.2540000000 1.9140000000
3.0044000000 4.1165000000 1.3231000000
3.0043000000 4.5447000000 1.0369000000
3.0042000000 2.4768000000 1.9414000000
3.0041000000 4.6508000000 0.9676000000
3.0042000000 0.6683000000 0.7120000000
3.0040000000 3.6795000000 1.6287000000
3.0040000000 3.1811000000 1.9632000000
3.0038000000 1.0601000000 0.9825000000
3.0038000000 3.3938000000 1.8210000000
3.0038000000 0.0896000000 0.1328000000
3.0036000000 3.0635000000 2.0407000000
3.0035000000 3.1657000000 1.9705000000
3.0035000000 2.8224000000 2.2310000000
3.0034000000 0.8236000000 0.8239000000
3.0033000000 4.3572000000 1.1690000000
3.0033000000 0.8714000000 0.8581000000
3.0032000000 4.6620000000 0.9652000000
3.0031000000 4.0806000000 1.3507000000
3.0030000000 3.1513000000 1.9826000000
3.0029000000 2.3049000000 1.8316000000
3.0028000000 3.8917000000 1.4826000000
3.0027000000 5.3762000000 0.3640000000
3.0025000000 3.3413000000 1.8476000000
3.0024000000 2.7188000000 2.1137000000
3.0021000000 1.3589000000 1.1932000000
3.0021000000 3.6039000000 1.6781000000
3.0019000000 1.9785000000 1.6093000000
3.0018000000 3.7705000000 1.5624000000
3.0015000000 4.1728000000 1.2939000000
3.0014000000 3.2643000000 1.9062000000
3.0014000000 2.2731000000 1.8106000000
3.0013000000 1.9436000000 1.5884000000
3.0012000000 4.9631000000 0.7540000000
3.0009000000 1.3664000000 1.1933000000
3.0008000000 2.4770000000 1.9487000000
3.0008000000 0.7085000000 0.7430000000
3.0007000000 4.5165000000 1.0652000000
3.0005000000 2.1668000000 1.7389000000
3.0004000000 3.6641000000 1.6370000000
3.0003000000 0.3352000000 0.3920000000
3.0000000000 4.0023000000 1.4130000000
2.9999000000 3.7048000000 1.6149000000
2.9998000000 0.3841000000 0.5235000000
2.9997000000 0.5323000000 0.6803000000
2.9995000000 3.9774000000 1.4252000000
2.9992000000 0.2199000000 0.2334000000
2.9991000000 4.9604000000 0.7617000000
2.9991000000 2.6049000000 2.0353000000
2.9990000000 5.3407000000 0.4072000000
2.9988000000 0.9211000000 0.8999000000
2.9981000000 1.9246000000 1.5725000000
2.9978000000 3.7680000000 1.5765000000
2.9977000000 1.8891000000 1.5557000000
2.9959000000 0.6154000000 0.6906000000
2.9957000000 0.5624000000 0.7096000000
2.9944000000 5.5586000000 0.1079000000
2.7653000000 2.0908000000 1.9592000000
2.7631000000 0.2945000000 0.3438000000
2.7624000000 1.9903000000 1.8987000000
2.7613000000 4.8176000000 1.1698000000
2.7606000000 3.3165000000 2.1570000000
2.7601000000 1.8020000000 1.7687000000
2.7600000000 1.1141000000 1.3143000000
2.7596000000 2.3562000000 2.1521000000
2.7591000000 5.6353000000 0.0818000000
2.7588000000 5.0372000000 0.8157000000
2.7588000000 0.8129000000 1.0879000000
2.7587000000 1.3453000000 1.4661000000
2.7581000000 4.7017000000 1.2754000000
2.7578000000 5.5066000000 0.1786000000
2.7576000000 0.6509000000 0.8214000000
2.7574000000 1.3294000000 1.4541000000
2.7573000000 0.5833000000 0.7312000000
2.7571000000 1.0774000000 1.2842000000
2.7570000000 3.8141000000 1.8227000000
2.7568000000 4.4175000000 1.4133000000
2.7566000000 3.9592000000 1.7274000000
2.7564000000 5.6770000000 0.0288000000
2.7563000000 4.9458000000 0.9452000000
2.7562000000 5.4045000000 0.3181000000
2.7560000000 5.6577000000 0.0552000000
2.7559000000 3.0168000000 2.3694000000
2.7558000000 2.0527000000 1.9512000000
2.7558000000 2.7152000000 2.3979000000
2.7558000000 4.3390000000 1.4697000000
2.7557000000 3.3688000000 2.1249000000
2.7557000000 4.0884000000 1.6391000000
2.7554000000 3.3560000000 2.1378000000
2.7554000000 3.5474000000 2.0035000000
2.7553000000 1.3725000000 1.4856000000
2.7553000000 3.5060000000 2.0371000000
2.7550000000 4.4003000000 1.4312000000
2.7550000000 3.7826000000 1.8482000000
2.7547000000 0.6096000000 0.7623000000
2.7546000000 1.7666000000 1.7525000000
2.7546000000 4.3272000000 1.4784000000
2.7545000000 4.7364000000 1.2576000000
2.7544000000 2.9262000000 2.4327000000
2.7544000000 2.8841000000 2.5157000000
2.7543000000 2.7664000000 2.4289000000
2.7543000000 3.8062000000 1.8330000000
2.7542000000 5.2578000000 0.5174000000
2.7540000000 1.9350000000 1.8707000000
2.7536000000 3.5936000000 1.9784000000
2.7535000000 4.0769000000 1.6464000000
2.7534000000 5.6526000000 0.0562000000
2.7533000000 4.7458000000 1.2518000000
2.7533000000 4.7667000000 1.2334000000
2.7533000000 5.1756000000 0.6354000000
2.7532000000 4.2478000000 1.5399000000
2.7531000000 0.5171000000 0.6363000000
2.7529000000 4.0351000000 1.6783000000
2.7528000000 1.6374000000 1.6672000000
2.7526000000 1.4503000000 1.5464000000
2.7525000000 0.8047000000 1.0280000000
2.7525000000 1.8731000000 1.8221000000
2.7524000000 1.5525000000 1.6228000000
2.7523000000 5.4127000000 0.3131000000
2.7522000000 0.1022000000 0.1536000000
2.7521000000 4.5274000000 1.3438000000
2.7520000000 1.7334000000 1.7311000000
2.7520000000 5.4012000000 0.3243000000
2.7518000000 1.9017000000 1.8498000000
2.7517000000 4.4240000000 1.4183000000
2.7516000000 4.9436000000 0.9466000000
2.7514000000 4.3786000000 1.4525000000
2.7513000000 5.5026000000 0.1917000000
2.7512000000 1.5013000000 1.5752000000
2.7510000000 0.3217000000 0.3790000000
2.7509000000 0.6596000000 0.8334000000
2.7507000000 0.1545000000 0.1502000000
2.7504000000 0.5648000000 0.7077000000
2.7503000000 5.5880000000 0.1472000000
2.7497000000 1.7016000000 1.7109000000
2.7494000000 1.5801000000 1.6382000000
2.7491000000 0.2547000000 0.2871000000
2.7488000000 0.2765000000 0.3174000000
2.7484000000 0.4778000000 0.5809000000
2.7482000000 2.8619000000 2.5319000000
2.7480000000 1.7428000000 1.7468000000
2.7474000000 0.7605000000 0.9665000000
2.7469000000 0.9889000000 1.2903000000
2.7468000000 5.2275000000 0.5633000000
2.7467000000 0.1183000000 0.1748000000
2.7461000000 2.2278000000 2.0741000000
2.7461000000 1.5630000000 1.6276000000
2.7457000000 0.5342000000 0.6623000000
2.7448000000 2.6266000000 2.3486000000
2.5116000000 5.2387000000 0.5425000000
2.5115000000 2.0820000000 2.2548000000
2.5113000000 1.6753000000 1.9791000000
2.5108000000 5.3690000000 0.3659000000
2.5107000000 3.9182000000 2.0438000000
2.5099000000 4.2818000000 1.8529000000
2.5099000000 5.5793000000 0.1571000000
2.5098000000 5.4728000000 0.2255000000
2.5091000000 2.1622000000 2.3102000000
2.5079000000 2.3615000000 2.4525000000
2.5077000000 3.5742000000 2.2786000000
2.5075000000 4.2919000000 1.8456000000
2.5070000000 3.1249000000 2.5846000000
2.5068000000 4.3286000000 1.8270000000
2.5067000000 2.4118000000 2.4876000000
2.5065000000 1.1150000000 1.4552000000
2.5061000000 2.6066000000 2.6110000000
2.5060000000 4.7022000000 1.2758000000
2.5057000000 3.9665000000 2.0168000000
2.5056000000 3.2835000000 2.4727000000
2.5055000000 1.8315000000 2.0907000000
2.5055000000 1.8974000000 2.1425000000
2.5054000000 1.0927000000 1.4189000000
2.5051000000 3.1736000000 2.5579000000
2.5050000000 3.3552000000 2.4292000000
2.5050000000 1.1173000000 1.4576000000
2.5048000000 5.1819000000 0.6212000000
2.5047000000 3.7555000000 2.1574000000
2.5046000000 5.6418000000 0.0766000000
2.5045000000 3.1474000000 2.5734000000
2.5044000000 2.7670000000 2.7264000000
2.5043000000 3.5894000000 2.2756000000
2.5041000000 1.7585000000 2.0432000000
2.5040000000 2.3426000000 2.4387000000
2.5039000000 3.2449000000 2.5102000000
2.5038000000 1.6793000000 1.9919000000
2.5038000000 4.9020000000 1.0000000000
2.5038000000 2.4750000000 2.5315000000
2.5037000000 4.7319000000 1.2337000000
2.5035000000 1.6607000000 1.9774000000
2.5035000000 2.9619000000 2.6980000000
2.5035000000 2.2901000000 2.4031000000
2.5030000000 2.8856000000 2.8100000000
2.5029000000 4.2681000000 1.8649000000
2.5028000000 4.5868000000 1.4307000000
2.5028000000 3.4431000000 2.3728000000
2.5027000000 3.9075000000 2.0551000000
2.5027000000 1.7187000000 2.0166000000
2.5026000000 0.4001000000 0.4787000000
2.5025000000 2.2435000000 2.3763000000
2.5025000000 1.8274000000 2.0960000000
2.5023000000 4.8014000000 1.1351000000
2.5021000000 2.3645000000 2.4551000000
2.5020000000 4.4422000000 1.6189000000
2.5019000000 1.0641000000 1.3817000000
2.5018000000 2.4569000000 2.5241000000
2.5015000000 4.4472000000 1.6168000000
2.5015000000 0.4626000000 0.5654000000
2.5012000000 4.9262000000 0.9725000000
2.5010000000 1.7890000000 2.0659000000
2.5009000000 4.6076000000 1.3991000000
2.5009000000 4.0629000000 1.9569000000
2.5008000000 1.7182000000 2.0201000000
2.5008000000 3.2552000000 2.5029000000
2.5007000000 1.4471000000 1.9014000000
2.5005000000 1.8019000000 2.0797000000
2.5004000000 2.3396000000 2.4484000000
2.5004000000 3.9468000000 2.0302000000
2.5002000000 1.7481000000 2.0335000000
2.5000000000 0.2592000000 0.2917000000
2.4999000000 0.0662000000 0.1013000000
2.4999000000 5.6714000000 0.0295000000
2.4998000000 1.4101000000 1.8598000000
2.4995000000 1.3187000000 1.7809000000
2.4994000000 5.3506000000 0.3910000000
2.4990000000 0.0882000000 0.1290000000
2.4990000000 0.7251000000 0.9197000000
2.4988000000 1.4941000000 1.8727000000
2.4983000000 0.8114000000 1.0384000000
2.4982000000 0.0198000000 0.0428000000
2.4981000000 3.5755000000 2.2937000000
2.4979000000 2.4939000000 2.5462000000
2.4977000000 3.7587000000 2.1683000000
2.4973000000 2.2910000000 2.4105000000
2.4972000000 0.6084000000 0.7625000000
2.4968000000 0.5408000000 0.6747000000
2.4959000000 3.9511000000 2.0378000000
2.4950000000 3.2997000000 2.4862000000
2.4948000000 3.1471000000 2.5822000000
2.2619000000 1.7617000000 2.3822000000
2.2596000000 5.0238000000 0.8353000000
2.2591000000 5.5453000000 0.1255000000
2.2588000000 2.1837000000 2.6227000000
2.2582000000 3.8124000000 2.4729000000
2.2581000000 3.0866000000 2.9045000000
2.2577000000 4.1138000000 2.0739000000
2.2575000000 4.7579000000 1.1963000000
2.2566000000 4.0918000000 2.1070000000
2.2566000000 4.4749000000 1.5742000000
2.2565000000 1.4673000000 1.9255000000
2.2564000000 2.0219000000 2.5136000000
2.2563000000 3.2686000000 2.7865000000
2.2563000000 3.2846000000 2.7763000000
2.2561000000 5.2141000000 0.5788000000
2.2560000000 4.9144000000 0.9845000000
2.2559000000 3.6356000000 2.5341000000
2.2558000000 3.4922000000 2.6344000000
2.2558000000 2.1063000000 2.5658000000
2.2557000000 0.9261000000 1.1911000000
2.2557000000 1.8425000000 2.4472000000
2.2554000000 0.5030000000 0.6176000000
2.2553000000 0.0255000000 0.0470000000
2.2553000000 3.1008000000 2.9022000000
2.2551000000 4.6381000000 1.3573000000
2.2550000000 1.1787000000 1.5329000000
2.2549000000 2.1617000000 2.6091000000
2.2547000000 4.7734000000 1.1804000000
2.2548000000 3.9092000000 2.3999000000
2.2547000000 2.3202000000 2.7225000000
2.2545000000 1.6095000000 2.1222000000
2.2545000000 4.5219000000 1.5166000000
2.2545000000 0.5043000000 0.6204000000
2.2543000000 2.5603000000 2.8819000000
2.2543000000 2.8708000000 3.1020000000
2.2541000000 4.5490000000 1.4845000000
2.2540000000 2.0839000000 2.5539000000
2.2540000000 2.1895000000 2.6306000000
2.2539000000 0.2362000000 0.2513000000
2.2539000000 2.8781000000 3.1030000000
2.2537000000 3.2590000000 2.7914000000
2.2536000000 1.3143000000 1.7188000000
2.2535000000 3.8748000000 2.4299000000
2.2534000000 5.5507000000 0.1208000000
2.2533000000 5.3591000000 0.3877000000
2.2531000000 0.4135000000 0.4985000000
2.2530000000 1.8563000000 2.4563000000
2.2529000000 2.3612000000 2.7473000000
2.2529000000 4.8764000000 1.0333000000
2.2528000000 1.1828000000 1.5426000000
2.2526000000 4.4016000000 1.6817000000
2.2525000000 3.5691000000 2.5796000000
2.2525000000 3.2987000000 2.7706000000
2.2524000000 2.2497000000 2.6756000000
2.2524000000 3.3109000000 2.7629000000
2.2523000000 5.3885000000 0.3366000000
2.2523000000 1.9762000000 2.4838000000
2.2522000000 1.1282000000 1.4704000000
2.2520000000 3.8923000000 2.4146000000
2.2520000000 4.1148000000 2.0707000000
2.2519000000 2.9977000000 2.9719000000
2.2518000000 5.0273000000 0.8277000000
2.2518000000 2.2002000000 2.6433000000
2.2518000000 2.1082000000 2.5773000000
2.2515000000 5.3799000000 0.3526000000
2.2515000000 3.6014000000 2.5616000000
2.2514000000 2.3935000000 2.7699000000
2.2512000000 3.5938000000 2.5687000000
2.2510000000 1.1996000000 1.5603000000
2.2510000000 3.9149000000 2.3908000000
2.2508000000 1.9180000000 2.4490000000
2.2503000000 1.9818000000 2.4958000000
2.2501000000 2.4531000000 2.8149000000
2.2499000000 0.3008000000 0.3440000000
2.2497000000 1.4966000000 1.9636000000
2.2490000000 1.5626000000 2.0557000000
2.2485000000 1.4495000000 1.9064000000
2.2485000000 2.9177000000 3.0264000000
2.2482000000 1.3865000000 1.8229000000
2.2471000000 1.9123000000 2.4487000000
2.2440000000 5.3015000000 0.4606000000
2.0112000000 4.5395000000 1.4993000000
2.0101000000 4.9477000000 0.9414000000
2.0096000000 3.1233000000 3.1736000000
2.0095000000 4.0901000000 2.1045000000
2.0093000000 4.4662000000 1.5932000000
2.0090000000 4.6048000000 1.4023000000
2.0083000000 5.3321000000 0.4188000000
2.0080000000 4.3801000000 1.7099000000
2.0078000000 3.6911000000 2.6414000000
2.0077000000 4.6914000000 1.2928000000
2.0075000000 1.9650000000 2.6033000000
2.0074000000 1.5731000000 2.0710000000
2.0073000000 4.9449000000 0.9467000000
2.0072000000 5.3532000000 0.3924000000
2.0071000000 2.7441000000 3.2971000000
2.0068000000 1.3410000000 1.7608000000
2.0067000000 2.2974000000 3.0467000000
2.0065000000 3.7820000000 2.5177000000
2.0065000000 2.9206000000 3.3088000000
2.0062000000 1.1835000000 1.5403000000
2.0061000000 3.6024000000 2.7602000000
2.0060000000 5.1765000000 0.6330000000
2.0060000000 1.1952000000 1.5584000000
2.0058000000 1.1844000000 1.5441000000
2.0054000000 0.9318000000 1.2015000000
2.0053000000 5.5984000000 0.1322000000
2.0051000000 2.5439000000 3.1597000000
2.0051000000 5.6103000000 0.1127000000
2.0050000000 5.5131000000 0.1774000000
2.0046000000 4.2736000000 1.8536000000
2.0046000000 0.1214000000 0.1004000000
2.0044000000 3.9510000000 2.2966000000
2.0044000000 4.0700000000 2.1269000000
2.0043000000 2.5977000000 3.2030000000
2.0043000000 3.0281000000 3.2374000000
2.0042000000 4.7697000000 1.1817000000
2.0042000000 4.5944000000 1.4219000000
2.0040000000 3.1216000000 3.1771000000
2.0040000000 5.4812000000 0.2187000000
2.0039000000 5.4171000000 0.3030000000
2.0038000000 3.9014000000 2.3573000000
2.0036000000 0.7608000000 0.9665000000
2.0036000000 5.0879000000 0.7512000000
2.0035000000 4.4596000000 1.5996000000
2.0034000000 4.4699000000 1.5871000000
2.0032000000 4.2646000000 1.8723000000
2.0029000000 1.1841000000 1.5400000000
2.0028000000 4.0995000000 2.0908000000
2.0028000000 1.2267000000 1.6010000000
2.0027000000 1.2403000000 1.6190000000
2.0026000000 1.3041000000 1.7062000000
2.0024000000 0.2624000000 0.2930000000
2.0023000000 2.7304000000 3.2959000000
2.0023000000 4.8001000000 1.1384000000
2.0023000000 3.7221000000 2.6060000000
2.0021000000 4.8882000000 1.0202000000
2.0019000000 2.4878000000 3.1272000000
2.0015000000 0.4056000000 0.4885000000
2.0015000000 1.8068000000 2.3822000000
2.0013000000 5.4835000000 0.2087000000
2.0013000000 4.0528000000 2.1565000000
2.0012000000 0.0464000000 0.0802000000
2.0012000000 3.8749000000 2.3987000000
2.0009000000 2.1313000000 2.8794000000
2.0008000000 1.5657000000 2.0602000000
2.0006000000 0.3556000000 0.4227000000
2.0006000000 2.5254000000 3.1553000000
2.0002000000 4.8205000000 1.1126000000
2.0000000000 2.2866000000 3.0468000000
2.0000000000 0.7355000000 0.9355000000
1.9996000000 4.7358000000 1.2299000000
1.9991000000 2.1319000000 2.8850000000
1.9988000000 1.9066000000 2.5247000000
1.9987000000 1.0585000000 1.3745000000
1.9986000000 0.4856000000 0.5993000000
1.9985000000 0.7140000000 0.9070000000
1.9984000000 2.7544000000 3.3170000000
1.9983000000 0.2416000000 0.2725000000
1.9981000000 1.7000000000 2.2367000000
1.9980000000 1.5832000000 2.0849000000
1.9975000000 2.1519000000 2.9103000000
1.9975000000 1.2595000000 1.6484000000
1.9973000000 1.6915000000 2.2275000000
1.9963000000 2.5142000000 3.1508000000
1.9962000000 4.0955000000 2.0990000000
1.9944000000 0.0994000000 0.1475000000
1.7616000000 3.1236000000 3.4675000000
1.7614000000 2.0985000000 2.7811000000
1.7604000000 4.0824000000 2.1135000000
1.7599000000 3.3645000000 3.0873000000
1.7592000000 5.6520000000 0.0542000000
1.7591000000 5.4783000000 0.2231000000
1.7589000000 0.9329000000 1.1985000000
1.7584000000 5.1019000000 0.7333000000
1.7583000000 2.1518000000 2.8544000000
1.7583000000 4.2245000000 1.9270000000
1.7581000000 3.0367000000 3.5846000000
1.7577000000 2.7267000000 3.6361000000
1.7576000000 4.1299000000 2.0517000000
1.7569000000 5.0772000000 0.7630000000
1.7566000000 3.7699000000 2.5415000000
1.7565000000 5.2728000000 0.5003000000
1.7564000000 4.2288000000 1.9130000000
1.7564000000 5.1141000000 0.7117000000
1.7563000000 5.1006000000 0.7349000000
1.7557000000 4.3517000000 1.7521000000
1.7555000000 2.5422000000 3.4454000000
1.7553000000 4.8108000000 1.1206000000
1.7551000000 4.4061000000 1.6831000000
1.7550000000 2.9363000000 3.5798000000
1.7549000000 4.2360000000 1.9056000000
1.7545000000 4.4480000000 1.6152000000
1.7545000000 3.3205000000 3.1474000000
1.7545000000 4.4321000000 1.6374000000
1.7542000000 5.1654000000 0.6405000000
1.7541000000 5.0875000000 0.7493000000
1.7539000000 1.3901000000 1.8228000000
1.7540000000 4.8436000000 1.0886000000
1.7538000000 0.0860000000 0.1353000000
1.7538000000 4.4849000000 1.5675000000
1.7537000000 2.7383000000 3.6472000000
1.7536000000 3.7919000000 2.5018000000
1.7535000000 2.6518000000 3.5805000000
1.7535000000 3.9826000000 2.2457000000
1.7534000000 4.2724000000 1.8531000000
1.7533000000 1.3115000000 1.7171000000
1.7532000000 4.4049000000 1.6701000000
1.7531000000 2.0243000000 2.6790000000
1.7529000000 1.5228000000 2.0021000000
1.7527000000 4.8425000000 1.0835000000
1.7525000000 4.8033000000 1.1388000000
1.7525000000 4.2498000000 1.8890000000
1.7524000000 0.0668000000 0.1079000000
1.7520000000 5.4454000000 0.2670000000
1.7519000000 2.9077000000 3.6217000000
1.7519000000 4.2255000000 1.9194000000
1.7517000000 0.1502000000 0.1443000000
1.7516000000 3.7112000000 2.6190000000
1.7516000000 1.6633000000 2.1942000000
1.7514000000 0.4278000000 0.5169000000
1.7513000000 0.7054000000 0.8966000000
1.7511000000 1.4196000000 1.8593000000
1.7510000000 2.9059000000 3.6187000000
1.7509000000 3.4704000000 2.9386000000
1.7508000000 0.7367000000 0.9366000000
1.7506000000 1.5119000000 1.9898000000
1.7505000000 4.8905000000 1.0158000000
1.7500000000 2.7868000000 3.6203000000
1.7499000000 2.2004000000 2.9217000000
1.7498000000 0.6503000000 0.8223000000
1.7498000000 4.4212000000 1.6518000000
1.7497000000 0.7425000000 0.9428000000
1.7495000000 1.9919000000 2.6396000000
1.7493000000 0.9523000000 1.2259000000
1.7492000000 4.1099000000 2.0736000000
1.7488000000 1.8254000000 2.4126000000
1.7487000000 4.0757000000 2.1176000000
1.7484000000 2.7845000000 3.6313000000
1.7484000000 0.3152000000 0.3616000000
1.7483000000 3.2098000000 3.3005000000
1.7477000000 1.7341000000 2.2880000000
1.7472000000 1.6010000000 2.1087000000
1.7466000000 4.4628000000 1.5926000000
1.7462000000 0.7206000000 0.9173000000
1.7437000000 0.3852000000 0.4543000000
1.5145000000 4.9147000000 0.9817000000
1.5124000000 2.6353000000 3.5503000000
1.5116000000 3.8987000000 2.3574000000
1.5111000000 1.0846000000 1.4044000000
1.5104000000 4.6655000000 1.3210000000
1.5098000000 1.1518000000 1.5019000000
1.5097000000 2.3557000000 3.1323000000
1.5090000000 5.5412000000 0.1379000000
1.5086000000 5.6337000000 0.0844000000
1.5085000000 3.6835000000 2.6599000000
1.5082000000 0.4506000000 0.5549000000
1.5078000000 3.5471000000 2.8382000000
1.5077000000 2.0237000000 2.6828000000
1.5078000000 0.4047000000 0.4887000000
1.5076000000 5.2574000000 0.5207000000
1.5075000000 5.1474000000 0.6667000000
1.5072000000 1.8317000000 2.4243000000
1.5070000000 3.3079000000 3.1611000000
1.5066000000 2.0880000000 2.7693000000
1.5065000000 5.2829000000 0.4819000000
1.5064000000 3.7767000000 2.5314000000
1.5063000000 5.1358000000 0.6854000000
1.5062000000 5.0603000000 0.7906000000
1.5062000000 0.4116000000 0.4957000000
1.5061000000 4.0845000000 2.1132000000
1.5057000000 5.1324000000 0.6867000000
1.5057000000 0.1857000000 0.1867000000
1.5051000000 4.0809000000 2.1178000000
1.5050000000 0.2112000000 0.2269000000
1.5049000000 0.3450000000 0.4084000000
1.5048000000 5.5514000000 0.1197000000
1.5047000000 3.8516000000 2.4291000000
1.5047000000 2.3405000000 3.1121000000
1.5046000000 2.4325000000 3.2385000000
1.5043000000 0.8246000000 1.0563000000
1.5043000000 3.1313000000 3.4528000000
1.5042000000 1.7436000000 2.3003000000
1.5040000000 4.5400000000 1.4909000000
1.5038000000 3.4867000000 2.9232000000
1.5036000000 4.3897000000 1.6972000000
1.5035000000 0.1466000000 0.1402000000
1.5034000000 3.8479000000 2.4356000000
1.5033000000 0.3535000000 0.4219000000
1.5032000000 3.7807000000 2.5210000000
1.5031000000 5.1357000000 0.6854000000
1.5030000000 2.7438000000 3.5643000000
1.5028000000 3.7324000000 2.5897000000
1.5024000000 4.8363000000 1.0915000000
1.5023000000 2.9151000000 3.5811000000
1.5022000000 5.2989000000 0.4661000000
1.5021000000 4.7375000000 1.2236000000
1.5018000000 2.1501000000 2.8576000000
1.5018000000 3.5292000000 2.8623000000
1.5016000000 0.0322000000 0.0545000000
1.5016000000 5.3922000000 0.3386000000
1.5015000000 5.6883000000 0.0852000000
1.5015000000 1.1936000000 1.5605000000
1.5012000000 0.7966000000 1.0168000000
1.5009000000 0.9460000000 1.2209000000
1.5008000000 3.8010000000 2.4952000000
1.5002000000 1.3057000000 1.7103000000
1.4998000000 1.8557000000 2.4522000000
1.4999000000 2.6162000000 3.5251000000
1.4992000000 1.1726000000 1.5305000000
1.4989000000 3.7192000000 2.6060000000
1.4989000000 1.7439000000 2.3062000000
1.4988000000 0.3415000000 0.4037000000
1.4985000000 2.3061000000 3.0633000000
1.4983000000 0.8580000000 1.1026000000
1.4975000000 0.1599000000 0.1511000000
1.4968000000 3.3594000000 3.0940000000
1.4950000000 1.6402000000 2.1632000000
1.4940000000 2.5107000000 3.3928000000
1.2626000000 4.7409000000 1.2185000000
1.2621000000 4.3029000000 1.8105000000
1.2595000000 0.7431000000 0.9470000000
1.2593000000 2.8388000000 3.3990000000
1.2593000000 2.6989000000 3.2454000000
1.2590000000 4.6702000000 1.3202000000
1.2589000000 3.6461000000 2.7032000000
1.2585000000 4.0106000000 2.2146000000
1.2577000000 1.0846000000 1.4070000000
1.2572000000 3.9276000000 2.3265000000
1.2571000000 2.8046000000 3.3666000000
1.2570000000 1.9343000000 2.5634000000
1.2568000000 3.1007000000 3.1667000000
1.2565000000 4.5496000000 1.4767000000
1.2565000000 3.4123000000 2.9432000000
1.2564000000 2.7245000000 3.2582000000
1.2562000000 5.4794000000 0.2184000000
1.2562000000 4.1372000000 2.0407000000
1.2560000000 4.5945000000 1.4226000000
1.2558000000 0.7618000000 0.9700000000
1.2557000000 3.3965000000 2.9617000000
1.2557000000 5.0337000000 0.8226000000
1.2556000000 2.0157000000 2.6739000000
1.2555000000 3.5708000000 2.8595000000
1.2554000000 3.8056000000 2.4873000000
1.2554000000 4.5440000000 1.4848000000
1.2553000000 3.9184000000 2.3382000000
1.2550000000 3.4110000000 2.9442000000
1.2550000000 4.7386000000 1.2215000000
1.2547000000 1.3361000000 1.7488000000
1.2546000000 0.4768000000 0.5876000000
1.2545000000 2.8504000000 3.3856000000
1.2545000000 5.4849000000 0.2079000000
1.2542000000 3.0425000000 3.1974000000
1.2541000000 3.4373000000 2.9876000000
1.2540000000 3.7574000000 2.5439000000
1.2539000000 0.0930000000 0.1405000000
1.2538000000 0.6897000000 0.8693000000
1.2537000000 4.9622000000 0.9185000000
1.2536000000 4.3549000000 1.7498000000
1.2535000000 4.1061000000 2.0773000000
1.2534000000 1.7075000000 2.2529000000
1.2534000000 0.9951000000 1.2927000000
1.2533000000 1.6177000000 2.1319000000
1.2526000000 1.7882000000 2.3641000000
1.2524000000 0.9328000000 1.2044000000
1.2522000000 2.4317000000 3.0627000000
1.2520000000 4.8067000000 1.1288000000
1.2520000000 2.2041000000 2.9568000000
1.2519000000 1.4489000000 1.8995000000
1.2518000000 4.9136000000 0.9840000000
1.2518000000 1.6329000000 2.1495000000
1.2517000000 1.3749000000 1.8050000000
1.2516000000 4.7840000000 1.1606000000
1.2512000000 2.1894000000 2.9496000000
1.2507000000 4.0669000000 2.1349000000
1.2506000000 3.1946000000 3.0947000000
1.2505000000 2.4879000000 3.0955000000
1.2503000000 3.2621000000 3.0525000000
1.2501000000 2.0530000000 2.7208000000
1.2500000000 2.5506000000 3.1348000000
1.2497000000 4.5880000000 1.4255000000
1.2495000000 1.4355000000 1.8894000000
1.2493000000 3.4412000000 2.9831000000
1.2492000000 1.8566000000 2.4566000000
1.2484000000 0.5322000000 0.6566000000
1.2484000000 1.2786000000 1.6731000000
1.2483000000 1.4390000000 1.8904000000
1.2483000000 1.6198000000 2.1403000000
1.2483000000 0.7811000000 0.9981000000
1.2482000000 3.4240000000 2.9323000000
1.2481000000 0.3800000000 0.4543000000
1.2480000000 1.2364000000 1.6169000000
1.2480000000 1.5978000000 2.1014000000
1.2476000000 3.3218000000 3.0096000000
1.2475000000 2.9695000000 3.2438000000
1.2471000000 1.0077000000 1.3064000000
1.2470000000 3.1332000000 3.1338000000
1.2466000000 3.3361000000 3.0012000000
1.0109000000 4.9903000000 0.8778000000
1.0108000000 5.4906000000 0.2065000000
1.0109000000 4.0141000000 2.2573000000
1.0105000000 0.4349000000 0.5288000000
1.0104000000 1.1722000000 1.5271000000
1.0100000000 2.6722000000 2.9393000000
1.0097000000 0.8218000000 1.0531000000
1.0092000000 1.9550000000 2.4522000000
1.0088000000 2.8480000000 3.1063000000
1.0084000000 4.6224000000 1.3800000000
1.0083000000 1.0408000000 1.3524000000
1.0081000000 3.5024000000 2.6011000000
1.0078000000 1.7661000000 2.3757000000
1.0075000000 4.3059000000 1.8133000000
1.0070000000 4.3923000000 1.6925000000
1.0069000000 3.9231000000 2.3604000000
1.0065000000 0.7880000000 1.0018000000
1.0063000000 5.3642000000 0.3835000000
1.0058000000 4.7133000000 1.2578000000
1.0055000000 4.3937000000 1.6927000000
1.0053000000 2.5455000000 2.8485000000
1.0052000000 0.3448000000 0.4095000000
1.0049000000 3.3036000000 2.7293000000
1.0048000000 3.7858000000 2.4069000000
1.0047000000 0.5193000000 0.6414000000
1.0047000000 2.5576000000 2.8456000000
1.0046000000 1.7455000000 2.3577000000
1.0046000000 1.9132000000 2.4143000000
1.0045000000 5.2134000000 0.5780000000
1.0045000000 0.9911000000 1.2877000000
1.0044000000 4.5206000000 1.5240000000
1.0044000000 4.7502000000 1.2103000000
1.0043000000 3.1505000000 2.8413000000
1.0041000000 5.4595000000 0.2437000000
1.0040000000 4.8566000000 1.0653000000
1.0039000000 4.7309000000 1.2350000000
1.0036000000 4.8717000000 1.0447000000
1.0034000000 2.4407000000 2.7738000000
1.0033000000 2.6082000000 2.8811000000
1.0032000000 3.3065000000 2.7322000000
1.0031000000 0.9055000000 1.1647000000
1.0030000000 0.0104000000 0.0249000000
1.0030000000 4.1163000000 2.0673000000
1.0029000000 2.3216000000 2.6851000000
1.0028000000 4.3574000000 1.7430000000
1.0028000000 4.8615000000 1.0598000000
1.0026000000 0.5408000000 0.6725000000
1.0025000000 2.4241000000 2.7589000000
1.0025000000 0.5290000000 0.6519000000
1.0023000000 4.9966000000 0.8784000000
1.0021000000 5.4304000000 0.2898000000
1.0020000000 5.5984000000 0.1328000000
1.0018000000 3.1765000000 2.8162000000
1.0018000000 1.6432000000 2.2258000000
1.0018000000 4.4944000000 1.5550000000
1.0017000000 0.0467000000 0.0753000000
1.0016000000 1.2983000000 1.7021000000
1.0015000000 4.1701000000 1.9939000000
1.0015000000 0.0087000000 0.0243000000
1.0013000000 5.5937000000 0.1370000000
1.0012000000 2.7511000000 2.9731000000
1.0008000000 1.6362000000 2.2194000000
1.0005000000 2.1947000000 2.5984000000
1.0004000000 1.0785000000 1.3990000000
1.0004000000 4.3692000000 1.7240000000
1.0003000000 0.7796000000 0.9946000000
0.9999000000 2.4048000000 2.7501000000
0.9992000000 2.8334000000 3.0813000000
0.9990000000 0.5633000000 0.7070000000
0.9989000000 2.3790000000 2.7221000000
0.9985000000 4.5591000000 1.4670000000
0.9985000000 5.1807000000 0.6205000000
0.9983000000 3.8334000000 2.3667000000
0.9982000000 5.1800000000 0.6279000000
0.9981000000 3.5139000000 2.5858000000
0.9980000000 4.5169000000 1.5253000000
0.9974000000 2.4611000000 2.7769000000
0.9970000000 0.6290000000 0.7882000000
0.9968000000 2.3695000000 2.7184000000
0.9953000000 3.8821000000 2.3825000000
0.9951000000 4.8466000000 1.0789000000
0.9950000000 3.5138000000 2.5857000000
0.9946000000 2.4116000000 2.7442000000
0.7630000000 4.7944000000 1.1520000000
0.7623000000 3.8261000000 2.0957000000
0.7617000000 3.1269000000 2.5691000000
0.7610000000 3.3755000000 2.4010000000
0.7608000000 5.4438000000 0.2664000000
0.7600000000 5.0311000000 0.8288000000
0.7598000000 5.3094000000 0.4520000000
0.7598000000 5.1946000000 0.6044000000
0.7597000000 2.7623000000 2.7059000000
0.7594000000 4.6089000000 1.3992000000
0.7593000000 3.4793000000 2.3304000000
0.7589000000 2.9176000000 2.7087000000
0.7585000000 2.5396000000 2.5497000000
0.7583000000 5.4669000000 0.2315000000
0.7583000000 2.3170000000 2.3982000000
0.7579000000 5.5807000000 0.1578000000
0.7577000000 1.9918000000 2.1790000000
0.7573000000 1.7571000000 2.0151000000
0.7569000000 1.6369000000 1.9388000000
0.7567000000 3.5734000000 2.2621000000
0.7565000000 5.7025000000 0.0656000000
0.7566000000 0.9800000000 1.2692000000
0.7562000000 2.6977000000 2.6582000000
0.7561000000 3.7765000000 2.1183000000
0.7560000000 3.6353000000 2.2128000000
0.7560000000 2.0913000000 2.2409000000
0.7559000000 4.3521000000 1.7839000000
0.7559000000 3.3051000000 2.4422000000
0.7558000000 0.0221000000 0.0455000000
0.7551000000 3.8413000000 2.0739000000
0.7550000000 5.5664000000 0.1767000000
0.7549000000 3.6193000000 2.2211000000
0.7545000000 3.2446000000 2.4821000000
0.7541000000 1.8155000000 2.0572000000
0.7540000000 1.9569000000 2.1513000000
0.7538000000 1.4693000000 1.8139000000
0.7537000000 4.9847000000 0.8919000000
0.7537000000 0.5111000000 0.6300000000
0.7535000000 2.3307000000 2.4034000000
0.7535000000 1.0656000000 1.3823000000
0.7530000000 5.1583000000 0.6522000000
0.7530000000 3.6595000000 2.1992000000
0.7530000000 1.9921000000 2.1740000000
0.7529000000 3.7870000000 2.1087000000
0.7529000000 5.2323000000 0.5544000000
0.7528000000 2.9229000000 2.6948000000
0.7528000000 0.1139000000 0.1617000000
0.7527000000 3.8822000000 2.0480000000
0.7527000000 2.0175000000 2.1898000000
0.7526000000 0.4815000000 0.5908000000
0.7525000000 2.3704000000 2.4289000000
0.7525000000 2.3764000000 2.4307000000
0.7522000000 5.2986000000 0.4657000000
0.7521000000 4.8273000000 1.1048000000
0.7521000000 0.4669000000 0.5731000000
0.7520000000 1.9173000000 2.1183000000
0.7517000000 0.3777000000 0.4479000000
0.7514000000 1.2085000000 1.6286000000
0.7513000000 5.6675000000 0.0421000000
0.7511000000 1.4183000000 1.7816000000
0.7511000000 0.0352000000 0.0639000000
0.7510000000 3.3990000000 2.3734000000
0.7509000000 1.1371000000 1.4784000000
0.7508000000 4.8462000000 1.0846000000
0.7507000000 0.0307000000 0.0471000000
0.7508000000 1.2505000000 1.6849000000
0.7506000000 0.1328000000 0.1180000000
0.7504000000 1.2584000000 1.6920000000
0.7503000000 1.3970000000 1.8304000000
0.7497000000 5.6064000000 0.1263000000
0.7498000000 4.6459000000 1.3521000000
0.7491000000 0.8237000000 1.0599000000
0.7491000000 3.8782000000 2.0452000000
0.7490000000 0.3294000000 0.3804000000
0.7488000000 2.4200000000 2.4591000000
0.7485000000 1.1458000000 1.4970000000
0.7484000000 2.3525000000 2.4085000000
0.7483000000 1.3200000000 1.7630000000
0.7482000000 3.9316000000 2.0079000000
0.7469000000 0.8523000000 1.0920000000
0.5129000000 0.1948000000 0.1966000000
0.5087000000 2.9730000000 2.3757000000
0.5084000000 5.7005000000 0.0689000000
0.5085000000 2.2956000000 2.0888000000
0.5084000000 4.7560000000 1.2141000000
0.5082000000 2.3818000000 2.1493000000
0.5081000000 1.1948000000 1.3427000000
0.5080000000 2.8210000000 2.5015000000
0.5079000000 3.2490000000 2.1851000000
0.5078000000 4.8804000000 1.0855000000
0.5076000000 2.5581000000 2.2640000000
0.5071000000 3.3263000000 2.1359000000
0.5070000000 5.2288000000 0.5587000000
0.5067000000 2.5877000000 2.2853000000
0.5067000000 4.5947000000 1.2739000000
0.5064000000 0.2680000000 0.3037000000
0.5062000000 4.7659000000 1.2083000000
0.5061000000 3.3494000000 2.1195000000
0.5060000000 5.2193000000 0.5767000000
0.5059000000 2.6526000000 2.3310000000
0.5057000000 5.3585000000 0.3825000000
0.5056000000 2.4438000000 2.1898000000
0.5055000000 1.6570000000 1.6546000000
0.5055000000 0.1436000000 0.1311000000
0.5055000000 3.0849000000 2.2966000000
0.5051000000 5.4246000000 0.2905000000
0.5050000000 1.9018000000 1.8162000000
0.5050000000 1.2256000000 1.3616000000
0.5048000000 0.6466000000 0.8207000000
0.5047000000 1.9693000000 1.8627000000
0.5046000000 3.5908000000 1.9502000000
0.5045000000 0.4370000000 0.5331000000
0.5043000000 1.9481000000 1.8537000000
0.5043000000 0.4033000000 0.4882000000
0.5040000000 4.9580000000 0.9286000000
0.5040000000 2.3866000000 2.1472000000
0.5039000000 1.4793000000 1.5360000000
0.5038000000 5.6773000000 0.0254000000
0.5037000000 1.4280000000 1.4936000000
0.5036000000 1.3813000000 1.4720000000
0.5035000000 2.3889000000 2.1470000000
0.5032000000 1.8076000000 1.7544000000
0.5031000000 3.5312000000 1.9943000000
0.5031000000 1.7863000000 1.7328000000
0.5030000000 1.2275000000 1.3600000000
0.5028000000 5.1510000000 0.6704000000
0.5027000000 0.8812000000 1.1755000000
0.5026000000 1.4017000000 1.4797000000
0.5024000000 3.7091000000 1.8699000000
0.5023000000 2.6124000000 2.2968000000
0.5022000000 3.2743000000 2.1638000000
0.5018000000 3.6922000000 1.8821000000
0.5017000000 0.9028000000 1.1922000000
0.5017000000 2.0453000000 1.9124000000
0.5014000000 0.2658000000 0.2980000000
0.5010000000 2.7336000000 2.3788000000
0.5009000000 0.7048000000 0.8954000000
0.5009000000 0.8885000000 1.1818000000
0.5008000000 3.1219000000 2.2669000000
0.5004000000 1.2912000000 1.4000000000
0.5001000000 2.6692000000 2.3355000000
0.4997000000 1.5407000000 1.5627000000
0.4996000000 3.2255000000 2.1948000000
0.4993000000 3.0578000000 2.3037000000
0.4991000000 4.6351000000 1.2354000000
0.4990000000 1.3950000000 1.4757000000
0.4990000000 3.2658000000 2.1729000000
