3.2576000000 2.2026000000 1.2786000000
3.2571000000 4.0456000000 1.0991000000
3.2570000000 0.4704000000 0.3663000000
3.2569000000 5.4325000000 0.3706000000
3.2570000000 4.1370000000 1.0537000000
3.2568000000 4.7112000000 0.7530000000
3.2567000000 5.5837000000 0.2717000000
3.2566000000 3.0707000000 1.6184000000
3.2564000000 5.5586000000 0.2861000000
3.2563000000 5.8783000000 0.0825000000
3.2564000000 5.6374000000 0.2464000000
3.2563000000 2.7067000000 1.5539000000
3.2561000000 4.2140000000 1.0180000000
3.2560000000 3.3218000000 1.4830000000
3.2561000000 5.2957000000 0.4399000000
3.2560000000 4.2784000000 0.9768000000
3.2558000000 2.3427000000 1.3507000000
3.2557000000 3.5120000000 1.3799000000
3.2556000000 3.2495000000 1.5219000000
3.2555000000 5.8990000000 0.0636000000
3.2554000000 1.9615000000 1.1555000000
3.2552000000 5.9121000000 0.0468000000
3.2550000000 4.8018000000 0.7047000000
3.2549000000 5.1125000000 0.5404000000
3.2547000000 1.4547000000 0.8906000000
3.2543000000 1.8670000000 1.1034000000
3.2539000000 2.5270000000 1.4579000000
3.2538000000 1.1085000000 0.7049000000
3.2538000000 4.6896000000 0.7649000000
3.2533000000 4.1097000000 1.0708000000
3.2533000000 3.4811000000 1.4066000000
3.2531000000 3.8486000000 1.2022000000
3.2530000000 4.2285000000 1.0050000000
3.2530000000 2.4407000000 1.4075000000
3.2530000000 2.0504000000 1.2043000000
3.2525000000 1.0139000000 0.6539000000
3.2526000000 3.7115000000 1.2830000000
3.2525000000 1.1727000000 0.7432000000
3.2524000000 1.5113000000 0.9212000000
3.2524000000 3.1978000000 1.5556000000
3.2522000000 2.2586000000 1.3183000000
3.2519000000 2.5857000000 1.4898000000
3.2518000000 0.9234000000 0.6069000000
3.2517000000 0.1546000000 0.1386000000
3.2515000000 2.0910000000 1.2290000000
3.2515000000 5.5513000000 0.2986000000
3.2513000000 2.6215000000 1.5129000000
3.2513000000 1.5505000000 0.9442000000
3.2512000000 1.9664000000 1.1628000000
3.2508000000 4.5076000000 0.8630000000
3.2507000000 4.5120000000 0.8655000000
3.2507000000 3.8485000000 1.2080000000
3.2506000000 3.8268000000 1.2250000000
3.2501000000 3.8072000000 1.2356000000
3.2500000000 1.0060000000 0.6583000000
3.2499000000 0.2132000000 0.1837000000
3.2498000000 3.1482000000 1.5856000000
3.2498000000 3.3070000000 1.4948000000
3.2497000000 0.2036000000 0.1751000000
3.2495000000 0.2859000000 0.2567000000
3.2493000000 1.3422000000 0.8356000000
3.2490000000 0.6455000000 0.4687000000
3.2486000000 0.2297000000 0.2030000000
3.2484000000 2.3861000000 1.3808000000
3.2482000000 3.7054000000 1.2926000000
3.2480000000 0.1487000000 0.1337000000
3.2479000000 2.1398000000 1.2573000000
3.2475000000 0.0318000000 0.0844000000
3.2472000000 1.0695000000 0.6901000000
3.2471000000 2.5549000000 1.4799000000
3.2466000000 3.6602000000 1.3176000000
3.2448000000 0.0499000000 0.1009000000
3.2447000000 1.2384000000 0.7867000000
3.0123000000 5.3763000000 0.5410000000
3.0118000000 5.5081000000 0.4004000000
3.0099000000 0.3030000000 0.2952000000
3.0097000000 0.9417000000 0.8402000000
3.0097000000 2.4567000000 1.6499000000
3.0094000000 5.2229000000 0.6851000000
3.0090000000 5.5576000000 0.3510000000
3.0090000000 5.5839000000 0.3211000000
3.0087000000 3.8814000000 1.4135000000
3.0084000000 2.3075000000 1.5620000000
3.0083000000 5.5788000000 0.3251000000
3.0081000000 4.8804000000 0.8899000000
3.0080000000 4.7116000000 0.9831000000
3.0078000000 5.4637000000 0.4501000000
3.0078000000 5.8784000000 0.0834000000
3.0077000000 3.2669000000 1.7419000000
3.0076000000 5.9265000000 0.0301000000
3.0075000000 5.0800000000 0.7826000000
3.0074000000 0.9422000000 0.8442000000
3.0073000000 3.8035000000 1.4586000000
3.0072000000 3.6271000000 1.5564000000
3.0071000000 4.4786000000 1.1013000000
3.0070000000 4.1761000000 1.2587000000
3.0068000000 3.8999000000 1.4061000000
3.0067000000 5.3762000000 0.5385000000
3.0066000000 3.9826000000 1.3660000000
3.0066000000 2.1003000000 1.4539000000
3.0065000000 1.5667000000 1.1755000000
3.0064000000 1.9165000000 1.3595000000
3.0063000000 2.7394000000 1.7871000000
3.0063000000 0.3522000000 0.3545000000
3.0063000000 0.3815000000 0.3782000000
3.0062000000 0.8306000000 0.7890000000
3.0060000000 5.4504000000 0.4605000000
3.0059000000 4.1611000000 1.2685000000
3.0056000000 2.3726000000 1.6020000000
3.0055000000 2.0579000000 1.4375000000
3.0055000000 0.9248000000 0.8387000000
3.0054000000 5.1428000000 0.7356000000
3.0052000000 0.2099000000 0.1995000000
3.0051000000 5.0477000000 0.8075000000
3.0050000000 0.0707000000 0.0476000000
3.0050000000 1.8891000000 1.3449000000
3.0048000000 5.6663000000 0.2323000000
3.0048000000 5.7761000000 0.1171000000
3.0047000000 1.5779000000 1.1821000000
3.0046000000 1.6483000000 1.2205000000
3.0046000000 5.8681000000 0.0946000000
3.0045000000 1.2495000000 1.0090000000
3.0043000000 4.8499000000 0.9103000000
3.0043000000 0.6269000000 0.6175000000
3.0040000000 0.0238000000 0.0786000000
3.0041000000 1.6669000000 1.2333000000
3.0038000000 5.4991000000 0.4098000000
3.0037000000 3.3782000000 1.6906000000
3.0036000000 5.3792000000 0.5422000000
3.0035000000 5.3311000000 0.5838000000
3.0035000000 3.9387000000 1.3900000000
3.0033000000 1.7584000000 1.2790000000
3.0032000000 0.9526000000 0.8555000000
3.0030000000 1.2351000000 0.9987000000
3.0030000000 3.4175000000 1.6650000000
3.0030000000 5.7231000000 0.1746000000
3.0029000000 0.2383000000 0.2257000000
3.0028000000 4.8244000000 0.9238000000
3.0026000000 4.9325000000 0.8688000000
3.0026000000 4.3692000000 1.1719000000
3.0025000000 4.4478000000 1.1248000000
3.0024000000 4.0316000000 1.3428000000
3.0023000000 1.8477000000 1.3257000000
3.0022000000 4.2231000000 1.2443000000
3.0022000000 1.2626000000 1.0177000000
3.0021000000 4.1121000000 1.2931000000
3.0021000000 2.7263000000 1.7862000000
3.0020000000 0.2783000000 0.2689000000
3.0020000000 3.2148000000 1.7787000000
3.0018000000 0.5855000000 0.5943000000
3.0018000000 1.7955000000 1.3000000000
3.0017000000 1.2876000000 1.0354000000
3.0016000000 1.0755000000 0.9225000000
3.0015000000 5.8031000000 0.0891000000
3.0014000000 1.8563000000 1.3372000000
3.0014000000 0.8611000000 0.8062000000
3.0013000000 0.9174000000 0.8360000000
3.0011000000 4.6012000000 1.0433000000
3.0011000000 1.8017000000 1.3017000000
3.0010000000 0.8784000000 0.8172000000
3.0010000000 4.7209000000 0.9851000000
3.0009000000 0.2053000000 0.1929000000
3.0008000000 3.7806000000 1.4708000000
3.0004000000 3.4423000000 1.6572000000
3.0000000000 0.7275000000 0.7214000000
2.9997000000 3.1373000000 1.8171000000
2.9995000000 3.2591000000 1.7553000000
2.9993000000 0.7648000000 0.7368000000
2.9991000000 0.8906000000 0.8219000000
2.9988000000 2.0197000000 1.4193000000
2.9980000000 1.3753000000 1.0811000000
2.9974000000 0.8709000000 0.8157000000
2.9971000000 3.7929000000 1.4731000000
2.9966000000 3.7948000000 1.4706000000
2.9962000000 3.7772000000 1.4837000000
2.9959000000 1.3779000000 1.0835000000
2.7624000000 1.7596000000 1.5004000000
2.7609000000 1.8708000000 1.5574000000
2.7604000000 4.5942000000 1.2711000000
2.7596000000 0.4307000000 0.4351000000
2.7595000000 3.2635000000 1.9710000000
2.7595000000 3.7261000000 1.7266000000
2.7594000000 3.9790000000 1.5919000000
2.7590000000 2.8076000000 2.0590000000
2.7589000000 5.6389000000 0.2607000000
2.7588000000 3.8846000000 1.6469000000
2.7586000000 0.2455000000 0.2357000000
2.7586000000 2.6008000000 1.9467000000
2.7585000000 3.3045000000 1.9497000000
2.7578000000 4.1148000000 1.5178000000
2.7577000000 3.8238000000 1.6788000000
2.7575000000 2.2601000000 1.7682000000
2.7575000000 5.7347000000 0.1631000000
2.7574000000 3.8268000000 1.6721000000
2.7573000000 1.6414000000 1.4443000000
2.7573000000 4.4447000000 1.3498000000
2.7570000000 4.6508000000 1.2384000000
2.7570000000 2.3457000000 1.8169000000
2.7567000000 2.5531000000 1.9244000000
2.7567000000 4.4251000000 1.3621000000
2.7566000000 1.4375000000 1.3343000000
2.7565000000 5.6693000000 0.2319000000
2.7565000000 1.6866000000 1.4637000000
2.7563000000 0.7296000000 0.7478000000
2.7563000000 0.5878000000 0.5975000000
2.7561000000 2.1181000000 1.6950000000
2.7559000000 2.2931000000 1.7960000000
2.7558000000 2.6186000000 1.9611000000
2.7558000000 1.6469000000 1.4480000000
2.7556000000 1.9480000000 1.6040000000
2.7555000000 0.1841000000 0.1736000000
2.7554000000 5.4796000000 0.4323000000
2.7554000000 5.0179000000 0.9262000000
2.7553000000 0.8671000000 0.8949000000
2.7553000000 1.7041000000 1.4795000000
2.7552000000 4.8344000000 1.0944000000
2.7552000000 5.8994000000 0.0647000000
2.7548000000 1.8021000000 1.5303000000
2.7548000000 3.5833000000 1.8068000000
2.7547000000 0.1650000000 0.1527000000
2.7547000000 1.5115000000 1.3719000000
2.7546000000 1.5113000000 1.3745000000
2.7545000000 2.5730000000 1.9327000000
2.7544000000 5.0598000000 0.8785000000
2.7544000000 1.2298000000 1.2129000000
2.7542000000 3.2270000000 1.9958000000
2.7540000000 0.0006000000 0.0534000000
2.7540000000 4.3433000000 1.4065000000
2.7534000000 0.7040000000 0.7196000000
2.7534000000 4.1234000000 1.5211000000
2.7533000000 5.5884000000 0.3109000000
2.7532000000 4.2700000000 1.4413000000
2.7530000000 3.6702000000 1.7611000000
2.7529000000 5.5910000000 0.3146000000
2.7526000000 2.0799000000 1.6812000000
2.7524000000 0.7586000000 0.7742000000
2.7524000000 5.6963000000 0.2060000000
2.7523000000 4.3114000000 1.4223000000
2.7522000000 4.8997000000 1.0424000000
2.7519000000 4.2145000000 1.4681000000
2.7518000000 5.4086000000 0.5118000000
2.7518000000 4.0499000000 1.5588000000
2.7517000000 2.1837000000 1.7333000000
2.7516000000 0.3456000000 0.3427000000
2.7514000000 0.5542000000 0.5563000000
2.7512000000 3.6567000000 1.7711000000
2.7511000000 3.8722000000 1.6555000000
2.7510000000 1.1435000000 1.1740000000
2.7510000000 3.4696000000 1.8678000000
2.7509000000 0.8520000000 0.8816000000
2.7506000000 2.8184000000 2.0717000000
2.7505000000 3.1236000000 2.0454000000
2.7504000000 0.4774000000 0.4792000000
2.7503000000 0.1520000000 0.1360000000
2.7500000000 1.4130000000 1.3274000000
2.7499000000 1.0198000000 1.0524000000
2.7495000000 4.3945000000 1.3806000000
2.7493000000 1.1651000000 1.1782000000
2.7492000000 2.1185000000 1.7014000000
2.7490000000 0.7934000000 0.8155000000
2.7486000000 0.3011000000 0.2927000000
2.7486000000 1.3374000000 1.2914000000
2.7485000000 4.4744000000 1.3435000000
2.7478000000 3.7566000000 1.7163000000
2.7473000000 0.4072000000 0.4053000000
2.7470000000 0.1434000000 0.1343000000
2.7469000000 0.4296000000 0.4328000000
2.7466000000 0.7978000000 0.8193000000
2.7463000000 1.0462000000 1.0739000000
2.5123000000 4.9061000000 1.0350000000
2.5122000000 4.4771000000 1.4923000000
2.5120000000 4.5745000000 1.3899000000
2.5115000000 5.6718000000 0.2271000000
2.5110000000 5.9228000000 0.0399000000
2.5103000000 2.9474000000 2.3445000000
2.5100000000 4.2416000000 1.6784000000
2.5097000000 4.9933000000 0.9464000000
2.5093000000 4.5998000000 1.3595000000
2.5090000000 3.3838000000 2.1363000000
2.5085000000 1.7213000000 1.7097000000
2.5085000000 3.6841000000 1.9781000000
2.5080000000 2.4472000000 2.0951000000
2.5077000000 4.1088000000 1.7516000000
2.5076000000 4.7787000000 1.1731000000
2.5073000000 2.0403000000 1.8908000000
2.5073000000 1.2366000000 1.2845000000
2.5070000000 3.7168000000 1.9602000000
2.5068000000 3.8837000000 1.8677000000
2.5067000000 4.7786000000 1.1734000000
2.5066000000 5.6351000000 0.2691000000
2.5062000000 2.6152000000 2.1845000000
2.5062000000 2.7341000000 2.2513000000
2.5061000000 3.8382000000 1.8993000000
2.5058000000 4.0366000000 1.7946000000
2.5057000000 4.4749000000 1.4940000000
2.5056000000 2.3888000000 2.0674000000
2.5055000000 5.7627000000 0.1387000000
2.5055000000 3.7330000000 1.9522000000
2.5052000000 1.1081000000 1.1530000000
2.5050000000 2.7069000000 2.2311000000
2.5049000000 4.7940000000 1.1535000000
2.5049000000 4.8889000000 1.0556000000
2.5048000000 2.9935000000 2.3277000000
2.5048000000 5.8598000000 0.1025000000
2.5047000000 5.9374000000 0.0226000000
2.5046000000 5.2862000000 0.6424000000
2.5046000000 0.4167000000 0.4151000000
2.5044000000 0.2875000000 0.2781000000
2.5044000000 2.2288000000 1.9788000000
2.5043000000 4.8091000000 1.1417000000
2.5040000000 1.4867000000 1.5251000000
2.5040000000 5.6446000000 0.2559000000
2.5039000000 4.9211000000 1.0215000000
2.5035000000 1.3179000000 1.3700000000
2.5035000000 0.7329000000 0.7564000000
2.5034000000 3.6168000000 2.0134000000
2.5033000000 0.6994000000 0.7133000000
2.5033000000 0.8375000000 0.8663000000
2.5032000000 4.7034000000 1.2496000000
2.5031000000 4.2119000000 1.7051000000
2.5030000000 5.6250000000 0.2773000000
2.5030000000 4.6949000000 1.2626000000
2.5029000000 1.5757000000 1.6212000000
2.5028000000 2.0289000000 1.8807000000
2.5027000000 1.0110000000 1.0423000000
2.5026000000 5.8143000000 0.0768000000
2.5025000000 2.9004000000 2.3330000000
2.5023000000 1.3321000000 1.3876000000
2.5023000000 2.1745000000 1.9570000000
2.5023000000 4.9568000000 0.9839000000
2.5022000000 0.3764000000 0.3739000000
2.5021000000 0.6034000000 0.6151000000
2.5019000000 4.8577000000 1.0903000000
2.5017000000 2.6691000000 2.2167000000
2.5016000000 1.4130000000 1.4709000000
2.5017000000 4.2746000000 1.6551000000
2.5015000000 1.2211000000 1.2712000000
2.5013000000 5.1462000000 0.7858000000
2.5012000000 0.7366000000 0.7630000000
2.5012000000 5.3996000000 0.5178000000
2.5011000000 0.4211000000 0.4218000000
2.5008000000 0.0709000000 0.0553000000
2.5007000000 4.9676000000 0.9715000000
2.5004000000 3.5216000000 2.0737000000
2.5001000000 1.4235000000 1.4828000000
2.4997000000 5.1183000000 0.8120000000
2.4995000000 0.0702000000 0.0554000000
2.4975000000 5.8217000000 0.0686000000
2.4970000000 0.7014000000 0.7209000000
2.4963000000 1.5857000000 1.6353000000
2.4962000000 3.7581000000 1.9539000000
2.4957000000 1.4871000000 1.5325000000
2.4948000000 3.2100000000 2.2430000000
2.2622000000 4.3531000000 1.6236000000
2.2611000000 2.7993000000 2.5116000000
2.2605000000 1.0663000000 1.1052000000
2.2598000000 1.6080000000 1.6757000000
2.2596000000 5.6469000000 0.2527000000
2.2596000000 0.8468000000 0.8750000000
2.2589000000 0.1514000000 0.1409000000
2.2588000000 4.1067000000 1.8857000000
2.2587000000 3.7104000000 2.1949000000
2.2587000000 5.4334000000 0.4834000000
2.2586000000 1.8721000000 1.9526000000
2.2585000000 5.2573000000 0.6701000000
2.2584000000 5.3266000000 0.5968000000
2.2581000000 5.7511000000 0.1389000000
2.2581000000 2.1520000000 2.1645000000
2.2579000000 3.4371000000 2.3342000000
2.2578000000 5.9259000000 0.0356000000
2.2577000000 4.7345000000 1.2186000000
2.2576000000 2.9406000000 2.5659000000
2.2575000000 1.4402000000 1.4944000000
2.2573000000 5.6069000000 0.2968000000
2.2572000000 1.7668000000 1.8416000000
2.2571000000 2.7784000000 2.5046000000
2.2570000000 2.7179000000 2.4639000000
2.2570000000 0.4349000000 0.4363000000
2.2568000000 1.5213000000 1.5818000000
2.2564000000 3.6974000000 2.2049000000
2.2563000000 5.4878000000 0.4218000000
2.2563000000 3.1305000000 2.5011000000
2.2562000000 3.0921000000 2.5189000000
2.2561000000 4.2199000000 1.7623000000
2.2560000000 1.2294000000 1.2788000000
2.2560000000 5.8013000000 0.0849000000
2.2560000000 4.0811000000 1.9126000000
2.2558000000 2.2083000000 2.2057000000
2.2558000000 5.5117000000 0.3979000000
2.2553000000 0.8000000000 0.8231000000
2.2552000000 1.7857000000 1.8668000000
2.2552000000 2.3003000000 2.2506000000
2.2550000000 1.3946000000 1.4472000000
2.2548000000 1.0029000000 1.0353000000
2.2548000000 4.9160000000 1.0283000000
2.2547000000 4.2250000000 1.7588000000
2.2546000000 3.0717000000 2.5253000000
2.2543000000 4.8502000000 1.1000000000
2.2543000000 0.3509000000 0.3509000000
2.2542000000 1.4534000000 1.5125000000
2.2541000000 0.3458000000 0.3427000000
2.2540000000 1.3649000000 1.4160000000
2.2537000000 3.9113000000 2.0712000000
2.2536000000 3.3229000000 2.4000000000
2.2533000000 0.2902000000 0.2848000000
2.2533000000 3.9711000000 2.0100000000
2.2533000000 2.2349000000 2.2168000000
2.2531000000 3.6274000000 2.2416000000
2.2530000000 3.6733000000 2.2147000000
2.2529000000 3.4368000000 2.3455000000
2.2529000000 1.0285000000 1.0650000000
2.2528000000 2.6812000000 2.4534000000
2.2527000000 5.5626000000 0.3439000000
2.2526000000 1.4127000000 1.4707000000
2.2525000000 3.2244000000 2.4590000000
2.2523000000 4.3015000000 1.6751000000
2.2524000000 5.3110000000 0.6177000000
2.2523000000 2.3491000000 2.2795000000
2.2521000000 5.6415000000 0.2613000000
2.2520000000 0.6213000000 0.6329000000
2.2520000000 2.4172000000 2.3121000000
2.2520000000 4.9125000000 1.0271000000
2.2519000000 3.9515000000 2.0283000000
2.2518000000 0.2756000000 0.2682000000
2.2517000000 0.2737000000 0.2664000000
2.2518000000 2.2121000000 2.2024000000
2.2516000000 1.8571000000 1.9386000000
2.2515000000 0.5426000000 0.5518000000
2.2512000000 3.4467000000 2.3390000000
2.2510000000 1.2382000000 1.2881000000
2.2510000000 2.3562000000 2.2780000000
2.2509000000 1.8485000000 1.9317000000
2.2507000000 4.0832000000 1.9019000000
2.2507000000 0.7153000000 0.7327000000
2.2505000000 1.3294000000 1.3848000000
2.2503000000 1.7805000000 1.8664000000
2.2502000000 5.8799000000 0.0836000000
2.2500000000 0.5750000000 0.5862000000
2.2498000000 0.9137000000 0.9396000000
2.2496000000 1.2659000000 1.3119000000
2.2497000000 2.6034000000 2.4153000000
2.2491000000 3.8713000000 2.1043000000
2.2488000000 0.5678000000 0.5753000000
2.2488000000 1.6751000000 1.7502000000
2.2485000000 1.9618000000 2.0342000000
2.2484000000 3.9744000000 2.0061000000
2.2481000000 2.4186000000 2.3216000000
2.2479000000 0.1212000000 0.1083000000
2.2476000000 3.9446000000 2.0418000000
2.2473000000 0.2376000000 0.2222000000
2.2473000000 0.8961000000 0.9236000000
2.2472000000 4.7673000000 1.1841000000
2.2468000000 0.5721000000 0.5837000000
2.2466000000 2.0900000000 2.1362000000
2.2461000000 0.4278000000 0.4288000000
2.0131000000 5.2870000000 0.6350000000
2.0109000000 5.7728000000 0.1250000000
2.0107000000 0.5378000000 0.5449000000
2.0105000000 5.1281000000 0.8084000000
2.0097000000 2.4427000000 2.5389000000
2.0095000000 5.9152000000 0.0485000000
2.0095000000 1.9934000000 2.0879000000
2.0091000000 5.5134000000 0.3907000000
2.0090000000 4.5064000000 1.4561000000
2.0081000000 5.6348000000 0.2687000000
2.0082000000 0.2719000000 0.2683000000
2.0075000000 5.6133000000 0.2898000000
2.0075000000 3.9056000000 2.0905000000
2.0074000000 0.0479000000 0.1010000000
2.0073000000 3.5967000000 2.4223000000
2.0074000000 2.6765000000 2.6736000000
2.0071000000 3.1928000000 2.6982000000
2.0070000000 1.4250000000 1.4797000000
2.0070000000 2.8368000000 2.7624000000
2.0068000000 4.1940000000 1.7865000000
2.0067000000 4.3049000000 1.6779000000
2.0066000000 5.2904000000 0.6319000000
2.0065000000 1.8078000000 1.8836000000
2.0064000000 5.0114000000 0.9267000000
2.0064000000 4.5606000000 1.4016000000
2.0063000000 4.0439000000 1.9481000000
2.0058000000 4.4746000000 1.4941000000
2.0058000000 0.9054000000 0.9293000000
2.0053000000 3.7499000000 2.2585000000
2.0052000000 5.3806000000 0.5374000000
2.0050000000 4.4638000000 1.5017000000
2.0047000000 3.0111000000 2.7948000000
2.0046000000 0.6805000000 0.6885000000
2.0046000000 2.9020000000 2.7821000000
2.0045000000 4.1064000000 1.8823000000
2.0044000000 2.3252000000 2.4242000000
2.0043000000 3.6277000000 2.3898000000
2.0043000000 2.9177000000 2.7886000000
2.0042000000 0.9920000000 1.0278000000
2.0041000000 1.5076000000 1.5706000000
2.0041000000 4.5232000000 1.4426000000
2.0040000000 4.9016000000 1.0431000000
2.0040000000 1.3275000000 1.3780000000
2.0037000000 3.9353000000 2.0626000000
2.0036000000 4.2011000000 1.7819000000
2.0035000000 4.8955000000 1.0488000000
2.0034000000 1.7874000000 1.8626000000
2.0034000000 2.4949000000 2.5615000000
2.0032000000 0.7758000000 0.7988000000
2.0030000000 5.8485000000 0.1092000000
2.0028000000 3.7186000000 2.2915000000
2.0027000000 5.8640000000 0.0983000000
2.0027000000 0.0947000000 0.0782000000
2.0024000000 3.2969000000 2.6451000000
2.0023000000 5.8689000000 0.1033000000
2.0023000000 3.7822000000 2.2234000000
2.0022000000 3.6170000000 2.3977000000
2.0020000000 5.8433000000 0.0461000000
2.0019000000 3.9488000000 2.0443000000
2.0017000000 0.5457000000 0.5469000000
2.0015000000 3.7810000000 2.2261000000
2.0013000000 5.8842000000 0.0749000000
2.0013000000 1.9876000000 2.0792000000
2.0012000000 4.0743000000 1.9201000000
2.0011000000 5.0353000000 0.8991000000
2.0012000000 1.0640000000 1.0980000000
2.0010000000 3.7779000000 2.2314000000
2.0010000000 4.1289000000 1.8589000000
2.0007000000 0.1182000000 0.1040000000
2.0006000000 3.6387000000 2.3776000000
2.0004000000 3.9317000000 2.0712000000
2.0003000000 3.2339000000 2.6822000000
2.0003000000 3.8881000000 2.1134000000
2.0000000000 3.0638000000 2.7695000000
1.9995000000 2.3818000000 2.4751000000
1.9994000000 1.1509000000 1.1947000000
1.9988000000 5.3773000000 0.5398000000
1.9985000000 2.8626000000 2.7864000000
1.9983000000 2.2036000000 2.3079000000
1.9982000000 1.8775000000 1.9576000000
1.9973000000 2.9814000000 2.8035000000
1.9955000000 2.9247000000 2.8029000000
1.7618000000 3.0540000000 2.9652000000
1.7612000000 4.6185000000 1.3378000000
1.7606000000 0.2404000000 0.2255000000
1.7599000000 0.1096000000 0.1061000000
1.7593000000 5.8801000000 0.0853000000
1.7590000000 3.9862000000 2.0131000000
1.7588000000 5.1867000000 0.7450000000
1.7586000000 0.0259000000 0.0811000000
1.7586000000 5.1907000000 0.7377000000
1.7583000000 3.5828000000 2.4382000000
1.7582000000 2.3704000000 2.4770000000
1.7580000000 2.4047000000 2.5138000000
1.7579000000 3.8626000000 2.1420000000
1.7578000000 2.2256000000 2.3273000000
1.7578000000 4.5772000000 1.3879000000
1.7577000000 5.2004000000 0.7258000000
1.7577000000 2.9302000000 3.0402000000
1.7576000000 1.8372000000 1.9199000000
1.7573000000 4.3283000000 1.6477000000
1.7573000000 1.0967000000 1.1350000000
1.7571000000 4.9033000000 1.0411000000
1.7570000000 3.3857000000 2.6472000000
1.7569000000 5.2569000000 0.6610000000
1.7569000000 5.8079000000 0.0815000000
1.7566000000 2.2745000000 2.3806000000
1.7566000000 2.3418000000 2.4491000000
1.7564000000 0.1271000000 0.1143000000
1.7562000000 5.1632000000 0.7652000000
1.7560000000 4.0769000000 1.9106000000
1.7559000000 2.3105000000 2.4145000000
1.7559000000 4.0678000000 1.9200000000
1.7558000000 5.5981000000 0.3108000000
1.7557000000 2.8018000000 2.9258000000
1.7556000000 4.1268000000 1.8620000000
1.7553000000 3.3421000000 2.6905000000
1.7552000000 1.9184000000 2.0033000000
1.7551000000 2.5178000000 2.6371000000
1.7550000000 1.0659000000 1.1052000000
1.7547000000 3.1325000000 2.8952000000
1.7546000000 4.6168000000 1.3445000000
1.7544000000 0.3221000000 0.3215000000
1.7544000000 2.0858000000 2.1771000000
1.7541000000 4.7245000000 1.2304000000
1.7541000000 1.7229000000 1.7951000000
1.7540000000 0.9982000000 1.0295000000
1.7540000000 0.3824000000 0.3865000000
1.7539000000 4.3445000000 1.6318000000
1.7538000000 1.4612000000 1.5193000000
1.7537000000 1.0120000000 1.0487000000
1.7538000000 1.9657000000 2.0573000000
1.7535000000 0.3479000000 0.3478000000
1.7535000000 5.1691000000 0.7663000000
1.7533000000 2.3166000000 2.4304000000
1.7533000000 5.5495000000 0.3635000000
1.7531000000 3.2962000000 2.7370000000
1.7529000000 1.2042000000 1.2533000000
1.7527000000 4.7602000000 1.1894000000
1.7525000000 1.5794000000 1.6424000000
1.7525000000 4.9064000000 1.0396000000
1.7523000000 1.4341000000 1.4929000000
1.7522000000 1.5602000000 1.6255000000
1.7521000000 1.5407000000 1.6064000000
1.7519000000 2.6330000000 2.7634000000
1.7518000000 5.4855000000 0.4262000000
1.7515000000 1.0154000000 1.0495000000
1.7514000000 3.6842000000 2.3211000000
1.7514000000 0.2960000000 0.2886000000
1.7513000000 4.7786000000 1.1724000000
1.7511000000 0.2746000000 0.2667000000
1.7510000000 3.0983000000 2.9334000000
1.7508000000 1.7987000000 1.8743000000
1.7507000000 4.1688000000 1.8192000000
1.7507000000 2.3454000000 2.4567000000
1.7506000000 5.2252000000 0.6992000000
1.7505000000 2.7419000000 2.8708000000
1.7503000000 3.7292000000 2.2821000000
1.7502000000 2.9817000000 3.0399000000
1.7499000000 1.3998000000 1.4579000000
1.7498000000 2.7102000000 2.8401000000
1.7498000000 1.8588000000 1.9398000000
1.7497000000 4.2526000000 1.7290000000
1.7494000000 0.8741000000 0.9035000000
1.7493000000 3.0612000000 2.9526000000
1.7492000000 2.0082000000 2.0967000000
1.7487000000 0.1740000000 0.1596000000
1.7486000000 3.8835000000 2.1148000000
1.7485000000 0.8738000000 0.8993000000
1.7478000000 1.6267000000 1.6966000000
1.7444000000 0.8712000000 0.8937000000
1.5118000000 3.1958000000 2.7840000000
1.5111000000 5.1540000000 0.7750000000
1.5108000000 1.5606000000 1.6273000000
1.5106000000 2.5830000000 2.6862000000
1.5098000000 3.4485000000 2.5790000000
1.5096000000 3.5559000000 2.4606000000
1.5094000000 3.2587000000 2.7427000000
1.5093000000 5.6442000000 0.2629000000
1.5089000000 4.7790000000 1.1701000000
1.5088000000 1.6856000000 1.7556000000
1.5087000000 2.6719000000 2.7513000000
1.5083000000 3.9687000000 2.0286000000
1.5078000000 5.0457000000 0.8885000000
1.5078000000 4.2979000000 1.6830000000
1.5078000000 3.3511000000 2.6596000000
1.5076000000 2.5296000000 2.6320000000
1.5075000000 2.1962000000 2.2953000000
1.5073000000 4.6786000000 1.2813000000
1.5071000000 1.6548000000 1.7300000000
1.5068000000 5.5320000000 0.3849000000
1.5067000000 4.1915000000 1.7896000000
1.5065000000 3.5866000000 2.4332000000
1.5064000000 5.1531000000 0.7713000000
1.5063000000 0.0413000000 0.0959000000
1.5061000000 4.9995000000 0.9424000000
1.5061000000 4.0971000000 1.8961000000
1.5059000000 4.8183000000 1.1320000000
1.5057000000 5.0007000000 0.9375000000
1.5055000000 3.4852000000 2.5405000000
1.5052000000 0.2882000000 0.2821000000
1.5051000000 1.2098000000 1.2580000000
1.5051000000 5.6535000000 0.2488000000
1.5050000000 2.2098000000 2.3115000000
1.5049000000 1.4198000000 1.4777000000
1.5048000000 4.0888000000 1.9027000000
1.5047000000 3.2183000000 2.7599000000
1.5047000000 0.0156000000 0.0687000000
1.5045000000 0.9064000000 0.9366000000
1.5045000000 1.6295000000 1.6961000000
1.5044000000 5.8094000000 0.0830000000
1.5042000000 1.8679000000 1.9478000000
1.5041000000 2.6081000000 2.7101000000
1.5040000000 4.6649000000 1.2938000000
1.5039000000 1.7117000000 1.7871000000
1.5035000000 2.3954000000 2.5051000000
1.5031000000 2.4590000000 2.5714000000
1.5030000000 4.9989000000 0.9403000000
1.5028000000 0.5658000000 0.5768000000
1.5027000000 2.6093000000 2.7101000000
1.5027000000 3.7352000000 2.2727000000
1.5026000000 3.7820000000 2.2255000000
1.5025000000 1.1496000000 1.1927000000
1.5024000000 0.1349000000 0.1207000000
1.5023000000 2.1038000000 2.1991000000
1.5023000000 0.9275000000 0.9536000000
1.5023000000 5.3342000000 0.5855000000
1.5022000000 2.8260000000 2.8418000000
1.5021000000 1.5368000000 1.5957000000
1.5019000000 1.3925000000 1.4414000000
1.5018000000 0.0049000000 0.0542000000
1.5018000000 2.6113000000 2.7119000000
1.5017000000 1.3275000000 1.3811000000
1.5014000000 0.9259000000 0.9584000000
1.5012000000 0.1394000000 0.1268000000
1.5011000000 1.2243000000 1.2682000000
1.5010000000 5.6237000000 0.2805000000
1.5010000000 2.1901000000 2.2848000000
1.5010000000 2.7438000000 2.7985000000
1.5009000000 3.8345000000 2.1712000000
1.5008000000 4.3839000000 1.5911000000
1.5006000000 5.3404000000 0.5782000000
1.5005000000 3.1882000000 2.7881000000
1.5002000000 2.9272000000 2.8870000000
1.4998000000 3.7705000000 2.2430000000
1.4997000000 1.7203000000 1.7883000000
1.4996000000 5.0044000000 0.9367000000
1.4995000000 2.0345000000 2.1295000000
1.4990000000 0.6622000000 0.6742000000
1.4988000000 4.6792000000 1.2750000000
1.4983000000 0.3789000000 0.3780000000
1.4981000000 0.8623000000 0.8879000000
1.4973000000 0.5779000000 0.5898000000
1.4967000000 0.6052000000 0.6175000000
1.4955000000 0.9607000000 0.9939000000
1.2611000000 5.6232000000 0.2779000000
1.2593000000 3.4608000000 2.4223000000
1.2591000000 3.5207000000 2.3870000000
1.2590000000 4.6184000000 1.3387000000
1.2588000000 1.2938000000 1.3422000000
1.2581000000 2.6730000000 2.5404000000
1.2579000000 4.0855000000 1.9037000000
1.2577000000 2.9650000000 2.6677000000
1.2576000000 4.2927000000 1.6813000000
1.2575000000 5.7626000000 0.1399000000
1.2574000000 2.1799000000 2.2606000000
1.2570000000 1.1210000000 1.1589000000
1.2569000000 0.9833000000 1.0171000000
1.2568000000 2.4050000000 2.3978000000
1.2567000000 3.8572000000 2.1468000000
1.2566000000 0.4274000000 0.4291000000
1.2565000000 1.3450000000 1.4006000000
1.2561000000 1.6336000000 1.7012000000
1.2559000000 5.6243000000 0.2773000000
1.2557000000 2.1411000000 2.2180000000
1.2557000000 1.8780000000 1.9642000000
1.2556000000 3.8805000000 2.1209000000
1.2556000000 1.7639000000 1.8352000000
1.2555000000 3.1757000000 2.5647000000
1.2552000000 1.1146000000 1.1563000000
1.2550000000 0.5886000000 0.6015000000
1.2551000000 3.2300000000 2.5411000000
1.2550000000 0.9504000000 0.9812000000
1.2546000000 1.2147000000 1.2600000000
1.2545000000 4.7130000000 1.2376000000
1.2546000000 1.1045000000 1.1453000000
1.2550000000 3.7358000000 2.2525000000
1.2545000000 3.8192000000 2.1706000000
1.2543000000 3.6301000000 2.3214000000
1.2541000000 1.4547000000 1.5027000000
1.2540000000 2.6864000000 2.5473000000
1.2540000000 5.6973000000 0.1982000000
1.2539000000 3.5843000000 2.3542000000
1.2538000000 4.6022000000 1.3568000000
1.2538000000 4.4930000000 1.4697000000
1.2537000000 4.8905000000 1.0531000000
1.2536000000 5.0028000000 0.9375000000
1.2535000000 1.4666000000 1.5302000000
1.2534000000 1.5179000000 1.5820000000
1.2532000000 3.4237000000 2.4348000000
1.2532000000 3.0696000000 2.6260000000
1.2530000000 3.3930000000 2.4534000000
1.2528000000 1.6010000000 1.6694000000
1.2527000000 3.2868000000 2.5100000000
1.2527000000 2.6841000000 2.5384000000
1.2526000000 5.3226000000 0.5979000000
1.2525000000 2.8348000000 2.6201000000
1.2522000000 2.2612000000 2.2994000000
1.2520000000 2.5104000000 2.4496000000
1.2520000000 4.8460000000 1.1029000000
1.2519000000 0.6397000000 0.6551000000
1.2518000000 0.5547000000 0.5665000000
1.2517000000 4.6537000000 1.3072000000
1.2516000000 3.2957000000 2.5088000000
1.2515000000 2.9720000000 2.6533000000
1.2513000000 2.2368000000 2.2878000000
1.2513000000 2.0075000000 2.0946000000
1.2512000000 0.5438000000 0.5488000000
1.2511000000 0.0785000000 0.0585000000
1.2509000000 4.1344000000 1.8534000000
1.2508000000 4.9061000000 1.0346000000
1.2507000000 0.3139000000 0.3081000000
1.2507000000 2.5096000000 2.4456000000
1.2506000000 0.5426000000 0.5515000000
1.2503000000 4.2813000000 1.6968000000
1.2502000000 0.5164000000 0.5249000000
1.2499000000 3.0180000000 2.6527000000
1.2499000000 2.9454000000 2.6613000000
1.2495000000 1.4618000000 1.5229000000
1.2495000000 0.3139000000 0.3098000000
1.2488000000 3.6798000000 2.2811000000
1.2485000000 0.9522000000 0.9837000000
1.2481000000 4.3531000000 1.6257000000
1.2478000000 5.3989000000 0.5165000000
1.2473000000 2.6330000000 2.5092000000
1.2473000000 1.9125000000 1.9969000000
1.2460000000 1.3868000000 1.4375000000
1.2453000000 3.2756000000 2.5126000000
1.2452000000 0.0426000000 0.0983000000
1.2440000000 1.9880000000 2.0714000000
1.2427000000 2.5305000000 2.4492000000
1.0122000000 5.3366000000 0.5814000000
1.0110000000 5.1377000000 0.7944000000
1.0104000000 1.6551000000 1.7172000000
1.0091000000 5.5657000000 0.3392000000
1.0090000000 5.3314000000 0.5846000000
1.0087000000 5.5259000000 0.3844000000
1.0086000000 5.4298000000 0.4845000000
1.0086000000 1.4812000000 1.5502000000
1.0084000000 3.6071000000 2.1192000000
1.0084000000 4.9980000000 0.9355000000
1.0083000000 4.7350000000 1.2135000000
1.0076000000 1.8827000000 1.8905000000
1.0075000000 0.7155000000 0.7362000000
1.0073000000 4.5078000000 1.4541000000
1.0068000000 0.2303000000 0.2202000000
1.0065000000 3.3507000000 2.2508000000
1.0064000000 2.5381000000 2.2363000000
1.0062000000 2.0027000000 1.9506000000
1.0057000000 5.2168000000 0.7089000000
1.0056000000 1.4088000000 1.4658000000
1.0055000000 3.2361000000 2.3083000000
1.0053000000 4.8267000000 1.1224000000
1.0051000000 0.8893000000 0.9169000000
1.0050000000 5.2928000000 0.6306000000
1.0049000000 2.4724000000 2.2006000000
1.0048000000 4.1590000000 1.8009000000
1.0047000000 0.1377000000 0.1186000000
1.0046000000 1.6730000000 1.7252000000
1.0045000000 5.1454000000 0.7829000000
1.0043000000 2.4810000000 2.2062000000
1.0043000000 0.8526000000 0.8803000000
1.0041000000 0.4375000000 0.4356000000
1.0040000000 2.1767000000 2.0445000000
1.0040000000 3.2669000000 2.2957000000
1.0039000000 3.4317000000 2.2046000000
1.0039000000 0.0679000000 0.0505000000
1.0038000000 2.1220000000 2.0205000000
1.0035000000 2.1372000000 2.0221000000
1.0034000000 4.0938000000 1.8365000000
1.0033000000 1.9193000000 1.9104000000
1.0032000000 4.3566000000 1.6180000000
1.0031000000 4.4355000000 1.5339000000
1.0030000000 2.0709000000 1.9905000000
1.0030000000 0.3241000000 0.3190000000
1.0030000000 4.0384000000 1.8819000000
1.0028000000 5.8879000000 0.0729000000
1.0027000000 0.5723000000 0.5837000000
1.0025000000 0.8781000000 0.9081000000
1.0026000000 1.1548000000 1.1987000000
1.0023000000 3.8468000000 1.9858000000
1.0022000000 3.3846000000 2.2249000000
1.0020000000 0.4192000000 0.4179000000
1.0019000000 4.9064000000 1.0327000000
1.0015000000 2.6260000000 2.2800000000
1.0014000000 0.9113000000 0.9379000000
1.0014000000 4.9669000000 0.9737000000
1.0013000000 2.5196000000 2.2186000000
1.0012000000 5.1404000000 0.7844000000
1.0011000000 1.3676000000 1.4205000000
1.0010000000 0.9948000000 1.0320000000
1.0008000000 3.5556000000 2.1314000000
1.0008000000 4.1910000000 1.7734000000
1.0008000000 3.8531000000 1.9812000000
1.0007000000 4.0104000000 1.8949000000
1.0004000000 4.3713000000 1.6041000000
1.0003000000 1.9639000000 1.9296000000
1.0002000000 3.3895000000 2.2234000000
1.0000000000 0.8534000000 0.8788000000
1.0000000000 4.7595000000 1.1934000000
0.9994000000 0.1195000000 0.1022000000
0.9993000000 1.0820000000 1.1184000000
0.9990000000 2.0448000000 1.9711000000
0.9989000000 1.2807000000 1.3313000000
0.9988000000 2.0889000000 1.9953000000
0.9981000000 3.7690000000 2.0214000000
0.9978000000 4.6531000000 1.3013000000
0.9971000000 1.8091000000 1.8298000000
0.9968000000 2.8229000000 2.3774000000
0.9964000000 2.6726000000 2.2964000000
0.9945000000 5.2568000000 0.6666000000
0.7621000000 5.2752000000 0.6500000000
0.7602000000 3.8189000000 1.7796000000
0.7591000000 0.3095000000 0.3069000000
0.7589000000 3.5605000000 1.9126000000
0.7586000000 3.8380000000 1.7716000000
0.7585000000 4.1742000000 1.5880000000
0.7579000000 5.0757000000 0.8551000000
0.7577000000 5.7863000000 0.1056000000
0.7576000000 4.7335000000 1.2178000000
0.7573000000 5.0833000000 0.8503000000
0.7573000000 3.5630000000 1.9083000000
0.7571000000 4.5919000000 1.3525000000
0.7568000000 0.5636000000 0.5715000000
0.7567000000 4.4481000000 1.4429000000
0.7565000000 5.1202000000 0.8112000000
0.7564000000 2.9547000000 2.2144000000
0.7563000000 0.0911000000 0.0762000000
0.7560000000 4.5077000000 1.3953000000
0.7555000000 0.1393000000 0.1245000000
0.7555000000 0.2122000000 0.2007000000
0.7553000000 5.7005000000 0.1997000000
0.7553000000 2.9322000000 2.1997000000
0.7551000000 5.0284000000 0.9112000000
0.7550000000 2.0372000000 1.7422000000
0.7549000000 5.0794000000 0.8553000000
0.7549000000 3.7043000000 1.8283000000
0.7548000000 1.6595000000 1.5420000000
0.7546000000 3.3897000000 1.9996000000
0.7545000000 4.5444000000 1.3745000000
0.7545000000 0.8274000000 0.8548000000
0.7544000000 5.3722000000 0.5501000000
0.7544000000 4.9212000000 1.0169000000
0.7543000000 0.9712000000 1.0018000000
0.7542000000 4.4546000000 1.4372000000
0.7541000000 2.8039000000 2.1504000000
0.7540000000 5.7755000000 0.1193000000
0.7538000000 5.6624000000 0.2374000000
0.7538000000 2.1859000000 1.8204000000
0.7537000000 1.4414000000 1.4326000000
0.7536000000 4.7049000000 1.2394000000
0.7536000000 0.1616000000 0.1465000000
0.7535000000 0.2705000000 0.2634000000
0.7535000000 5.0500000000 0.8869000000
0.7534000000 5.2324000000 0.6949000000
0.7533000000 1.0456000000 1.0801000000
0.7533000000 2.7295000000 2.1114000000
0.7532000000 0.6356000000 0.6486000000
0.7531000000 1.9537000000 1.6953000000
0.7531000000 5.2399000000 0.6811000000
0.7529000000 3.5866000000 1.8918000000
0.7528000000 2.3936000000 1.9308000000
0.7527000000 1.7364000000 1.5803000000
0.7526000000 4.5147000000 1.3895000000
0.7524000000 4.3898000000 1.4738000000
0.7522000000 1.1004000000 1.1348000000
0.7522000000 3.8498000000 1.7588000000
0.7520000000 2.5560000000 2.0182000000
0.7518000000 4.4095000000 1.4522000000
0.7517000000 4.0974000000 1.6224000000
0.7517000000 2.0314000000 1.7382000000
0.7515000000 3.1379000000 2.1310000000
0.7515000000 0.2079000000 0.1989000000
0.7514000000 0.0139000000 0.0693000000
0.7514000000 5.7746000000 0.1162000000
0.7512000000 3.7770000000 1.7956000000
0.7510000000 0.2512000000 0.2442000000
0.7509000000 1.5939000000 1.5053000000
0.7507000000 2.8074000000 2.1425000000
0.7506000000 2.6228000000 2.0507000000
0.7503000000 5.1059000000 0.8288000000
0.7501000000 0.5790000000 0.5875000000
0.7500000000 1.4030000000 1.3993000000
0.7500000000 3.4859000000 1.9428000000
0.7497000000 3.5984000000 1.8851000000
0.7493000000 3.2929000000 2.0486000000
0.7490000000 3.2663000000 2.0572000000
0.7489000000 3.6331000000 1.8696000000
0.7488000000 1.5294000000 1.4733000000
0.7485000000 1.8293000000 1.6328000000
0.7485000000 0.5465000000 0.5581000000
0.7484000000 1.4492000000 1.4281000000
0.7483000000 1.0560000000 1.0889000000
0.7482000000 0.3275000000 0.3264000000
0.7480000000 2.6292000000 2.0534000000
0.7472000000 4.6592000000 1.2724000000
0.7470000000 4.2882000000 1.5204000000
0.7467000000 0.1519000000 0.1383000000
0.7459000000 1.8579000000 1.6360000000
0.7459000000 0.1879000000 0.1757000000
0.7443000000 3.0077000000 2.1832000000
0.7436000000 3.3866000000 1.9930000000
0.5120000000 3.2425000000 1.8584000000
0.5118000000 4.9773000000 0.9267000000
0.5104000000 2.0560000000 1.5309000000
0.5098000000 5.7300000000 0.1724000000
0.5096000000 4.9197000000 0.9615000000
0.5090000000 0.1769000000 0.1604000000
0.5089000000 5.8457000000 0.0434000000
0.5085000000 5.1578000000 0.7762000000
0.5084000000 4.3413000000 1.2679000000
0.5082000000 5.1883000000 0.7387000000
0.5080000000 5.0117000000 0.9001000000
0.5078000000 5.5798000000 0.3222000000
0.5077000000 3.8732000000 1.5257000000
0.5072000000 4.0701000000 1.4120000000
0.5070000000 1.5087000000 1.2415000000
0.5070000000 3.4534000000 1.7343000000
0.5068000000 3.1430000000 1.9015000000
0.5067000000 1.8967000000 1.4386000000
0.5066000000 3.3241000000 1.8083000000
0.5065000000 4.0657000000 1.4103000000
0.5065000000 4.9981000000 0.9018000000
0.5063000000 3.1450000000 1.8956000000
0.5060000000 4.4156000000 1.2326000000
0.5060000000 5.4256000000 0.4856000000
0.5059000000 1.8845000000 1.4369000000
0.5058000000 4.2436000000 1.3246000000
0.5055000000 2.3587000000 1.6814000000
0.5055000000 4.4241000000 1.2211000000
0.5054000000 3.3815000000 1.7733000000
0.5052000000 5.8117000000 0.0828000000
0.5050000000 1.6725000000 1.3218000000
0.5050000000 1.4269000000 1.1918000000
0.5049000000 4.3781000000 1.2488000000
0.5048000000 4.8770000000 0.9841000000
0.5047000000 5.7718000000 0.1203000000
0.5046000000 1.8398000000 1.4112000000
0.5045000000 2.6650000000 1.8422000000
0.5045000000 2.2042000000 1.6065000000
0.5042000000 2.2893000000 1.6463000000
0.5042000000 1.4586000000 1.2076000000
0.5040000000 0.1610000000 0.1422000000
0.5038000000 5.8593000000 0.1005000000
0.5037000000 5.1531000000 0.7725000000
0.5035000000 5.7394000000 0.1610000000
0.5034000000 5.8636000000 0.1025000000
0.5033000000 1.7253000000 1.3456000000
0.5032000000 1.4151000000 1.1832000000
0.5033000000 4.8117000000 1.0190000000
0.5031000000 0.7198000000 0.7400000000
0.5030000000 5.5016000000 0.4080000000
0.5030000000 0.9502000000 0.9281000000
0.5029000000 0.6838000000 0.6975000000
0.5028000000 1.1949000000 1.0656000000
0.5028000000 1.4565000000 1.2096000000
0.5028000000 2.5821000000 1.7946000000
0.5027000000 0.1744000000 0.1617000000
0.5026000000 0.9762000000 0.9386000000
0.5025000000 2.4902000000 1.7499000000
0.5024000000 1.4454000000 1.2018000000
0.5023000000 0.0777000000 0.0574000000
0.5023000000 3.1129000000 1.9134000000
0.5023000000 2.2002000000 1.6020000000
0.5020000000 4.0574000000 1.4149000000
0.5018000000 2.1837000000 1.5923000000
0.5018000000 0.9922000000 0.9661000000
0.5018000000 3.3270000000 1.8010000000
0.5015000000 2.2082000000 1.6015000000
0.5013000000 2.3741000000 1.6906000000
0.5013000000 0.5640000000 0.5718000000
0.5011000000 2.7296000000 1.8806000000
0.5010000000 0.4936000000 0.5035000000
0.5005000000 5.6900000000 0.2070000000
0.5002000000 2.8866000000 1.9581000000
0.5001000000 2.7369000000 1.8817000000
0.4999000000 3.6816000000 1.6104000000
0.4997000000 5.2573000000 0.6630000000
0.4996000000 1.0167000000 0.9732000000
0.4997000000 4.8955000000 0.9754000000
0.4995000000 3.2584000000 1.8380000000
0.4994000000 1.2668000000 1.1013000000
0.4993000000 1.7608000000 1.3636000000
0.4991000000 0.2881000000 0.2819000000
0.4988000000 3.2539000000 1.8355000000
0.4981000000 3.1054000000 1.9155000000
0.4980000000 2.6620000000 1.8386000000
0.4978000000 2.2878000000 1.6477000000
0.4974000000 1.8913000000 1.4318000000
0.4973000000 2.8725000000 1.9521000000
0.4966000000 2.3338000000 1.6621000000
0.4961000000 0.1549000000 0.1391000000
0.4912000000 2.3498000000 1.6691000000
0.2631000000 3.5081000000 1.4888000000
0.2623000000 5.7661000000 0.1317000000
0.2610000000 2.2779000000 1.4171000000
0.2602000000 2.3295000000 1.4479000000
0.2602000000 5.4637000000 0.4313000000
0.2600000000 1.1246000000 0.8106000000
0.2589000000 4.8176000000 0.7912000000
0.2585000000 2.0257000000 1.2838000000
0.2585000000 2.6645000000 1.6192000000
0.2584000000 4.6391000000 0.8904000000
0.2582000000 1.8641000000 1.1965000000
0.2581000000 4.1930000000 1.1237000000
0.2580000000 0.8700000000 0.6727000000
0.2576000000 3.7319000000 1.3674000000
0.2575000000 4.8384000000 0.7805000000
0.2575000000 1.7360000000 1.1311000000
0.2575000000 2.4247000000 1.4923000000
0.2570000000 3.9328000000 1.2538000000
0.2567000000 3.7847000000 1.3372000000
0.2565000000 2.6900000000 1.6317000000
0.2565000000 3.0252000000 1.7387000000
0.2563000000 2.8697000000 1.7273000000
0.2562000000 1.6741000000 1.0973000000
0.2561000000 4.9885000000 0.6960000000
0.2562000000 0.0274000000 0.0806000000
0.2561000000 3.5985000000 1.4327000000
0.2559000000 3.9107000000 1.2668000000
0.2557000000 1.4463000000 0.9767000000
0.2556000000 1.2852000000 0.8883000000
0.2555000000 4.0329000000 1.2009000000
0.2553000000 0.3316000000 0.3234000000
0.2553000000 4.1754000000 1.1262000000
0.2551000000 4.4332000000 0.9942000000
0.2550000000 4.0459000000 1.1919000000
0.2550000000 4.0420000000 1.1969000000
0.2549000000 4.4004000000 1.0104000000
0.2549000000 3.4369000000 1.5131000000
0.2548000000 4.5931000000 0.9063000000
0.2548000000 3.0995000000 1.6932000000
0.2548000000 2.1000000000 1.3179000000
0.2547000000 1.8921000000 1.2141000000
0.2544000000 3.4076000000 1.5332000000
0.2543000000 5.1176000000 0.6296000000
0.2542000000 5.8792000000 0.0783000000
0.2540000000 3.1606000000 1.6680000000
0.2539000000 4.8699000000 0.7585000000
0.2535000000 2.5011000000 1.5342000000
0.2535000000 5.8104000000 0.0883000000
0.2534000000 0.9275000000 0.6989000000
0.2533000000 2.7380000000 1.6555000000
0.2533000000 0.1152000000 0.1003000000
0.2532000000 2.8240000000 1.7018000000
0.2531000000 0.0921000000 0.0721000000
0.2530000000 4.3620000000 1.0231000000
0.2529000000 1.1685000000 0.8295000000
0.2528000000 0.4085000000 0.3845000000
0.2525000000 1.8996000000 1.2112000000
0.2524000000 1.2833000000 0.8846000000
0.2523000000 2.6353000000 1.5972000000
0.2523000000 5.1677000000 0.6038000000
0.2523000000 4.4821000000 0.9628000000
0.2521000000 1.8349000000 1.1776000000
0.2521000000 2.9754000000 1.7406000000
0.2520000000 2.9081000000 1.7291000000
0.2520000000 4.3970000000 1.0042000000
0.2519000000 0.1474000000 0.1347000000
0.2518000000 0.3408000000 0.3245000000
0.2517000000 2.4579000000 1.5042000000
0.2514000000 3.2058000000 1.6283000000
0.2513000000 0.0717000000 0.0566000000
0.2512000000 0.9194000000 0.6971000000
0.2512000000 3.1223000000 1.6780000000
0.2508000000 5.4949000000 0.3968000000
0.2505000000 5.6419000000 0.2620000000
0.2505000000 1.9490000000 1.2336000000
0.2505000000 3.7810000000 1.3286000000
0.2502000000 3.4893000000 1.4887000000
0.2502000000 2.5307000000 1.5440000000
0.2501000000 5.2964000000 0.5293000000
0.2500000000 3.1718000000 1.6478000000
0.2499000000 0.7522000000 0.6045000000
0.2495000000 1.4584000000 0.9757000000
0.2495000000 0.7060000000 0.5757000000
0.2495000000 4.9601000000 0.7089000000
0.2490000000 0.6224000000 0.5273000000
0.2486000000 3.4834000000 1.4905000000
0.2483000000 2.1228000000 1.3308000000
0.2478000000 1.1500000000 0.8132000000
0.2476000000 0.9511000000 0.7078000000
0.2473000000 0.2465000000 0.2432000000
0.2473000000 0.9999000000 0.7359000000
0.2471000000 3.2789000000 1.5960000000
0.2467000000 0.6146000000 0.5288000000
0.2459000000 2.9520000000 1.7417000000
0.2456000000 1.4002000000 0.9435000000
0.0104000000 4.2050000000 0.8862000000
0.0095000000 3.9983000000 0.9947000000
0.0093000000 5.2853000000 0.3198000000
0.0091000000 4.8267000000 0.5535000000
0.0089000000 3.9052000000 1.0435000000
0.0078000000 1.9986000000 1.0409000000
0.0074000000 1.9517000000 1.0112000000
0.0073000000 5.2272000000 0.3426000000
0.0071000000 5.2522000000 0.3291000000
0.0069000000 1.1964000000 0.6181000000
0.0067000000 4.4545000000 0.7522000000
0.0062000000 4.8094000000 0.5652000000
0.0061000000 2.4132000000 1.2591000000
0.0061000000 5.2711000000 0.3201000000
0.0059000000 0.0708000000 0.0742000000
0.0058000000 4.6636000000 0.6358000000
0.0057000000 3.7309000000 1.1306000000
0.0057000000 2.6443000000 1.3829000000
0.0056000000 5.6188000000 0.1357000000
0.0055000000 5.6525000000 0.1225000000
0.0050000000 1.7572000000 0.9061000000
0.0051000000 2.0126000000 1.0395000000
0.0047000000 2.1593000000 1.1242000000
0.0046000000 3.6885000000 1.1572000000
0.0045000000 4.7296000000 0.6061000000
0.0044000000 3.5550000000 1.2266000000
0.0044000000 5.3237000000 0.2924000000
0.0043000000 5.7421000000 0.0735000000
0.0043000000 1.3990000000 0.7193000000
0.0043000000 2.5113000000 1.3064000000
0.0040000000 3.0344000000 1.4981000000
0.0039000000 3.1011000000 1.4652000000
0.0039000000 3.8896000000 1.0467000000
0.0038000000 5.0154000000 0.4450000000
0.0038000000 0.2756000000 0.1268000000
0.0037000000 2.2954000000 1.2018000000
0.0036000000 4.6053000000 0.6677000000
0.0036000000 2.2507000000 1.1721000000
0.0034000000 1.6123000000 0.8300000000
0.0033000000 3.1624000000 1.4319000000
0.0033000000 2.2043000000 1.1412000000
0.0033000000 2.0490000000 1.0644000000
0.0031000000 0.8539000000 0.4337000000
0.0031000000 0.5692000000 0.2778000000
0.0030000000 5.4140000000 0.2420000000
0.0030000000 2.9811000000 1.5144000000
0.0029000000 5.8703000000 0.0572000000
0.0027000000 2.8225000000 1.4692000000
0.0027000000 5.2301000000 0.3337000000
0.0026000000 1.8570000000 0.9609000000
0.0025000000 4.8008000000 0.5666000000
0.0025000000 2.3888000000 1.2375000000
0.0025000000 2.9694000000 1.5174000000
0.0024000000 4.7355000000 0.5996000000
0.0023000000 5.0647000000 0.4225000000
0.0023000000 2.8220000000 1.4705000000
0.0021000000 0.8082000000 0.4085000000
0.0020000000 2.7565000000 1.4291000000
0.0018000000 3.1443000000 1.4398000000
0.0017000000 4.9268000000 0.4987000000
0.0015000000 2.2462000000 1.1654000000
0.0013000000 2.7201000000 1.4185000000
0.0012000000 0.8438000000 0.4258000000
0.0012000000 2.8062000000 1.4574000000
0.0010000000 0.6995000000 0.3501000000
0.0010000000 1.1968000000 0.6087000000
0.0008000000 2.1022000000 1.0942000000
0.0008000000 2.5167000000 1.3049000000
0.0007000000 4.7014000000 0.6125000000
0.0006000000 3.2916000000 1.3664000000
0.0004000000 3.5590000000 1.2170000000
0.0003000000 3.6380000000 1.1809000000
-0.0002000000 4.8882000000 0.5137000000
-0.0003000000 1.3240000000 0.6756000000
-0.0005000000 5.8946000000 0.0447000000
-0.0007000000 3.5514000000 1.2213000000
-0.0009000000 1.7726000000 0.9172000000
