5.5091000000 3.5304000000 0.0069000000
5.5065000000 3.4271000000 0.0417000000
5.5050000000 3.5296000000 0.0059000000
5.5043000000 2.9354000000 0.0213000000
5.5041000000 3.4925000000 0.0228000000
5.5021000000 3.0597000000 0.0680000000
5.5011000000 3.2229000000 0.0357000000
5.2584000000 3.7696000000 0.0734000000
5.2565000000 2.4428000000 0.0033000000
5.2563000000 3.5183000000 0.0901000000
5.2557000000 3.9532000000 0.0107000000
5.2552000000 2.9459000000 0.1038000000
5.2543000000 3.1172000000 0.1569000000
5.2533000000 2.6051000000 0.0594000000
5.2521000000 3.9047000000 0.0272000000
5.2514000000 2.5611000000 0.0401000000
5.0114000000 2.7452000000 0.1854000000
5.0093000000 3.2019000000 0.3326000000
5.0083000000 3.9032000000 0.1053000000
5.0079000000 2.9273000000 0.2441000000
5.0074000000 3.5612000000 0.2182000000
5.0060000000 4.3030000000 0.0402000000
5.0057000000 3.5179000000 0.2383000000
5.0055000000 3.9125000000 0.0973000000
5.0040000000 4.1829000000 0.0860000000
5.0032000000 2.4519000000 0.0821000000
5.0028000000 3.4118000000 0.2801000000
5.0028000000 3.3998000000 0.2827000000
5.0023000000 3.2688000000 0.3295000000
5.0013000000 2.7119000000 0.1758000000
5.0011000000 2.8896000000 0.2397000000
4.9995000000 2.4503000000 0.0786000000
4.7605000000 4.5918000000 0.0086000000
4.7595000000 2.4173000000 0.2177000000
4.7590000000 2.6191000000 0.2799000000
4.7575000000 3.3680000000 0.4451000000
4.7573000000 3.7095000000 0.3241000000
4.7573000000 3.0614000000 0.4406000000
4.7568000000 3.7283000000 0.3170000000
4.7563000000 3.3824000000 0.4342000000
4.7562000000 4.2853000000 0.1226000000
4.7556000000 4.0216000000 0.2135000000
4.7548000000 2.5321000000 0.2603000000
4.7546000000 1.9417000000 0.0544000000
4.7540000000 4.1547000000 0.1647000000
4.7534000000 4.3004000000 0.1162000000
4.7533000000 2.3937000000 0.2108000000
4.7527000000 4.5539000000 0.0357000000
4.7524000000 2.8198000000 0.3669000000
4.7523000000 1.7304000000 0.0608000000
4.7520000000 1.7391000000 0.0596000000
4.7516000000 2.4995000000 0.2492000000
4.7514000000 4.5046000000 0.0432000000
4.7510000000 3.4652000000 0.4091000000
4.7504000000 1.6721000000 0.0329000000
4.7479000000 4.1751000000 0.1660000000
4.7437000000 4.3078000000 0.1212000000
4.5116000000 4.8472000000 0.0769000000
4.5106000000 2.8994000000 0.5379000000
4.5091000000 3.2523000000 0.6214000000
4.5080000000 4.7417000000 0.1161000000
4.5069000000 2.1758000000 0.2866000000
4.5066000000 4.9953000000 0.0259000000
4.5062000000 3.0666000000 0.5973000000
4.5060000000 4.0456000000 0.3562000000
4.5058000000 1.8500000000 0.1665000000
4.5056000000 1.5684000000 0.0802000000
4.5053000000 1.8473000000 0.1695000000
4.5052000000 2.3859000000 0.3604000000
4.5050000000 5.1444000000 0.0502000000
4.5048000000 3.4167000000 0.5765000000
4.5046000000 2.8688000000 0.5265000000
4.5043000000 5.0131000000 0.0227000000
4.5041000000 3.6562000000 0.4934000000
4.5040000000 2.1012000000 0.2604000000
4.5038000000 1.9260000000 0.1999000000
4.5035000000 1.5784000000 0.0780000000
4.5033000000 2.8990000000 0.5418000000
4.5028000000 3.3419000000 0.6022000000
4.5026000000 3.6393000000 0.5016000000
4.5022000000 3.4403000000 0.5725000000
4.5019000000 1.2042000000 0.0242000000
4.5014000000 2.0408000000 0.2430000000
4.4998000000 4.0818000000 0.3437000000
4.4992000000 5.1498000000 0.0527000000
4.4959000000 1.3427000000 0.0805000000
4.2610000000 3.8884000000 0.5571000000
4.2606000000 5.5628000000 0.0540000000
4.2602000000 5.1292000000 0.1238000000
4.2585000000 1.2696000000 0.1205000000
4.2583000000 2.5550000000 0.5630000000
4.2579000000 3.8043000000 0.5859000000
4.2578000000 4.7571000000 0.2598000000
4.2575000000 4.8112000000 0.2403000000
4.2571000000 4.1073000000 0.4852000000
4.2567000000 2.6334000000 0.5930000000
4.2565000000 4.5205000000 0.3372000000
4.2559000000 5.4904000000 0.0808000000
4.2554000000 4.7721000000 0.2578000000
4.2553000000 4.7772000000 0.2508000000
4.2552000000 3.9324000000 0.5436000000
4.2551000000 5.0443000000 0.1604000000
4.2549000000 5.1069000000 0.1389000000
4.2547000000 5.4343000000 0.0265000000
4.2543000000 3.2263000000 0.7856000000
4.2541000000 1.2900000000 0.1349000000
4.2539000000 4.9487000000 0.2006000000
4.2538000000 5.5857000000 0.0496000000
4.2534000000 2.2781000000 0.4743000000
4.2527000000 3.1062000000 0.7579000000
4.2525000000 4.7482000000 0.2656000000
4.2521000000 4.4487000000 0.3718000000
4.2519000000 5.4764000000 0.0111000000
4.2514000000 3.9749000000 0.5361000000
4.2510000000 4.1673000000 0.4716000000
4.2505000000 1.4375000000 0.1876000000
4.2502000000 1.7655000000 0.2983000000
4.2497000000 1.5431000000 0.2218000000
4.0145000000 4.4732000000 0.5043000000
4.0122000000 5.4620000000 0.1624000000
4.0119000000 1.6097000000 0.3872000000
4.0108000000 4.0933000000 0.6351000000
4.0102000000 3.9681000000 0.6835000000
4.0099000000 4.1606000000 0.6153000000
4.0095000000 5.6672000000 0.0909000000
4.0093000000 3.4997000000 0.8484000000
4.0087000000 6.1134000000 0.0109000000
4.0083000000 4.1418000000 0.6206000000
4.0077000000 4.1940000000 0.6064000000
4.0073000000 4.9093000000 0.3541000000
4.0072000000 3.3228000000 0.9102000000
4.0069000000 2.3446000000 0.6371000000
4.0068000000 3.5416000000 0.8317000000
4.0065000000 5.1075000000 0.2944000000
4.0062000000 3.9743000000 0.6869000000
4.0061000000 1.0673000000 0.2000000000
4.0058000000 4.8118000000 0.3898000000
4.0055000000 6.0829000000 0.0222000000
4.0052000000 1.1288000000 0.2246000000
4.0047000000 1.6560000000 0.4060000000
4.0043000000 0.8279000000 0.1223000000
4.0042000000 6.0498000000 0.0334000000
4.0040000000 5.5796000000 0.1243000000
4.0038000000 6.1414000000 0.0044000000
4.0036000000 4.6704000000 0.4419000000
4.0035000000 4.5540000000 0.4867000000
4.0034000000 2.9431000000 0.8490000000
4.0030000000 3.4690000000 0.8613000000
4.0028000000 4.0780000000 0.6424000000
4.0027000000 1.4481000000 0.3382000000
4.0025000000 6.1368000000 0.0015000000
4.0023000000 3.2183000000 0.9360000000
4.0021000000 2.9972000000 0.8742000000
4.0020000000 5.9781000000 0.0571000000
4.0019000000 2.5837000000 0.7331000000
4.0017000000 2.7597000000 0.7961000000
4.0015000000 5.8244000000 0.0394000000
4.0015000000 2.0068000000 0.5296000000
4.0014000000 5.8500000000 0.0358000000
4.0012000000 1.5448000000 0.3752000000
4.0010000000 4.3646000000 0.5476000000
4.0006000000 1.8742000000 0.4854000000
4.0005000000 2.5288000000 0.7146000000
4.0001000000 2.8123000000 0.8099000000
3.9997000000 1.1142000000 0.2245000000
3.9989000000 2.0379000000 0.5409000000
3.9980000000 2.3690000000 0.6558000000
3.9978000000 1.6545000000 0.4047000000
3.9974000000 5.0338000000 0.3182000000
3.9964000000 1.6627000000 0.4123000000
3.9956000000 0.6512000000 0.0645000000
3.7625000000 5.2853000000 0.3698000000
3.7608000000 3.4204000000 1.0180000000
3.7603000000 6.1748000000 0.0654000000
3.7600000000 5.0693000000 0.4478000000
3.7596000000 4.3783000000 0.6945000000
3.7586000000 2.6870000000 0.9108000000
3.7583000000 0.8854000000 0.2809000000
3.7583000000 3.1536000000 1.0756000000
3.7578000000 1.2614000000 0.4239000000
3.7576000000 1.0860000000 0.3620000000
3.7574000000 5.7598000000 0.2117000000
3.7572000000 2.6379000000 0.8978000000
3.7569000000 2.6843000000 0.9135000000
3.7564000000 4.0843000000 0.7939000000
3.7560000000 2.5631000000 0.8680000000
3.7558000000 2.5550000000 0.8741000000
3.7553000000 2.2445000000 0.7670000000
3.7551000000 0.1630000000 0.0340000000
3.7548000000 0.7295000000 0.2398000000
3.7546000000 4.7675000000 0.5575000000
3.7545000000 1.5967000000 0.5376000000
3.7542000000 2.8229000000 0.9648000000
3.7540000000 4.6937000000 0.5768000000
3.7539000000 5.4414000000 0.3245000000
3.7536000000 0.4859000000 0.1528000000
3.7534000000 4.1322000000 0.7787000000
3.7532000000 3.1615000000 1.0738000000
3.7529000000 4.6981000000 0.5875000000
3.7525000000 1.3081000000 0.4396000000
3.7523000000 4.5059000000 0.6507000000
3.7521000000 5.6526000000 0.2548000000
3.7519000000 2.4414000000 0.8357000000
3.7518000000 3.0947000000 1.0642000000
3.7513000000 2.4553000000 0.8435000000
3.7511000000 0.5153000000 0.1702000000
3.7507000000 6.0338000000 0.1205000000
3.7502000000 1.1230000000 0.3723000000
3.7500000000 3.2519000000 1.0804000000
3.7490000000 3.0286000000 1.0389000000
3.7485000000 1.0712000000 0.3561000000
3.7479000000 0.5205000000 0.1679000000
3.7462000000 1.8507000000 0.6328000000
3.5151000000 4.9219000000 0.6498000000
3.5101000000 5.9920000000 0.2652000000
3.5094000000 3.8199000000 1.0412000000
3.5091000000 3.3252000000 1.2135000000
3.5087000000 4.8592000000 0.6695000000
3.5080000000 3.9284000000 1.0027000000
3.5079000000 6.2339000000 0.1443000000
3.5078000000 3.8585000000 1.0248000000
3.5075000000 1.6530000000 0.7045000000
3.5072000000 6.0074000000 0.2670000000
3.5068000000 0.4632000000 0.2899000000
3.5067000000 3.0740000000 1.1953000000
3.5063000000 2.4500000000 0.9811000000
3.5063000000 3.6718000000 1.0879000000
3.5060000000 2.4203000000 0.9715000000
3.5058000000 3.0558000000 1.2007000000
3.5051000000 3.4725000000 1.1640000000
3.5048000000 2.4430000000 0.9789000000
3.5046000000 1.5434000000 0.6632000000
3.5044000000 4.9837000000 0.6323000000
3.5043000000 0.1850000000 0.1407000000
3.5042000000 4.6010000000 0.7657000000
3.5038000000 0.9625000000 0.4664000000
3.5038000000 0.4845000000 0.2937000000
3.5037000000 0.6667000000 0.3649000000
3.5035000000 6.1109000000 0.2132000000
3.5034000000 6.2604000000 0.1199000000
3.5031000000 6.1462000000 0.1923000000
3.5026000000 2.6528000000 1.0594000000
3.5024000000 0.8807000000 0.4361000000
3.5023000000 2.6351000000 1.0504000000
3.5022000000 6.2430000000 0.1390000000
3.5017000000 4.9592000000 0.6480000000
3.5013000000 4.5388000000 0.7927000000
3.5008000000 4.0514000000 0.9626000000
3.5003000000 0.8184000000 0.4169000000
3.5000000000 0.4072000000 0.2699000000
3.4997000000 1.0252000000 0.4872000000
3.4991000000 1.4967000000 0.6573000000
3.4989000000 5.2339000000 0.5537000000
3.4973000000 4.1757000000 0.9160000000
3.4968000000 0.3469000000 0.2391000000
3.4962000000 0.8114000000 0.4150000000
3.4953000000 0.0873000000 0.0683000000
3.4935000000 2.2016000000 0.9056000000
3.2621000000 5.4905000000 0.6041000000
3.2615000000 2.6873000000 1.2130000000
3.2612000000 5.2807000000 0.6782000000
3.2598000000 2.0371000000 0.9902000000
3.2591000000 3.3658000000 1.3414000000
3.2588000000 5.9544000000 0.3382000000
3.2583000000 6.0588000000 0.2637000000
3.2581000000 5.3914000000 0.6412000000
3.2575000000 4.2203000000 1.0523000000
3.2570000000 2.4088000000 1.1153000000
3.2567000000 5.2048000000 0.7081000000
3.2565000000 2.8111000000 1.2576000000
3.2562000000 2.2776000000 1.0757000000
3.2559000000 0.4693000000 0.3321000000
3.2555000000 4.4695000000 0.9661000000
3.2553000000 6.4329000000 0.0759000000
3.2552000000 4.3957000000 0.9840000000
3.2551000000 4.4826000000 0.9579000000
3.2549000000 3.9205000000 1.1515000000
3.2547000000 3.6543000000 1.2461000000
3.2546000000 0.9475000000 0.6130000000
3.2544000000 1.8576000000 0.9264000000
3.2542000000 1.5810000000 0.8327000000
3.2540000000 4.6399000000 0.9007000000
3.2539000000 5.9079000000 0.3729000000
3.2538000000 0.1250000000 0.0968000000
3.2537000000 0.1428000000 0.1110000000
3.2535000000 3.6573000000 1.2456000000
3.2533000000 1.7784000000 0.9055000000
3.2533000000 2.2154000000 1.0528000000
3.2525000000 5.3220000000 0.6692000000
3.2523000000 4.0441000000 1.1129000000
3.2520000000 3.5661000000 1.2796000000
3.2519000000 2.7054000000 1.2242000000
3.2517000000 3.4284000000 1.3312000000
3.2513000000 5.6194000000 0.5552000000
3.2508000000 3.5912000000 1.2732000000
3.2504000000 2.7769000000 1.2500000000
3.2500000000 1.9797000000 0.9774000000
3.2492000000 1.0801000000 0.6624000000
3.2488000000 2.1969000000 1.0429000000
3.2479000000 3.1331000000 1.3854000000
3.2470000000 1.7192000000 0.8846000000
3.2469000000 3.9997000000 1.1335000000
3.2450000000 1.9424000000 0.9584000000
3.2437000000 1.8189000000 0.9224000000
3.0110000000 5.8622000000 0.4071000000
3.0100000000 2.5274000000 1.3119000000
3.0088000000 5.0769000000 0.8955000000
3.0084000000 6.1131000000 0.2254000000
3.0080000000 5.5262000000 0.6405000000
3.0076000000 4.2093000000 1.1996000000
3.0073000000 2.4535000000 1.2815000000
3.0071000000 3.0525000000 1.4919000000
3.0068000000 4.3811000000 1.1461000000
3.0064000000 2.1842000000 1.1891000000
3.0063000000 3.3793000000 1.4874000000
3.0061000000 4.1875000000 1.2075000000
3.0057000000 5.8229000000 0.4318000000
3.0055000000 3.3510000000 1.5000000000
3.0053000000 1.9066000000 1.0970000000
3.0053000000 3.7500000000 1.3701000000
3.0051000000 0.0363000000 0.0361000000
3.0050000000 6.2636000000 0.1247000000
3.0046000000 5.1027000000 0.8887000000
3.0045000000 4.4012000000 1.1337000000
3.0045000000 5.9307000000 0.3552000000
3.0043000000 1.9152000000 1.1045000000
3.0038000000 0.3326000000 0.2376000000
3.0036000000 5.1200000000 0.8826000000
3.0035000000 1.3798000000 0.9164000000
3.0033000000 3.5156000000 1.4472000000
3.0031000000 0.8820000000 0.6210000000
3.0029000000 0.9868000000 0.6921000000
3.0027000000 6.1510000000 0.2013000000
3.0025000000 5.6272000000 0.5631000000
3.0024000000 3.0551000000 1.4989000000
3.0019000000 5.7837000000 0.4591000000
3.0015000000 2.3370000000 1.2441000000
3.0014000000 2.4858000000 1.2972000000
3.0004000000 1.2804000000 0.8699000000
2.9995000000 2.2234000000 1.2089000000
2.9992000000 2.8005000000 1.4148000000
2.9974000000 4.4252000000 1.1328000000
2.7619000000 5.2572000000 0.8184000000
2.7611000000 5.6612000000 0.5416000000
2.7599000000 2.1237000000 1.3157000000
2.7590000000 2.0251000000 1.2853000000
2.7588000000 3.2400000000 1.6748000000
2.7585000000 6.1287000000 0.2167000000
2.7583000000 5.9652000000 0.3332000000
2.7582000000 0.2418000000 0.1760000000
2.7580000000 3.7188000000 1.5197000000
2.7579000000 5.3404000000 0.7636000000
2.7570000000 3.6965000000 1.5314000000
2.7569000000 5.3080000000 0.7903000000
2.7566000000 6.2068000000 0.1615000000
2.7562000000 4.9932000000 1.0019000000
2.7559000000 3.5877000000 1.5723000000
2.7557000000 6.2367000000 0.1436000000
2.7555000000 1.5579000000 1.0819000000
2.7553000000 4.4355000000 1.2788000000
2.7552000000 4.3187000000 1.3198000000
2.7548000000 2.0743000000 1.3097000000
2.7546000000 3.9644000000 1.4432000000
2.7545000000 0.2224000000 0.1598000000
2.7543000000 3.9618000000 1.4352000000
2.7541000000 4.4320000000 1.2808000000
2.7540000000 1.5588000000 1.0821000000
2.7535000000 1.3361000000 0.9379000000
2.7533000000 0.6740000000 0.4729000000
2.7531000000 0.6364000000 0.4504000000
2.7530000000 5.7501000000 0.4794000000
2.7527000000 2.9076000000 1.6019000000
2.7523000000 3.7162000000 1.5263000000
2.7521000000 0.6533000000 0.4632000000
2.7517000000 5.5011000000 0.6546000000
2.7512000000 4.7191000000 1.1708000000
2.7511000000 0.7983000000 0.5674000000
2.7509000000 1.6533000000 1.1461000000
2.7505000000 2.8842000000 1.5902000000
2.7503000000 2.1305000000 1.3233000000
2.7498000000 0.6052000000 0.4315000000
2.7496000000 0.8421000000 0.5983000000
2.7495000000 1.0934000000 0.7721000000
2.7489000000 0.1057000000 0.0789000000
2.7475000000 0.9636000000 0.6773000000
2.5124000000 3.2209000000 1.8294000000
2.5105000000 3.2912000000 1.8254000000
2.5095000000 5.7388000000 0.4847000000
2.5088000000 4.8421000000 1.1144000000
2.5086000000 5.4651000000 0.6786000000
2.5081000000 0.3455000000 0.2509000000
2.5076000000 3.9588000000 1.5895000000
2.5075000000 3.3920000000 1.7899000000
2.5072000000 0.9298000000 0.6566000000
2.5069000000 2.8896000000 1.7374000000
2.5064000000 1.6458000000 1.1494000000
2.5060000000 4.6704000000 1.2282000000
2.5058000000 6.3561000000 0.0573000000
2.5056000000 5.8195000000 0.4296000000
2.5054000000 5.1320000000 0.9112000000
2.5053000000 4.2432000000 1.4886000000
2.5052000000 3.1871000000 1.8272000000
2.5049000000 0.9680000000 0.6847000000
2.5048000000 2.3725000000 1.5596000000
2.5046000000 4.5152000000 1.3365000000
2.5044000000 2.1302000000 1.4546000000
2.5040000000 6.2444000000 0.1344000000
2.5035000000 6.3852000000 0.0394000000
2.5035000000 5.5542000000 0.6137000000
2.5033000000 0.4105000000 0.2939000000
2.5032000000 2.2996000000 1.5356000000
2.5030000000 0.8487000000 0.5963000000
2.5029000000 4.3166000000 1.4534000000
2.5027000000 6.1882000000 0.1784000000
2.5023000000 2.0575000000 1.4317000000
2.5020000000 4.9274000000 1.0470000000
2.5020000000 5.4064000000 0.7181000000
2.5018000000 0.6004000000 0.4270000000
2.5013000000 4.4406000000 1.3862000000
2.5010000000 0.9510000000 0.6706000000
2.5008000000 3.4540000000 1.7704000000
2.5007000000 1.8062000000 1.2591000000
2.5005000000 2.9973000000 1.7816000000
2.5003000000 2.0883000000 1.4473000000
2.5000000000 3.9816000000 1.5828000000
2.4998000000 2.5777000000 1.6345000000
2.4993000000 0.0257000000 0.0262000000
2.4989000000 4.0149000000 1.5727000000
2.4985000000 6.3035000000 0.0996000000
2.4972000000 2.9420000000 1.7603000000
2.4963000000 0.7862000000 0.5617000000
2.4957000000 0.0318000000 0.0283000000
2.2660000000 5.8172000000 0.4347000000
2.2624000000 2.6859000000 1.8095000000
2.2617000000 3.0198000000 1.9275000000
2.2606000000 4.5763000000 1.2923000000
2.2590000000 6.3032000000 0.0882000000
2.2585000000 4.5436000000 1.3227000000
2.2584000000 5.0289000000 0.9826000000
2.2583000000 2.6258000000 1.7962000000
2.2574000000 5.9059000000 0.3682000000
2.2572000000 0.2363000000 0.1743000000
2.2570000000 4.3133000000 1.4726000000
2.2566000000 6.0264000000 0.2868000000
2.2565000000 0.5468000000 0.3877000000
2.2561000000 5.8042000000 0.4465000000
2.2558000000 1.6562000000 1.1580000000
2.2555000000 5.8208000000 0.4294000000
2.2554000000 6.2061000000 0.1624000000
2.2553000000 0.7321000000 0.5195000000
2.2550000000 5.7179000000 0.4970000000
2.2548000000 5.3087000000 0.7851000000
2.2547000000 4.5053000000 1.3418000000
2.2545000000 4.6240000000 1.2646000000
2.2541000000 5.4543000000 0.6825000000
2.2538000000 4.6175000000 1.2717000000
2.2534000000 2.0396000000 1.4320000000
2.2532000000 1.9651000000 1.3738000000
2.2530000000 1.8096000000 1.2670000000
2.2528000000 3.7392000000 1.8157000000
2.2527000000 4.1584000000 1.5886000000
2.2525000000 5.9661000000 0.3228000000
2.2523000000 3.1873000000 1.9825000000
2.2520000000 0.5076000000 0.3621000000
2.2519000000 1.6874000000 1.1858000000
2.2518000000 1.1603000000 0.8080000000
2.2515000000 5.7379000000 0.4879000000
2.2514000000 0.6243000000 0.4455000000
2.2513000000 0.1634000000 0.1170000000
2.2510000000 2.7590000000 1.8365000000
2.2505000000 6.3561000000 0.0637000000
2.2504000000 0.1178000000 0.0927000000
2.2499000000 1.3814000000 0.9673000000
2.2496000000 2.5400000000 1.7592000000
2.2494000000 2.1584000000 1.5119000000
2.2493000000 3.7700000000 1.8144000000
2.2491000000 0.1646000000 0.1252000000
2.2485000000 1.4210000000 0.9963000000
2.2476000000 0.5621000000 0.3984000000
2.2471000000 0.4085000000 0.2949000000
2.2469000000 4.4085000000 1.4139000000
2.2465000000 0.2113000000 0.1615000000
2.0102000000 5.2371000000 0.8410000000
2.0096000000 4.1690000000 1.5721000000
2.0090000000 3.9933000000 1.7016000000
2.0085000000 5.8407000000 0.4184000000
2.0082000000 4.5833000000 1.2872000000
2.0078000000 3.2047000000 2.1368000000
2.0073000000 6.0671000000 0.2554000000
2.0071000000 0.3276000000 0.2390000000
2.0070000000 0.0381000000 0.0336000000
2.0066000000 5.1240000000 0.9148000000
2.0064000000 1.2662000000 0.8902000000
2.0063000000 0.6920000000 0.4872000000
2.0061000000 1.9629000000 1.3758000000
2.0061000000 2.0600000000 1.4410000000
2.0059000000 2.7136000000 1.8910000000
2.0057000000 0.0285000000 0.0284000000
2.0055000000 1.8413000000 1.2855000000
2.0053000000 6.1750000000 0.1841000000
2.0051000000 1.3984000000 0.9842000000
2.0050000000 4.4488000000 1.3867000000
2.0048000000 0.3413000000 0.2440000000
2.0044000000 0.3072000000 0.2198000000
2.0043000000 2.2054000000 1.5458000000
2.0042000000 6.2738000000 0.1174000000
2.0039000000 4.1519000000 1.5898000000
2.0038000000 1.4458000000 1.0093000000
2.0035000000 0.5222000000 0.3735000000
2.0035000000 0.9547000000 0.6796000000
2.0031000000 1.6909000000 1.1837000000
2.0029000000 2.0765000000 1.4530000000
2.0028000000 3.9807000000 1.7142000000
2.0026000000 3.2667000000 2.1350000000
2.0025000000 1.5096000000 1.0624000000
2.0023000000 0.0572000000 0.0507000000
2.0023000000 2.1594000000 1.5118000000
2.0022000000 4.2791000000 1.5009000000
2.0021000000 4.9448000000 1.0390000000
2.0020000000 1.5919000000 1.1179000000
2.0018000000 0.8826000000 0.6218000000
2.0015000000 4.2861000000 1.4954000000
2.0015000000 4.9790000000 1.0140000000
2.0013000000 0.5819000000 0.4117000000
2.0012000000 1.9868000000 1.3897000000
2.0010000000 5.8600000000 0.4006000000
2.0008000000 0.5848000000 0.4141000000
2.0005000000 2.6685000000 1.8668000000
1.9999000000 2.9285000000 2.0342000000
1.9997000000 4.2594000000 1.5148000000
1.9995000000 0.1981000000 0.1461000000
1.9992000000 6.0715000000 0.2541000000
1.9972000000 2.3063000000 1.6158000000
1.9935000000 4.1192000000 1.6167000000
1.7596000000 4.3006000000 1.4898000000
1.7592000000 3.3192000000 2.1352000000
1.7581000000 5.0887000000 0.9403000000
1.7571000000 3.0246000000 2.0983000000
1.7568000000 2.9184000000 2.0409000000
1.7565000000 1.8806000000 1.3143000000
1.7563000000 5.4613000000 0.6811000000
1.7561000000 1.6759000000 1.1729000000
1.7558000000 5.0843000000 0.9405000000
1.7555000000 4.6810000000 1.2219000000
1.7553000000 3.1612000000 2.1505000000
1.7552000000 2.9959000000 2.0716000000
1.7549000000 3.6304000000 1.9484000000
1.7548000000 6.1653000000 0.1894000000
1.7545000000 3.3656000000 2.1219000000
1.7540000000 3.9043000000 1.7581000000
1.7540000000 4.9398000000 1.0437000000
1.7537000000 3.0326000000 2.1033000000
1.7533000000 0.9196000000 0.6514000000
1.7531000000 5.9377000000 0.3540000000
1.7526000000 2.2318000000 1.5620000000
1.7524000000 5.0875000000 0.9409000000
1.7520000000 2.1542000000 1.5111000000
1.7517000000 2.5001000000 1.7530000000
1.7515000000 4.0427000000 1.6685000000
1.7513000000 3.1481000000 2.1545000000
1.7509000000 0.4310000000 0.3074000000
1.7505000000 0.2774000000 0.2028000000
1.7500000000 3.9874000000 1.7083000000
1.7498000000 5.9444000000 0.3441000000
1.7496000000 2.6382000000 1.8447000000
1.7493000000 1.4860000000 1.0416000000
1.7487000000 3.0981000000 2.1302000000
1.7481000000 3.6329000000 1.9544000000
1.7468000000 3.2712000000 2.1562000000
1.5102000000 0.3217000000 0.2323000000
1.5093000000 2.1384000000 1.4950000000
1.5087000000 3.5832000000 1.9131000000
1.5081000000 5.9393000000 0.3462000000
1.5079000000 1.3126000000 0.9218000000
1.5073000000 0.6537000000 0.4595000000
1.5071000000 4.0431000000 1.6656000000
1.5067000000 3.3391000000 1.9941000000
1.5067000000 2.6794000000 1.8340000000
1.5060000000 5.9880000000 0.3158000000
1.5054000000 0.7236000000 0.5105000000
1.5053000000 3.2381000000 2.0104000000
1.5050000000 1.5084000000 1.0605000000
1.5048000000 2.8603000000 1.9060000000
1.5046000000 4.1319000000 1.6035000000
1.5045000000 1.7332000000 1.2138000000
1.5043000000 0.9875000000 0.6924000000
1.5039000000 3.2283000000 2.0190000000
1.5035000000 5.0609000000 0.9588000000
1.5034000000 1.3684000000 0.9576000000
1.5033000000 0.1520000000 0.1112000000
1.5031000000 6.0770000000 0.2549000000
1.5027000000 2.2472000000 1.5703000000
1.5026000000 2.2932000000 1.6014000000
1.5022000000 5.1857000000 0.8692000000
1.5022000000 2.2349000000 1.5588000000
1.5020000000 1.2754000000 0.8979000000
1.5018000000 4.1381000000 1.6051000000
1.5016000000 0.4490000000 0.3228000000
1.5015000000 5.6074000000 0.5785000000
1.5013000000 6.0876000000 0.2409000000
1.5006000000 4.3665000000 1.4444000000
1.5003000000 3.3203000000 2.0007000000
1.4997000000 2.9260000000 1.9318000000
1.4995000000 0.9502000000 0.6709000000
1.4988000000 2.2842000000 1.5961000000
1.4986000000 0.2496000000 0.1823000000
1.4983000000 5.4308000000 0.7044000000
1.4980000000 5.0150000000 0.9858000000
1.4978000000 0.4777000000 0.3460000000
1.4973000000 1.2762000000 0.8980000000
1.4967000000 1.9074000000 1.3396000000
1.4959000000 4.8879000000 1.0767000000
1.4945000000 2.0742000000 1.4482000000
1.2645000000 4.8994000000 1.0707000000
1.2618000000 4.9087000000 1.0635000000
1.2590000000 3.7835000000 1.6838000000
1.2584000000 3.4593000000 1.8007000000
1.2579000000 2.9329000000 1.7931000000
1.2573000000 3.7236000000 1.7017000000
1.2570000000 5.0541000000 0.9630000000
1.2565000000 4.7204000000 1.1928000000
1.2563000000 0.0559000000 0.0491000000
1.2562000000 2.9316000000 1.7839000000
1.2560000000 5.4407000000 0.6943000000
1.2558000000 0.7636000000 0.5395000000
1.2555000000 6.2048000000 0.1631000000
1.2553000000 5.4664000000 0.6818000000
1.2551000000 5.9067000000 0.3663000000
1.2550000000 3.5272000000 1.7617000000
1.2547000000 1.4211000000 0.9911000000
1.2545000000 0.5049000000 0.3585000000
1.2544000000 3.1049000000 1.8438000000
1.2543000000 2.3446000000 1.5770000000
1.2542000000 3.0637000000 1.8309000000
1.2539000000 4.9392000000 1.0406000000
1.2538000000 5.8182000000 0.4312000000
1.2537000000 5.3188000000 0.7789000000
1.2535000000 2.1079000000 1.4651000000
1.2531000000 5.9302000000 0.3567000000
1.2531000000 6.2867000000 0.1048000000
1.2530000000 3.8314000000 1.6643000000
1.2529000000 5.8675000000 0.3993000000
1.2526000000 5.0812000000 0.9380000000
1.2525000000 0.6140000000 0.4367000000
1.2523000000 4.1578000000 1.5480000000
1.2519000000 2.2358000000 1.5324000000
1.2516000000 4.2986000000 1.4756000000
1.2513000000 2.0771000000 1.4417000000
1.2510000000 4.1040000000 1.5679000000
1.2509000000 1.7348000000 1.2214000000
1.2508000000 4.6050000000 1.2755000000
1.2503000000 1.0556000000 0.7392000000
1.2493000000 1.1664000000 0.8273000000
1.2485000000 0.7919000000 0.5642000000
1.2477000000 4.1175000000 1.5661000000
1.2468000000 1.6669000000 1.1667000000
1.0122000000 5.7514000000 0.4745000000
1.0114000000 4.6854000000 1.2138000000
1.0110000000 5.6195000000 0.5706000000
1.0106000000 6.0609000000 0.2617000000
1.0097000000 3.8819000000 1.5037000000
1.0095000000 3.2462000000 1.7092000000
1.0087000000 5.1975000000 0.8576000000
1.0075000000 2.2831000000 1.4072000000
1.0073000000 4.5746000000 1.2621000000
1.0071000000 3.3961000000 1.6693000000
1.0066000000 2.2883000000 1.4115000000
1.0063000000 5.9582000000 0.3361000000
1.0060000000 5.9913000000 0.3098000000
1.0059000000 5.5231000000 0.6375000000
1.0060000000 5.2217000000 0.8434000000
1.0055000000 6.1002000000 0.2359000000
1.0052000000 3.2278000000 1.7117000000
1.0050000000 4.7021000000 1.1981000000
1.0049000000 2.5853000000 1.5092000000
1.0044000000 2.0090000000 1.3123000000
1.0043000000 0.7919000000 0.5624000000
1.0040000000 5.5570000000 0.6139000000
1.0040000000 2.6147000000 1.5176000000
1.0037000000 1.7501000000 1.2136000000
1.0035000000 6.2383000000 0.1377000000
1.0033000000 4.1888000000 1.3922000000
1.0031000000 6.1265000000 0.2158000000
1.0030000000 0.9925000000 0.6972000000
1.0027000000 0.5099000000 0.3605000000
1.0027000000 1.0290000000 0.7241000000
1.0023000000 0.6366000000 0.4511000000
1.0022000000 6.2316000000 0.1502000000
1.0021000000 5.6577000000 0.5435000000
1.0020000000 4.4692000000 1.2889000000
1.0018000000 2.3033000000 1.4129000000
1.0014000000 2.7119000000 1.5491000000
1.0013000000 1.9776000000 1.2995000000
1.0011000000 1.1338000000 0.7956000000
1.0010000000 4.2360000000 1.3709000000
1.0008000000 3.7975000000 1.5247000000
1.0004000000 4.5008000000 1.2808000000
1.0004000000 1.3363000000 0.9373000000
0.9998000000 4.3602000000 1.3287000000
0.9996000000 5.4122000000 0.7133000000
0.9993000000 6.3165000000 0.0847000000
0.9986000000 0.8139000000 0.5747000000
0.9978000000 3.9459000000 1.4790000000
0.9944000000 4.5490000000 1.2605000000
0.9935000000 4.2377000000 1.3685000000
0.7599000000 5.7599000000 0.4727000000
0.7594000000 5.2541000000 0.8222000000
0.7588000000 4.7180000000 1.0613000000
0.7584000000 2.1341000000 1.2058000000
0.7579000000 3.4226000000 1.5123000000
0.7576000000 2.1116000000 1.1954000000
0.7571000000 0.0544000000 0.0444000000
0.7571000000 3.2914000000 1.5567000000
0.7565000000 6.2402000000 0.1357000000
0.7565000000 5.6010000000 0.5804000000
0.7564000000 3.1154000000 1.5539000000
0.7559000000 1.0639000000 0.7479000000
0.7556000000 2.7874000000 1.4311000000
0.7555000000 3.2930000000 1.5525000000
0.7553000000 4.9713000000 0.9671000000
0.7552000000 0.3366000000 0.2469000000
0.7550000000 1.9751000000 1.1477000000
0.7548000000 2.6918000000 1.3992000000
0.7546000000 4.3356000000 1.1893000000
0.7545000000 4.0759000000 1.2839000000
0.7543000000 2.0308000000 1.1651000000
0.7540000000 2.7996000000 1.4409000000
0.7537000000 4.3181000000 1.1991000000
0.7534000000 5.1414000000 0.8939000000
0.7534000000 4.7206000000 1.0607000000
0.7530000000 2.3747000000 1.2877000000
0.7529000000 1.0905000000 0.7710000000
0.7527000000 2.8477000000 1.4548000000
0.7526000000 4.9938000000 0.9623000000
0.7523000000 4.7673000000 1.0407000000
0.7522000000 3.6681000000 1.4233000000
0.7519000000 5.3403000000 0.7656000000
0.7517000000 4.2710000000 1.2094000000
0.7516000000 5.7783000000 0.4572000000
0.7513000000 2.4819000000 1.3305000000
0.7510000000 0.9376000000 0.6630000000
0.7509000000 0.7162000000 0.5055000000
0.7508000000 0.3142000000 0.2249000000
0.7500000000 2.7961000000 1.4340000000
0.7496000000 4.4892000000 1.1316000000
0.7494000000 1.4178000000 0.9488000000
0.7492000000 1.1671000000 0.8201000000
0.7491000000 2.1409000000 1.2069000000
0.7488000000 1.8361000000 1.0976000000
0.7483000000 0.6894000000 0.4848000000
0.7479000000 2.0799000000 1.1834000000
0.7468000000 1.7764000000 1.0732000000
0.7464000000 1.8003000000 1.0842000000
0.7457000000 0.0881000000 0.0678000000
0.7453000000 3.3916000000 1.5144000000
0.7438000000 2.5540000000 1.3460000000
0.5120000000 5.7243000000 0.4978000000
0.5100000000 4.6112000000 0.9422000000
0.5083000000 5.1138000000 0.7728000000
0.5075000000 2.8985000000 1.3236000000
0.5070000000 5.6532000000 0.5363000000
0.5068000000 4.6491000000 0.9291000000
0.5063000000 0.6734000000 0.4776000000
0.5060000000 5.9356000000 0.3520000000
0.5058000000 6.4393000000 0.0714000000
0.5054000000 4.6023000000 0.9449000000
0.5052000000 0.9491000000 0.6359000000
0.5049000000 4.4542000000 1.0009000000
0.5048000000 6.0452000000 0.2722000000
0.5045000000 5.4330000000 0.6553000000
0.5043000000 5.2478000000 0.7245000000
0.5043000000 4.6300000000 0.9364000000
0.5040000000 6.4191000000 0.0180000000
0.5039000000 3.4209000000 1.3582000000
0.5036000000 0.0404000000 0.0355000000
0.5035000000 1.3149000000 0.7736000000
0.5034000000 3.0518000000 1.3738000000
0.5033000000 2.3789000000 1.1432000000
0.5030000000 1.9177000000 0.9805000000
0.5029000000 3.2065000000 1.4183000000
0.5026000000 2.1312000000 1.0531000000
0.5025000000 1.8637000000 0.9562000000
0.5023000000 1.1659000000 0.7152000000
0.5020000000 1.2941000000 0.7652000000
0.5019000000 2.3760000000 1.1390000000
0.5018000000 5.9668000000 0.3239000000
0.5013000000 4.3031000000 1.0527000000
0.5010000000 1.5736000000 0.8600000000
0.5007000000 1.5768000000 0.8650000000
0.5006000000 2.9338000000 1.3347000000
0.4999000000 6.1687000000 0.1840000000
0.4996000000 1.3995000000 0.8002000000
0.4993000000 4.1785000000 1.0937000000
0.4993000000 0.2359000000 0.1737000000
0.4990000000 0.1750000000 0.1305000000
0.4985000000 2.3725000000 1.1345000000
0.4975000000 3.7067000000 1.2549000000
0.4969000000 0.3796000000 0.2715000000
0.4968000000 3.3564000000 1.3747000000
0.4950000000 3.7128000000 1.2505000000
0.2620000000 6.0264000000 0.2761000000
0.2609000000 3.1481000000 1.2603000000
0.2588000000 3.5225000000 1.1739000000
0.2586000000 4.8423000000 0.7140000000
0.2576000000 1.8283000000 0.8032000000
0.2575000000 4.2801000000 0.9115000000
0.2571000000 4.9620000000 0.6768000000
0.2567000000 5.5116000000 0.4807000000
0.2563000000 6.1922000000 0.1741000000
0.2559000000 6.0284000000 0.2763000000
0.2556000000 4.9672000000 0.6716000000
0.2553000000 3.6695000000 1.1249000000
0.2552000000 5.8679000000 0.3555000000
0.2551000000 4.6334000000 0.7883000000
0.2547000000 3.4641000000 1.1955000000
0.2546000000 0.6205000000 0.3810000000
0.2545000000 0.1021000000 0.0786000000
0.2542000000 5.2044000000 0.5871000000
0.2539000000 4.9622000000 0.6707000000
0.2538000000 5.5041000000 0.4837000000
0.2536000000 0.9276000000 0.4777000000
0.2534000000 1.9803000000 0.8504000000
0.2532000000 1.0526000000 0.5267000000
0.2531000000 2.7105000000 1.1021000000
0.2528000000 1.9600000000 0.8458000000
0.2527000000 3.2846000000 1.2538000000
0.2524000000 1.1211000000 0.5509000000
0.2521000000 1.1034000000 0.5424000000
0.2518000000 6.3043000000 0.0929000000
0.2515000000 5.5978000000 0.4469000000
0.2514000000 1.7665000000 0.7753000000
0.2512000000 1.3970000000 0.6455000000
0.2510000000 2.3124000000 0.9629000000
0.2509000000 4.1743000000 0.9367000000
0.2508000000 4.2400000000 0.9225000000
0.2506000000 3.0609000000 1.2215000000
0.2500000000 5.2037000000 0.5864000000
0.2499000000 3.1098000000 1.2338000000
0.2493000000 2.2701000000 0.9498000000
0.2490000000 6.0894000000 0.2342000000
0.2485000000 2.6367000000 1.0741000000
0.2470000000 0.3972000000 0.2773000000
0.2467000000 0.7240000000 0.4070000000
0.2458000000 0.0786000000 0.0679000000
0.2439000000 0.1659000000 0.1272000000
0.0137000000 4.2432000000 0.7749000000
0.0118000000 6.3624000000 0.0250000000
0.0101000000 4.6644000000 0.6249000000
0.0092000000 5.6272000000 0.2937000000
0.0084000000 4.3513000000 0.7341000000
0.0080000000 4.4705000000 0.6918000000
0.0075000000 1.6513000000 0.5919000000
0.0070000000 3.2789000000 1.1053000000
0.0068000000 3.9060000000 0.8844000000
0.0068000000 1.3413000000 0.4752000000
0.0064000000 5.9730000000 0.1707000000
0.0059000000 2.3013000000 0.8077000000
0.0057000000 1.4301000000 0.5091000000
0.0056000000 4.8969000000 0.5456000000
0.0053000000 3.5192000000 1.0207000000
0.0051000000 1.8996000000 0.6729000000
0.0050000000 0.7034000000 0.2569000000
0.0047000000 4.7547000000 0.5922000000
0.0046000000 0.5299000000 0.1942000000
0.0044000000 3.3142000000 1.0939000000
0.0043000000 3.3813000000 1.0676000000
0.0038000000 4.7842000000 0.5822000000
0.0033000000 4.4045000000 0.7111000000
0.0031000000 5.9595000000 0.1741000000
0.0029000000 5.2492000000 0.4193000000
0.0027000000 2.9712000000 1.0438000000
0.0026000000 0.5715000000 0.2037000000
0.0021000000 2.1054000000 0.7433000000
0.0019000000 2.5037000000 0.8814000000
0.0018000000 0.1228000000 0.0540000000
0.0014000000 0.5006000000 0.1858000000
0.0011000000 0.3291000000 0.1251000000
0.0008000000 0.5746000000 0.2109000000
0.0004000000 1.1834000000 0.4168000000
0.0004000000 1.9212000000 0.6770000000
0.0000000000 5.1608000000 0.4481000000
-0.0006000000 3.2827000000 1.1028000000
-0.0009000000 2.5284000000 0.8887000000
-0.0010000000 2.6131000000 0.9194000000
-0.0013000000 2.5998000000 0.9115000000
-0.0019000000 1.7012000000 0.5979000000
-0.0033000000 2.0184000000 0.7103000000
-0.0043000000 4.3193000000 0.7385000000
-0.0051000000 0.2308000000 0.0868000000
-0.0080000000 0.1629000000 0.0633000000
-0.2370000000 3.2330000000 0.9643000000
-0.2392000000 4.4359000000 0.5582000000
-0.2397000000 1.2405000000 0.2970000000
-0.2399000000 1.1808000000 0.2707000000
-0.2412000000 2.2121000000 0.6351000000
-0.2415000000 4.7292000000 0.4558000000
-0.2420000000 2.5267000000 0.7467000000
-0.2427000000 5.0147000000 0.3542000000
-0.2435000000 5.4513000000 0.2000000000
-0.2437000000 4.1983000000 0.6323000000
-0.2439000000 6.0661000000 0.0573000000
-0.2442000000 1.4749000000 0.3740000000
-0.2442000000 2.8057000000 0.8368000000
-0.2445000000 0.7605000000 0.1247000000
-0.2446000000 2.8051000000 0.8395000000
-0.2447000000 5.6661000000 0.1266000000
-0.2449000000 3.7809000000 0.7815000000
-0.2451000000 4.7382000000 0.4432000000
-0.2455000000 0.9291000000 0.1841000000
-0.2458000000 2.1053000000 0.5893000000
-0.2459000000 2.4899000000 0.7263000000
-0.2461000000 0.4957000000 0.0322000000
-0.2462000000 5.6833000000 0.1114000000
-0.2464000000 1.4158000000 0.3567000000
-0.2464000000 4.3245000000 0.5945000000
-0.2465000000 3.4488000000 0.8909000000
-0.2467000000 4.8641000000 0.4042000000
-0.2468000000 6.2108000000 0.0085000000
-0.2469000000 3.7411000000 0.7992000000
-0.2473000000 5.4344000000 0.2053000000
-0.2474000000 0.2423000000 0.0166000000
-0.2475000000 2.5628000000 0.7491000000
-0.2478000000 2.6688000000 0.7877000000
-0.2481000000 2.8485000000 0.8507000000
-0.2480000000 1.0306000000 0.2177000000
-0.2484000000 0.6773000000 0.0945000000
-0.2486000000 4.9378000000 0.3798000000
-0.2489000000 3.0141000000 0.9028000000
-0.2491000000 3.5529000000 0.8578000000
-0.2494000000 2.7067000000 0.7996000000
-0.2495000000 0.4322000000 0.0125000000
-0.2497000000 0.4403000000 0.0104000000
-0.2499000000 5.9530000000 0.0266000000
-0.2503000000 1.3872000000 0.3435000000
-0.2506000000 4.2527000000 0.6171000000
-0.2509000000 1.9210000000 0.5213000000
-0.2514000000 4.7391000000 0.4443000000
-0.2518000000 1.4711000000 0.3688000000
-0.2520000000 3.8724000000 0.7479000000
-0.2525000000 1.2947000000 0.3017000000
-0.2527000000 1.2438000000 0.2872000000
-0.2540000000 0.2714000000 0.0294000000
-0.2559000000 1.8004000000 0.4784000000
-0.4870000000 4.5718000000 0.3622000000
-0.4904000000 3.9549000000 0.5727000000
-0.4905000000 3.3753000000 0.7729000000
-0.4908000000 3.4726000000 0.7357000000
-0.4920000000 2.6460000000 0.6329000000
-0.4925000000 5.4262000000 0.0596000000
-0.4929000000 4.7274000000 0.3043000000
-0.4935000000 2.2896000000 0.5048000000
-0.4941000000 5.2290000000 0.1275000000
-0.4942000000 4.6426000000 0.3295000000
-0.4943000000 2.1911000000 0.4691000000
-0.4945000000 2.0483000000 0.4276000000
-0.4948000000 1.6610000000 0.2841000000
-0.4950000000 3.5054000000 0.7275000000
-0.4954000000 4.2159000000 0.4785000000
-0.4955000000 3.1526000000 0.8084000000
-0.4959000000 3.0393000000 0.7737000000
-0.4963000000 2.4774000000 0.5685000000
-0.4969000000 4.1486000000 0.4995000000
-0.4971000000 4.5597000000 0.3552000000
-0.4974000000 3.0714000000 0.7738000000
-0.4977000000 3.2774000000 0.8075000000
-0.4981000000 1.7516000000 0.3132000000
-0.4986000000 2.9505000000 0.7383000000
-0.4992000000 3.1339000000 0.7976000000
-0.4993000000 4.2822000000 0.4531000000
-0.4996000000 0.8735000000 0.0092000000
-0.4997000000 1.8237000000 0.3405000000
-0.5006000000 1.2518000000 0.1420000000
-0.5019000000 3.3078000000 0.7913000000
-0.5029000000 5.2597000000 0.1073000000
-0.5039000000 3.3727000000 0.7653000000
-0.5072000000 2.5426000000 0.5879000000
-0.7400000000 2.6753000000 0.4944000000
-0.7403000000 5.0070000000 0.0550000000
-0.7417000000 2.2458000000 0.3408000000
-0.7425000000 1.4745000000 0.0715000000
-0.7430000000 4.6603000000 0.1773000000
-0.7432000000 2.8131000000 0.5424000000
-0.7439000000 3.5385000000 0.5611000000
-0.7442000000 2.6381000000 0.4726000000
-0.7448000000 2.5328000000 0.4406000000
-0.7453000000 3.4940000000 0.5751000000
-0.7455000000 5.3592000000 0.0067000000
-0.7456000000 5.3441000000 0.0099000000
-0.7458000000 4.8796000000 0.0979000000
-0.7461000000 4.3347000000 0.2885000000
-0.7463000000 2.6159000000 0.4678000000
-0.7465000000 1.8155000000 0.1898000000
-0.7467000000 3.5439000000 0.5607000000
-0.7468000000 2.4192000000 0.4006000000
-0.7471000000 1.7991000000 0.1810000000
-0.7474000000 4.1516000000 0.3460000000
-0.7476000000 3.6056000000 0.5399000000
-0.7477000000 4.0588000000 0.3844000000
-0.7481000000 2.7543000000 0.5130000000
-0.7483000000 4.9646000000 0.0680000000
-0.7488000000 2.6341000000 0.4720000000
-0.7493000000 1.1442000000 0.0308000000
-0.7495000000 2.0793000000 0.2764000000
-0.7496000000 3.0508000000 0.6131000000
-0.7504000000 1.4871000000 0.0719000000
-0.7507000000 1.9253000000 0.2262000000
-0.7515000000 4.0421000000 0.3829000000
-0.7520000000 2.9117000000 0.5706000000
-0.7528000000 1.8535000000 0.2020000000
-0.7553000000 2.9462000000 0.5773000000
-0.7558000000 3.5031000000 0.5707000000
-0.9865000000 2.4556000000 0.2636000000
-0.9893000000 4.3182000000 0.1458000000
-0.9912000000 3.3286000000 0.4878000000
-0.9931000000 4.2081000000 0.1829000000
-0.9941000000 1.7428000000 0.0167000000
-0.9946000000 3.1549000000 0.5088000000
-0.9950000000 1.5850000000 0.0329000000
-0.9959000000 2.0315000000 0.1130000000
-0.9960000000 3.2306000000 0.5016000000
-0.9962000000 3.6609000000 0.3709000000
-0.9969000000 4.8070000000 0.0418000000
-0.9971000000 2.3763000000 0.2324000000
-0.9975000000 1.6657000000 0.0557000000
-0.9979000000 1.4934000000 0.0081000000
-0.9980000000 4.0706000000 0.2262000000
-0.9982000000 2.9906000000 0.4502000000
-0.9985000000 1.8338000000 0.0470000000
-0.9987000000 2.6884000000 0.3417000000
-0.9992000000 1.9077000000 0.0691000000
-0.9998000000 2.9708000000 0.4373000000
-1.0009000000 4.3260000000 0.1343000000
-1.0023000000 2.3774000000 0.2381000000
-1.0045000000 2.1977000000 0.1645000000
-1.2390000000 4.0544000000 0.0827000000
-1.2414000000 3.4592000000 0.2904000000
-1.2424000000 2.0237000000 0.0365000000
-1.2435000000 3.9855000000 0.1085000000
-1.2441000000 3.5952000000 0.2396000000
-1.2448000000 3.8009000000 0.1674000000
-1.2452000000 1.9877000000 0.0269000000
-1.2460000000 2.9343000000 0.2747000000
-1.2462000000 2.2300000000 0.0355000000
-1.2466000000 2.1193000000 0.0712000000
-1.2475000000 2.3207000000 0.0634000000
-1.2477000000 2.7049000000 0.1907000000
-1.2486000000 1.9249000000 0.0003000000
-1.2487000000 1.9353000000 0.0083000000
-1.2489000000 3.8835000000 0.1404000000
-1.2495000000 3.7594000000 0.1812000000
-1.2498000000 2.6524000000 0.1763000000
-1.2517000000 2.1533000000 0.0816000000
-1.2522000000 2.3676000000 0.0805000000
-1.2553000000 2.4338000000 0.0984000000
-1.4920000000 3.1045000000 0.1871000000
-1.4936000000 3.1741000000 0.2048000000
-1.4941000000 3.6233000000 0.0847000000
-1.4947000000 3.2484000000 0.1985000000
-1.4950000000 2.7512000000 0.0624000000
-1.4951000000 3.5436000000 0.1122000000
-1.4957000000 2.9288000000 0.1245000000
-1.4963000000 2.5982000000 0.0129000000
-1.4968000000 3.0998000000 0.1828000000
-1.4970000000 3.6569000000 0.0728000000
-1.4975000000 2.7738000000 0.0727000000
-1.4976000000 2.7409000000 0.0619000000
-1.4978000000 3.7510000000 0.0335000000
-1.4991000000 3.0036000000 0.1551000000
-1.4995000000 3.3481000000 0.1758000000
-1.5000000000 2.9523000000 0.1372000000
-1.5027000000 2.6503000000 0.0230000000
-1.7420000000 3.4252000000 0.0694000000
-1.7456000000 3.1411000000 0.0501000000
-1.7460000000 3.5126000000 0.0408000000
-1.7470000000 3.3031000000 0.0385000000
-1.7489000000 2.9867000000 0.0685000000
-1.7552000000 3.5777000000 0.0186000000
