5.5006000000 3.2152000000 0.0311000000
5.2594000000 3.5605000000 0.0911000000
5.2570000000 3.8395000000 0.0076000000
5.2563000000 2.5178000000 0.0083000000
5.2553000000 3.6607000000 0.0381000000
5.2546000000 2.7566000000 0.0776000000
5.2540000000 3.2057000000 0.2018000000
5.2534000000 2.5330000000 0.0140000000
5.2518000000 2.6374000000 0.0804000000
5.2501000000 3.6368000000 0.0505000000
5.2487000000 3.5159000000 0.1269000000
5.0106000000 3.1055000000 0.4404000000
5.0086000000 2.7836000000 0.2524000000
5.0082000000 3.9348000000 0.1216000000
5.0076000000 2.8581000000 0.2983000000
5.0073000000 2.6845000000 0.2053000000
5.0067000000 4.0169000000 0.0775000000
5.0060000000 4.2234000000 0.0313000000
5.0058000000 3.7557000000 0.1599000000
5.0052000000 2.1013000000 0.0133000000
5.0045000000 3.9337000000 0.1292000000
5.0041000000 2.9898000000 0.3765000000
5.0035000000 3.1776000000 0.4720000000
5.0033000000 2.6300000000 0.1682000000
5.0027000000 3.5129000000 0.2969000000
5.0025000000 4.1924000000 0.0617000000
5.0011000000 3.1446000000 0.4528000000
5.0006000000 3.7743000000 0.1441000000
5.0002000000 2.3210000000 0.0769000000
4.7626000000 1.8744000000 0.0556000000
4.7612000000 2.8725000000 0.5563000000
4.7598000000 2.3352000000 0.2452000000
4.7590000000 4.5874000000 0.0686000000
4.7581000000 2.9606000000 0.6114000000
4.7570000000 3.5349000000 0.5307000000
4.7568000000 4.1411000000 0.1820000000
4.7566000000 4.5797000000 0.0766000000
4.7561000000 2.8630000000 0.5496000000
4.7557000000 1.6409000000 0.0064000000
4.7552000000 2.2868000000 0.2220000000
4.7551000000 2.7546000000 0.4927000000
4.7550000000 4.1637000000 0.1676000000
4.7548000000 3.4323000000 0.5944000000
4.7545000000 2.2969000000 0.2312000000
4.7539000000 1.7798000000 0.0853000000
4.7532000000 4.2304000000 0.1360000000
4.7521000000 2.2085000000 0.1843000000
4.7520000000 3.3133000000 0.6684000000
4.7514000000 4.2093000000 0.1458000000
4.7511000000 2.0702000000 0.1033000000
4.7505000000 4.1426000000 0.1887000000
4.7503000000 4.2351000000 0.1338000000
4.7496000000 3.3121000000 0.6712000000
4.5161000000 1.5364000000 0.1115000000
4.5092000000 3.6338000000 0.7252000000
4.5085000000 5.1002000000 0.0277000000
4.5079000000 3.2624000000 0.9372000000
4.5070000000 4.0788000000 0.4676000000
4.5068000000 3.7532000000 0.6525000000
4.5065000000 3.7083000000 0.6810000000
4.5063000000 4.8971000000 0.0707000000
4.5060000000 2.6076000000 0.6572000000
4.5060000000 4.2771000000 0.3532000000
4.5059000000 1.2759000000 0.0386000000
4.5053000000 2.3993000000 0.5373000000
4.5048000000 1.9514000000 0.2718000000
4.5047000000 2.6310000000 0.6743000000
4.5045000000 2.6797000000 0.7031000000
4.5043000000 4.4512000000 0.2573000000
4.5041000000 2.7638000000 0.7533000000
4.5038000000 4.2147000000 0.3909000000
4.5037000000 4.4527000000 0.2564000000
4.5033000000 1.5026000000 0.0980000000
4.5030000000 2.2121000000 0.4253000000
4.5026000000 1.6282000000 0.1007000000
4.5023000000 3.5989000000 0.7483000000
4.5015000000 5.0444000000 0.0671000000
4.5013000000 5.0923000000 0.0325000000
4.5012000000 2.7196000000 0.7289000000
4.5010000000 3.0954000000 0.9435000000
4.5008000000 1.5658000000 0.0683000000
4.5005000000 2.1260000000 0.3792000000
4.5002000000 1.2598000000 0.0344000000
4.5000000000 1.4957000000 0.0968000000
4.4992000000 1.3768000000 0.0259000000
4.4980000000 2.8837000000 0.8246000000
4.4965000000 1.7390000000 0.1644000000
4.4945000000 2.2116000000 0.4364000000
4.2618000000 3.5592000000 1.0143000000
4.2611000000 1.3961000000 0.2041000000
4.2581000000 1.0369000000 0.0753000000
4.2575000000 3.3239000000 1.1506000000
4.2572000000 1.8993000000 0.4968000000
4.2569000000 4.7424000000 0.3332000000
4.2568000000 3.3612000000 1.1347000000
4.2565000000 4.2049000000 0.6464000000
4.2565000000 1.4701000000 0.2499000000
4.2561000000 3.3252000000 1.1507000000
4.2554000000 1.7896000000 0.4306000000
4.2550000000 2.3807000000 0.7793000000
4.2549000000 3.9367000000 0.7999000000
4.2547000000 1.3479000000 0.1852000000
4.2544000000 2.4538000000 0.8185000000
4.2539000000 2.0138000000 0.5663000000
4.2537000000 4.6098000000 0.4129000000
4.2533000000 1.0524000000 0.0927000000
4.2523000000 2.6530000000 0.9364000000
4.2518000000 2.3268000000 0.7524000000
4.2513000000 3.6537000000 0.9712000000
4.2511000000 1.8334000000 0.4642000000
4.2506000000 5.1326000000 0.1135000000
4.2504000000 1.6313000000 0.3488000000
4.2501000000 0.8672000000 0.0572000000
4.2490000000 3.5363000000 1.0412000000
4.2483000000 1.4662000000 0.2596000000
4.2475000000 1.5109000000 0.2801000000
4.0125000000 4.3994000000 0.7788000000
4.0113000000 5.5586000000 0.1109000000
4.0106000000 1.1359000000 0.3053000000
4.0098000000 5.1827000000 0.3238000000
4.0097000000 4.7903000000 0.5538000000
4.0094000000 1.8117000000 0.6909000000
4.0091000000 1.7423000000 0.6550000000
4.0089000000 4.5243000000 0.7019000000
4.0080000000 4.8139000000 0.5436000000
4.0077000000 1.9682000000 0.7837000000
4.0075000000 2.8072000000 1.2714000000
4.0073000000 3.9896000000 1.0130000000
4.0072000000 2.2675000000 0.9557000000
4.0069000000 3.3002000000 1.4198000000
4.0067000000 0.6631000000 0.1053000000
4.0061000000 0.7136000000 0.0584000000
4.0059000000 5.1218000000 0.3662000000
4.0057000000 1.8313000000 0.7077000000
4.0053000000 1.5368000000 0.5427000000
4.0050000000 4.3897000000 0.7879000000
4.0049000000 3.1943000000 1.4585000000
4.0046000000 6.0054000000 0.0094000000
4.0045000000 4.4827000000 0.7336000000
4.0039000000 1.9810000000 0.7967000000
4.0038000000 3.7684000000 1.1504000000
4.0035000000 3.7987000000 1.1296000000
4.0030000000 3.0848000000 1.4367000000
4.0029000000 2.6271000000 1.1735000000
4.0025000000 5.8998000000 0.0729000000
4.0023000000 3.3682000000 1.3871000000
4.0023000000 4.4765000000 0.7449000000
4.0020000000 3.2288000000 1.4546000000
4.0018000000 4.9317000000 0.4851000000
4.0012000000 1.0427000000 0.2576000000
4.0006000000 4.6271000000 0.6556000000
4.0002000000 4.0253000000 1.0076000000
4.0001000000 0.3445000000 0.0128000000
3.9996000000 2.2471000000 0.9553000000
3.9993000000 2.4220000000 1.0578000000
3.9980000000 1.8222000000 0.7119000000
3.9965000000 0.8446000000 0.1440000000
3.9951000000 5.0593000000 0.4149000000
3.7661000000 4.5084000000 0.9591000000
3.7628000000 5.1039000000 0.6197000000
3.7615000000 3.4314000000 1.5855000000
3.7600000000 4.8925000000 0.7423000000
3.7597000000 4.3006000000 1.0893000000
3.7589000000 3.8866000000 1.3299000000
3.7585000000 0.1041000000 0.0299000000
3.7583000000 3.9309000000 1.2974000000
3.7580000000 3.7243000000 1.4203000000
3.7573000000 5.4525000000 0.4220000000
3.7572000000 5.4095000000 0.4504000000
3.7566000000 4.6146000000 0.9097000000
3.7562000000 3.3493000000 1.6395000000
3.7560000000 3.4586000000 1.5793000000
3.7559000000 2.8727000000 1.5641000000
3.7556000000 1.9032000000 1.0003000000
3.7553000000 0.5703000000 0.2322000000
3.7551000000 4.9882000000 0.6939000000
3.7550000000 1.7080000000 0.8935000000
3.7548000000 3.4555000000 1.5807000000
3.7547000000 3.5352000000 1.5331000000
3.7544000000 2.2516000000 1.2035000000
3.7541000000 3.6515000000 1.4668000000
3.7538000000 3.8850000000 1.3334000000
3.7537000000 4.4756000000 0.9892000000
3.7536000000 4.5088000000 0.9738000000
3.7535000000 4.5988000000 0.9232000000
3.7533000000 4.6138000000 0.9104000000
3.7532000000 2.8751000000 1.5685000000
3.7531000000 5.6004000000 0.3396000000
3.7530000000 0.6335000000 0.2734000000
3.7528000000 5.9859000000 0.1235000000
3.7528000000 2.6769000000 1.4487000000
3.7527000000 2.6920000000 1.4569000000
3.7524000000 3.9022000000 1.3184000000
3.7521000000 5.9351000000 0.1442000000
3.7520000000 3.3566000000 1.6384000000
3.7518000000 4.3251000000 1.0768000000
3.7518000000 6.0449000000 0.0950000000
3.7515000000 2.2931000000 1.2260000000
3.7512000000 2.4765000000 1.3352000000
3.7510000000 0.9237000000 0.4459000000
3.7508000000 0.9859000000 0.4793000000
3.7503000000 1.3438000000 0.6796000000
3.7501000000 1.3219000000 0.6668000000
3.7497000000 2.4466000000 1.3248000000
3.7489000000 2.1128000000 1.1260000000
3.7488000000 3.8292000000 1.3731000000
3.7483000000 2.1746000000 1.1651000000
3.7480000000 0.5782000000 0.2453000000
3.7477000000 0.8734000000 0.4152000000
3.7441000000 1.0603000000 0.5220000000
3.5129000000 4.0526000000 1.4763000000
3.5122000000 6.1541000000 0.2041000000
3.5112000000 6.1688000000 0.1922000000
3.5103000000 5.0866000000 0.8793000000
3.5096000000 2.5766000000 1.6292000000
3.5091000000 5.3867000000 0.7082000000
3.5088000000 6.2622000000 0.0985000000
3.5083000000 2.7538000000 1.7381000000
3.5081000000 3.8034000000 1.6295000000
3.5078000000 3.5897000000 1.7501000000
3.5074000000 5.1116000000 0.8735000000
3.5073000000 1.9191000000 1.2613000000
3.5072000000 1.3701000000 0.9391000000
3.5069000000 5.0550000000 0.9045000000
3.5067000000 3.9601000000 1.5315000000
3.5065000000 0.9877000000 0.7217000000
3.5063000000 5.0728000000 0.8939000000
3.5062000000 5.2322000000 0.8013000000
3.5060000000 4.9194000000 0.9844000000
3.5060000000 3.6827000000 1.6973000000
3.5056000000 5.2361000000 0.8036000000
3.5055000000 4.3207000000 1.3244000000
3.5050000000 5.2217000000 0.8139000000
3.5046000000 2.5860000000 1.6426000000
3.5042000000 5.2086000000 0.8238000000
3.5040000000 2.6502000000 1.6766000000
3.5038000000 0.0666000000 0.0630000000
3.5037000000 6.3015000000 0.1272000000
3.5034000000 1.1410000000 0.8150000000
3.5031000000 3.1071000000 1.9479000000
3.5030000000 2.7142000000 1.7179000000
3.5026000000 2.9893000000 1.8818000000
3.5024000000 1.6309000000 1.0927000000
3.5021000000 4.2221000000 1.3878000000
3.5019000000 4.8578000000 1.0190000000
3.5018000000 1.1311000000 0.8077000000
3.5015000000 0.2950000000 0.3087000000
3.5013000000 4.2503000000 1.3727000000
3.5011000000 3.4908000000 1.8172000000
3.5010000000 5.4860000000 0.6652000000
3.5008000000 4.0236000000 1.5056000000
3.5005000000 1.4137000000 0.9757000000
3.4997000000 1.3268000000 0.9217000000
3.4995000000 0.9478000000 0.7005000000
3.4979000000 4.7411000000 1.0905000000
3.4970000000 0.2178000000 0.2227000000
3.4932000000 1.0270000000 0.7592000000
3.2629000000 6.2111000000 0.1619000000
3.2620000000 5.5023000000 0.8899000000
3.2614000000 5.8501000000 0.5744000000
3.2606000000 2.7923000000 2.0066000000
3.2594000000 6.0758000000 0.3196000000
3.2588000000 4.8142000000 1.2915000000
3.2582000000 2.2051000000 1.6757000000
3.2578000000 0.7275000000 0.8014000000
3.2573000000 2.2616000000 1.7047000000
3.2571000000 3.6210000000 1.9783000000
3.2568000000 5.2895000000 1.0135000000
3.2566000000 0.4826000000 0.5491000000
3.2561000000 0.1273000000 0.1383000000
3.2560000000 0.7451000000 0.8081000000
3.2558000000 1.5382000000 1.2885000000
3.2555000000 1.9632000000 1.5391000000
3.2552000000 5.7906000000 0.6427000000
3.2550000000 2.0314000000 1.5740000000
3.2546000000 0.0073000000 0.0734000000
3.2543000000 6.0618000000 0.3307000000
3.2541000000 4.8629000000 1.2669000000
3.2539000000 0.6017000000 0.6812000000
3.2535000000 3.0524000000 2.1649000000
3.2533000000 5.4865000000 0.9082000000
3.2532000000 5.4543000000 0.9242000000
3.2531000000 0.9610000000 0.9604000000
3.2530000000 2.5080000000 1.8552000000
3.2529000000 2.2780000000 1.7194000000
3.2524000000 0.7009000000 0.7813000000
3.2522000000 2.1964000000 1.6746000000
3.2518000000 1.3061000000 1.1621000000
3.2518000000 4.3088000000 1.5888000000
3.2516000000 0.8432000000 0.8954000000
3.2513000000 2.1609000000 1.6548000000
3.2513000000 0.8818000000 0.9173000000
3.2512000000 3.0491000000 2.1650000000
3.2509000000 2.6516000000 1.9346000000
3.2508000000 3.2005000000 2.2084000000
3.2503000000 0.7305000000 0.8086000000
3.2500000000 1.0104000000 0.9871000000
3.2495000000 0.7357000000 0.8170000000
3.2491000000 5.5915000000 0.8347000000
3.0120000000 4.2519000000 1.8657000000
3.0109000000 4.2093000000 1.8847000000
3.0099000000 3.0175000000 2.3909000000
3.0094000000 6.2796000000 0.0821000000
3.0093000000 6.2331000000 0.1370000000
3.0090000000 1.5717000000 1.5567000000
3.0086000000 4.3269000000 1.8189000000
3.0079000000 6.1934000000 0.1823000000
3.0077000000 5.9710000000 0.4356000000
3.0075000000 5.5034000000 0.9780000000
3.0073000000 2.3637000000 2.0144000000
3.0071000000 6.1808000000 0.1892000000
3.0070000000 4.3186000000 1.8263000000
3.0068000000 3.6738000000 2.1996000000
3.0068000000 1.3715000000 1.4428000000
3.0066000000 3.7076000000 2.1851000000
3.0063000000 1.1826000000 1.3120000000
3.0062000000 1.9345000000 1.7645000000
3.0057000000 2.6714000000 2.1915000000
3.0056000000 5.1238000000 1.3445000000
3.0052000000 5.2076000000 1.2994000000
3.0051000000 1.1302000000 1.2747000000
3.0050000000 5.2117000000 1.2933000000
3.0048000000 0.7626000000 0.8686000000
3.0046000000 4.9296000000 1.4746000000
3.0045000000 0.9369000000 1.0746000000
3.0042000000 2.8785000000 2.3205000000
3.0040000000 6.0831000000 0.3152000000
3.0038000000 0.5036000000 0.5638000000
3.0036000000 2.5830000000 2.1458000000
3.0035000000 3.8387000000 2.1109000000
3.0028000000 5.2877000000 1.2115000000
3.0025000000 0.3939000000 0.4415000000
3.0023000000 4.0944000000 1.9639000000
3.0021000000 2.0417000000 1.8299000000
3.0020000000 2.5154000000 2.1053000000
3.0018000000 2.1912000000 1.9204000000
3.0015000000 2.8479000000 2.2986000000
3.0012000000 1.3693000000 1.4445000000
3.0010000000 1.5378000000 1.5472000000
3.0008000000 3.6338000000 2.2293000000
3.0005000000 4.7514000000 1.5875000000
3.0002000000 2.6444000000 2.1825000000
2.9998000000 3.5893000000 2.2541000000
2.9994000000 0.2665000000 0.2983000000
2.9990000000 2.2906000000 1.9811000000
2.9990000000 2.3536000000 2.0167000000
2.9987000000 2.2671000000 1.9669000000
2.9966000000 0.5228000000 0.5975000000
2.9938000000 4.8553000000 1.5321000000
2.7600000000 3.2377000000 2.6981000000
2.7598000000 0.5149000000 0.5867000000
2.7594000000 4.8993000000 1.6728000000
2.7593000000 3.3281000000 2.6512000000
2.7585000000 0.9926000000 1.1371000000
2.7583000000 5.3316000000 1.1778000000
2.7577000000 5.2029000000 1.3199000000
2.7575000000 4.5141000000 1.9653000000
2.7576000000 6.3500000000 0.0723000000
2.7572000000 3.7596000000 2.4044000000
2.7571000000 4.2174000000 2.1399000000
2.7570000000 2.2682000000 2.2060000000
2.7563000000 4.5308000000 1.9587000000
2.7562000000 2.9978000000 2.6359000000
2.7561000000 2.9351000000 2.5937000000
2.7559000000 4.4766000000 1.9927000000
2.7555000000 3.0268000000 2.6473000000
2.7554000000 2.0872000000 2.1048000000
2.7552000000 4.9715000000 1.5938000000
2.7547000000 1.6078000000 1.8175000000
2.7546000000 2.7122000000 2.4684000000
2.7544000000 5.0341000000 1.5137000000
2.7542000000 4.5910000000 1.9279000000
2.7539000000 2.1358000000 2.1402000000
2.7536000000 5.7117000000 0.7362000000
2.7535000000 4.7956000000 1.7711000000
2.7533000000 2.3849000000 2.2776000000
2.7530000000 2.5636000000 2.3827000000
2.7528000000 1.5076000000 1.7093000000
2.7525000000 3.3555000000 2.6355000000
2.7523000000 1.3188000000 1.5077000000
2.7521000000 1.0036000000 1.1454000000
2.7518000000 4.3074000000 2.0877000000
2.7517000000 4.8261000000 1.7346000000
2.7514000000 0.7949000000 0.9066000000
2.7509000000 0.1464000000 0.1602000000
2.7508000000 3.4141000000 2.6003000000
2.7507000000 3.9182000000 2.3174000000
2.7505000000 1.2438000000 1.4209000000
2.7503000000 0.5651000000 0.6409000000
2.7500000000 2.2826000000 2.2287000000
2.7499000000 1.6573000000 1.8486000000
2.7495000000 4.0389000000 2.2445000000
2.7494000000 1.3585000000 1.5494000000
2.7488000000 1.0447000000 1.1944000000
2.7486000000 2.9877000000 2.6398000000
2.7471000000 1.2576000000 1.4391000000
2.7466000000 0.2013000000 0.2200000000
2.5128000000 3.8794000000 2.5739000000
2.5107000000 2.1936000000 2.4112000000
2.5100000000 3.6104000000 2.7342000000
2.5092000000 5.1919000000 1.3365000000
2.5089000000 3.1544000000 2.9562000000
2.5088000000 1.3417000000 1.5393000000
2.5086000000 4.8370000000 1.7396000000
2.5082000000 4.2581000000 2.3420000000
2.5081000000 6.3123000000 0.1192000000
2.5075000000 5.0304000000 1.5206000000
2.5073000000 2.9385000000 2.8450000000
2.5070000000 3.4504000000 2.8330000000
2.5069000000 6.0570000000 0.3344000000
2.5068000000 3.5436000000 2.7741000000
2.5067000000 1.8978000000 2.1782000000
2.5066000000 3.2294000000 2.9449000000
2.5065000000 3.8832000000 2.5855000000
2.5061000000 5.5766000000 0.8895000000
2.5059000000 3.1740000000 2.9642000000
2.5057000000 0.2390000000 0.2618000000
2.5054000000 3.6260000000 2.7255000000
2.5052000000 1.6418000000 1.8835000000
2.5051000000 5.4994000000 0.9822000000
2.5048000000 3.6844000000 2.6982000000
2.5047000000 3.3969000000 2.8634000000
2.5045000000 2.7365000000 2.7351000000
2.5044000000 1.3728000000 1.5715000000
2.5043000000 5.7163000000 0.7312000000
2.5041000000 0.2490000000 0.2750000000
2.5039000000 4.7497000000 1.8438000000
2.5038000000 5.1463000000 1.3884000000
2.5037000000 2.5668000000 2.6355000000
2.5035000000 1.2449000000 1.4261000000
2.5034000000 4.6250000000 1.9923000000
2.5031000000 1.1664000000 1.3363000000
2.5029000000 5.8992000000 0.5189000000
2.5025000000 3.3493000000 2.8956000000
2.5018000000 4.1290000000 2.4427000000
2.5016000000 1.9286000000 2.1957000000
2.5015000000 5.8636000000 0.5531000000
2.5011000000 0.7457000000 0.8508000000
2.5010000000 0.5354000000 0.6043000000
2.5010000000 3.7209000000 2.6771000000
2.5007000000 2.4196000000 2.5535000000
2.5005000000 0.6879000000 0.7810000000
2.5004000000 4.6340000000 1.9784000000
2.5000000000 2.6411000000 2.6800000000
2.4996000000 3.5054000000 2.8047000000
2.4994000000 0.1483000000 0.1616000000
2.4992000000 3.4476000000 2.8396000000
2.4988000000 2.5875000000 2.6475000000
2.4982000000 1.9828000000 2.2569000000
2.4978000000 0.2534000000 0.2783000000
2.4955000000 4.0648000000 2.4903000000
2.2610000000 5.2836000000 1.2270000000
2.2601000000 5.6059000000 0.8610000000
2.2589000000 5.6124000000 0.8523000000
2.2585000000 3.6542000000 2.9700000000
2.2581000000 6.2187000000 0.1511000000
2.2580000000 5.8910000000 0.5277000000
2.2577000000 2.0965000000 2.4072000000
2.2572000000 4.7324000000 1.8643000000
2.2570000000 3.3763000000 3.1208000000
2.2564000000 5.2490000000 1.2705000000
2.2560000000 3.7534000000 2.9066000000
2.2558000000 2.1442000000 2.4595000000
2.2558000000 5.7006000000 0.7458000000
2.2555000000 0.1771000000 0.1984000000
2.2553000000 0.7833000000 0.8969000000
2.2551000000 4.4514000000 2.1939000000
2.2550000000 2.8945000000 3.0770000000
2.2548000000 1.2263000000 1.4027000000
2.2548000000 4.1355000000 2.5544000000
2.2546000000 0.6560000000 0.7497000000
2.2544000000 3.9787000000 2.7128000000
2.2543000000 2.9016000000 3.0801000000
2.2542000000 2.3241000000 2.6675000000
2.2539000000 0.9100000000 1.0364000000
2.2536000000 4.5476000000 2.0772000000
2.2534000000 0.0719000000 0.0715000000
2.2533000000 0.7316000000 0.8336000000
2.2532000000 0.5538000000 0.6306000000
2.2530000000 4.1258000000 2.5706000000
2.2527000000 5.7476000000 0.6968000000
2.2523000000 5.0145000000 1.5397000000
2.2521000000 1.2055000000 1.3804000000
2.2517000000 2.4475000000 2.7978000000
2.2513000000 1.7271000000 1.9815000000
2.2510000000 1.2336000000 1.4166000000
2.2508000000 3.1265000000 3.2004000000
2.2504000000 4.8957000000 1.6807000000
2.2503000000 0.8004000000 0.9076000000
2.2493000000 3.3421000000 3.1416000000
2.2489000000 0.9190000000 1.0489000000
2.2484000000 2.8895000000 3.0736000000
2.2482000000 3.9029000000 2.8043000000
2.2478000000 4.2769000000 2.3910000000
2.2454000000 0.5261000000 0.5974000000
2.0119000000 5.7894000000 0.6444000000
2.0108000000 4.2704000000 2.3926000000
2.0105000000 3.9063000000 2.8147000000
2.0100000000 6.2571000000 0.1032000000
2.0093000000 3.8154000000 2.9254000000
2.0083000000 0.7971000000 0.9116000000
2.0080000000 2.7912000000 3.1872000000
2.0075000000 3.8165000000 2.9199000000
2.0070000000 2.4727000000 2.8430000000
2.0068000000 2.3160000000 2.6638000000
2.0065000000 3.4819000000 3.2901000000
2.0063000000 4.0771000000 2.6163000000
2.0062000000 2.2084000000 2.5396000000
2.0059000000 2.2204000000 2.5499000000
2.0057000000 1.8830000000 2.1646000000
2.0053000000 5.7335000000 0.7088000000
2.0051000000 0.3626000000 0.4046000000
2.0049000000 5.8231000000 0.6072000000
2.0047000000 3.8938000000 2.8315000000
2.0046000000 2.3193000000 2.6690000000
2.0043000000 5.9047000000 0.5071000000
2.0043000000 4.5723000000 2.0490000000
2.0041000000 1.1200000000 1.2790000000
2.0039000000 0.1882000000 0.2042000000
2.0038000000 3.3915000000 3.3491000000
2.0035000000 2.8997000000 3.3079000000
2.0034000000 3.8476000000 2.8877000000
2.0033000000 0.2150000000 0.2335000000
2.0029000000 2.6540000000 3.0481000000
2.0028000000 2.0754000000 2.3817000000
2.0028000000 5.5676000000 0.8983000000
2.0022000000 5.8042000000 0.6250000000
2.0021000000 2.5485000000 2.9324000000
2.0020000000 0.6131000000 0.6931000000
2.0018000000 6.2544000000 0.1062000000
2.0018000000 3.3735000000 3.3675000000
2.0015000000 3.0683000000 3.4344000000
2.0011000000 5.8240000000 0.6065000000
2.0008000000 1.2435000000 1.4255000000
2.0005000000 2.1913000000 2.5159000000
2.0004000000 0.8223000000 0.9373000000
2.0000000000 2.7694000000 3.1817000000
1.9999000000 0.8515000000 0.9729000000
1.9995000000 0.6081000000 0.6934000000
1.9991000000 1.7260000000 1.9815000000
1.9990000000 1.1234000000 1.2887000000
1.9986000000 3.4952000000 3.2762000000
1.9983000000 0.9673000000 1.1005000000
1.9979000000 0.2218000000 0.2428000000
1.9974000000 2.0327000000 2.3320000000
1.9955000000 2.0993000000 2.4151000000
1.7623000000 1.6776000000 1.9265000000
1.7615000000 5.3440000000 1.1601000000
1.7613000000 5.1449000000 1.3912000000
1.7605000000 4.0605000000 2.6442000000
1.7601000000 4.2922000000 2.3725000000
1.7598000000 5.3719000000 1.1251000000
1.7593000000 3.9859000000 2.7324000000
1.7593000000 6.2033000000 0.1639000000
1.7588000000 4.7695000000 1.8226000000
1.7584000000 6.0520000000 0.3435000000
1.7577000000 5.7063000000 0.7395000000
1.7575000000 4.7292000000 1.8744000000
1.7572000000 4.8217000000 1.7648000000
1.7570000000 6.3640000000 0.0580000000
1.7567000000 1.1216000000 1.2819000000
1.7565000000 4.9395000000 1.6245000000
1.7563000000 3.6786000000 3.0824000000
1.7562000000 2.9615000000 3.3809000000
1.7560000000 3.0545000000 3.4878000000
1.7559000000 5.3237000000 1.1802000000
1.7558000000 2.0825000000 2.3946000000
1.7557000000 4.5677000000 2.0551000000
1.7554000000 2.5257000000 2.9013000000
1.7552000000 2.7716000000 3.1808000000
1.7551000000 3.8388000000 2.8878000000
1.7548000000 5.5297000000 0.9489000000
1.7547000000 0.7651000000 0.8665000000
1.7544000000 4.2542000000 2.4167000000
1.7542000000 5.1043000000 1.4377000000
1.7539000000 4.5150000000 2.1195000000
1.7535000000 2.3462000000 2.6982000000
1.7534000000 4.5600000000 2.0621000000
1.7531000000 0.1191000000 0.1274000000
1.7530000000 6.1395000000 0.2442000000
1.7528000000 4.3532000000 2.3032000000
1.7524000000 1.6497000000 1.8875000000
1.7522000000 4.6608000000 1.9441000000
1.7520000000 3.2389000000 3.4988000000
1.7518000000 5.3713000000 1.1268000000
1.7515000000 5.8131000000 0.6132000000
1.7513000000 0.8692000000 0.9908000000
1.7507000000 4.9516000000 1.6154000000
1.7505000000 2.7814000000 3.1984000000
1.7503000000 1.4941000000 1.7139000000
1.7501000000 3.2258000000 3.4917000000
1.7500000000 4.0648000000 2.6359000000
1.7495000000 1.9727000000 2.2622000000
1.7494000000 0.6373000000 0.7269000000
1.7484000000 3.9153000000 2.8066000000
1.7480000000 4.3963000000 2.2516000000
1.7478000000 4.2774000000 2.3968000000
1.7469000000 6.0774000000 0.3141000000
1.7454000000 1.0213000000 1.1703000000
1.7446000000 0.0679000000 0.0713000000
1.7433000000 0.1783000000 0.1897000000
1.5134000000 5.7666000000 0.6641000000
1.5109000000 3.0916000000 3.2820000000
1.5098000000 2.5670000000 2.9352000000
1.5093000000 4.0613000000 2.6401000000
1.5091000000 3.9133000000 2.8104000000
1.5082000000 5.2166000000 1.3010000000
1.5080000000 2.5935000000 2.9634000000
1.5079000000 4.9913000000 1.5624000000
1.5074000000 4.3655000000 2.2888000000
1.5071000000 5.0998000000 1.4442000000
1.5065000000 2.5207000000 2.8754000000
1.5063000000 2.9870000000 3.2211000000
1.5062000000 5.1836000000 1.3476000000
1.5056000000 4.1453000000 2.5459000000
1.5052000000 1.6606000000 1.9076000000
1.5050000000 6.0332000000 0.3605000000
1.5047000000 5.3869000000 1.1085000000
1.5045000000 4.2908000000 2.3717000000
1.5040000000 5.2847000000 1.2236000000
1.5039000000 2.6611000000 3.0069000000
1.5037000000 2.7097000000 3.0485000000
1.5036000000 2.3129000000 2.6558000000
1.5035000000 4.8874000000 1.6882000000
1.5033000000 4.3197000000 2.3403000000
1.5032000000 2.6584000000 3.0049000000
1.5031000000 2.8734000000 3.1466000000
1.5030000000 0.9814000000 1.1118000000
1.5028000000 3.8173000000 2.9065000000
1.5027000000 0.8368000000 0.9531000000
1.5026000000 2.9874000000 3.2129000000
1.5025000000 5.1166000000 1.4211000000
1.5024000000 2.3218000000 2.6657000000
1.5022000000 0.8186000000 0.9328000000
1.5022000000 1.0607000000 1.2126000000
1.5020000000 1.4014000000 1.6076000000
1.5018000000 2.3535000000 2.7029000000
1.5016000000 3.8541000000 2.8646000000
1.5015000000 5.4759000000 1.0046000000
1.5010000000 4.7353000000 1.8607000000
1.5011000000 1.1164000000 1.2778000000
1.5006000000 4.4168000000 2.2272000000
1.5003000000 5.1588000000 1.3719000000
1.4999000000 1.5395000000 1.7642000000
1.4998000000 5.5145000000 0.9596000000
1.4993000000 3.1665000000 3.2872000000
1.4985000000 3.1716000000 3.2973000000
1.4980000000 0.7684000000 0.8778000000
1.4978000000 2.9915000000 3.2106000000
1.4968000000 2.1451000000 2.4661000000
1.4959000000 1.1048000000 1.2698000000
1.4925000000 2.4914000000 2.8487000000
1.2624000000 2.6024000000 2.7493000000
1.2617000000 5.1542000000 1.3769000000
1.2598000000 4.3665000000 2.2945000000
1.2592000000 4.2213000000 2.4394000000
1.2588000000 5.1228000000 1.4180000000
1.2584000000 5.4197000000 1.0719000000
1.2583000000 5.0488000000 1.5031000000
1.2581000000 4.5418000000 2.0867000000
1.2578000000 3.1703000000 3.0570000000
1.2575000000 3.1753000000 3.0637000000
1.2570000000 2.7284000000 2.8171000000
1.2569000000 1.1296000000 1.2894000000
1.2564000000 1.5866000000 1.8204000000
1.2561000000 2.4937000000 2.6837000000
1.2559000000 0.7423000000 0.8457000000
1.2557000000 1.5794000000 1.8131000000
1.2553000000 1.8899000000 2.1717000000
1.2552000000 2.9383000000 2.9375000000
1.2550000000 2.0642000000 2.3654000000
1.2549000000 5.2145000000 1.3078000000
1.2547000000 4.8288000000 1.7540000000
1.2545000000 3.2499000000 3.0401000000
1.2544000000 2.1060000000 2.4006000000
1.2543000000 5.6153000000 0.8480000000
1.2542000000 5.2950000000 1.2184000000
1.2539000000 3.7451000000 2.7459000000
1.2538000000 3.5536000000 2.8678000000
1.2533000000 0.2785000000 0.3137000000
1.2530000000 2.7671000000 2.8362000000
1.2525000000 4.6432000000 1.9714000000
1.2521000000 6.0823000000 0.3037000000
1.2516000000 0.0185000000 0.0853000000
1.2516000000 0.3828000000 0.4269000000
1.2513000000 2.4259000000 2.6365000000
1.2513000000 4.7090000000 1.8875000000
1.2512000000 1.4498000000 1.6662000000
1.2509000000 5.6724000000 0.7833000000
1.2508000000 3.7242000000 2.7571000000
1.2507000000 4.1633000000 2.4828000000
1.2503000000 0.0184000000 0.0866000000
1.2502000000 1.5329000000 1.7570000000
1.2501000000 5.1841000000 1.3428000000
1.2498000000 1.0132000000 1.1531000000
1.2493000000 3.3539000000 2.9687000000
1.2489000000 6.3212000000 0.1041000000
1.2483000000 2.6912000000 2.7935000000
1.2471000000 3.7485000000 2.7406000000
1.2468000000 1.5082000000 1.7234000000
1.2463000000 1.4198000000 1.6255000000
1.2461000000 4.9692000000 1.5935000000
1.2448000000 0.4829000000 0.5451000000
1.0125000000 4.7889000000 1.7994000000
1.0105000000 1.0415000000 1.1984000000
1.0093000000 5.9461000000 0.4623000000
1.0090000000 2.8410000000 2.6374000000
1.0087000000 5.8260000000 0.6046000000
1.0078000000 5.2579000000 1.2599000000
1.0073000000 2.9595000000 2.7013000000
1.0072000000 3.7882000000 2.4772000000
1.0071000000 1.9006000000 2.0918000000
1.0068000000 5.5649000000 0.9050000000
1.0065000000 5.1013000000 1.4392000000
1.0064000000 1.8732000000 2.0785000000
1.0061000000 3.3775000000 2.7129000000
1.0060000000 3.9055000000 2.4138000000
1.0057000000 6.2464000000 0.1182000000
1.0056000000 2.5397000000 2.4570000000
1.0055000000 1.5049000000 1.7230000000
1.0053000000 0.7590000000 0.8624000000
1.0048000000 2.6093000000 2.4980000000
1.0046000000 2.3486000000 2.3462000000
1.0044000000 4.2682000000 2.2011000000
1.0042000000 3.6422000000 2.5612000000
1.0039000000 1.3248000000 1.5183000000
1.0037000000 1.6873000000 1.9224000000
1.0035000000 5.4797000000 1.0059000000
1.0033000000 3.2162000000 2.7893000000
1.0031000000 1.9881000000 2.1412000000
1.0029000000 2.4889000000 2.4291000000
1.0029000000 2.4550000000 2.4075000000
1.0027000000 2.2171000000 2.2687000000
1.0025000000 4.2773000000 2.1881000000
1.0022000000 6.0497000000 0.3439000000
1.0020000000 1.4677000000 1.6793000000
1.0019000000 0.4237000000 0.4732000000
1.0017000000 4.3384000000 2.1598000000
1.0015000000 0.1040000000 0.1115000000
1.0013000000 1.4701000000 1.6889000000
1.0012000000 3.2038000000 2.7901000000
1.0009000000 1.9537000000 2.1180000000
1.0003000000 5.5803000000 0.8900000000
0.9998000000 3.9764000000 2.3665000000
0.9998000000 3.2383000000 2.7906000000
0.9995000000 2.8808000000 2.6515000000
0.9991000000 0.7848000000 0.8925000000
0.9987000000 1.3417000000 1.5322000000
0.9983000000 1.6437000000 1.8689000000
0.9980000000 3.7158000000 2.5094000000
0.9974000000 1.4856000000 1.7008000000
0.9971000000 1.7688000000 1.9909000000
0.9967000000 1.6767000000 1.9033000000
0.7653000000 5.0129000000 1.5055000000
0.7618000000 4.7699000000 1.6692000000
0.7605000000 5.5871000000 0.8781000000
0.7596000000 4.6841000000 1.7182000000
0.7593000000 3.1596000000 2.5483000000
0.7590000000 3.6734000000 2.2968000000
0.7589000000 3.2198000000 2.5445000000
0.7587000000 0.7615000000 0.8640000000
0.7583000000 2.8206000000 2.3749000000
0.7580000000 5.0342000000 1.4952000000
0.7576000000 5.6625000000 0.7950000000
0.7572000000 5.2125000000 1.3154000000
0.7569000000 2.9074000000 2.4213000000
0.7568000000 5.3251000000 1.1795000000
0.7566000000 5.9361000000 0.4757000000
0.7565000000 0.3725000000 0.4153000000
0.7560000000 2.7597000000 2.3414000000
0.7556000000 1.0256000000 1.1721000000
0.7550000000 0.4543000000 0.5127000000
0.7547000000 3.2806000000 2.5115000000
0.7545000000 0.9668000000 1.1111000000
0.7543000000 0.9486000000 1.0875000000
0.7542000000 5.8615000000 0.5669000000
0.7539000000 6.3730000000 0.0444000000
0.7538000000 2.1345000000 1.9720000000
0.7535000000 3.7166000000 2.2729000000
0.7534000000 3.5301000000 2.3717000000
0.7533000000 5.8161000000 0.6164000000
0.7531000000 2.7860000000 2.3477000000
0.7530000000 1.0420000000 1.1917000000
0.7529000000 0.8888000000 1.0216000000
0.7526000000 3.1258000000 2.5441000000
0.7525000000 4.9607000000 1.5331000000
0.7522000000 0.7346000000 0.8362000000
0.7521000000 6.2277000000 0.1396000000
0.7518000000 4.4655000000 1.8321000000
0.7513000000 6.2267000000 0.1400000000
0.7510000000 5.2912000000 1.2205000000
0.7508000000 0.1672000000 0.1808000000
0.7506000000 3.8083000000 2.2128000000
0.7505000000 2.4971000000 2.1814000000
0.7501000000 5.0374000000 1.4881000000
0.7498000000 0.7320000000 0.8343000000
0.7496000000 0.9070000000 1.0345000000
0.7494000000 0.6827000000 0.7774000000
0.7490000000 2.4981000000 2.1766000000
0.7484000000 5.2330000000 1.2842000000
0.7475000000 4.4960000000 1.8098000000
0.7469000000 2.2141000000 2.0157000000
0.7469000000 3.0767000000 2.5125000000
0.7459000000 4.4688000000 1.8218000000
0.7438000000 0.2314000000 0.2580000000
0.5137000000 1.3687000000 1.2926000000
0.5115000000 5.0009000000 1.2808000000
0.5107000000 3.5073000000 2.1415000000
0.5101000000 4.4041000000 1.6284000000
0.5094000000 6.2939000000 0.0646000000
0.5089000000 1.8082000000 1.5418000000
0.5088000000 3.5036000000 2.1447000000
0.5080000000 5.4762000000 0.9878000000
0.5078000000 5.9498000000 0.4625000000
0.5073000000 5.6974000000 0.7483000000
0.5065000000 5.3314000000 1.0908000000
0.5063000000 1.5453000000 1.3893000000
0.5059000000 3.2772000000 2.2708000000
0.5055000000 6.0779000000 0.3122000000
0.5052000000 2.8832000000 2.1558000000
0.5047000000 2.1928000000 1.7589000000
0.5046000000 0.3791000000 0.4235000000
0.5044000000 3.7330000000 2.0114000000
0.5042000000 3.9643000000 1.8794000000
0.5040000000 2.5079000000 1.9333000000
0.5038000000 3.4158000000 2.1924000000
0.5037000000 5.4826000000 0.9740000000
0.5033000000 0.9045000000 0.9898000000
0.5030000000 4.8832000000 1.3435000000
0.5028000000 3.0667000000 2.2573000000
0.5026000000 0.6652000000 0.7577000000
0.5024000000 2.6708000000 2.0348000000
0.5021000000 2.9502000000 2.1906000000
0.5020000000 2.4598000000 1.9102000000
0.5018000000 1.3746000000 1.2856000000
0.5013000000 0.9812000000 1.0470000000
0.5010000000 3.6578000000 2.0468000000
0.5009000000 0.7970000000 0.8896000000
0.5005000000 1.5947000000 1.4067000000
0.4999000000 5.6588000000 0.8046000000
0.4988000000 1.0382000000 1.0850000000
0.4984000000 2.2196000000 1.7685000000
0.4979000000 1.5177000000 1.3646000000
0.4975000000 1.4652000000 1.3322000000
0.4968000000 3.1206000000 2.2913000000
0.4964000000 1.5736000000 1.3956000000
0.4922000000 0.8375000000 0.9382000000
0.2609000000 4.9711000000 1.0563000000
0.2593000000 5.7414000000 0.6044000000
0.2589000000 0.9198000000 0.7811000000
0.2585000000 5.9957000000 0.3908000000
0.2581000000 4.6449000000 1.2317000000
0.2575000000 3.4992000000 1.8992000000
0.2573000000 1.7067000000 1.2335000000
0.2570000000 4.9913000000 1.0354000000
0.2566000000 2.6260000000 1.7561000000
0.2564000000 3.2335000000 2.0406000000
0.2562000000 1.4993000000 1.1157000000
0.2560000000 2.1705000000 1.4999000000
0.2559000000 3.9447000000 1.6380000000
0.2555000000 4.9006000000 1.0859000000
0.2551000000 6.2135000000 0.1590000000
0.2549000000 2.6361000000 1.7632000000
0.2548000000 4.9295000000 1.0700000000
0.2545000000 0.9146000000 0.7682000000
0.2544000000 6.1759000000 0.1973000000
0.2542000000 5.5369000000 0.7128000000
0.2541000000 4.7077000000 1.1874000000
0.2540000000 4.6869000000 1.2063000000
0.2538000000 2.8635000000 1.8986000000
0.2534000000 5.9103000000 0.4835000000
0.2533000000 3.6317000000 1.8129000000
0.2531000000 1.6019000000 1.1631000000
0.2529000000 5.1545000000 0.9349000000
0.2528000000 4.2681000000 1.4437000000
0.2526000000 2.5335000000 1.7072000000
0.2525000000 1.3594000000 1.0256000000
0.2524000000 2.5830000000 1.7357000000
0.2523000000 1.9775000000 1.3787000000
0.2521000000 2.8910000000 1.9126000000
0.2520000000 2.6695000000 1.7796000000
0.2518000000 3.4296000000 1.9293000000
0.2517000000 0.2799000000 0.3167000000
0.2513000000 5.7390000000 0.5934000000
0.2511000000 5.6282000000 0.6625000000
0.2506000000 0.4088000000 0.4430000000
0.2505000000 0.0590000000 0.1269000000
0.2502000000 0.6157000000 0.5893000000
0.2497000000 3.9238000000 1.6485000000
0.2493000000 1.4860000000 1.0996000000
0.2491000000 1.2107000000 0.9326000000
0.2490000000 3.8335000000 1.6975000000
0.2488000000 2.8302000000 1.8717000000
0.2479000000 2.4263000000 1.6406000000
0.2474000000 0.9681000000 0.7936000000
0.2469000000 6.1715000000 0.2025000000
0.2458000000 1.6102000000 1.1618000000
0.0114000000 5.3441000000 0.5807000000
0.0103000000 3.1651000000 1.8070000000
0.0098000000 5.6486000000 0.4093000000
0.0088000000 4.9022000000 0.8397000000
0.0084000000 3.2657000000 1.7848000000
0.0081000000 4.4635000000 1.0924000000
0.0078000000 3.4571000000 1.6675000000
0.0073000000 5.6884000000 0.3850000000
0.0071000000 6.2674000000 0.1111000000
0.0069000000 3.7272000000 1.5146000000
0.0067000000 2.3830000000 1.3673000000
0.0065000000 5.9585000000 0.2276000000
0.0064000000 4.6205000000 0.9984000000
0.0062000000 2.2528000000 1.2904000000
0.0058000000 5.3800000000 0.5612000000
0.0057000000 1.9251000000 1.1002000000
0.0054000000 5.5051000000 0.4855000000
0.0053000000 4.4381000000 1.1079000000
0.0049000000 3.4842000000 1.6471000000
0.0050000000 3.5306000000 1.6266000000
0.0048000000 1.7557000000 1.0060000000
0.0045000000 3.9813000000 1.3646000000
0.0043000000 4.0643000000 1.3119000000
0.0041000000 5.2339000000 0.6380000000
0.0039000000 0.0088000000 0.0627000000
0.0038000000 4.1591000000 1.2612000000
0.0037000000 0.0473000000 0.0765000000
0.0033000000 5.5048000000 0.4850000000
0.0030000000 2.8775000000 1.6537000000
0.0030000000 1.6052000000 0.9156000000
0.0029000000 5.0978000000 0.7194000000
0.0025000000 3.1391000000 1.7812000000
0.0024000000 1.6131000000 0.9245000000
0.0020000000 5.9547000000 0.2265000000
0.0018000000 6.2675000000 0.1005000000
0.0015000000 5.5010000000 0.4834000000
0.0010000000 5.2375000000 0.6346000000
0.0007000000 5.1503000000 0.6862000000
0.0002000000 0.4302000000 0.2361000000
0.0001000000 2.8440000000 1.6315000000
0.0000000000 0.3377000000 0.1795000000
-0.0010000000 1.6315000000 0.9308000000
-0.0013000000 2.1810000000 1.2442000000
-0.0015000000 6.3216000000 0.0639000000
-0.0018000000 2.4157000000 1.3861000000
-0.0024000000 0.8845000000 0.4938000000
-0.0042000000 0.2317000000 0.1172000000
-0.2375000000 6.1263000000 0.0339000000
-0.2390000000 5.8271000000 0.1317000000
-0.2402000000 4.5747000000 0.7770000000
-0.2406000000 6.0219000000 0.0907000000
-0.2412000000 1.9817000000 0.8868000000
-0.2421000000 4.0241000000 1.0904000000
-0.2426000000 4.5360000000 0.7984000000
-0.2429000000 5.0131000000 0.5193000000
-0.2432000000 5.6718000000 0.1358000000
-0.2435000000 4.2836000000 0.9429000000
-0.2436000000 2.8609000000 1.3987000000
-0.2438000000 3.1631000000 1.5500000000
-0.2441000000 6.1252000000 0.0286000000
-0.2444000000 2.9020000000 1.4142000000
-0.2447000000 2.8429000000 1.3877000000
-0.2448000000 4.1939000000 0.9970000000
-0.2452000000 0.7999000000 0.2055000000
-0.2456000000 3.2305000000 1.5363000000
-0.2458000000 0.5639000000 0.0640000000
-0.2460000000 4.2980000000 0.9360000000
-0.2461000000 3.3482000000 1.4779000000
-0.2463000000 0.3371000000 0.0858000000
-0.2469000000 1.4378000000 0.5657000000
-0.2471000000 3.2579000000 1.5352000000
-0.2475000000 1.9614000000 0.8741000000
-0.2476000000 2.4681000000 1.1658000000
-0.2477000000 5.5279000000 0.2187000000
-0.2483000000 1.5050000000 0.6043000000
-0.2485000000 3.4156000000 1.4410000000
-0.2487000000 1.9430000000 0.8654000000
-0.2488000000 3.7897000000 1.2213000000
-0.2490000000 1.4131000000 0.5560000000
-0.2492000000 1.1090000000 0.3806000000
-0.2496000000 4.5922000000 0.7578000000
-0.2499000000 4.6250000000 0.7399000000
-0.2501000000 4.5960000000 0.7605000000
-0.2507000000 0.8197000000 0.2102000000
-0.2510000000 1.7167000000 0.7284000000
-0.2514000000 1.7453000000 0.7376000000
-0.2520000000 0.7183000000 0.1506000000
-0.2524000000 1.8611000000 0.8041000000
-0.2530000000 2.3542000000 1.0935000000
-0.2539000000 1.7339000000 0.7364000000
-0.4887000000 4.3156000000 0.6778000000
-0.4907000000 4.5327000000 0.5527000000
-0.4913000000 4.1359000000 0.7806000000
-0.4918000000 3.5541000000 1.1224000000
-0.4922000000 2.2560000000 0.7960000000
-0.4924000000 5.7308000000 0.0094000000
-0.4928000000 5.4207000000 0.1173000000
-0.4929000000 2.0549000000 0.6877000000
-0.4936000000 2.2035000000 0.7708000000
-0.4938000000 4.1062000000 0.7942000000
-0.4942000000 3.5723000000 1.1009000000
-0.4945000000 1.9860000000 0.6395000000
-0.4954000000 4.5232000000 0.5493000000
-0.4959000000 3.5122000000 1.1342000000
-0.4963000000 2.9503000000 1.1973000000
-0.4965000000 5.2550000000 0.1313000000
-0.4966000000 4.4621000000 0.5866000000
-0.4971000000 5.6703000000 0.0346000000
-0.4972000000 3.2340000000 1.2931000000
-0.4973000000 3.2095000000 1.2869000000
-0.4975000000 2.8898000000 1.1566000000
-0.4977000000 3.5748000000 1.0970000000
-0.4983000000 1.0344000000 0.0880000000
-0.4986000000 2.3710000000 0.8593000000
-0.4988000000 4.4555000000 0.5857000000
-0.4991000000 4.3395000000 0.6520000000
-0.4994000000 1.3163000000 0.2518000000
-0.5000000000 3.9399000000 0.8850000000
-0.5002000000 0.8161000000 0.0352000000
-0.5002000000 1.6255000000 0.4259000000
-0.5007000000 3.4734000000 1.1553000000
-0.5010000000 1.4298000000 0.3130000000
-0.5013000000 2.8611000000 1.1324000000
-0.5021000000 1.7140000000 0.4736000000
-0.5043000000 1.1016000000 0.1216000000
-0.7377000000 4.9342000000 0.0740000000
-0.7395000000 1.5957000000 0.1690000000
-0.7402000000 4.8385000000 0.1267000000
-0.7415000000 4.4390000000 0.3509000000
-0.7425000000 1.7080000000 0.2296000000
-0.7427000000 3.4085000000 0.9536000000
-0.7430000000 2.9807000000 0.9661000000
-0.7436000000 4.4369000000 0.3585000000
-0.7442000000 3.4079000000 0.9490000000
-0.7445000000 4.4100000000 0.3698000000
-0.7449000000 5.1430000000 0.0993000000
-0.7452000000 3.7763000000 0.7300000000
-0.7455000000 1.8705000000 0.3214000000
-0.7458000000 3.3474000000 0.9792000000
-0.7460000000 3.4472000000 0.9254000000
-0.7462000000 1.3150000000 0.0776000000
-0.7469000000 1.1520000000 0.0594000000
-0.7471000000 1.2997000000 0.0661000000
-0.7472000000 2.3230000000 0.5821000000
-0.7475000000 1.4230000000 0.0635000000
-0.7477000000 1.6743000000 0.2016000000
-0.7479000000 1.5273000000 0.1243000000
-0.7482000000 3.4926000000 0.8929000000
-0.7487000000 1.7883000000 0.2753000000
-0.7488000000 1.8310000000 0.2939000000
-0.7492000000 4.3162000000 0.4218000000
-0.7496000000 3.4144000000 0.9411000000
-0.7497000000 1.8333000000 0.2978000000
-0.7501000000 4.0549000000 0.5658000000
-0.7503000000 2.2768000000 0.5495000000
-0.7507000000 3.5182000000 0.8717000000
-0.7512000000 4.5564000000 0.2797000000
-0.7517000000 1.7256000000 0.2373000000
-0.7541000000 1.8612000000 0.3101000000
-0.9888000000 4.0954000000 0.3067000000
-0.9913000000 4.6318000000 0.0669000000
-0.9929000000 4.0324000000 0.3378000000
-0.9934000000 4.8080000000 0.0403000000
-0.9940000000 3.3926000000 0.7024000000
-0.9944000000 4.2300000000 0.2246000000
-0.9949000000 4.6697000000 0.0401000000
-0.9951000000 4.8005000000 0.0421000000
-0.9958000000 4.2119000000 0.2361000000
-0.9961000000 2.8271000000 0.6222000000
-0.9964000000 2.2264000000 0.2763000000
-0.9966000000 3.6357000000 0.5589000000
-0.9970000000 1.6143000000 0.0742000000
-0.9983000000 2.3793000000 0.3661000000
-0.9986000000 3.8890000000 0.4198000000
-0.9995000000 2.7635000000 0.5828000000
-1.0000000000 3.6389000000 0.5609000000
-1.0008000000 3.4607000000 0.6620000000
-1.0018000000 4.1147000000 0.2842000000
-1.0030000000 3.8773000000 0.4122000000
-1.2412000000 3.4296000000 0.4432000000
-1.2420000000 2.0996000000 0.0357000000
-1.2425000000 2.1650000000 0.0754000000
-1.2426000000 2.2132000000 0.0932000000
-1.2430000000 4.3202000000 0.0700000000
-1.2432000000 4.0330000000 0.0882000000
-1.2437000000 2.7553000000 0.3332000000
-1.2439000000 3.8794000000 0.1767000000
-1.2447000000 2.4795000000 0.1815000000
-1.2449000000 3.5784000000 0.3477000000
-1.2452000000 3.8215000000 0.2103000000
-1.2459000000 3.6287000000 0.3234000000
-1.2461000000 3.7631000000 0.2416000000
-1.2470000000 3.8848000000 0.1695000000
-1.2480000000 3.1587000000 0.5450000000
-1.2484000000 2.8150000000 0.3620000000
-1.2487000000 3.7850000000 0.2266000000
-1.2490000000 4.3065000000 0.0720000000
-1.2491000000 3.7884000000 0.2273000000
-1.2495000000 3.4226000000 0.4351000000
-1.2506000000 2.8659000000 0.3925000000
-1.2510000000 3.5468000000 0.3615000000
-1.2512000000 3.9630000000 0.1221000000
-1.2517000000 2.6383000000 0.2609000000
-1.2530000000 3.2387000000 0.5376000000
-1.2550000000 3.1102000000 0.5282000000
-1.4925000000 3.1207000000 0.2996000000
-1.4931000000 3.0138000000 0.2354000000
-1.4933000000 3.8391000000 0.0980000000
-1.4939000000 2.7546000000 0.0828000000
-1.4952000000 3.8718000000 0.0777000000
-1.4959000000 3.2042000000 0.2936000000
-1.4967000000 2.7757000000 0.0937000000
-1.4972000000 2.6046000000 0.0758000000
-1.4977000000 2.4945000000 0.0837000000
-1.4983000000 2.5443000000 0.0352000000
-1.4992000000 2.7270000000 0.0611000000
-1.4996000000 3.1166000000 0.2862000000
-1.5015000000 3.3629000000 0.2199000000
-1.7430000000 3.1801000000 0.0672000000
-1.7470000000 3.2776000000 0.0988000000
-1.7488000000 2.9113000000 0.0716000000
-1.7547000000 3.3438000000 0.0446000000
