4.7508000000 4.4215000000 1.3308000000
4.7507000000 5.2186000000 0.9481000000
4.7504000000 6.1470000000 0.4985000000
4.7495000000 1.2439000000 0.3323000000
4.7484000000 0.2801000000 0.0167000000
4.7482000000 1.1454000000 0.2847000000
4.7477000000 3.2924000000 1.3212000000
4.7462000000 0.7572000000 0.0991000000
4.5149000000 4.6176000000 1.4350000000
4.5138000000 7.2068000000 0.1859000000
4.5128000000 6.5334000000 0.5070000000
4.5114000000 1.8621000000 0.8258000000
4.5106000000 5.7382000000 0.9069000000
4.5103000000 4.9577000000 1.2741000000
4.5098000000 4.7712000000 1.3657000000
4.5097000000 5.0993000000 1.2042000000
4.5091000000 4.9766000000 1.2664000000
4.5089000000 4.4771000000 1.5139000000
4.5082000000 7.1721000000 0.2074000000
4.5078000000 0.0703000000 0.0389000000
4.5077000000 5.9591000000 0.7940000000
4.5076000000 6.3951000000 0.5798000000
4.5073000000 2.2021000000 1.0028000000
4.5072000000 2.6336000000 1.2032000000
4.5071000000 6.0861000000 0.7385000000
4.5068000000 4.8959000000 1.3075000000
4.5066000000 4.4639000000 1.5176000000
4.5065000000 4.0197000000 1.7349000000
4.5063000000 4.1397000000 1.6740000000
4.5061000000 6.4617000000 0.5554000000
4.5060000000 0.9570000000 0.3986000000
4.5059000000 2.2601000000 1.0274000000
4.5058000000 7.3460000000 0.1257000000
4.5056000000 7.5618000000 0.0938000000
4.5055000000 1.7944000000 0.8023000000
4.5050000000 2.2561000000 1.0220000000
4.5048000000 7.3920000000 0.1031000000
4.5047000000 6.2897000000 0.6379000000
4.5045000000 6.2566000000 0.6512000000
4.5044000000 3.9476000000 1.7678000000
4.5042000000 0.6085000000 0.2307000000
4.5040000000 1.2108000000 0.5228000000
4.5040000000 1.9462000000 0.8783000000
4.5037000000 3.7050000000 1.7287000000
4.5034000000 2.1709000000 0.9869000000
4.5033000000 0.1728000000 0.0975000000
4.5030000000 0.7740000000 0.3125000000
4.5030000000 0.2302000000 0.1304000000
4.5028000000 2.0966000000 0.9474000000
4.5027000000 0.3939000000 0.1288000000
4.5023000000 2.2329000000 1.0198000000
4.5020000000 5.3609000000 1.0837000000
4.5019000000 0.4052000000 0.1289000000
4.5017000000 0.4251000000 0.1413000000
4.5015000000 5.1120000000 1.2018000000
4.5013000000 7.2079000000 0.2046000000
4.5011000000 2.4761000000 1.1321000000
4.5004000000 1.3236000000 0.5774000000
4.5003000000 0.4985000000 0.1787000000
4.4998000000 1.2466000000 0.5414000000
4.4986000000 4.6588000000 1.4337000000
4.4981000000 0.0618000000 0.0415000000
4.4965000000 0.9139000000 0.3818000000
4.2651000000 6.3825000000 0.7929000000
4.2615000000 3.9566000000 1.9679000000
4.2611000000 1.6962000000 0.9626000000
4.2603000000 3.4678000000 1.8085000000
4.2599000000 1.4920000000 0.8588000000
4.2594000000 6.7964000000 0.6007000000
4.2591000000 0.2312000000 0.1869000000
4.2590000000 4.4415000000 1.7365000000
4.2586000000 5.3886000000 1.2804000000
4.2585000000 5.8601000000 1.0479000000
4.2582000000 6.5004000000 0.7455000000
4.2579000000 3.6701000000 1.9163000000
4.2577000000 7.4470000000 0.2296000000
4.2575000000 5.0648000000 1.4350000000
4.2572000000 6.5277000000 0.7280000000
4.2570000000 2.3331000000 1.2682000000
4.2567000000 3.7507000000 1.9630000000
4.2565000000 7.7240000000 0.0577000000
4.2562000000 3.7325000000 1.9513000000
4.2561000000 5.7038000000 1.1317000000
4.2559000000 6.1213000000 0.9271000000
4.2558000000 5.2516000000 1.3558000000
4.2558000000 1.2157000000 0.7299000000
4.2555000000 6.8965000000 0.5510000000
4.2555000000 3.9204000000 1.9810000000
4.2551000000 6.3692000000 0.8099000000
4.2550000000 3.2917000000 1.7337000000
4.2549000000 4.3528000000 1.7844000000
4.2545000000 2.9310000000 1.5605000000
4.2543000000 2.5830000000 1.3962000000
4.2541000000 2.0463000000 1.1376000000
4.2540000000 5.1241000000 1.4097000000
4.2538000000 4.1681000000 1.8772000000
4.2537000000 7.3622000000 0.3191000000
4.2532000000 0.2446000000 0.2020000000
4.2531000000 2.4657000000 1.3394000000
4.2527000000 5.9768000000 1.0048000000
4.2525000000 3.4595000000 1.8217000000
4.2524000000 3.0377000000 1.6162000000
4.2523000000 1.0400000000 0.6455000000
4.2522000000 3.9242000000 1.9904000000
4.2517000000 0.7902000000 0.5304000000
4.2513000000 5.9233000000 1.0257000000
4.2508000000 1.2881000000 0.7693000000
4.2506000000 1.5615000000 0.9060000000
4.2504000000 2.1147000000 1.1698000000
4.2497000000 1.8486000000 1.0394000000
4.2481000000 1.7404000000 0.9915000000
4.2455000000 0.1947000000 0.1547000000
4.2446000000 0.2430000000 0.2059000000
4.0139000000 5.2149000000 1.5682000000
4.0120000000 5.8220000000 1.2717000000
4.0113000000 0.9199000000 0.7966000000
4.0110000000 5.8517000000 1.2606000000
4.0100000000 7.5131000000 0.1900000000
4.0096000000 6.8485000000 0.7650000000
4.0091000000 1.4628000000 1.0631000000
4.0088000000 7.2998000000 0.3915000000
4.0083000000 5.1867000000 1.5893000000
4.0078000000 0.5116000000 0.4548000000
4.0075000000 5.6819000000 1.3507000000
4.0073000000 5.5353000000 1.4199000000
4.0068000000 5.3015000000 1.5338000000
4.0066000000 3.7450000000 2.1563000000
4.0065000000 3.3706000000 1.9748000000
4.0064000000 6.2038000000 1.0955000000
4.0063000000 5.0465000000 1.6537000000
4.0060000000 7.2994000000 0.3927000000
4.0059000000 4.2672000000 2.0344000000
4.0057000000 3.2383000000 1.9216000000
4.0055000000 3.1120000000 1.8633000000
4.0051000000 1.5695000000 1.1176000000
4.0050000000 7.5276000000 0.1787000000
4.0050000000 1.4521000000 1.0565000000
4.0049000000 7.0680000000 0.6182000000
4.0045000000 3.8482000000 2.1960000000
4.0044000000 7.2844000000 0.4103000000
4.0043000000 5.2423000000 1.5615000000
4.0043000000 6.7905000000 0.8148000000
4.0042000000 1.4205000000 1.0464000000
4.0041000000 5.8821000000 1.2500000000
4.0040000000 6.9844000000 0.6790000000
4.0039000000 4.8006000000 1.7808000000
4.0036000000 3.9665000000 2.1835000000
4.0033000000 5.5455000000 1.4203000000
4.0029000000 2.1478000000 1.3921000000
4.0025000000 0.6339000000 0.5813000000
4.0023000000 1.8015000000 1.2234000000
4.0022000000 0.7974000000 0.7199000000
4.0021000000 0.7789000000 0.7068000000
4.0019000000 0.9142000000 0.7910000000
4.0015000000 5.0230000000 1.6706000000
4.0014000000 3.6158000000 2.1048000000
4.0010000000 3.3230000000 1.9671000000
4.0010000000 2.5134000000 1.5726000000
4.0007000000 1.9230000000 1.2896000000
4.0005000000 1.7794000000 1.2194000000
4.0004000000 3.1197000000 1.8595000000
4.0003000000 3.1491000000 1.8738000000
4.0000000000 2.5927000000 1.6099000000
3.9997000000 1.7316000000 1.1945000000
3.9995000000 3.2640000000 1.9352000000
3.9990000000 4.4278000000 1.9560000000
3.9985000000 2.9026000000 1.7594000000
3.9949000000 6.3613000000 1.0282000000
3.7613000000 4.3046000000 2.2174000000
3.7608000000 3.5600000000 2.2836000000
3.7605000000 7.0872000000 0.6005000000
3.7602000000 2.7296000000 1.8781000000
3.7597000000 7.5523000000 0.1513000000
3.7591000000 5.5968000000 1.5977000000
3.7589000000 0.3342000000 0.2866000000
3.7588000000 7.7646000000 0.0181000000
3.7586000000 6.0382000000 1.3867000000
3.7585000000 1.8418000000 1.4495000000
3.7582000000 7.4675000000 0.2300000000
3.7581000000 5.6773000000 1.5591000000
3.7579000000 5.7632000000 1.5176000000
3.7575000000 6.9770000000 0.7059000000
3.7573000000 7.5655000000 0.1356000000
3.7570000000 7.7123000000 0.0711000000
3.7567000000 0.5678000000 0.5185000000
3.7565000000 5.7469000000 1.5220000000
3.7563000000 5.0513000000 1.8625000000
3.7561000000 7.5559000000 0.1490000000
3.7560000000 5.0012000000 1.8853000000
3.7556000000 7.3991000000 0.3027000000
3.7555000000 6.0201000000 1.3978000000
3.7553000000 7.0263000000 0.6565000000
3.7552000000 0.0658000000 0.1079000000
3.7551000000 1.6246000000 1.3551000000
3.7549000000 2.1980000000 1.6247000000
3.7548000000 5.2703000000 1.7634000000
3.7546000000 3.1010000000 2.0604000000
3.7544000000 0.6726000000 0.6153000000
3.7544000000 1.2495000000 1.1542000000
3.7541000000 4.1081000000 2.3178000000
3.7539000000 3.8412000000 2.4058000000
3.7537000000 6.1036000000 1.3543000000
3.7535000000 0.4170000000 0.3698000000
3.7534000000 5.6505000000 1.5807000000
3.7533000000 3.1752000000 2.0961000000
3.7531000000 0.6521000000 0.5956000000
3.7530000000 7.4471000000 0.2551000000
3.7527000000 1.6764000000 1.3767000000
3.7526000000 1.6165000000 1.3452000000
3.7524000000 4.1020000000 2.3263000000
3.7523000000 5.9285000000 1.4434000000
3.7521000000 5.0231000000 1.8771000000
3.7520000000 7.4503000000 0.2537000000
3.7517000000 3.9287000000 2.4108000000
3.7512000000 0.6901000000 0.6346000000
3.7510000000 0.5031000000 0.4529000000
3.7508000000 2.0049000000 1.5374000000
3.7502000000 2.4676000000 1.7608000000
3.7498000000 5.1319000000 1.8292000000
3.7494000000 3.1491000000 2.0903000000
3.7491000000 1.7662000000 1.4239000000
3.7489000000 0.0197000000 0.0574000000
3.7486000000 2.1086000000 1.5896000000
3.7466000000 0.9856000000 0.9215000000
3.7460000000 0.4160000000 0.3701000000
3.7445000000 0.3708000000 0.3229000000
3.5129000000 3.4104000000 2.4159000000
3.5114000000 2.3740000000 1.9233000000
3.5111000000 0.4342000000 0.3880000000
3.5109000000 4.2904000000 2.4348000000
3.5105000000 3.2937000000 2.3612000000
3.5099000000 0.7593000000 0.7026000000
3.5089000000 0.0121000000 0.0553000000
3.5084000000 1.8473000000 1.6575000000
3.5080000000 3.1017000000 2.2700000000
3.5078000000 3.2043000000 2.3224000000
3.5075000000 4.4698000000 2.3513000000
3.5072000000 5.1506000000 2.0265000000
3.5068000000 3.0184000000 2.2288000000
3.5066000000 0.6640000000 0.6018000000
3.5065000000 5.3869000000 1.9109000000
3.5064000000 5.0854000000 2.0547000000
3.5063000000 4.4331000000 2.3675000000
3.5062000000 3.2418000000 2.3423000000
3.5061000000 0.9188000000 0.8544000000
3.5057000000 4.0791000000 2.5405000000
3.5054000000 2.4346000000 1.9488000000
3.5052000000 0.3780000000 0.3336000000
3.5049000000 4.8805000000 2.1551000000
3.5048000000 5.3303000000 1.9383000000
3.5046000000 2.9396000000 2.1926000000
3.5045000000 6.4617000000 1.2026000000
3.5043000000 3.7515000000 2.5911000000
3.5042000000 0.4379000000 0.3845000000
3.5040000000 5.7381000000 1.7406000000
3.5040000000 1.6191000000 1.5131000000
3.5038000000 3.9032000000 2.6154000000
3.5037000000 4.3146000000 2.4330000000
3.5036000000 6.6376000000 1.0316000000
3.5035000000 3.1294000000 2.2939000000
3.5032000000 7.1017000000 0.5824000000
3.5031000000 4.4896000000 2.3404000000
3.5029000000 3.2753000000 2.3529000000
3.5027000000 1.0976000000 1.0247000000
3.5025000000 6.4301000000 1.2278000000
3.5024000000 2.2964000000 1.8786000000
3.5022000000 6.4575000000 1.2062000000
3.5020000000 6.5353000000 1.1282000000
3.5019000000 1.9369000000 1.7102000000
3.5015000000 6.0875000000 1.5501000000
3.5014000000 3.8041000000 2.6149000000
3.5013000000 0.1338000000 0.0935000000
3.5007000000 3.8212000000 2.6117000000
3.4999000000 4.8693000000 2.1638000000
3.4988000000 1.2909000000 1.2104000000
3.4985000000 0.6470000000 0.5926000000
3.4980000000 0.6281000000 0.5715000000
3.2640000000 6.4483000000 1.2146000000
3.2614000000 1.9585000000 1.8613000000
3.2604000000 6.1474000000 1.5119000000
3.2603000000 0.3141000000 0.2704000000
3.2598000000 1.7964000000 1.7056000000
3.2592000000 3.7318000000 2.7813000000
3.2590000000 6.0707000000 1.5817000000
3.2580000000 1.8277000000 1.7276000000
3.2579000000 6.2950000000 1.3651000000
3.2575000000 7.6806000000 0.1036000000
3.2575000000 5.2202000000 2.1968000000
3.2572000000 5.9020000000 1.7451000000
3.2571000000 4.2972000000 2.6457000000
3.2570000000 6.9417000000 0.7419000000
3.2567000000 0.0749000000 0.1082000000
3.2565000000 1.9859000000 1.8817000000
3.2564000000 5.6725000000 1.9455000000
3.2562000000 3.8669000000 2.8362000000
3.2560000000 5.2960000000 2.1614000000
3.2557000000 4.7752000000 2.4193000000
3.2554000000 5.5254000000 2.0477000000
3.2550000000 0.9100000000 0.8496000000
3.2549000000 1.8073000000 1.7122000000
3.2546000000 6.1182000000 1.5387000000
3.2545000000 6.2892000000 1.3695000000
3.2544000000 5.1297000000 2.2443000000
3.2543000000 3.7591000000 2.8000000000
3.2541000000 2.9994000000 2.4360000000
3.2540000000 7.2453000000 0.4494000000
3.2538000000 3.9325000000 2.8220000000
3.2537000000 5.0609000000 2.2796000000
3.2535000000 5.4116000000 2.1055000000
3.2533000000 4.5832000000 2.5107000000
3.2529000000 5.2370000000 2.1976000000
3.2525000000 5.3784000000 2.1261000000
3.2523000000 3.8207000000 2.8184000000
3.2520000000 6.4342000000 1.2308000000
3.2518000000 3.6721000000 2.7569000000
3.2518000000 1.1522000000 1.0739000000
3.2514000000 0.3895000000 0.3437000000
3.2513000000 3.3217000000 2.5878000000
3.2511000000 5.0906000000 2.2682000000
3.2507000000 0.3651000000 0.3150000000
3.2506000000 0.0498000000 0.0863000000
3.2502000000 6.8901000000 0.7921000000
3.2500000000 0.0901000000 0.1240000000
3.2499000000 3.6371000000 2.7487000000
3.2497000000 3.3751000000 2.6168000000
3.2493000000 4.4151000000 2.5905000000
3.2491000000 6.4315000000 1.2283000000
3.2490000000 1.1361000000 1.0679000000
3.2485000000 1.6072000000 1.5217000000
3.2474000000 2.6072000000 2.2418000000
3.2449000000 1.8437000000 1.7532000000
3.0145000000 1.3108000000 1.2295000000
3.0114000000 3.8261000000 3.0237000000
3.0109000000 6.8659000000 0.8159000000
3.0107000000 7.2178000000 0.4731000000
3.0099000000 2.1131000000 2.0079000000
3.0096000000 3.6008000000 2.9302000000
3.0086000000 5.1389000000 2.4354000000
3.0082000000 5.1887000000 2.4085000000
3.0075000000 7.0079000000 0.6759000000
3.0071000000 7.5545000000 0.1451000000
3.0068000000 4.8503000000 2.5866000000
3.0066000000 3.4402000000 2.8516000000
3.0065000000 6.3139000000 1.3492000000
3.0064000000 7.4508000000 0.2456000000
3.0063000000 0.9921000000 0.9340000000
3.0059000000 1.8262000000 1.7326000000
3.0056000000 2.4393000000 2.3102000000
3.0054000000 4.6419000000 2.6888000000
3.0051000000 5.1323000000 2.4423000000
3.0050000000 6.6772000000 0.9976000000
3.0048000000 4.9578000000 2.5306000000
3.0046000000 3.9664000000 3.0139000000
3.0045000000 5.6748000000 1.9652000000
3.0044000000 4.7352000000 2.6497000000
3.0042000000 3.1568000000 2.7153000000
3.0040000000 4.6231000000 2.6952000000
3.0038000000 2.9974000000 2.6386000000
3.0037000000 1.0038000000 0.9297000000
3.0035000000 3.7128000000 2.9883000000
3.0034000000 5.1832000000 2.4143000000
3.0032000000 1.7726000000 1.6797000000
3.0029000000 1.3804000000 1.2997000000
3.0028000000 2.4763000000 2.3463000000
3.0027000000 6.7602000000 0.9147000000
3.0023000000 2.1997000000 2.0964000000
3.0022000000 4.7314000000 2.6469000000
3.0021000000 2.9704000000 2.6308000000
3.0020000000 7.5849000000 0.1147000000
3.0018000000 1.9152000000 1.8128000000
3.0017000000 2.1891000000 2.0858000000
3.0013000000 3.0934000000 2.6951000000
3.0010000000 3.3365000000 2.8078000000
3.0009000000 0.3939000000 0.3530000000
3.0006000000 4.9580000000 2.5395000000
3.0004000000 0.5156000000 0.4659000000
3.0003000000 0.2215000000 0.1816000000
2.9998000000 5.2440000000 2.3649000000
2.9989000000 5.7860000000 1.8551000000
2.9975000000 2.9178000000 2.6015000000
2.9962000000 2.4400000000 2.3237000000
2.7631000000 7.3361000000 0.3630000000
2.7613000000 5.7160000000 1.9248000000
2.7599000000 0.8416000000 0.7783000000
2.7591000000 2.7516000000 2.6248000000
2.7585000000 1.4222000000 1.3391000000
2.7583000000 5.9413000000 1.7041000000
2.7582000000 0.2480000000 0.2052000000
2.7578000000 5.7027000000 1.9358000000
2.7576000000 5.2217000000 2.4005000000
2.7573000000 4.8001000000 2.7967000000
2.7567000000 6.1317000000 1.5243000000
2.7566000000 5.5956000000 2.0461000000
2.7565000000 3.5269000000 3.1012000000
2.7563000000 7.1169000000 0.5730000000
2.7562000000 4.0933000000 3.1635000000
2.7559000000 0.9543000000 0.8861000000
2.7551000000 5.4981000000 2.1339000000
2.7548000000 4.1319000000 3.1487000000
2.7548000000 7.2382000000 0.4558000000
2.7547000000 6.9879000000 0.6936000000
2.7544000000 1.7453000000 1.6550000000
2.7540000000 1.8350000000 1.7420000000
2.7538000000 4.4228000000 3.0036000000
2.7536000000 5.0724000000 2.5438000000
2.7534000000 1.3509000000 1.2747000000
2.7532000000 5.9153000000 1.7302000000
2.7530000000 0.2512000000 0.2073000000
2.7528000000 7.4753000000 0.2373000000
2.7527000000 4.0198000000 3.2019000000
2.7525000000 0.0334000000 0.0737000000
2.7523000000 5.0075000000 2.6086000000
2.7523000000 1.8292000000 1.7347000000
2.7520000000 2.5653000000 2.4467000000
2.7517000000 5.3186000000 2.3102000000
2.7515000000 7.0323000000 0.6514000000
2.7515000000 2.8044000000 2.6745000000
2.7513000000 3.6908000000 3.1846000000
2.7511000000 0.9105000000 0.8450000000
2.7510000000 4.2671000000 3.0823000000
2.7502000000 1.2534000000 1.1769000000
2.7499000000 0.9170000000 0.8510000000
2.7494000000 0.0609000000 0.0988000000
2.7493000000 1.1576000000 1.0846000000
2.7488000000 6.2228000000 1.4308000000
2.7477000000 2.9962000000 2.8374000000
2.7460000000 1.2405000000 1.1695000000
2.5130000000 5.2743000000 2.3539000000
2.5113000000 6.4082000000 1.2501000000
2.5106000000 4.4457000000 3.1433000000
2.5102000000 4.8368000000 2.7759000000
2.5101000000 6.6207000000 1.0463000000
2.5100000000 5.4424000000 2.1862000000
2.5095000000 4.6511000000 2.9567000000
2.5093000000 5.0386000000 2.5794000000
2.5086000000 4.8670000000 2.7512000000
2.5084000000 6.2154000000 1.4483000000
2.5081000000 6.6381000000 1.0330000000
2.5078000000 3.0966000000 2.9587000000
2.5076000000 6.0902000000 1.5626000000
2.5074000000 7.1621000000 0.5297000000
2.5071000000 6.1718000000 1.4852000000
2.5068000000 5.7512000000 1.8895000000
2.5066000000 4.8372000000 2.7682000000
2.5063000000 3.2247000000 3.0843000000
2.5060000000 1.7523000000 1.6585000000
2.5059000000 1.8065000000 1.7105000000
2.5056000000 5.0544000000 2.5669000000
2.5055000000 0.5111000000 0.4567000000
2.5054000000 2.9545000000 2.8236000000
2.5050000000 7.6479000000 0.0584000000
2.5047000000 0.1257000000 0.0865000000
2.5045000000 2.7708000000 2.6482000000
2.5043000000 5.9170000000 1.7283000000
2.5041000000 2.2388000000 2.1299000000
2.5040000000 0.0252000000 0.0634000000
2.5039000000 4.1436000000 3.3570000000
2.5037000000 2.7360000000 2.6090000000
2.5035000000 4.2335000000 3.2961000000
2.5034000000 5.4026000000 2.2267000000
2.5031000000 5.1200000000 2.5022000000
2.5030000000 3.1624000000 3.0219000000
2.5028000000 3.9604000000 3.4410000000
2.5027000000 2.7483000000 2.6230000000
2.5026000000 0.7134000000 0.6560000000
2.5020000000 3.3974000000 3.2361000000
2.5017000000 6.8063000000 0.8751000000
2.5014000000 2.4406000000 2.3220000000
2.5011000000 0.7000000000 0.6457000000
2.5010000000 0.5528000000 0.4980000000
2.5008000000 0.0382000000 0.0799000000
2.5004000000 4.7815000000 2.8235000000
2.5000000000 5.8311000000 1.8088000000
2.4996000000 3.6401000000 3.3766000000
2.4993000000 4.8030000000 2.8132000000
2.4991000000 2.3965000000 2.2851000000
2.4988000000 1.4838000000 1.3991000000
2.4983000000 3.0912000000 2.9465000000
2.4979000000 1.2152000000 1.1363000000
2.4976000000 2.8177000000 2.6913000000
2.4973000000 1.6221000000 1.5341000000
2.4968000000 1.8625000000 1.7687000000
2.4951000000 0.0853000000 0.1235000000
2.2627000000 4.7170000000 2.8862000000
2.2622000000 4.1674000000 3.4263000000
2.2619000000 6.6710000000 1.0007000000
2.2616000000 2.3782000000 2.2645000000
2.2613000000 7.1279000000 0.5669000000
2.2605000000 6.8845000000 0.7965000000
2.2600000000 5.7155000000 1.9230000000
2.2596000000 0.5431000000 0.4920000000
2.2593000000 7.6060000000 0.0984000000
2.2588000000 7.6042000000 0.1001000000
2.2587000000 4.2733000000 3.3200000000
2.2584000000 3.6936000000 3.5351000000
2.2582000000 4.7106000000 2.8938000000
2.2580000000 1.5635000000 1.4801000000
2.2577000000 2.5913000000 2.4687000000
2.2576000000 4.7735000000 2.8334000000
2.2574000000 0.7469000000 0.6885000000
2.2570000000 4.5044000000 3.0935000000
2.2568000000 4.2471000000 3.3424000000
2.2563000000 0.0866000000 0.1217000000
2.2563000000 3.5322000000 3.3808000000
2.2561000000 0.0557000000 0.0952000000
2.2560000000 1.1499000000 1.0740000000
2.2558000000 6.9831000000 0.7029000000
2.2557000000 4.8591000000 2.7568000000
2.2553000000 0.9789000000 0.9094000000
2.2550000000 7.4616000000 0.2363000000
2.2548000000 5.7813000000 1.8600000000
2.2547000000 2.4655000000 2.3517000000
2.2543000000 0.8963000000 0.8325000000
2.2541000000 6.1661000000 1.4884000000
2.2540000000 5.8090000000 1.8345000000
2.2539000000 3.0420000000 2.9107000000
2.2537000000 3.0005000000 2.8657000000
2.2535000000 0.9388000000 0.8742000000
2.2533000000 2.4518000000 2.3413000000
2.2530000000 5.2958000000 2.3353000000
2.2529000000 1.9861000000 1.8847000000
2.2528000000 2.6187000000 2.4946000000
2.2525000000 4.7015000000 2.9006000000
2.2523000000 4.8213000000 2.7866000000
2.2522000000 6.3828000000 1.2791000000
2.2520000000 2.6288000000 2.5060000000
2.2518000000 5.7261000000 1.9115000000
2.2517000000 6.0705000000 1.5777000000
2.2516000000 3.6665000000 3.5135000000
2.2511000000 0.2449000000 0.2037000000
2.2509000000 1.7964000000 1.7044000000
2.2508000000 3.4102000000 3.2645000000
2.2507000000 3.3713000000 3.2266000000
2.2499000000 0.8350000000 0.7756000000
2.2493000000 2.2503000000 2.1415000000
2.2492000000 0.3369000000 0.2935000000
2.2481000000 1.0063000000 0.9399000000
2.2478000000 6.9117000000 0.7651000000
2.2457000000 3.8162000000 3.6528000000
2.0161000000 6.4939000000 1.1733000000
2.0121000000 7.2210000000 0.4726000000
2.0101000000 6.3467000000 1.3163000000
2.0096000000 5.1690000000 2.4557000000
2.0093000000 0.6501000000 0.5925000000
2.0088000000 0.9548000000 0.8893000000
2.0088000000 4.4407000000 3.1583000000
2.0085000000 7.5790000000 0.1220000000
2.0078000000 5.6970000000 1.9455000000
2.0076000000 6.3518000000 1.3063000000
2.0073000000 6.1781000000 1.4765000000
2.0069000000 4.6265000000 2.9788000000
2.0068000000 1.3036000000 1.2237000000
2.0066000000 0.5321000000 0.4786000000
2.0065000000 6.8619000000 0.8207000000
2.0065000000 3.6354000000 3.4040000000
2.0063000000 3.2025000000 3.0619000000
2.0061000000 6.5392000000 1.1233000000
2.0060000000 5.3648000000 2.2702000000
2.0061000000 1.0544000000 0.9830000000
2.0058000000 3.1834000000 3.0446000000
2.0052000000 2.8786000000 2.7465000000
2.0049000000 1.8216000000 1.7302000000
2.0047000000 6.7325000000 0.9376000000
2.0044000000 7.0521000000 0.6337000000
2.0043000000 6.6524000000 1.0209000000
2.0041000000 6.4089000000 1.2526000000
2.0040000000 0.9967000000 0.9258000000
2.0038000000 6.4769000000 1.1869000000
2.0034000000 4.1098000000 3.3983000000
2.0037000000 1.7721000000 1.6723000000
2.0032000000 0.0541000000 0.0917000000
2.0030000000 0.8369000000 0.7726000000
2.0027000000 3.9543000000 3.4685000000
2.0025000000 1.8840000000 1.7873000000
2.0024000000 5.0389000000 2.5847000000
2.0025000000 1.0134000000 0.9462000000
2.0020000000 0.7381000000 0.6821000000
2.0018000000 1.6788000000 1.5890000000
2.0016000000 2.3845000000 2.2705000000
2.0013000000 2.4619000000 2.3470000000
2.0010000000 4.4213000000 3.1752000000
2.0009000000 2.1358000000 2.0286000000
2.0006000000 2.0754000000 1.9775000000
2.0003000000 3.3439000000 3.1952000000
2.0001000000 2.4251000000 2.3084000000
1.9998000000 6.8040000000 0.8690000000
1.9997000000 4.0564000000 3.4179000000
1.9991000000 3.3813000000 3.2176000000
1.9988000000 6.2374000000 1.4271000000
1.9976000000 1.4473000000 1.3606000000
1.9972000000 6.2252000000 1.4333000000
1.9954000000 2.0213000000 1.9202000000
1.7634000000 5.8851000000 1.7603000000
1.7613000000 4.0829000000 3.2112000000
1.7607000000 2.7697000000 2.6409000000
1.7605000000 2.3286000000 2.2191000000
1.7603000000 3.2293000000 3.0062000000
1.7601000000 7.7278000000 0.0554000000
1.7595000000 5.8944000000 1.7476000000
1.7590000000 6.4477000000 1.2195000000
1.7585000000 3.1846000000 2.9742000000
1.7583000000 3.8836000000 3.2896000000
1.7581000000 1.3366000000 1.2591000000
1.7580000000 4.0355000000 3.2305000000
1.7576000000 3.8713000000 3.2886000000
1.7575000000 0.5896000000 0.5388000000
1.7573000000 2.1404000000 2.0382000000
1.7571000000 3.3351000000 3.0518000000
1.7568000000 3.0898000000 2.9165000000
1.7567000000 1.2778000000 1.2045000000
1.7565000000 5.3588000000 2.2704000000
1.7563000000 0.9022000000 0.8401000000
1.7558000000 3.5345000000 3.1393000000
1.7556000000 6.6783000000 0.9916000000
1.7555000000 1.1688000000 1.0961000000
1.7552000000 3.7271000000 3.2351000000
1.7550000000 2.4539000000 2.3367000000
1.7548000000 1.4580000000 1.3736000000
1.7546000000 4.2339000000 3.1284000000
1.7545000000 2.9752000000 2.8234000000
1.7544000000 7.3204000000 0.3775000000
1.7541000000 5.6991000000 1.9431000000
1.7540000000 2.2293000000 2.1174000000
1.7538000000 3.5055000000 3.1264000000
1.7536000000 7.1153000000 0.5765000000
1.7535000000 6.9534000000 0.7306000000
1.7533000000 7.7082000000 0.0748000000
1.7532000000 5.3239000000 2.3067000000
1.7530000000 1.0777000000 1.0056000000
1.7528000000 2.9117000000 2.7779000000
1.7526000000 1.5697000000 1.4859000000
1.7525000000 1.1684000000 1.0915000000
1.7524000000 4.1049000000 3.1930000000
1.7522000000 5.3040000000 2.3255000000
1.7520000000 0.6722000000 0.6173000000
1.7520000000 6.0011000000 1.6466000000
1.7518000000 4.3658000000 3.0611000000
1.7515000000 5.0759000000 2.5468000000
1.7513000000 3.8647000000 3.2852000000
1.7512000000 1.2517000000 1.1747000000
1.7508000000 3.3780000000 3.0657000000
1.7500000000 7.7287000000 0.0553000000
1.7499000000 0.5907000000 0.5389000000
1.7498000000 7.1244000000 0.5630000000
1.7494000000 1.3074000000 1.2305000000
1.7491000000 3.7817000000 3.2564000000
1.7489000000 0.8172000000 0.7601000000
1.7488000000 1.6567000000 1.5679000000
1.7484000000 1.6589000000 1.5709000000
1.7468000000 1.8049000000 1.7114000000
1.5128000000 6.1951000000 1.4634000000
1.5119000000 1.7245000000 1.6334000000
1.5117000000 6.5126000000 1.1548000000
1.5106000000 7.6072000000 0.0922000000
1.5093000000 7.3389000000 0.3522000000
1.5089000000 5.0655000000 2.5070000000
1.5087000000 5.8032000000 1.8421000000
1.5086000000 6.9897000000 0.6946000000
1.5084000000 5.1570000000 2.4502000000
1.5082000000 3.8808000000 3.0820000000
1.5078000000 1.0213000000 0.9613000000
1.5071000000 2.8572000000 2.6087000000
1.5069000000 6.3129000000 1.3468000000
1.5065000000 6.7251000000 0.9490000000
1.5060000000 4.0086000000 3.0338000000
1.5058000000 7.2742000000 0.4186000000
1.5057000000 5.4382000000 2.1931000000
1.5054000000 0.5325000000 0.4815000000
1.5053000000 3.9374000000 3.0618000000
1.5052000000 2.1751000000 2.0686000000
1.5051000000 2.9800000000 2.6603000000
1.5050000000 1.5562000000 1.4758000000
1.5048000000 4.8319000000 2.6344000000
1.5046000000 5.0756000000 2.5007000000
1.5043000000 7.1114000000 0.5692000000
1.5041000000 4.8046000000 2.6432000000
1.5040000000 7.6007000000 0.1051000000
1.5038000000 1.6008000000 1.5154000000
1.5036000000 0.1295000000 0.0898000000
1.5035000000 7.3542000000 0.3418000000
1.5033000000 4.1247000000 2.9762000000
1.5031000000 4.7542000000 2.6681000000
1.5030000000 7.2798000000 0.4135000000
1.5030000000 1.3952000000 1.3136000000
1.5028000000 0.2487000000 0.2118000000
1.5027000000 4.4031000000 2.8389000000
1.5026000000 0.1181000000 0.1545000000
1.5025000000 3.1759000000 2.7634000000
1.5022000000 5.4212000000 2.2079000000
1.5019000000 2.9662000000 2.6592000000
1.5015000000 4.0547000000 3.0015000000
1.5013000000 4.5238000000 2.7773000000
1.5011000000 0.3945000000 0.3486000000
1.5010000000 0.2826000000 0.2378000000
1.5009000000 5.1424000000 2.4637000000
1.5008000000 1.6936000000 1.6031000000
1.5007000000 2.7744000000 2.5627000000
1.5006000000 3.1895000000 2.7650000000
1.5001000000 3.6155000000 2.9739000000
1.5043000000 6.3406000000 1.3163000000
1.4991000000 0.7409000000 0.6844000000
1.4985000000 3.2584000000 2.7960000000
1.4964000000 0.3015000000 0.2543000000
1.2636000000 7.4197000000 0.2745000000
1.2607000000 5.4187000000 2.1435000000
1.2602000000 2.7369000000 2.3421000000
1.2594000000 6.9497000000 0.7364000000
1.2586000000 6.5915000000 1.0775000000
1.2583000000 7.7152000000 0.0696000000
1.2578000000 7.4618000000 0.2343000000
1.2577000000 5.1931000000 2.2578000000
1.2575000000 0.7357000000 0.6786000000
1.2572000000 7.5860000000 0.1166000000
1.2568000000 6.1152000000 1.5416000000
1.2567000000 3.8809000000 2.8716000000
1.2565000000 4.8449000000 2.4213000000
1.2562000000 6.3570000000 1.3040000000
1.2560000000 1.7296000000 1.6415000000
1.2560000000 5.5058000000 2.0771000000
1.2556000000 1.7808000000 1.6907000000
1.2554000000 2.8547000000 2.3955000000
1.2553000000 4.6915000000 2.4895000000
1.2553000000 4.6500000000 2.5134000000
1.2550000000 7.6614000000 0.1250000000
1.2547000000 0.2016000000 0.1585000000
1.2543000000 3.9399000000 2.8603000000
1.2541000000 5.9461000000 1.7025000000
1.2538000000 0.4397000000 0.3901000000
1.2540000000 4.7887000000 2.4508000000
1.2535000000 2.4546000000 2.2052000000
1.2534000000 6.1453000000 1.5113000000
1.2533000000 7.5182000000 0.1803000000
1.2530000000 1.3491000000 1.2606000000
1.2528000000 4.3904000000 2.6346000000
1.2526000000 0.6049000000 0.5506000000
1.2525000000 3.2617000000 2.5937000000
1.2523000000 2.7531000000 2.3469000000
1.2521000000 3.4775000000 2.6921000000
1.2515000000 4.4362000000 2.6045000000
1.2512000000 1.0492000000 0.9785000000
1.2511000000 6.0589000000 1.5929000000
1.2507000000 3.9752000000 2.8316000000
1.2505000000 1.7973000000 1.7018000000
1.2503000000 3.2523000000 2.5825000000
1.2500000000 1.8027000000 1.7100000000
1.2498000000 4.1046000000 2.7729000000
1.2493000000 2.8785000000 2.4001000000
1.2487000000 2.3889000000 2.1680000000
1.2486000000 4.6386000000 2.5088000000
1.2480000000 2.5159000000 2.2229000000
1.2470000000 4.8265000000 2.4187000000
1.2459000000 2.4951000000 2.2141000000
1.0125000000 6.6742000000 0.9952000000
1.0120000000 7.1641000000 0.5273000000
1.0106000000 5.3905000000 1.9431000000
1.0101000000 7.6558000000 0.1250000000
1.0094000000 5.6781000000 1.8107000000
1.0091000000 7.7145000000 0.0697000000
1.0089000000 5.2335000000 2.0225000000
1.0087000000 6.9126000000 0.7694000000
1.0085000000 7.3133000000 0.3762000000
1.0085000000 4.8946000000 2.1871000000
1.0079000000 5.1370000000 2.0624000000
1.0077000000 5.6625000000 1.8209000000
1.0075000000 5.9422000000 1.6676000000
1.0073000000 7.7797000000 0.0806000000
1.0072000000 6.4010000000 1.2637000000
1.0071000000 2.3285000000 1.9390000000
1.0066000000 7.5946000000 0.1113000000
1.0062000000 6.2838000000 1.3792000000
1.0061000000 6.6823000000 0.9933000000
1.0059000000 6.3720000000 1.2928000000
1.0058000000 1.6437000000 1.5483000000
1.0057000000 7.7399000000 0.0471000000
1.0055000000 4.8062000000 2.2240000000
1.0055000000 0.5982000000 0.5507000000
1.0053000000 2.9903000000 2.2495000000
1.0051000000 6.0441000000 1.5897000000
1.0050000000 7.0645000000 0.6230000000
1.0046000000 5.1951000000 2.0414000000
1.0044000000 4.0752000000 2.5781000000
1.0042000000 5.3311000000 1.9744000000
1.0040000000 6.0024000000 1.6281000000
1.0039000000 3.6845000000 2.5885000000
1.0038000000 4.2132000000 2.5146000000
1.0037000000 7.5805000000 0.1246000000
1.0036000000 2.4072000000 1.9688000000
1.0034000000 5.8807000000 1.7023000000
1.0033000000 1.3303000000 1.2544000000
1.0033000000 5.1389000000 2.0661000000
1.0031000000 2.9184000000 2.2210000000
1.0030000000 4.4237000000 2.4096000000
1.0029000000 5.4756000000 1.8981000000
1.0027000000 1.9429000000 1.7456000000
1.0025000000 4.2556000000 2.4922000000
1.0021000000 3.8000000000 2.6355000000
1.0020000000 2.0710000000 1.8086000000
1.0019000000 1.1541000000 1.0789000000
1.0018000000 6.9035000000 0.7746000000
1.0016000000 5.0386000000 2.1153000000
1.0011000000 3.1831000000 2.3445000000
1.0010000000 0.7370000000 0.6877000000
1.0009000000 3.0473000000 2.2788000000
1.0006000000 3.2186000000 2.3582000000
1.0005000000 0.7629000000 0.6999000000
0.9999000000 3.4143000000 2.4575000000
0.9997000000 2.4272000000 1.9764000000
0.9993000000 0.5797000000 0.5222000000
0.9977000000 1.4837000000 1.3959000000
0.9971000000 1.2993000000 1.2215000000
0.9969000000 0.3881000000 0.3397000000
0.9966000000 1.7951000000 1.6486000000
0.9955000000 2.8964000000 2.2041000000
0.7637000000 6.3707000000 1.2478000000
0.7615000000 6.2682000000 1.3148000000
0.7600000000 5.1177000000 1.8672000000
0.7593000000 6.4765000000 1.1764000000
0.7587000000 2.9523000000 2.0284000000
0.7585000000 5.6054000000 1.6392000000
0.7583000000 0.9693000000 0.9018000000
0.7578000000 4.4204000000 2.2070000000
0.7576000000 4.5547000000 2.1412000000
0.7574000000 2.3247000000 1.7286000000
0.7573000000 2.2654000000 1.6944000000
0.7571000000 5.4511000000 1.7113000000
0.7569000000 7.0121000000 0.6716000000
0.7566000000 6.5422000000 1.1222000000
0.7565000000 7.0688000000 0.6215000000
0.7564000000 2.9923000000 2.0451000000
0.7563000000 4.3748000000 2.2288000000
0.7562000000 4.3856000000 2.2194000000
0.7560000000 5.8433000000 1.5141000000
0.7557000000 3.8059000000 2.4354000000
0.7556000000 5.8419000000 1.5185000000
0.7553000000 7.0463000000 0.6371000000
0.7550000000 7.5684000000 0.1324000000
0.7546000000 6.6918000000 0.9815000000
0.7544000000 6.4016000000 1.2298000000
0.7541000000 0.7073000000 0.6549000000
0.7541000000 6.9127000000 0.7657000000
0.7539000000 3.4888000000 2.2823000000
0.7537000000 5.4679000000 1.6982000000
0.7535000000 7.0891000000 0.5960000000
0.7534000000 4.9868000000 1.9330000000
0.7532000000 6.8828000000 0.7971000000
0.7531000000 1.4641000000 1.3017000000
0.7529000000 5.3589000000 1.7522000000
0.7528000000 3.3829000000 2.2351000000
0.7526000000 1.2575000000 1.1662000000
0.7525000000 1.0717000000 1.0045000000
0.7523000000 0.7594000000 0.7007000000
0.7522000000 3.5687000000 2.3154000000
0.7521000000 1.8347000000 1.4844000000
0.7518000000 5.7000000000 1.5860000000
0.7517000000 7.0099000000 0.6727000000
0.7515000000 0.8662000000 0.8010000000
0.7513000000 5.4319000000 1.7122000000
0.7511000000 1.2514000000 1.1655000000
0.7510000000 2.8000000000 1.9458000000
0.7508000000 4.1417000000 2.3314000000
0.7505000000 1.9554000000 1.5394000000
0.7503000000 3.0266000000 2.0536000000
0.7498000000 5.9947000000 1.4380000000
0.7491000000 3.9091000000 2.4305000000
0.7487000000 2.6136000000 1.8489000000
0.7485000000 1.4793000000 1.3086000000
0.7481000000 5.0500000000 1.8936000000
0.7469000000 3.5876000000 2.3279000000
0.7465000000 1.5758000000 1.3528000000
0.5118000000 6.6478000000 0.9229000000
0.5095000000 4.1317000000 2.1391000000
0.5092000000 6.2379000000 1.1179000000
0.5090000000 5.4059000000 1.5208000000
0.5086000000 7.3981000000 0.3009000000
0.5084000000 3.2511000000 1.9640000000
0.5079000000 6.4908000000 0.9949000000
0.5078000000 6.0623000000 1.2055000000
0.5077000000 0.7301000000 0.6723000000
0.5073000000 6.1656000000 1.1489000000
0.5071000000 7.7686000000 0.0149000000
0.5067000000 0.1845000000 0.1449000000
0.5064000000 4.1993000000 2.1038000000
0.5064000000 1.2069000000 0.9721000000
0.5062000000 4.7423000000 1.8422000000
0.5057000000 3.4511000000 2.0595000000
0.5055000000 6.1100000000 1.1792000000
0.5053000000 7.5395000000 0.1647000000
0.5051000000 5.0590000000 1.6868000000
0.5050000000 5.3923000000 1.5252000000
0.5046000000 6.6182000000 0.9322000000
0.5045000000 4.2583000000 2.0728000000
0.5043000000 2.9794000000 1.8241000000
0.5041000000 0.3695000000 0.3244000000
0.5040000000 0.5929000000 0.5367000000
0.5038000000 5.8677000000 1.2951000000
0.5035000000 7.7751000000 0.0844000000
0.5034000000 1.3770000000 1.0509000000
0.5033000000 3.9608000000 2.2170000000
0.5032000000 5.6546000000 1.3998000000
0.5031000000 4.8197000000 1.7985000000
0.5030000000 0.1306000000 0.0908000000
0.5030000000 7.0580000000 0.6308000000
0.5027000000 0.1414000000 0.0996000000
0.5023000000 1.5051000000 1.1186000000
0.5023000000 2.5604000000 1.6251000000
0.5024000000 6.1812000000 1.1435000000
0.5019000000 2.8530000000 1.7639000000
0.5015000000 0.8746000000 0.7987000000
0.5012000000 1.1037000000 0.9222000000
0.5011000000 2.7053000000 1.6923000000
0.5010000000 7.2529000000 0.4417000000
0.5008000000 1.4475000000 1.0852000000
0.5006000000 3.3713000000 2.0161000000
0.5003000000 5.3253000000 1.5514000000
0.4998000000 6.2991000000 1.0828000000
0.4998000000 3.9506000000 2.2174000000
0.4995000000 2.5926000000 1.6372000000
0.4988000000 2.2565000000 1.4737000000
0.4985000000 3.9210000000 2.2277000000
0.4983000000 1.8009000000 1.2512000000
0.4975000000 3.7911000000 2.2129000000
0.2646000000 5.8506000000 1.0977000000
0.2609000000 2.5913000000 1.4364000000
0.2598000000 4.4874000000 1.7538000000
0.2596000000 6.1433000000 0.9586000000
0.2591000000 7.5782000000 0.1227000000
0.2588000000 7.5793000000 0.1232000000
0.2585000000 7.3692000000 0.3113000000
0.2582000000 6.0340000000 1.0089000000
0.2575000000 0.6960000000 0.5246000000
0.2573000000 3.1517000000 1.7017000000
0.2571000000 0.1223000000 0.0839000000
0.2569000000 5.1653000000 1.4264000000
0.2565000000 1.8527000000 1.0777000000
0.2565000000 1.7629000000 1.0321000000
0.2561000000 3.4820000000 1.8584000000
0.2560000000 2.8385000000 1.5578000000
0.2558000000 5.2302000000 1.3950000000
0.2554000000 6.8752000000 0.6008000000
0.2554000000 6.7749000000 0.6514000000
0.2552000000 3.3202000000 1.7859000000
0.2548000000 4.9688000000 1.5202000000
0.2547000000 5.9178000000 1.0624000000
0.2546000000 7.3813000000 0.2996000000
0.2545000000 1.0465000000 0.6844000000
0.2543000000 0.2109000000 0.1682000000
0.2541000000 1.8878000000 1.0908000000
0.2538000000 1.8868000000 1.0916000000
0.2532000000 7.1949000000 0.4317000000
0.2531000000 4.2508000000 1.8605000000
0.2528000000 4.4498000000 1.7646000000
0.2527000000 5.5129000000 1.2552000000
0.2524000000 7.0041000000 0.5322000000
0.2522000000 3.6420000000 1.9370000000
0.2522000000 5.6795000000 1.1694000000
0.2521000000 4.5761000000 1.6999000000
0.2518000000 6.1677000000 0.9362000000
0.2518000000 7.5741000000 0.1288000000
0.2512000000 4.9203000000 1.5465000000
0.2509000000 1.5137000000 0.9077000000
0.2505000000 6.2251000000 0.9097000000
0.2500000000 0.3224000000 0.2781000000
0.2498000000 6.1746000000 0.9341000000
0.2490000000 0.8415000000 0.5791000000
0.2487000000 2.2034000000 1.2377000000
0.2486000000 1.8726000000 1.0752000000
0.2484000000 5.9978000000 1.0165000000
0.2480000000 6.7131000000 0.6735000000
0.2460000000 0.9917000000 0.6530000000
0.2449000000 5.4479000000 1.2792000000
0.0105000000 7.1121000000 0.2801000000
0.0103000000 7.4649000000 0.1157000000
0.0085000000 2.7161000000 1.2835000000
0.0081000000 6.5663000000 0.5394000000
0.0078000000 2.7301000000 1.2892000000
0.0077000000 7.5845000000 0.1257000000
0.0075000000 1.4604000000 0.6825000000
0.0073000000 0.8787000000 0.4029000000
0.0073000000 7.2992000000 0.1842000000
0.0072000000 6.1530000000 0.7457000000
0.0070000000 6.2840000000 0.6762000000
0.0068000000 2.9365000000 1.3928000000
0.0066000000 7.0160000000 0.3198000000
0.0065000000 4.7319000000 1.4305000000
0.0063000000 3.8706000000 1.8277000000
0.0062000000 0.7305000000 0.3284000000
0.0061000000 7.5706000000 0.1266000000
0.0060000000 4.7940000000 1.3903000000
0.0058000000 2.7446000000 1.2960000000
0.0054000000 1.7014000000 0.7937000000
0.0053000000 2.1415000000 1.0017000000
0.0047000000 3.3060000000 1.5672000000
0.0047000000 3.6412000000 1.7352000000
0.0044000000 5.1210000000 1.2362000000
0.0042000000 5.3103000000 1.1518000000
0.0040000000 5.8795000000 0.8711000000
0.0038000000 7.7453000000 0.0920000000
0.0035000000 6.8097000000 0.4189000000
0.0033000000 2.8124000000 1.3308000000
0.0033000000 0.7428000000 0.3266000000
0.0030000000 3.3720000000 1.6036000000
0.0029000000 3.5052000000 1.6609000000
0.0028000000 1.1154000000 0.5031000000
0.0026000000 2.3989000000 1.1266000000
0.0024000000 4.2726000000 1.6439000000
0.0022000000 1.8832000000 0.8787000000
0.0018000000 3.8985000000 1.8090000000
0.0017000000 3.5719000000 1.6876000000
0.0015000000 5.9809000000 0.8137000000
0.0006000000 1.9883000000 0.9309000000
0.0005000000 1.4479000000 0.6669000000
0.0004000000 7.3796000000 0.1385000000
0.0002000000 1.4978000000 0.6908000000
-0.0000000000 2.2871000000 1.0710000000
-0.0002000000 1.7413000000 0.8115000000
-0.0005000000 3.5300000000 1.6715000000
-0.0009000000 0.1988000000 0.1372000000
-0.0010000000 2.8613000000 1.3467000000
-0.0016000000 5.2751000000 1.1563000000
-0.0022000000 3.4056000000 1.6083000000
-0.0037000000 2.6254000000 1.2351000000
-0.0049000000 5.5117000000 1.0397000000
-0.2375000000 5.4118000000 0.8954000000
-0.2395000000 1.6303000000 0.5553000000
-0.2401000000 6.2402000000 0.4910000000
-0.2405000000 4.6025000000 1.2847000000
-0.2407000000 3.9324000000 1.6039000000
-0.2411000000 5.4338000000 0.8808000000
-0.2413000000 5.8441000000 0.6813000000
-0.2415000000 2.7525000000 1.0966000000
-0.2417000000 4.4584000000 1.3476000000
-0.2419000000 5.7271000000 0.7353000000
-0.2421000000 7.3109000000 0.0459000000
-0.2423000000 0.8071000000 0.1549000000
-0.2427000000 6.2066000000 0.5032000000
-0.2430000000 1.0330000000 0.2570000000
-0.2432000000 4.4258000000 1.3640000000
-0.2434000000 4.2475000000 1.4483000000
-0.2435000000 5.5183000000 0.8350000000
-0.2437000000 6.0979000000 0.5566000000
-0.2438000000 5.8764000000 0.6648000000
-0.2439000000 4.4973000000 1.3274000000
-0.2445000000 0.6302000000 0.1470000000
-0.2448000000 5.9483000000 0.6263000000
-0.2449000000 1.1595000000 0.3203000000
-0.2453000000 7.5542000000 -0.0024000000
-0.2456000000 1.7230000000 0.5942000000
-0.2458000000 5.6631000000 0.7617000000
-0.2460000000 0.8059000000 0.1526000000
-0.2461000000 7.4762000000 0.0370000000
-0.2462000000 1.6440000000 0.5533000000
-0.2463000000 4.7424000000 1.2064000000
-0.2465000000 1.4243000000 0.4473000000
-0.2466000000 3.0455000000 1.2319000000
-0.2467000000 4.6046000000 1.2745000000
-0.2469000000 7.0999000000 0.1487000000
-0.2473000000 0.5007000000 0.0779000000
-0.2475000000 1.1229000000 0.3013000000
-0.2477000000 4.1425000000 1.4964000000
-0.2479000000 4.3222000000 1.4104000000
-0.2480000000 4.1397000000 1.5039000000
-0.2480000000 5.1067000000 1.0289000000
-0.2482000000 5.9722000000 0.6100000000
-0.2483000000 7.0438000000 0.0905000000
-0.2484000000 2.8068000000 1.1136000000
-0.2489000000 6.9513000000 0.1433000000
-0.2492000000 2.7681000000 1.0970000000
-0.2494000000 0.5904000000 0.1144000000
-0.2496000000 2.9887000000 1.2004000000
-0.2498000000 2.0035000000 0.7230000000
-0.2501000000 5.9758000000 0.6085000000
-0.2502000000 3.4263000000 1.4135000000
-0.2504000000 5.1418000000 1.0122000000
-0.2506000000 4.6497000000 1.2541000000
-0.2514000000 1.3628000000 0.4127000000
-0.2517000000 3.5062000000 1.4510000000
-0.2529000000 4.1856000000 1.4751000000
-0.2538000000 6.1509000000 0.5240000000
-0.4882000000 2.2894000000 0.6645000000
-0.4907000000 3.1688000000 1.0867000000
-0.4912000000 4.7836000000 0.9808000000
-0.4914000000 4.2632000000 1.2318000000
-0.4921000000 6.5244000000 0.1382000000
-0.4923000000 2.7592000000 0.8887000000
-0.4926000000 4.0351000000 1.3419000000
-0.4928000000 5.2715000000 0.7507000000
-0.4929000000 5.1103000000 0.8271000000
-0.4932000000 6.8174000000 0.0729000000
-0.4933000000 6.3651000000 0.2202000000
-0.4936000000 4.8025000000 0.9722000000
-0.4939000000 1.4401000000 0.2496000000
-0.4942000000 2.5876000000 0.8030000000
-0.4944000000 3.8413000000 1.3987000000
-0.4946000000 6.7902000000 0.0893000000
-0.4948000000 4.5936000000 1.0712000000
-0.4952000000 5.1595000000 0.8004000000
-0.4954000000 1.6610000000 0.3563000000
-0.4955000000 6.6435000000 0.1592000000
-0.4956000000 1.7452000000 0.3886000000
-0.4957000000 5.8406000000 0.4694000000
-0.4960000000 5.5055000000 0.6341000000
-0.4963000000 1.4448000000 0.2481000000
-0.4971000000 5.5142000000 0.6281000000
-0.4972000000 2.5097000000 0.7699000000
-0.4975000000 6.5429000000 0.1341000000
-0.4979000000 3.0838000000 1.0405000000
-0.4980000000 4.4019000000 1.1646000000
-0.4980000000 3.0804000000 1.0388000000
-0.4987000000 1.0542000000 0.1323000000
-0.4989000000 2.5828000000 0.7950000000
-0.4991000000 1.2968000000 0.1738000000
-0.4995000000 1.7830000000 0.4110000000
-0.4997000000 3.8297000000 1.3802000000
-0.5000000000 4.3601000000 1.1849000000
-0.5003000000 1.8943000000 0.4657000000
-0.5008000000 0.9421000000 0.0777000000
-0.5025000000 1.1178000000 0.0827000000
-0.5030000000 4.7212000000 1.0049000000
-0.5040000000 1.2787000000 0.1618000000
-0.5059000000 4.0944000000 1.3104000000
-0.7380000000 3.7590000000 1.1694000000
-0.7408000000 1.3654000000 0.0811000000
-0.7410000000 4.7115000000 0.8128000000
-0.7415000000 6.6855000000 0.0067000000
-0.7419000000 6.1651000000 0.1084000000
-0.7424000000 5.9880000000 0.1896000000
-0.7432000000 2.3109000000 0.4652000000
-0.7436000000 2.2126000000 0.4119000000
-0.7440000000 2.7850000000 0.6849000000
-0.7442000000 6.2895000000 0.1139000000
-0.7444000000 1.3979000000 0.0921000000
-0.7445000000 5.6291000000 0.3641000000
-0.7447000000 2.6951000000 0.6491000000
-0.7448000000 2.6613000000 0.6278000000
-0.7449000000 3.1315000000 0.8553000000
-0.7450000000 6.4556000000 0.0392000000
-0.7452000000 3.3629000000 0.9655000000
-0.7455000000 5.7585000000 0.3040000000
-0.7455000000 5.0998000000 0.6208000000
-0.7456000000 1.6365000000 0.1324000000
-0.7457000000 5.5198000000 0.4130000000
-0.7460000000 3.7391000000 1.1461000000
-0.7462000000 2.1305000000 0.3733000000
-0.7465000000 5.4122000000 0.4680000000
-0.7468000000 3.3869000000 0.9697000000
-0.7469000000 5.0741000000 0.6307000000
-0.7474000000 6.0496000000 0.1563000000
-0.7475000000 4.8009000000 0.7591000000
-0.7480000000 1.8765000000 0.2484000000
-0.7482000000 2.1140000000 0.3594000000
-0.7487000000 5.7322000000 0.3091000000
-0.7488000000 3.3802000000 0.9724000000
-0.7490000000 3.5738000000 1.0669000000
-0.7494000000 2.6869000000 0.6378000000
-0.7504000000 1.1272000000 0.0337000000
-0.7514000000 3.7653000000 1.1560000000
-0.7521000000 6.4961000000 0.0161000000
-0.7550000000 1.8555000000 0.2291000000
-0.9885000000 6.0190000000 0.0482000000
-0.9888000000 4.7006000000 0.6124000000
-0.9900000000 5.3958000000 0.2742000000
-0.9905000000 4.6133000000 0.6482000000
-0.9912000000 3.7025000000 0.9213000000
-0.9923000000 6.0057000000 0.0479000000
-0.9924000000 5.9609000000 0.0725000000
-0.9931000000 1.5504000000 0.0356000000
-0.9935000000 5.2995000000 0.3158000000
-0.9938000000 2.8559000000 0.5169000000
-0.9940000000 4.3982000000 0.7525000000
-0.9942000000 5.7782000000 0.1583000000
-0.9943000000 1.7320000000 0.0422000000
-0.9945000000 3.6160000000 0.8861000000
-0.9947000000 2.5376000000 0.3603000000
-0.9948000000 5.7871000000 0.1550000000
-0.9952000000 4.5648000000 0.6720000000
-0.9954000000 3.6826000000 0.9112000000
-0.9951000000 3.2769000000 0.7160000000
-0.9958000000 4.9498000000 0.4800000000
-0.9961000000 1.6821000000 0.0210000000
-0.9962000000 2.4850000000 0.3321000000
-0.9965000000 3.1850000000 0.6710000000
-0.9967000000 1.7034000000 0.0300000000
-0.9968000000 1.9070000000 0.1245000000
-0.9969000000 3.0762000000 0.6141000000
-0.9972000000 4.1166000000 0.8832000000
-0.9976000000 4.3642000000 0.7644000000
-0.9978000000 2.3670000000 0.2674000000
-0.9983000000 4.1444000000 0.8710000000
-0.9989000000 4.6913000000 0.6042000000
-0.9995000000 5.9791000000 0.0584000000
-0.9998000000 2.3604000000 0.2709000000
-1.0002000000 1.8847000000 0.1131000000
-1.0005000000 2.3233000000 0.2550000000
-1.0008000000 4.1248000000 0.8800000000
-1.0016000000 2.4730000000 0.3225000000
-1.0027000000 5.8574000000 0.1110000000
-1.0072000000 5.3617000000 0.2768000000
-1.2399000000 5.2805000000 0.1111000000
-1.2412000000 2.5020000000 0.1389000000
-1.2417000000 4.9250000000 0.2903000000
-1.2421000000 3.2818000000 0.5104000000
-1.2430000000 4.3331000000 0.5724000000
-1.2433000000 2.1176000000 0.0218000000
-1.2437000000 3.2816000000 0.5068000000
-1.2442000000 3.7490000000 0.7361000000
-1.2444000000 2.8993000000 0.3210000000
-1.2447000000 4.5412000000 0.4673000000
-1.2448000000 3.6313000000 0.6756000000
-1.2449000000 4.9567000000 0.2709000000
-1.2455000000 4.5665000000 0.4623000000
-1.2459000000 4.9577000000 0.2669000000
-1.2460000000 3.9505000000 0.7524000000
-1.2462000000 3.9499000000 0.7522000000
-1.2467000000 5.2316000000 0.1362000000
-1.2471000000 3.5426000000 0.6373000000
-1.2477000000 5.0596000000 0.2209000000
-1.2478000000 4.9888000000 0.2537000000
-1.2479000000 2.2321000000 0.0735000000
-1.2480000000 5.2122000000 0.1451000000
-1.2481000000 3.1618000000 0.4495000000
-1.2485000000 5.0730000000 0.2090000000
-1.2490000000 1.9894000000 0.0322000000
-1.2492000000 3.7493000000 0.7325000000
-1.2496000000 2.8213000000 0.2828000000
-1.2504000000 5.0499000000 0.2187000000
