5.5018000000 2.7621000000 0.1046000000
5.5010000000 4.4347000000 0.0510000000
5.5001000000 4.0451000000 0.1812000000
5.4993000000 2.7318000000 0.0884000000
5.4975000000 2.4926000000 0.0098000000
5.2648000000 2.1836000000 0.0394000000
5.2608000000 4.0035000000 0.3378000000
5.2601000000 3.7207000000 0.4360000000
5.2593000000 5.1816000000 0.0094000000
5.2585000000 4.2229000000 0.2657000000
5.2582000000 2.0694000000 0.0780000000
5.2578000000 2.0317000000 0.0681000000
5.2575000000 3.0982000000 0.3623000000
5.2570000000 3.9181000000 0.3720000000
5.2567000000 4.3000000000 0.2364000000
5.2563000000 1.8666000000 0.0135000000
5.2561000000 4.3266000000 0.2272000000
5.2557000000 3.2132000000 0.4017000000
5.2555000000 4.0537000000 0.3206000000
5.2553000000 2.2663000000 0.0769000000
5.2548000000 4.4154000000 0.1909000000
5.2545000000 4.0799000000 0.3098000000
5.2545000000 2.8870000000 0.2892000000
5.2534000000 2.5062000000 0.1581000000
5.2528000000 2.9062000000 0.2942000000
5.2518000000 1.8412000000 0.0087000000
5.2515000000 2.5806000000 0.1919000000
5.2512000000 4.1552000000 0.2930000000
5.2497000000 2.3669000000 0.1117000000
5.2486000000 3.5511000000 0.4882000000
5.2467000000 4.6744000000 0.1142000000
5.0098000000 2.4913000000 0.3003000000
5.0092000000 3.2841000000 0.5721000000
5.0091000000 4.2394000000 0.4032000000
5.0089000000 2.1767000000 0.1934000000
5.0082000000 1.8605000000 0.0816000000
5.0077000000 5.2941000000 0.0452000000
5.0070000000 3.7263000000 0.5810000000
5.0063000000 3.2496000000 0.5606000000
5.0057000000 4.2117000000 0.4202000000
5.0052000000 4.7239000000 0.2409000000
5.0043000000 5.0927000000 0.1173000000
5.0040000000 4.8053000000 0.2156000000
5.0037000000 4.6954000000 0.2445000000
5.0032000000 4.7471000000 0.2387000000
5.0030000000 3.9283000000 0.5144000000
5.0028000000 2.2724000000 0.2297000000
5.0024000000 3.2654000000 0.5725000000
5.0021000000 3.9710000000 0.5088000000
5.0015000000 4.1572000000 0.4390000000
5.0011000000 4.9989000000 0.1490000000
5.0008000000 5.3827000000 0.0155000000
5.0004000000 3.5031000000 0.6432000000
4.9993000000 4.1432000000 0.4371000000
4.9983000000 3.2540000000 0.5743000000
4.9973000000 2.4139000000 0.2773000000
4.9967000000 3.9160000000 0.5235000000
4.7624000000 1.1293000000 0.0481000000
4.7612000000 5.2142000000 0.2227000000
4.7608000000 4.2496000000 0.5512000000
4.7595000000 4.6031000000 0.4281000000
4.7591000000 4.5957000000 0.4323000000
4.7588000000 3.3698000000 0.7527000000
4.7580000000 4.0135000000 0.6341000000
4.7578000000 2.7770000000 0.5532000000
4.7573000000 3.4209000000 0.7718000000
4.7571000000 0.9973000000 0.0082000000
4.7569000000 2.9026000000 0.5966000000
4.7563000000 4.7552000000 0.3783000000
4.7561000000 2.3949000000 0.4178000000
4.7561000000 2.6077000000 0.4961000000
4.7559000000 3.6482000000 0.7557000000
4.7558000000 4.8962000000 0.3330000000
4.7555000000 5.4011000000 0.1569000000
4.7554000000 4.0556000000 0.6188000000
4.7551000000 5.2667000000 0.2045000000
4.7546000000 3.7842000000 0.7113000000
4.7544000000 4.7905000000 0.3633000000
4.7542000000 1.2736000000 0.0341000000
4.7540000000 3.1728000000 0.6866000000
4.7540000000 5.4469000000 0.1405000000
4.7538000000 2.9433000000 0.6126000000
4.7536000000 4.8441000000 0.3530000000
4.7535000000 5.1704000000 0.2366000000
4.7533000000 3.5677000000 0.7852000000
4.7531000000 4.4231000000 0.4973000000
4.7529000000 2.4658000000 0.4455000000
4.7523000000 1.4915000000 0.1099000000
4.7520000000 2.5732000000 0.4821000000
4.7518000000 3.5864000000 0.7857000000
4.7515000000 2.9942000000 0.6352000000
4.7511000000 5.8465000000 0.0813000000
4.7506000000 1.1361000000 0.0625000000
4.7503000000 1.9729000000 0.2720000000
4.7499000000 2.4649000000 0.4461000000
4.7488000000 1.5604000000 0.1357000000
4.7480000000 1.7855000000 0.2179000000
4.5115000000 5.3677000000 0.3163000000
4.5103000000 4.2091000000 0.7184000000
4.5098000000 4.3020000000 0.6830000000
4.5094000000 5.6139000000 0.2269000000
4.5088000000 2.2224000000 0.5043000000
4.5076000000 0.7688000000 0.0856000000
4.5073000000 3.2824000000 0.8788000000
4.5070000000 2.8056000000 0.7101000000
4.5064000000 2.4444000000 0.5906000000
4.5060000000 1.2870000000 0.1804000000
4.5059000000 4.3996000000 0.6509000000
4.5058000000 3.8632000000 0.8371000000
4.5056000000 5.1656000000 0.3863000000
4.5053000000 1.1761000000 0.1482000000
4.5053000000 5.1939000000 0.3770000000
4.5047000000 3.8393000000 0.8461000000
4.5045000000 1.2040000000 0.1620000000
4.5041000000 3.2321000000 0.8544000000
4.5038000000 1.1513000000 0.1357000000
4.5037000000 3.0167000000 0.7822000000
4.5032000000 1.5825000000 0.2861000000
4.5031000000 3.0214000000 0.7886000000
4.5029000000 5.2857000000 0.3497000000
4.5026000000 3.5383000000 0.9349000000
4.5025000000 0.5492000000 0.0121000000
4.5024000000 1.9017000000 0.3988000000
4.5022000000 5.6286000000 0.2308000000
4.5019000000 1.4844000000 0.2548000000
4.5017000000 4.8278000000 0.5107000000
4.5015000000 0.8155000000 0.0275000000
4.5014000000 4.1299000000 0.7432000000
4.5012000000 3.2382000000 0.8610000000
4.5010000000 5.2349000000 0.3648000000
4.5005000000 2.1946000000 0.5052000000
4.4995000000 3.5559000000 0.9358000000
4.4992000000 5.6767000000 0.2097000000
4.4988000000 2.2439000000 0.5132000000
4.4984000000 6.3480000000 0.0557000000
4.4980000000 3.8923000000 0.8345000000
4.2650000000 6.8471000000 0.0226000000
4.2614000000 5.4923000000 0.4206000000
4.2609000000 4.8061000000 0.6595000000
4.2606000000 6.8067000000 0.0442000000
4.2600000000 3.5514000000 1.0827000000
4.2597000000 5.9882000000 0.2459000000
4.2591000000 5.5818000000 0.3912000000
4.2586000000 4.0993000000 0.8996000000
4.2583000000 6.1604000000 0.1947000000
4.2581000000 3.4890000000 1.0791000000
4.2578000000 3.2455000000 1.0086000000
4.2573000000 0.2065000000 0.0322000000
4.2571000000 5.6067000000 0.3882000000
4.2569000000 4.9584000000 0.6107000000
4.2566000000 2.1727000000 0.6404000000
4.2562000000 5.1727000000 0.5333000000
4.2560000000 2.9496000000 0.9095000000
4.2557000000 2.2428000000 0.6641000000
4.2556000000 2.4831000000 0.7416000000
4.2555000000 4.7723000000 0.6725000000
4.2555000000 0.6643000000 0.1172000000
4.2554000000 6.1882000000 0.1859000000
4.2551000000 4.9367000000 0.6194000000
4.2549000000 6.9370000000 0.0001000000
4.2547000000 4.5507000000 0.7497000000
4.2545000000 5.7252000000 0.3430000000
4.2544000000 0.7915000000 0.1629000000
4.2542000000 3.5033000000 1.0961000000
4.2538000000 2.3910000000 0.7142000000
4.2538000000 2.8812000000 0.8888000000
4.2537000000 3.0220000000 0.9364000000
4.2536000000 2.6685000000 0.8098000000
4.2534000000 1.4882000000 0.4060000000
4.2533000000 5.6944000000 0.3558000000
4.2530000000 3.5563000000 1.0837000000
4.2528000000 1.0394000000 0.2518000000
4.2526000000 5.8762000000 0.2971000000
4.2525000000 1.7266000000 0.4895000000
4.2520000000 5.2984000000 0.4964000000
4.2510000000 1.4610000000 0.3997000000
4.2505000000 2.0972000000 0.6214000000
4.2502000000 1.0655000000 0.2639000000
4.2498000000 1.5456000000 0.4334000000
4.2491000000 2.4257000000 0.7334000000
4.2490000000 3.9878000000 0.9449000000
4.2486000000 5.8372000000 0.3112000000
4.2482000000 3.0213000000 0.9303000000
4.2479000000 0.7653000000 0.1624000000
4.2458000000 1.3391000000 0.3575000000
4.2442000000 0.0893000000 0.0048000000
4.0126000000 6.4635000000 0.2342000000
4.0121000000 1.0463000000 0.3990000000
4.0118000000 4.1249000000 1.0406000000
4.0116000000 6.5235000000 0.2107000000
4.0105000000 6.1454000000 0.3461000000
4.0095000000 4.9302000000 0.7674000000
4.0091000000 5.7916000000 0.4668000000
4.0085000000 6.0094000000 0.3931000000
4.0083000000 0.3949000000 0.1749000000
4.0081000000 1.6989000000 0.6232000000
4.0080000000 4.9991000000 0.7405000000
4.0079000000 6.4094000000 0.2583000000
4.0075000000 4.5227000000 0.9060000000
4.0074000000 2.2729000000 0.8281000000
4.0073000000 3.3322000000 1.1925000000
4.0070000000 4.6765000000 0.8581000000
4.0069000000 0.6015000000 0.2483000000
4.0068000000 6.7420000000 0.1384000000
4.0063000000 5.2211000000 0.6659000000
4.0060000000 4.2315000000 1.0028000000
4.0060000000 3.0161000000 1.0790000000
4.0058000000 4.9648000000 0.7508000000
4.0054000000 4.8297000000 0.7973000000
4.0052000000 4.7182000000 0.8419000000
4.0049000000 1.8626000000 0.6842000000
4.0048000000 0.0852000000 0.0580000000
4.0047000000 1.8627000000 0.6859000000
4.0042000000 3.2445000000 1.1643000000
4.0039000000 3.3364000000 1.1929000000
4.0038000000 0.4296000000 0.1919000000
4.0036000000 1.3935000000 0.5204000000
4.0035000000 5.9473000000 0.4196000000
4.0031000000 6.2023000000 0.3301000000
4.0029000000 5.5852000000 0.5437000000
4.0028000000 3.1979000000 1.1480000000
4.0023000000 1.0576000000 0.4109000000
4.0023000000 3.3729000000 1.2065000000
4.0021000000 1.0961000000 0.4160000000
4.0020000000 4.1352000000 1.0437000000
4.0018000000 0.9080000000 0.3564000000
4.0015000000 6.7289000000 0.1493000000
4.0012000000 0.3180000000 0.1519000000
4.0008000000 2.3498000000 0.8508000000
4.0006000000 3.1283000000 1.1251000000
4.0003000000 0.6245000000 0.2595000000
3.9999000000 1.0870000000 0.4220000000
3.9996000000 0.7773000000 0.3162000000
3.9994000000 5.0178000000 0.7345000000
3.9987000000 1.1911000000 0.4631000000
3.7673000000 6.5412000000 0.3381000000
3.7629000000 5.7445000000 0.6274000000
3.7613000000 6.7896000000 0.1775000000
3.7608000000 3.0848000000 1.2497000000
3.7605000000 2.9538000000 1.2061000000
3.7593000000 5.8594000000 0.5923000000
3.7583000000 4.2348000000 1.1560000000
3.7576000000 4.9946000000 0.8938000000
3.7574000000 1.1266000000 0.5719000000
3.7573000000 2.0613000000 0.8985000000
3.7568000000 6.0612000000 0.5258000000
3.7566000000 3.5465000000 1.3833000000
3.7565000000 1.2900000000 0.6370000000
3.7563000000 3.7350000000 1.3278000000
3.7561000000 3.5796000000 1.3850000000
3.7559000000 1.6356000000 0.7544000000
3.7558000000 5.5185000000 0.7133000000
3.7555000000 4.2166000000 1.1575000000
3.7552000000 6.1044000000 0.5156000000
3.7551000000 6.6687000000 0.2607000000
3.7548000000 5.4188000000 0.7494000000
3.7548000000 2.4464000000 1.0365000000
3.7546000000 3.3787000000 1.3591000000
3.7543000000 4.7784000000 0.9739000000
3.7541000000 6.6178000000 0.2935000000
3.7540000000 0.9326000000 0.5135000000
3.7539000000 6.7890000000 0.1777000000
3.7537000000 2.5135000000 1.0600000000
3.7535000000 5.9240000000 0.5762000000
3.7533000000 1.5545000000 0.7263000000
3.7531000000 0.8193000000 0.4718000000
3.7528000000 4.5858000000 1.0400000000
3.7527000000 4.3601000000 1.1137000000
3.7525000000 3.9230000000 1.2656000000
3.7524000000 3.2515000000 1.3145000000
3.7522000000 0.0954000000 0.0736000000
3.7518000000 3.6787000000 1.3531000000
3.7516000000 0.6982000000 0.4304000000
3.7508000000 1.3560000000 0.6645000000
3.7505000000 1.0738000000 0.5619000000
3.7503000000 6.1576000000 0.5039000000
3.7498000000 1.1537000000 0.5917000000
3.7496000000 1.4820000000 0.7033000000
3.7495000000 4.8690000000 0.9423000000
3.7489000000 1.5625000000 0.7363000000
3.7473000000 0.0057000000 0.0132000000
3.7446000000 0.6470000000 0.4096000000
3.7378000000 3.0312000000 1.2461000000
3.5119000000 6.6439000000 0.2752000000
3.5114000000 3.4276000000 1.5234000000
3.5103000000 6.9877000000 0.0382000000
3.5097000000 5.5531000000 0.8494000000
3.5092000000 5.4261000000 0.8993000000
3.5089000000 6.6467000000 0.2750000000
3.5087000000 4.8036000000 1.1059000000
3.5085000000 4.1907000000 1.3296000000
3.5082000000 6.5500000000 0.3446000000
3.5078000000 2.9555000000 1.3598000000
3.5077000000 6.4071000000 0.4436000000
3.5070000000 0.6153000000 0.4314000000
3.5066000000 6.2935000000 0.5266000000
3.5063000000 5.4985000000 0.8706000000
3.5062000000 3.3237000000 1.4868000000
3.5061000000 2.0297000000 1.0407000000
3.5058000000 2.2610000000 1.1202000000
3.5056000000 6.4330000000 0.4304000000
3.5053000000 6.5984000000 0.3081000000
3.5050000000 5.8639000000 0.7466000000
3.5046000000 2.5644000000 1.2246000000
3.5045000000 6.3070000000 0.5117000000
3.5041000000 1.7310000000 0.9400000000
3.5040000000 0.9628000000 0.6654000000
3.5040000000 3.2370000000 1.4549000000
3.5037000000 5.7651000000 0.7797000000
3.5034000000 3.2020000000 1.4465000000
3.5031000000 6.5887000000 0.3173000000
3.5029000000 4.6272000000 1.1671000000
3.5028000000 5.0987000000 1.0131000000
3.5025000000 6.1552000000 0.6086000000
3.5023000000 0.9942000000 0.6754000000
3.5022000000 3.6382000000 1.5161000000
3.5019000000 0.5744000000 0.4050000000
3.5018000000 1.5371000000 0.8674000000
3.5017000000 0.9065000000 0.6235000000
3.5015000000 4.8900000000 1.0776000000
3.5012000000 2.2180000000 1.1134000000
3.5012000000 2.4031000000 1.1776000000
3.5010000000 1.5856000000 0.8861000000
3.5010000000 3.3442000000 1.4917000000
3.5007000000 4.5315000000 1.2065000000
3.5004000000 1.4361000000 0.8372000000
3.4999000000 2.6013000000 1.2393000000
3.4994000000 4.2391000000 1.3124000000
3.4991000000 4.2103000000 1.3180000000
3.4977000000 1.0338000000 0.6910000000
3.4973000000 2.7922000000 1.3046000000
3.2639000000 4.3720000000 1.4026000000
3.2618000000 5.3520000000 1.0688000000
3.2605000000 6.9665000000 0.0563000000
3.2599000000 1.9014000000 1.1412000000
3.2594000000 3.3024000000 1.6286000000
3.2583000000 6.2981000000 0.5223000000
3.2575000000 3.9914000000 1.5369000000
3.2571000000 4.8283000000 1.2533000000
3.2570000000 4.8491000000 1.2430000000
3.2566000000 3.1101000000 1.5620000000
3.2563000000 5.0569000000 1.1720000000
3.2562000000 4.5817000000 1.3355000000
3.2561000000 4.4219000000 1.3941000000
3.2558000000 6.7242000000 0.2241000000
3.2557000000 6.6100000000 0.3031000000
3.2555000000 2.4830000000 1.3459000000
3.2552000000 7.0260000000 0.0155000000
3.2551000000 3.2803000000 1.6254000000
3.2550000000 0.4369000000 0.3131000000
3.2549000000 0.7079000000 0.4919000000
3.2546000000 0.0428000000 0.0343000000
3.2545000000 4.9429000000 1.2080000000
3.2543000000 4.5216000000 1.3561000000
3.2541000000 3.1856000000 1.5902000000
3.2540000000 6.3152000000 0.5011000000
3.2538000000 1.4813000000 0.9933000000
3.2534000000 3.5397000000 1.6841000000
3.2533000000 3.7738000000 1.6103000000
3.2532000000 5.2970000000 1.0901000000
3.2531000000 0.6781000000 0.4720000000
3.2528000000 4.0333000000 1.5290000000
3.2526000000 0.4527000000 0.3186000000
3.2523000000 1.0019000000 0.6999000000
3.2520000000 2.4549000000 1.3340000000
3.2517000000 0.6078000000 0.4199000000
3.2516000000 5.0539000000 1.1766000000
3.2511000000 3.1399000000 1.5759000000
3.2510000000 4.3549000000 1.4164000000
3.2509000000 6.1627000000 0.6089000000
3.2506000000 3.3055000000 1.6320000000
3.2503000000 1.1216000000 0.7809000000
3.2500000000 1.0235000000 0.7124000000
3.2499000000 0.7658000000 0.5423000000
3.2495000000 0.4139000000 0.2876000000
3.2489000000 3.1434000000 1.5746000000
3.2481000000 6.4147000000 0.4344000000
3.2473000000 2.7321000000 1.4399000000
3.2451000000 5.4368000000 1.0480000000
3.0147000000 1.1785000000 0.8180000000
3.0134000000 5.6014000000 0.9993000000
3.0101000000 4.9128000000 1.3708000000
3.0099000000 5.4742000000 1.0921000000
3.0089000000 6.1459000000 0.6210000000
3.0077000000 3.6253000000 1.8139000000
3.0075000000 4.3830000000 1.5535000000
3.0072000000 1.8647000000 1.2747000000
3.0070000000 2.0751000000 1.3581000000
3.0068000000 5.9870000000 0.7330000000
3.0068000000 4.1381000000 1.6400000000
3.0067000000 4.5678000000 1.4966000000
3.0065000000 2.0848000000 1.3577000000
3.0063000000 1.2202000000 0.8521000000
3.0061000000 4.3320000000 1.5726000000
3.0058000000 5.1333000000 1.2891000000
3.0057000000 3.2598000000 1.7594000000
3.0055000000 6.8259000000 0.1492000000
3.0054000000 5.0663000000 1.3248000000
3.0053000000 3.2638000000 1.7634000000
3.0050000000 2.5652000000 1.5291000000
3.0048000000 0.5699000000 0.4027000000
3.0048000000 2.9300000000 1.6459000000
3.0046000000 1.5057000000 1.0482000000
3.0044000000 0.0055000000 0.0087000000
3.0043000000 4.9913000000 1.3449000000
3.0041000000 6.3839000000 0.4623000000
3.0039000000 4.3566000000 1.5652000000
3.0038000000 3.6001000000 1.8274000000
3.0035000000 4.0882000000 1.6608000000
3.0033000000 1.7118000000 1.1875000000
3.0031000000 2.4785000000 1.4980000000
3.0028000000 2.1056000000 1.3639000000
3.0027000000 3.6087000000 1.8229000000
3.0025000000 4.5030000000 1.5138000000
3.0025000000 1.9581000000 1.3187000000
3.0024000000 6.9482000000 0.0651000000
3.0021000000 2.2598000000 1.4199000000
3.0019000000 2.5072000000 1.5108000000
3.0017000000 2.5791000000 1.5241000000
3.0016000000 5.7868000000 0.8706000000
3.0015000000 5.4160000000 1.1237000000
3.0010000000 1.5683000000 1.0915000000
3.0011000000 3.2622000000 1.7659000000
3.0005000000 0.0780000000 0.0608000000
3.0003000000 1.2290000000 0.8548000000
2.9997000000 1.6521000000 1.1484000000
2.9990000000 1.2538000000 0.8710000000
2.9984000000 1.2993000000 0.9050000000
2.9959000000 2.6722000000 1.5624000000
2.9955000000 0.6226000000 0.4369000000
2.7654000000 6.4994000000 0.3825000000
2.7645000000 5.8127000000 0.8531000000
2.7623000000 6.9865000000 0.0414000000
2.7608000000 4.0044000000 1.8305000000
2.7604000000 0.9666000000 0.6718000000
2.7600000000 3.5037000000 1.9836000000
2.7588000000 2.9068000000 1.7889000000
2.7585000000 5.6004000000 1.0016000000
2.7583000000 3.2590000000 1.9147000000
2.7580000000 5.3313000000 1.1818000000
2.7579000000 1.9081000000 1.3260000000
2.7577000000 6.7126000000 0.2297000000
2.7573000000 6.0670000000 0.6767000000
2.7573000000 6.5712000000 0.3315000000
2.7571000000 0.3368000000 0.2442000000
2.7569000000 5.9376000000 0.7669000000
2.7567000000 0.4390000000 0.3151000000
2.7563000000 5.3196000000 1.1920000000
2.7561000000 0.0567000000 0.0501000000
2.7560000000 2.5568000000 1.6705000000
2.7558000000 6.1279000000 0.6316000000
2.7557000000 1.7618000000 1.2278000000
2.7554000000 4.8686000000 1.5017000000
2.7552000000 3.3453000000 1.9476000000
2.7550000000 6.6497000000 0.2743000000
2.7550000000 2.4522000000 1.6351000000
2.7548000000 3.3886000000 1.9617000000
2.7546000000 6.8363000000 0.1490000000
2.7542000000 1.1191000000 0.7775000000
2.7541000000 0.4989000000 0.3576000000
2.7538000000 0.1120000000 0.0837000000
2.7535000000 2.2279000000 1.5376000000
2.7533000000 4.7402000000 1.5702000000
2.7532000000 3.2378000000 1.9099000000
2.7530000000 5.0465000000 1.3777000000
2.7528000000 4.7616000000 1.5621000000
2.7527000000 5.1946000000 1.2809000000
2.7525000000 0.8306000000 0.5798000000
2.7523000000 0.8139000000 0.5714000000
2.7521000000 2.1933000000 1.5140000000
2.7520000000 1.6048000000 1.1109000000
2.7518000000 4.6186000000 1.6259000000
2.7517000000 2.5554000000 1.6702000000
2.7513000000 2.7837000000 1.7485000000
2.7508000000 1.5608000000 1.0839000000
2.7507000000 0.3510000000 0.2457000000
2.7505000000 2.9997000000 1.8271000000
2.7504000000 0.6238000000 0.4383000000
2.7501000000 6.1834000000 0.5940000000
2.7498000000 6.1605000000 0.6118000000
2.7495000000 0.5388000000 0.3758000000
2.7489000000 0.8755000000 0.6150000000
2.7468000000 0.9651000000 0.6722000000
2.5113000000 2.6833000000 1.8460000000
2.5108000000 5.5788000000 1.0084000000
2.5098000000 4.1841000000 1.9242000000
2.5092000000 5.7835000000 0.8741000000
2.5090000000 4.4749000000 1.7776000000
2.5088000000 4.2571000000 1.8861000000
2.5081000000 5.0506000000 1.3737000000
2.5078000000 0.4100000000 0.2903000000
2.5074000000 6.8858000000 0.1152000000
2.5072000000 0.7219000000 0.5060000000
2.5070000000 3.3851000000 2.1047000000
2.5068000000 2.7185000000 1.8691000000
2.5068000000 2.6620000000 1.8302000000
2.5065000000 6.6774000000 0.2573000000
2.5063000000 1.5515000000 1.0791000000
2.5060000000 6.9935000000 0.0434000000
2.5059000000 5.7366000000 0.9058000000
2.5055000000 2.0484000000 1.4201000000
2.5054000000 2.4541000000 1.7075000000
2.5050000000 5.0812000000 1.3589000000
2.5049000000 0.9673000000 0.6795000000
2.5046000000 6.9495000000 0.0766000000
2.5045000000 6.2078000000 0.5812000000
2.5042000000 2.8795000000 1.9278000000
2.5040000000 3.6927000000 2.0918000000
2.5038000000 1.7761000000 1.2371000000
2.5036000000 4.5932000000 1.6930000000
2.5033000000 2.2217000000 1.5422000000
2.5033000000 6.4975000000 0.3721000000
2.5032000000 1.5089000000 1.0522000000
2.5030000000 3.1667000000 2.0341000000
2.5027000000 5.3227000000 1.1855000000
2.5021000000 0.8903000000 0.6222000000
2.5019000000 0.5347000000 0.3743000000
2.5018000000 6.2394000000 0.5568000000
2.5014000000 5.8094000000 0.8581000000
2.5011000000 5.7784000000 0.8750000000
2.5010000000 1.4136000000 0.9840000000
2.5007000000 5.4143000000 1.1316000000
2.5005000000 1.5485000000 1.0731000000
2.5003000000 6.1304000000 0.6346000000
2.5000000000 4.3475000000 1.8529000000
2.4999000000 2.0029000000 1.3893000000
2.4996000000 0.3746000000 0.2662000000
2.4993000000 4.5685000000 1.7120000000
2.4990000000 5.9281000000 0.7720000000
2.4983000000 6.7370000000 0.2145000000
2.4980000000 0.6938000000 0.4884000000
2.4972000000 2.3945000000 1.6574000000
2.4963000000 4.5691000000 1.7084000000
2.4950000000 5.0851000000 1.3599000000
2.2649000000 5.1846000000 1.2898000000
2.2642000000 2.6105000000 1.8042000000
2.2625000000 6.2157000000 0.5718000000
2.2600000000 5.7073000000 0.9196000000
2.2591000000 5.4295000000 1.1166000000
2.2589000000 6.7875000000 0.1813000000
2.2584000000 5.8582000000 0.8163000000
2.2578000000 6.6741000000 0.2591000000
2.2572000000 2.1499000000 1.4919000000
2.2569000000 4.0359000000 2.0774000000
2.2566000000 0.5691000000 0.4000000000
2.2563000000 0.9086000000 0.6362000000
2.2560000000 1.7158000000 1.1909000000
2.2556000000 3.6052000000 2.2761000000
2.2553000000 3.8406000000 2.1818000000
2.2552000000 6.1133000000 0.6483000000
2.2548000000 5.4118000000 1.1279000000
2.2547000000 1.5563000000 1.0792000000
2.2544000000 4.1034000000 2.0278000000
2.2542000000 4.5236000000 1.7426000000
2.2540000000 5.3458000000 1.1722000000
2.2537000000 6.5543000000 0.3430000000
2.2534000000 2.9335000000 2.0293000000
2.2533000000 2.0375000000 1.4103000000
2.2530000000 1.0382000000 0.7283000000
2.2525000000 0.6814000000 0.4780000000
2.2524000000 1.3987000000 0.9724000000
2.2521000000 4.6600000000 1.6472000000
2.2519000000 1.1454000000 0.7983000000
2.2516000000 3.0168000000 2.0926000000
2.2513000000 4.8957000000 1.4845000000
2.2509000000 2.5480000000 1.7661000000
2.2507000000 0.2663000000 0.1911000000
2.2506000000 3.4505000000 2.2821000000
2.2500000000 6.4324000000 0.4271000000
2.2499000000 0.7083000000 0.4963000000
2.2493000000 0.4614000000 0.3301000000
2.2490000000 0.8199000000 0.5741000000
2.2488000000 4.9806000000 1.4258000000
2.2484000000 2.5992000000 1.8048000000
2.2482000000 1.6269000000 1.1294000000
2.2473000000 0.3848000000 0.2685000000
2.2460000000 3.6773000000 2.2594000000
2.2445000000 1.0845000000 0.7547000000
2.0121000000 6.0382000000 0.6991000000
2.0096000000 5.7448000000 0.8995000000
2.0088000000 5.6739000000 0.9539000000
2.0082000000 3.3686000000 2.3320000000
2.0076000000 5.4361000000 1.1177000000
2.0075000000 5.5818000000 1.0101000000
2.0074000000 1.7179000000 1.1941000000
2.0072000000 3.6130000000 2.3293000000
2.0068000000 3.8092000000 2.2348000000
2.0068000000 6.1879000000 0.5919000000
2.0066000000 6.0250000000 0.7077000000
2.0064000000 4.1936000000 1.9721000000
2.0063000000 2.8661000000 1.9898000000
2.0062000000 6.7742000000 0.1923000000
2.0060000000 6.7913000000 0.1787000000
2.0059000000 6.2657000000 0.5377000000
2.0057000000 1.4838000000 1.0305000000
2.0056000000 6.7405000000 0.2138000000
2.0052000000 2.5416000000 1.7624000000
2.0050000000 5.5748000000 1.0116000000
2.0049000000 6.7551000000 0.2024000000
2.0046000000 6.1483000000 0.6234000000
2.0044000000 0.9575000000 0.6665000000
2.0042000000 5.8271000000 0.8421000000
2.0040000000 5.4138000000 1.1273000000
2.0038000000 3.2971000000 2.2886000000
2.0036000000 6.8869000000 0.1077000000
2.0035000000 6.4130000000 0.4374000000
2.0033000000 0.6164000000 0.4338000000
2.0030000000 3.5394000000 2.3359000000
2.0029000000 5.5711000000 1.0165000000
2.0028000000 1.6793000000 1.1655000000
2.0025000000 2.6023000000 1.8040000000
2.0023000000 4.6224000000 1.6735000000
2.0022000000 1.3093000000 0.9086000000
2.0020000000 1.9843000000 1.3810000000
2.0018000000 4.0279000000 2.0835000000
2.0017000000 3.5847000000 2.3360000000
2.0013000000 1.0068000000 0.7055000000
2.0011000000 0.0129000000 0.0119000000
2.0008000000 6.3749000000 0.4635000000
2.0004000000 4.4439000000 1.7986000000
1.9996000000 1.4558000000 1.0086000000
1.9992000000 2.2607000000 1.5702000000
1.9990000000 5.8744000000 0.8123000000
1.9980000000 3.5313000000 2.3355000000
1.9958000000 0.4310000000 0.3050000000
1.7622000000 4.8527000000 1.5093000000
1.7610000000 0.2130000000 0.1574000000
1.7598000000 4.7530000000 1.5913000000
1.7596000000 6.3456000000 0.4816000000
1.7592000000 7.0399000000 0.0823000000
1.7582000000 2.4142000000 1.6713000000
1.7581000000 3.6147000000 2.2395000000
1.7578000000 1.3746000000 0.9545000000
1.7573000000 5.3819000000 1.1494000000
1.7571000000 2.9187000000 2.0238000000
1.7570000000 5.7850000000 0.8684000000
1.7567000000 6.6804000000 0.2552000000
1.7565000000 0.7664000000 0.5377000000
1.7563000000 5.9088000000 0.7871000000
1.7562000000 5.8104000000 0.8565000000
1.7561000000 3.1275000000 2.1227000000
1.7558000000 4.6894000000 1.6300000000
1.7557000000 5.1190000000 1.3333000000
1.7553000000 0.8459000000 0.5903000000
1.7550000000 3.2518000000 2.1759000000
1.7549000000 6.5094000000 0.3747000000
1.7547000000 1.5455000000 1.0722000000
1.7544000000 3.1702000000 2.1494000000
1.7543000000 6.3092000000 0.5078000000
1.7540000000 4.6589000000 1.6412000000
1.7540000000 1.4044000000 0.9831000000
1.7537000000 6.2372000000 0.5583000000
1.7535000000 0.3203000000 0.2245000000
1.7533000000 6.3252000000 0.5018000000
1.7532000000 0.1883000000 0.1381000000
1.7530000000 1.7707000000 1.2290000000
1.7529000000 1.8676000000 1.3018000000
1.7527000000 1.1437000000 0.7970000000
1.7524000000 1.4385000000 0.9989000000
1.7521000000 1.8957000000 1.3174000000
1.7519000000 3.0530000000 2.1016000000
1.7518000000 3.9365000000 2.1184000000
1.7517000000 4.0915000000 2.0307000000
1.7512000000 0.8256000000 0.5794000000
1.7511000000 4.4406000000 1.8014000000
1.7510000000 2.0938000000 1.4550000000
1.7508000000 5.2389000000 1.2488000000
1.7505000000 1.6028000000 1.1089000000
1.7505000000 1.5424000000 1.0678000000
1.7497000000 0.2724000000 0.1992000000
1.7496000000 2.5948000000 1.8025000000
1.7493000000 0.6873000000 0.4852000000
1.7487000000 3.2077000000 2.1658000000
1.7479000000 6.9425000000 0.0725000000
1.7471000000 1.7566000000 1.2197000000
1.7465000000 1.3880000000 0.9602000000
1.5117000000 5.2743000000 1.2241000000
1.5106000000 4.9850000000 1.4225000000
1.5103000000 6.9402000000 0.0717000000
1.5089000000 2.8856000000 1.9079000000
1.5083000000 3.6384000000 2.0855000000
1.5077000000 3.5041000000 2.1045000000
1.5076000000 6.4214000000 0.4315000000
1.5075000000 4.4825000000 1.7622000000
1.5071000000 0.7267000000 0.5047000000
1.5070000000 5.0463000000 1.3798000000
1.5065000000 6.7959000000 0.1764000000
1.5065000000 2.2957000000 1.5912000000
1.5064000000 6.4347000000 0.4266000000
1.5061000000 6.3654000000 0.4706000000
1.5060000000 3.9431000000 1.9807000000
1.5058000000 4.3608000000 1.8266000000
1.5056000000 2.3876000000 1.6548000000
1.5053000000 6.7480000000 0.2071000000
1.5049000000 0.7969000000 0.5595000000
1.5049000000 6.1507000000 0.6180000000
1.5048000000 0.4404000000 0.3114000000
1.5046000000 3.0221000000 1.9533000000
1.5043000000 4.6493000000 1.6519000000
1.5041000000 3.2405000000 2.0224000000
1.5040000000 1.1029000000 0.7719000000
1.5039000000 1.6839000000 1.1715000000
1.5034000000 2.0635000000 1.4403000000
1.5032000000 3.6440000000 2.0813000000
1.5031000000 2.9290000000 1.9192000000
1.5030000000 5.1382000000 1.3186000000
1.5028000000 0.9418000000 0.6623000000
1.5026000000 0.5712000000 0.4065000000
1.5025000000 5.9142000000 0.7855000000
1.5024000000 1.5679000000 1.0846000000
1.5023000000 3.0762000000 1.9701000000
1.5021000000 3.0081000000 1.9479000000
1.5020000000 2.8585000000 1.8932000000
1.5018000000 3.2684000000 2.0327000000
1.5014000000 2.9568000000 1.9223000000
1.5013000000 4.1468000000 1.9048000000
1.5012000000 4.1837000000 1.8932000000
1.5008000000 4.8420000000 1.5241000000
1.5005000000 2.7511000000 1.8621000000
1.5003000000 3.3468000000 2.0562000000
1.5001000000 6.3181000000 0.5071000000
1.5001000000 1.1587000000 0.8103000000
1.4999000000 3.0672000000 1.9627000000
1.4997000000 1.0458000000 0.7332000000
1.4995000000 3.2541000000 2.0255000000
1.4981000000 3.3131000000 2.0449000000
1.4974000000 0.7367000000 0.5164000000
1.4936000000 1.2359000000 0.8631000000
1.2637000000 5.4040000000 1.1359000000
1.2619000000 5.8601000000 0.8221000000
1.2597000000 3.1268000000 1.8413000000
1.2594000000 5.8054000000 0.8593000000
1.2587000000 6.3075000000 0.5112000000
1.2583000000 4.0944000000 1.7831000000
1.2582000000 6.0925000000 0.6615000000
1.2578000000 3.2194000000 1.8714000000
1.2576000000 4.1457000000 1.7572000000
1.2574000000 5.5187000000 1.0586000000
1.2570000000 1.6095000000 1.1165000000
1.2568000000 5.3303000000 1.1852000000
1.2566000000 4.9321000000 1.4512000000
1.2564000000 2.1824000000 1.5011000000
1.2563000000 6.0590000000 0.6805000000
1.2561000000 5.8780000000 0.8067000000
1.2560000000 6.9884000000 0.0419000000
1.2559000000 4.9276000000 1.4538000000
1.2557000000 6.7346000000 0.2161000000
1.2553000000 1.0586000000 0.7397000000
1.2552000000 0.7123000000 0.5003000000
1.2546000000 5.8349000000 0.8372000000
1.2544000000 2.4895000000 1.6168000000
1.2540000000 4.3418000000 1.6841000000
1.2536000000 4.5172000000 1.6291000000
1.2535000000 0.9278000000 0.6520000000
1.2533000000 3.7745000000 1.8812000000
1.2532000000 6.4818000000 0.3901000000
1.2531000000 4.7879000000 1.5171000000
1.2529000000 0.7601000000 0.5363000000
1.2525000000 0.8834000000 0.6237000000
1.2522000000 4.9898000000 1.4223000000
1.2518000000 6.0779000000 0.6655000000
1.2517000000 5.8037000000 0.8596000000
1.2513000000 3.5536000000 1.9496000000
1.2510000000 4.4958000000 1.6345000000
1.2506000000 1.6041000000 1.1101000000
1.2505000000 1.0656000000 0.7440000000
1.2504000000 5.6717000000 0.9513000000
1.2502000000 4.6611000000 1.5781000000
1.2493000000 0.6525000000 0.4572000000
1.2488000000 0.0235000000 0.0255000000
1.2484000000 3.1479000000 1.8448000000
1.2482000000 5.3287000000 1.1865000000
1.2480000000 1.5267000000 1.0555000000
1.2470000000 0.5369000000 0.3837000000
1.2468000000 3.2051000000 1.8623000000
1.0133000000 6.3279000000 0.4957000000
1.0103000000 4.6050000000 1.4515000000
1.0085000000 4.0755000000 1.6325000000
1.0079000000 6.7294000000 0.2186000000
1.0077000000 1.9412000000 1.2795000000
1.0074000000 7.0463000000 0.0759000000
1.0069000000 3.9960000000 1.6647000000
1.0068000000 5.1543000000 1.2512000000
1.0065000000 4.1072000000 1.6215000000
1.0064000000 5.2384000000 1.2207000000
1.0063000000 6.9536000000 0.0668000000
1.0060000000 3.0919000000 1.6730000000
1.0058000000 6.6514000000 0.2685000000
1.0057000000 2.1016000000 1.3340000000
1.0056000000 5.5461000000 1.0364000000
1.0053000000 3.2219000000 1.7221000000
1.0052000000 4.1592000000 1.5995000000
1.0050000000 4.2882000000 1.5537000000
1.0049000000 5.0652000000 1.2926000000
1.0048000000 4.3662000000 1.5394000000
1.0044000000 1.7957000000 1.2190000000
1.0043000000 0.1594000000 0.1133000000
1.0041000000 0.2575000000 0.1819000000
1.0040000000 5.1997000000 1.2366000000
1.0038000000 3.2903000000 1.7396000000
1.0038000000 6.1216000000 0.6359000000
1.0036000000 1.7857000000 1.2054000000
1.0032000000 4.8064000000 1.3819000000
1.0029000000 3.3036000000 1.7439000000
1.0027000000 4.4484000000 1.5007000000
1.0024000000 1.0416000000 0.7285000000
1.0023000000 5.5606000000 1.0252000000
1.0018000000 4.5864000000 1.4530000000
1.0015000000 1.4280000000 0.9963000000
1.0004000000 3.8400000000 1.7126000000
1.0001000000 1.1244000000 0.7839000000
0.9999000000 0.3887000000 0.2757000000
0.9997000000 0.8221000000 0.5700000000
0.9996000000 0.8491000000 0.5913000000
0.9995000000 1.1209000000 0.7846000000
0.9990000000 4.1534000000 1.6001000000
0.9987000000 1.8875000000 1.2523000000
0.9979000000 6.4923000000 0.3797000000
0.9976000000 0.5502000000 0.3865000000
0.9971000000 4.5458000000 1.4694000000
0.9955000000 1.5349000000 1.0676000000
0.9954000000 1.5701000000 1.0944000000
0.7641000000 2.4024000000 1.2926000000
0.7613000000 5.1778000000 1.1011000000
0.7605000000 1.8864000000 1.1121000000
0.7600000000 6.3843000000 0.4624000000
0.7598000000 5.3030000000 1.0567000000
0.7597000000 1.8960000000 1.1223000000
0.7594000000 6.2228000000 0.5677000000
0.7586000000 6.5077000000 0.3807000000
0.7583000000 5.9163000000 0.7781000000
0.7579000000 1.4559000000 0.9616000000
0.7578000000 2.2731000000 1.2470000000
0.7575000000 4.3490000000 1.3884000000
0.7574000000 3.2552000000 1.5835000000
0.7571000000 5.0110000000 1.1672000000
0.7568000000 4.5291000000 1.3261000000
0.7567000000 2.2334000000 1.2300000000
0.7566000000 0.3885000000 0.2745000000
0.7565000000 3.2341000000 1.5770000000
0.7562000000 1.5414000000 0.9950000000
0.7559000000 6.2783000000 0.5300000000
0.7556000000 6.3455000000 0.4854000000
0.7555000000 6.6013000000 0.3072000000
0.7550000000 6.8718000000 0.1279000000
0.7548000000 3.1117000000 1.5367000000
0.7545000000 4.2140000000 1.4340000000
0.7544000000 3.8542000000 1.5559000000
0.7543000000 2.7611000000 1.4090000000
0.7541000000 6.8897000000 0.1109000000
0.7540000000 4.5475000000 1.3161000000
0.7539000000 6.4219000000 0.4323000000
0.7537000000 3.5579000000 1.6462000000
0.7535000000 4.6354000000 1.2830000000
0.7534000000 2.5679000000 1.3466000000
0.7533000000 4.0841000000 1.4786000000
0.7531000000 5.9702000000 0.7427000000
0.7529000000 0.7870000000 0.5537000000
0.7527000000 2.0902000000 1.1783000000
0.7522000000 6.9782000000 0.0442000000
0.7520000000 3.3253000000 1.6065000000
0.7518000000 0.1284000000 0.0928000000
0.7515000000 4.3756000000 1.3763000000
0.7512000000 0.4169000000 0.2970000000
0.7510000000 2.3843000000 1.2762000000
0.7509000000 1.4848000000 0.9689000000
0.7507000000 1.9844000000 1.1395000000
0.7506000000 2.0796000000 1.1744000000
0.7499000000 5.0406000000 1.1495000000
0.7496000000 3.6068000000 1.6428000000
0.7494000000 3.1244000000 1.5340000000
0.7490000000 2.5148000000 1.3278000000
0.7485000000 0.4886000000 0.3429000000
0.7478000000 4.3649000000 1.3724000000
0.7463000000 1.4420000000 0.9563000000
0.7451000000 0.0471000000 0.0411000000
0.7436000000 6.8243000000 0.1570000000
0.5160000000 6.4128000000 0.4367000000
0.5113000000 5.6513000000 0.7879000000
0.5105000000 5.9891000000 0.6736000000
0.5095000000 1.8923000000 0.9674000000
0.5093000000 5.0011000000 1.0207000000
0.5090000000 5.2280000000 0.9348000000
0.5080000000 6.5816000000 0.3238000000
0.5076000000 0.8441000000 0.5761000000
0.5073000000 2.6820000000 1.2419000000
0.5070000000 3.1894000000 1.4149000000
0.5070000000 2.8176000000 1.2835000000
0.5066000000 5.5578000000 0.8248000000
0.5065000000 3.1468000000 1.4004000000
0.5063000000 0.3097000000 0.2223000000
0.5062000000 4.5829000000 1.1612000000
0.5058000000 6.0495000000 0.6491000000
0.5056000000 3.0170000000 1.3463000000
0.5055000000 4.8824000000 1.0526000000
0.5054000000 6.3623000000 0.4731000000
0.5051000000 1.9612000000 0.9871000000
0.5048000000 6.0040000000 0.6599000000
0.5047000000 5.7767000000 0.7462000000
0.5045000000 0.2795000000 0.2001000000
0.5045000000 3.3718000000 1.4745000000
0.5043000000 1.7536000000 0.9150000000
0.5040000000 6.8777000000 0.1133000000
0.5040000000 5.9026000000 0.7004000000
0.5038000000 2.7465000000 1.2566000000
0.5034000000 0.7243000000 0.5015000000
0.5033000000 3.4102000000 1.4865000000
0.5032000000 4.9082000000 1.0415000000
0.5030000000 4.1974000000 1.2877000000
0.5028000000 1.7848000000 0.9252000000
0.5026000000 1.2945000000 0.7567000000
0.5026000000 0.2100000000 0.1488000000
0.5022000000 1.1943000000 0.7226000000
0.5020000000 4.5081000000 1.1761000000
0.5019000000 0.8559000000 0.5823000000
0.5015000000 3.2814000000 1.4398000000
0.5013000000 3.1132000000 1.3840000000
0.5012000000 1.4040000000 0.7969000000
0.5006000000 1.1300000000 0.6994000000
0.5004000000 4.1630000000 1.3005000000
0.5000000000 0.0997000000 0.0801000000
0.4998000000 3.6793000000 1.4667000000
0.4993000000 6.7526000000 0.2032000000
0.4988000000 0.6688000000 0.4681000000
0.4981000000 3.0514000000 1.3570000000
0.4975000000 1.6619000000 0.8833000000
0.4958000000 6.1266000000 0.6056000000
0.4928000000 1.8015000000 0.9271000000
0.2637000000 6.1893000000 0.4553000000
0.2600000000 4.6794000000 0.9727000000
0.2595000000 6.9424000000 0.0757000000
0.2591000000 4.3157000000 1.1014000000
0.2587000000 1.8670000000 0.8071000000
0.2586000000 6.1047000000 0.4859000000
0.2581000000 2.2495000000 0.9371000000
0.2578000000 2.1958000000 0.9190000000
0.2574000000 5.2059000000 0.7922000000
0.2572000000 2.0191000000 0.8556000000
0.2563000000 6.5074000000 0.3321000000
0.2561000000 5.8680000000 0.5679000000
0.2559000000 4.0052000000 1.2075000000
0.2555000000 5.5349000000 0.6737000000
0.2550000000 2.1328000000 0.8956000000
0.2549000000 5.6037000000 0.6573000000
0.2547000000 3.7832000000 1.2795000000
0.2545000000 1.3995000000 0.6383000000
0.2543000000 3.2243000000 1.2760000000
0.2542000000 5.6887000000 0.6234000000
0.2540000000 4.1831000000 1.1399000000
0.2539000000 0.8612000000 0.4564000000
0.2538000000 2.1814000000 0.9101000000
0.2535000000 1.6510000000 0.7277000000
0.2534000000 1.0058000000 0.5056000000
0.2533000000 3.5895000000 1.3490000000
0.2530000000 1.4848000000 0.6714000000
0.2529000000 1.4971000000 0.6777000000
0.2528000000 6.5023000000 0.3329000000
0.2525000000 4.1505000000 1.1536000000
0.2523000000 2.0961000000 0.8831000000
0.2520000000 6.1741000000 0.4566000000
0.2516000000 5.8085000000 0.5835000000
0.2514000000 5.8363000000 0.5812000000
0.2513000000 6.3993000000 0.3807000000
0.2511000000 4.8179000000 0.9198000000
0.2510000000 4.1075000000 1.1732000000
0.2508000000 1.9205000000 0.8166000000
0.2505000000 0.7779000000 0.4226000000
0.2503000000 4.6280000000 0.9841000000
0.2502000000 1.0510000000 0.5203000000
0.2500000000 0.5298000000 0.3319000000
0.2495000000 3.8062000000 1.2705000000
0.2492000000 2.4181000000 0.9895000000
0.2488000000 2.5811000000 1.0446000000
0.2485000000 6.8341000000 0.1491000000
0.2484000000 3.4545000000 1.3504000000
0.2480000000 4.1456000000 1.1543000000
0.2476000000 6.4682000000 0.3540000000
0.2469000000 0.4172000000 0.2871000000
0.2460000000 0.0172000000 0.0212000000
0.0130000000 4.2540000000 0.9780000000
0.0111000000 5.0125000000 0.7132000000
0.0103000000 6.6423000000 0.1488000000
0.0090000000 6.1974000000 0.3022000000
0.0088000000 5.6505000000 0.4898000000
0.0084000000 4.9272000000 0.7416000000
0.0083000000 6.4017000000 0.2379000000
0.0080000000 5.9416000000 0.3901000000
0.0076000000 4.5823000000 0.8620000000
0.0070000000 5.3956000000 0.5739000000
0.0069000000 1.2270000000 0.4349000000
0.0067000000 2.7594000000 0.9625000000
0.0064000000 1.7242000000 0.6130000000
0.0061000000 5.2873000000 0.6158000000
0.0058000000 4.9142000000 0.7406000000
0.0055000000 5.9431000000 0.3884000000
0.0055000000 0.6762000000 0.2467000000
0.0053000000 1.9217000000 0.6700000000
0.0052000000 6.6816000000 0.1338000000
0.0051000000 2.6924000000 0.9387000000
0.0048000000 3.4874000000 1.1996000000
0.0047000000 5.1558000000 0.6601000000
0.0045000000 5.1080000000 0.6791000000
0.0045000000 1.7800000000 0.6295000000
0.0044000000 4.9770000000 0.7219000000
0.0041000000 0.8403000000 0.2963000000
0.0040000000 0.5715000000 0.2081000000
0.0039000000 1.7082000000 0.6003000000
0.0037000000 3.3075000000 1.1470000000
0.0033000000 5.5206000000 0.5372000000
0.0031000000 3.5728000000 1.2046000000
0.0030000000 4.2915000000 0.9610000000
0.0029000000 1.9873000000 0.6991000000
0.0027000000 0.9386000000 0.3345000000
0.0025000000 0.5255000000 0.1894000000
0.0021000000 3.8927000000 1.0961000000
0.0018000000 6.7484000000 0.1066000000
0.0015000000 4.7236000000 0.8080000000
0.0012000000 1.0118000000 0.3574000000
0.0010000000 6.2898000000 0.2674000000
0.0008000000 6.2363000000 0.2780000000
0.0007000000 0.2105000000 0.0761000000
0.0005000000 4.8619000000 0.7569000000
0.0003000000 0.7443000000 0.2676000000
0.0002000000 0.2648000000 0.0951000000
-0.0002000000 1.1810000000 0.4151000000
-0.0004000000 5.9816000000 0.3708000000
-0.0005000000 1.8257000000 0.6344000000
-0.0011000000 6.4301000000 0.2175000000
-0.0014000000 3.1575000000 1.0940000000
-0.0017000000 6.0776000000 0.3353000000
-0.0021000000 0.4701000000 0.1704000000
-0.0026000000 1.0926000000 0.3897000000
-0.0029000000 0.5489000000 0.1909000000
-0.0031000000 0.0932000000 0.0333000000
-0.0040000000 0.2485000000 0.0862000000
-0.0049000000 4.8356000000 0.7677000000
-0.2382000000 5.3110000000 0.4567000000
-0.2387000000 4.8620000000 0.6131000000
-0.2407000000 5.6195000000 0.3520000000
-0.2411000000 2.4664000000 0.7114000000
-0.2412000000 4.6952000000 0.6718000000
-0.2414000000 2.4921000000 0.7220000000
-0.2416000000 4.5475000000 0.7221000000
-0.2419000000 5.6929000000 0.3299000000
-0.2422000000 5.1615000000 0.5054000000
-0.2425000000 2.1788000000 0.6167000000
-0.2426000000 0.5664000000 0.0614000000
-0.2427000000 4.8452000000 0.6149000000
-0.2429000000 4.7797000000 0.6453000000
-0.2430000000 1.0449000000 0.2242000000
-0.2434000000 1.9939000000 0.5465000000
-0.2436000000 2.9586000000 0.8874000000
-0.2438000000 4.1084000000 0.8722000000
-0.2440000000 3.4298000000 1.0532000000
-0.2445000000 2.0903000000 0.5814000000
-0.2447000000 3.4926000000 1.0546000000
-0.2450000000 0.1914000000 -0.0003000000
-0.2451000000 5.9883000000 0.2162000000
-0.2455000000 4.0212000000 0.8992000000
-0.2456000000 5.9678000000 0.2299000000
-0.2458000000 0.4433000000 0.0154000000
-0.2459000000 4.4161000000 0.7674000000
-0.2463000000 2.6474000000 0.7753000000
-0.2465000000 1.8368000000 0.4952000000
-0.2468000000 1.4888000000 0.3730000000
-0.2470000000 0.9463000000 0.1881000000
-0.2472000000 0.3974000000 0.0737000000
-0.2476000000 4.1146000000 0.8715000000
-0.2479000000 3.4292000000 1.0382000000
-0.2480000000 1.1153000000 0.2489000000
-0.2481000000 2.2567000000 0.6415000000
-0.2482000000 4.7761000000 0.6422000000
-0.2483000000 2.0527000000 0.5640000000
-0.2486000000 5.4787000000 0.3917000000
-0.2487000000 5.7735000000 0.2944000000
-0.2488000000 5.0630000000 0.5416000000
-0.2491000000 4.7460000000 0.6471000000
-0.2507000000 3.8795000000 0.9495000000
-0.2517000000 1.0806000000 0.2336000000
-0.2529000000 6.3277000000 0.1041000000
-0.2538000000 1.5306000000 0.3832000000
-0.4840000000 5.1742000000 0.3592000000
-0.4888000000 3.5611000000 0.9074000000
-0.4899000000 0.7539000000 0.0492000000
-0.4904000000 6.2527000000 0.0566000000
-0.4910000000 3.1239000000 0.7921000000
-0.4922000000 3.5989000000 0.8941000000
-0.4924000000 4.0916000000 0.7291000000
-0.4926000000 3.8994000000 0.7961000000
-0.4927000000 5.9872000000 0.0779000000
-0.4930000000 3.6562000000 0.8802000000
-0.4931000000 5.3627000000 0.2923000000
-0.4934000000 4.7189000000 0.5147000000
-0.4937000000 6.0802000000 0.0412000000
-0.4940000000 5.9262000000 0.0990000000
-0.4943000000 6.3666000000 0.0169000000
-0.4943000000 5.7131000000 0.1783000000
-0.4944000000 3.9057000000 0.7962000000
-0.4945000000 0.6299000000 0.0048000000
-0.4947000000 2.1849000000 0.4658000000
-0.4948000000 3.0471000000 0.7699000000
-0.4950000000 5.1669000000 0.3516000000
-0.4952000000 1.2820000000 0.1549000000
-0.4956000000 1.6196000000 0.2700000000
-0.4959000000 3.9725000000 0.7669000000
-0.4960000000 5.7021000000 0.1730000000
-0.4962000000 1.1362000000 0.1083000000
-0.4962000000 3.9461000000 0.7769000000
-0.4965000000 3.7679000000 0.8391000000
-0.4967000000 0.6872000000 0.0199000000
-0.4967000000 3.5800000000 0.9004000000
-0.4968000000 4.5850000000 0.5554000000
-0.4970000000 5.9677000000 0.0816000000
-0.4971000000 2.8660000000 0.7011000000
-0.4972000000 0.8848000000 0.0196000000
-0.4974000000 1.0250000000 0.0641000000
-0.4975000000 3.1846000000 0.8112000000
-0.4976000000 4.5840000000 0.5586000000
-0.4978000000 2.5093000000 0.5760000000
-0.4984000000 3.4893000000 0.9045000000
-0.4985000000 4.5963000000 0.5514000000
-0.4988000000 6.0257000000 0.0585000000
-0.4990000000 4.8580000000 0.4570000000
-0.4994000000 2.6486000000 0.6213000000
-0.4997000000 2.6515000000 0.6246000000
-0.4999000000 4.7753000000 0.4877000000
-0.5015000000 6.1537000000 0.0144000000
-0.5018000000 1.3426000000 0.1672000000
-0.5028000000 2.1517000000 0.4510000000
-0.7401000000 4.2402000000 0.5339000000
-0.7408000000 3.0168000000 0.6046000000
-0.7416000000 4.6186000000 0.3978000000
-0.7419000000 2.7697000000 0.5211000000
-0.7424000000 1.8944000000 0.2215000000
-0.7427000000 2.4776000000 0.4167000000
-0.7428000000 3.6816000000 0.7228000000
-0.7432000000 4.7627000000 0.3435000000
-0.7437000000 2.9312000000 0.5734000000
-0.7439000000 5.6303000000 0.0483000000
-0.7444000000 4.8206000000 0.3296000000
-0.7447000000 5.2183000000 0.1873000000
-0.7450000000 2.2002000000 0.3195000000
-0.7454000000 1.1572000000 0.0349000000
-0.7456000000 4.9087000000 0.2984000000
-0.7459000000 3.3121000000 0.7062000000
-0.7461000000 3.0984000000 0.6324000000
-0.7464000000 1.0830000000 0.0098000000
-0.7472000000 1.6137000000 0.1198000000
-0.7474000000 5.0395000000 0.2535000000
-0.7475000000 3.8523000000 0.6608000000
-0.7476000000 5.2530000000 0.1730000000
-0.7480000000 1.0958000000 0.0140000000
-0.7481000000 4.7686000000 0.3407000000
-0.7483000000 5.6000000000 0.0561000000
-0.7485000000 4.9812000000 0.2718000000
-0.7489000000 4.0163000000 0.6053000000
-0.7500000000 2.2688000000 0.3413000000
-0.7502000000 2.6910000000 0.4828000000
-0.7504000000 2.7682000000 0.5132000000
-0.7505000000 5.7056000000 0.0231000000
-0.7508000000 2.4572000000 0.4067000000
-0.7512000000 3.7124000000 0.7079000000
-0.7515000000 3.8315000000 0.6680000000
-0.7527000000 2.5997000000 0.4536000000
-0.7540000000 4.3778000000 0.4793000000
-0.7543000000 2.8752000000 0.5485000000
-0.9890000000 3.1222000000 0.4951000000
-0.9907000000 2.5606000000 0.3000000000
-0.9912000000 2.6159000000 0.3167000000
-0.9920000000 2.7115000000 0.3559000000
-0.9929000000 4.3111000000 0.3522000000
-0.9933000000 2.0780000000 0.1262000000
-0.9935000000 3.9715000000 0.4713000000
-0.9941000000 1.5008000000 0.0084000000
-0.9942000000 1.9323000000 0.0817000000
-0.9943000000 3.8969000000 0.4955000000
-0.9946000000 2.2045000000 0.1722000000
-0.9952000000 2.3997000000 0.2423000000
-0.9956000000 5.1857000000 0.0490000000
-0.9959000000 4.6014000000 0.2547000000
-0.9961000000 2.1527000000 0.1517000000
-0.9965000000 5.2737000000 0.0169000000
-0.9968000000 4.6928000000 0.2216000000
-0.9970000000 2.8319000000 0.3911000000
-0.9973000000 4.6543000000 0.2346000000
-0.9975000000 5.5271000000 0.0080000000
-0.9977000000 4.6502000000 0.2361000000
-0.9979000000 1.7502000000 0.0165000000
-0.9980000000 3.2354000000 0.5262000000
-0.9987000000 2.2227000000 0.1775000000
-0.9989000000 2.8742000000 0.4010000000
-0.9993000000 5.2247000000 0.0297000000
-0.9997000000 3.1586000000 0.5042000000
-1.0000000000 1.5278000000 0.0085000000
-1.0004000000 4.8696000000 0.1613000000
-1.0011000000 3.4628000000 0.6026000000
-1.0021000000 2.8517000000 0.3873000000
-1.2382000000 3.9193000000 0.3434000000
-1.2387000000 4.7286000000 0.0651000000
-1.2407000000 4.2155000000 0.2379000000
-1.2420000000 4.8387000000 0.0264000000
-1.2428000000 4.8449000000 0.0234000000
-1.2432000000 4.7658000000 0.0487000000
-1.2434000000 3.9129000000 0.3428000000
-1.2436000000 2.4621000000 0.1195000000
-1.2444000000 3.8002000000 0.3809000000
-1.2445000000 2.7465000000 0.2113000000
-1.2450000000 5.1008000000 0.0020000000
-1.2453000000 3.3742000000 0.4279000000
-1.2455000000 3.6033000000 0.4474000000
-1.2461000000 2.0978000000 0.0637000000
-1.2464000000 2.6343000000 0.1747000000
-1.2465000000 4.6634000000 0.0843000000
-1.2469000000 3.4365000000 0.4526000000
-1.2470000000 3.0429000000 0.3155000000
-1.2477000000 3.1694000000 0.3603000000
-1.2478000000 4.4086000000 0.1712000000
-1.2480000000 4.9699000000 0.0487000000
-1.2489000000 2.7403000000 0.2079000000
-1.2491000000 2.5646000000 0.1475000000
-1.2494000000 4.6850000000 0.0707000000
-1.2502000000 2.5270000000 0.1267000000
-1.2508000000 2.2387000000 0.0302000000
-1.2511000000 4.6855000000 0.0725000000
-1.2514000000 2.0487000000 0.0431000000
