5.2555000000 4.0980000000 0.8348000000
5.2550000000 5.1358000000 0.2936000000
5.2543000000 1.4397000000 0.0033000000
5.2539000000 3.0271000000 0.6720000000
5.2538000000 1.8561000000 0.0713000000
5.2535000000 5.2500000000 0.2385000000
5.2531000000 4.6451000000 0.5515000000
5.2529000000 5.8896000000 0.0619000000
5.2524000000 1.4576000000 0.0112000000
5.2516000000 4.2687000000 0.7476000000
5.2515000000 5.3915000000 0.1658000000
5.2511000000 2.4770000000 0.3967000000
5.2509000000 2.8845000000 0.6084000000
5.2505000000 3.5204000000 0.9375000000
5.2504000000 3.2202000000 0.7801000000
5.2497000000 5.8463000000 0.0865000000
5.2490000000 2.9089000000 0.6165000000
5.2488000000 5.8467000000 0.0855000000
5.2453000000 2.3941000000 0.3593000000
5.0140000000 5.6418000000 0.2521000000
5.0122000000 4.4494000000 0.8651000000
5.0115000000 3.4711000000 1.1235000000
5.0107000000 4.8785000000 0.6518000000
5.0103000000 2.3894000000 0.5665000000
5.0102000000 5.7136000000 0.2171000000
5.0098000000 3.6587000000 1.2173000000
5.0093000000 3.7538000000 1.2088000000
5.0083000000 3.8442000000 1.1834000000
5.0081000000 5.3545000000 0.4016000000
5.0078000000 3.1966000000 0.9811000000
5.0074000000 3.9578000000 1.1260000000
5.0070000000 1.2295000000 0.0491000000
5.0067000000 4.0111000000 1.0929000000
5.0065000000 1.9619000000 0.3451000000
5.0063000000 3.6551000000 1.2205000000
5.0061000000 2.3028000000 0.5197000000
5.0059000000 4.2371000000 0.9813000000
5.0055000000 4.9921000000 0.5957000000
5.0053000000 5.4530000000 0.3522000000
5.0052000000 2.8652000000 0.8108000000
5.0050000000 1.1844000000 0.0184000000
5.0048000000 1.5359000000 0.1330000000
5.0044000000 2.1224000000 0.4352000000
5.0041000000 2.5239000000 0.6427000000
5.0040000000 4.0871000000 1.0675000000
5.0037000000 6.1495000000 0.0666000000
5.0035000000 1.8821000000 0.3086000000
5.0034000000 1.9868000000 0.3618000000
5.0028000000 3.4650000000 1.1249000000
5.0033000000 2.6484000000 0.7087000000
5.0026000000 4.4641000000 0.8692000000
5.0023000000 1.5769000000 0.1509000000
5.0022000000 1.9059000000 0.3205000000
5.0020000000 2.7537000000 0.7548000000
5.0018000000 3.7807000000 1.2258000000
5.0002000000 2.6001000000 0.6806000000
4.9985000000 5.3511000000 0.4128000000
4.7624000000 1.9637000000 0.5669000000
4.7621000000 3.4906000000 1.3495000000
4.7620000000 6.0785000000 0.2561000000
4.7607000000 4.2522000000 1.2003000000
4.7605000000 5.0695000000 0.7783000000
4.7598000000 2.9273000000 1.0634000000
4.7588000000 6.3198000000 0.1336000000
4.7586000000 3.5829000000 1.4056000000
4.7580000000 2.8908000000 1.0538000000
4.7573000000 4.5879000000 1.0264000000
4.7570000000 6.5025000000 0.1111000000
4.7569000000 2.9555000000 1.0859000000
4.7565000000 2.9373000000 1.0764000000
4.7559000000 1.0848000000 0.1144000000
4.7555000000 4.9678000000 0.8253000000
4.7553000000 2.1730000000 0.6776000000
4.7552000000 6.3510000000 0.1151000000
4.7547000000 2.9996000000 1.1071000000
4.7544000000 0.8444000000 0.0710000000
4.7543000000 4.6216000000 1.0078000000
4.7542000000 4.2685000000 1.1927000000
4.7541000000 4.0752000000 1.2958000000
4.7540000000 3.2572000000 1.2445000000
4.7538000000 3.7554000000 1.4439000000
4.7538000000 4.4852000000 1.0852000000
4.7535000000 5.4907000000 0.5558000000
4.7533000000 1.1662000000 0.1606000000
4.7532000000 3.9423000000 1.3615000000
4.7527000000 1.4493000000 0.3115000000
4.7523000000 3.2281000000 1.2268000000
4.7521000000 3.7050000000 1.4626000000
4.7516000000 4.9309000000 0.8491000000
4.7514000000 5.5547000000 0.5328000000
4.7511000000 3.2492000000 1.2409000000
4.7509000000 5.1124000000 0.7590000000
4.7503000000 0.6777000000 0.0596000000
4.7501000000 2.3486000000 0.7712000000
4.7495000000 1.0069000000 0.0829000000
4.7491000000 1.4133000000 0.2886000000
4.7480000000 2.3159000000 0.7604000000
4.7473000000 0.7839000000 0.0461000000
4.5129000000 6.8211000000 0.0894000000
4.5116000000 5.0985000000 0.9800000000
4.5105000000 5.7372000000 0.6528000000
4.5104000000 7.1519000000 0.0659000000
4.5093000000 1.2099000000 0.4002000000
4.5089000000 3.6791000000 1.6674000000
4.5086000000 5.4551000000 0.7986000000
4.5085000000 4.0195000000 1.5416000000
4.5080000000 3.3304000000 1.5026000000
4.5076000000 2.9802000000 1.3233000000
4.5074000000 2.8929000000 1.2817000000
4.5073000000 4.0361000000 1.5326000000
4.5072000000 4.1185000000 1.4831000000
4.5070000000 6.4152000000 0.3061000000
4.5067000000 4.6800000000 1.1990000000
4.5066000000 6.3852000000 0.3224000000
4.5065000000 5.1559000000 0.9599000000
4.5063000000 6.8670000000 0.0744000000
4.5060000000 5.7404000000 0.6552000000
4.5059000000 3.3541000000 1.5163000000
4.5057000000 6.4552000000 0.2879000000
4.5057000000 4.5955000000 1.2441000000
4.5054000000 0.3751000000 0.0432000000
4.5053000000 4.0226000000 1.5436000000
4.5051000000 0.4739000000 0.1007000000
4.5049000000 4.0759000000 1.5155000000
4.5047000000 6.6100000000 0.2066000000
4.5044000000 4.9185000000 1.0735000000
4.5043000000 6.5906000000 0.2216000000
4.5042000000 5.0295000000 1.0238000000
4.5040000000 3.0652000000 1.3670000000
4.5038000000 1.9683000000 0.7977000000
4.5036000000 0.9994000000 0.2979000000
4.5035000000 3.3430000000 1.5127000000
4.5035000000 4.7105000000 1.1856000000
4.5032000000 4.6366000000 1.2236000000
4.5029000000 0.9998000000 0.2975000000
4.5026000000 2.0790000000 0.8586000000
4.5023000000 7.0502000000 0.0530000000
4.5021000000 4.8307000000 1.1282000000
4.5016000000 2.2801000000 0.9632000000
4.5013000000 4.3526000000 1.3786000000
4.5011000000 5.7886000000 0.6332000000
4.5010000000 3.5184000000 1.6051000000
4.5008000000 4.2658000000 1.4202000000
4.4998000000 3.5055000000 1.6002000000
4.4997000000 6.3910000000 0.3287000000
4.4981000000 2.5037000000 1.0819000000
4.4977000000 3.3142000000 1.4978000000
4.4974000000 3.6218000000 1.6606000000
4.4961000000 5.6396000000 0.7119000000
4.4941000000 4.4733000000 1.3185000000
4.2630000000 3.7404000000 1.8878000000
4.2617000000 4.4552000000 1.5326000000
4.2613000000 6.5516000000 0.4569000000
4.2605000000 0.6990000000 0.3615000000
4.2595000000 6.1697000000 0.6530000000
4.2592000000 5.4187000000 1.0435000000
4.2587000000 0.5591000000 0.2904000000
4.2583000000 4.6725000000 1.4247000000
4.2579000000 2.5988000000 1.3460000000
4.2578000000 5.1431000000 1.1858000000
4.2571000000 7.0955000000 0.1763000000
4.2570000000 5.6257000000 0.9398000000
4.2565000000 0.0063000000 0.0349000000
4.2565000000 7.1699000000 0.1359000000
4.2559000000 1.9363000000 0.9992000000
4.2558000000 3.1021000000 1.6031000000
4.2557000000 6.3595000000 0.5593000000
4.2556000000 7.0610000000 0.1951000000
4.2553000000 0.0091000000 0.0456000000
4.2552000000 5.3103000000 1.1014000000
4.2550000000 6.8380000000 0.3163000000
4.2548000000 6.3251000000 0.5773000000
4.2547000000 4.1459000000 1.7015000000
4.2545000000 6.5421000000 0.4698000000
4.2545000000 7.2364000000 0.1055000000
4.2542000000 5.7363000000 0.8821000000
4.2540000000 2.9756000000 1.5436000000
4.2538000000 1.3366000000 0.6922000000
4.2536000000 2.0665000000 1.0755000000
4.2534000000 5.5267000000 0.9902000000
4.2533000000 3.7608000000 1.8889000000
4.2531000000 3.5214000000 1.8325000000
4.2529000000 2.1713000000 1.1304000000
4.2528000000 6.6446000000 0.4193000000
4.2527000000 5.6682000000 0.9191000000
4.2524000000 5.6635000000 0.9207000000
4.2523000000 3.0030000000 1.5588000000
4.2520000000 5.9175000000 0.7856000000
4.2517000000 7.2223000000 0.1135000000
4.2515000000 5.0675000000 1.2258000000
4.2512000000 3.1062000000 1.6110000000
4.2505000000 1.1674000000 0.6130000000
4.2497000000 0.1250000000 0.1318000000
4.2491000000 2.2336000000 1.1616000000
4.2488000000 1.9023000000 0.9943000000
4.2483000000 5.1258000000 1.2020000000
4.2476000000 5.9532000000 0.7787000000
4.2474000000 0.5841000000 0.3140000000
4.2463000000 1.2162000000 0.6390000000
4.2430000000 2.2221000000 1.1645000000
4.0125000000 6.6411000000 0.6304000000
4.0116000000 6.6279000000 0.6345000000
4.0106000000 4.2730000000 1.8591000000
4.0101000000 7.1210000000 0.2962000000
4.0098000000 2.4320000000 1.4780000000
4.0095000000 0.3259000000 0.3100000000
4.0089000000 6.5469000000 0.6843000000
4.0086000000 6.8396000000 0.5280000000
4.0083000000 4.5156000000 1.7334000000
4.0078000000 4.0368000000 1.9783000000
4.0076000000 7.0253000000 0.3744000000
4.0074000000 7.1694000000 0.2497000000
4.0068000000 3.6314000000 2.1107000000
4.0065000000 5.9001000000 1.0210000000
4.0062000000 2.8209000000 1.6859000000
4.0061000000 5.5173000000 1.2191000000
4.0060000000 0.2171000000 0.1922000000
4.0058000000 5.0540000000 1.4546000000
4.0058000000 2.2579000000 1.4008000000
4.0056000000 1.7308000000 1.1199000000
4.0055000000 2.5031000000 1.5139000000
4.0052000000 0.9101000000 0.6995000000
4.0051000000 2.5337000000 1.5369000000
4.0048000000 2.5959000000 1.5708000000
4.0048000000 1.3419000000 0.9211000000
4.0045000000 0.0361000000 0.0870000000
4.0044000000 4.3907000000 1.8036000000
4.0043000000 6.0440000000 0.9459000000
4.0041000000 6.6295000000 0.6425000000
4.0039000000 1.6486000000 1.0789000000
4.0037000000 1.6819000000 1.0989000000
4.0035000000 3.4724000000 2.0224000000
4.0034000000 1.6303000000 1.0750000000
4.0033000000 4.7940000000 1.6003000000
4.0032000000 5.0567000000 1.4620000000
4.0028000000 5.9650000000 0.9891000000
4.0028000000 1.9516000000 1.2422000000
4.0026000000 5.4076000000 1.2781000000
4.0019000000 6.7693000000 0.5749000000
4.0017000000 4.0283000000 1.9917000000
4.0015000000 1.7302000000 1.1322000000
4.0013000000 7.4131000000 0.0649000000
4.0010000000 0.3147000000 0.2993000000
4.0008000000 2.0855000000 1.3106000000
4.0004000000 0.1563000000 0.1415000000
3.9999000000 1.1340000000 0.8182000000
3.9998000000 3.5815000000 2.0848000000
3.9995000000 0.5503000000 0.4990000000
3.9987000000 2.2750000000 1.4070000000
3.9979000000 1.1078000000 0.8122000000
3.9967000000 6.0056000000 0.9754000000
3.9946000000 5.0466000000 1.4699000000
3.7616000000 3.4424000000 2.2240000000
3.7614000000 7.1706000000 0.2498000000
3.7605000000 5.4294000000 1.4764000000
3.7600000000 0.6744000000 0.6691000000
3.7598000000 3.0041000000 1.9998000000
3.7595000000 5.0613000000 1.6704000000
3.7591000000 4.5015000000 1.9651000000
3.7589000000 7.2460000000 0.1624000000
3.7587000000 6.0020000000 1.1883000000
3.7584000000 3.0489000000 2.0221000000
3.7581000000 1.8369000000 1.3944000000
3.7580000000 4.0203000000 2.2159000000
3.7578000000 6.8179000000 0.6079000000
3.7576000000 3.7476000000 2.3401000000
3.7574000000 6.2567000000 1.0541000000
3.7572000000 7.3252000000 0.0842000000
3.7571000000 5.2047000000 1.6049000000
3.7568000000 0.0615000000 0.0347000000
3.7565000000 6.7274000000 0.7050000000
3.7565000000 5.8511000000 1.2688000000
3.7563000000 3.5965000000 2.3066000000
3.7563000000 3.2863000000 2.1465000000
3.7561000000 4.6048000000 1.9119000000
3.7561000000 0.4322000000 0.4205000000
3.7558000000 0.6189000000 0.6091000000
3.7554000000 4.3629000000 2.0381000000
3.7553000000 6.9216000000 0.5061000000
3.7548000000 2.5505000000 1.7738000000
3.7547000000 2.1096000000 1.5437000000
3.7545000000 0.4215000000 0.4069000000
3.7543000000 3.2436000000 2.1282000000
3.7542000000 4.8228000000 1.7964000000
3.7540000000 2.1017000000 1.5417000000
3.7536000000 1.7052000000 1.3385000000
3.7535000000 4.2545000000 2.0970000000
3.7534000000 6.2635000000 1.0567000000
3.7533000000 5.4415000000 1.4828000000
3.7532000000 4.0242000000 2.2156000000
3.7530000000 3.7835000000 2.3447000000
3.7529000000 1.5251000000 1.2475000000
3.7528000000 6.7205000000 0.7094000000
3.7524000000 2.2716000000 1.6282000000
3.7523000000 3.5097000000 2.2722000000
3.7520000000 6.4907000000 0.9340000000
3.7518000000 2.5160000000 1.7526000000
3.7518000000 3.9319000000 2.2636000000
3.7516000000 4.5612000000 1.9398000000
3.7515000000 7.0284000000 0.3896000000
3.7512000000 4.2009000000 2.1235000000
3.7513000000 0.5043000000 0.4947000000
3.7510000000 5.7373000000 1.3322000000
3.7506000000 3.9278000000 2.2703000000
3.7503000000 5.6305000000 1.3926000000
3.7502000000 5.4353000000 1.4940000000
3.7497000000 1.8816000000 1.4265000000
3.7493000000 5.1525000000 1.6315000000
3.7483000000 2.2504000000 1.6213000000
3.7479000000 0.0892000000 0.0626000000
3.7476000000 2.7212000000 1.8620000000
3.7468000000 4.0950000000 2.1853000000
3.7462000000 2.0620000000 1.5255000000
3.5173000000 1.2332000000 1.2454000000
3.5144000000 7.0624000000 0.3552000000
3.5111000000 4.9804000000 1.9354000000
3.5108000000 7.3811000000 0.0947000000
3.5098000000 6.4146000000 1.0283000000
3.5093000000 5.1271000000 1.8660000000
3.5083000000 5.4379000000 1.7029000000
3.5081000000 6.9538000000 0.4711000000
3.5078000000 6.4808000000 0.9562000000
3.5075000000 4.7125000000 2.0790000000
3.5075000000 4.8400000000 2.0174000000
3.5070000000 5.8212000000 1.5081000000
3.5067000000 7.0542000000 0.3624000000
3.5065000000 5.9143000000 1.4596000000
3.5063000000 5.9654000000 1.4260000000
3.5061000000 4.0682000000 2.4150000000
3.5058000000 6.3203000000 1.1291000000
3.5058000000 4.3847000000 2.2484000000
3.5053000000 1.5908000000 1.4967000000
3.5051000000 2.3877000000 1.9104000000
3.5048000000 2.0394000000 1.7352000000
3.5045000000 7.0569000000 0.3596000000
3.5043000000 1.1311000000 1.1470000000
3.5042000000 7.3801000000 0.1036000000
3.5041000000 3.6421000000 2.5641000000
3.5040000000 4.5049000000 2.1851000000
3.5039000000 1.6867000000 1.5488000000
3.5038000000 0.7844000000 0.7903000000
3.5037000000 1.2544000000 1.2593000000
3.5033000000 0.2950000000 0.2838000000
3.5033000000 1.6086000000 1.5145000000
3.5030000000 0.3484000000 0.3380000000
3.5028000000 1.4284000000 1.4048000000
3.5028000000 6.3496000000 1.0956000000
3.5026000000 0.9791000000 0.9888000000
3.5024000000 1.6029000000 1.4996000000
3.5020000000 7.3585000000 0.0475000000
3.5017000000 1.6459000000 1.5333000000
3.5015000000 5.8090000000 1.5185000000
3.5006000000 0.5966000000 0.5915000000
3.5002000000 2.6657000000 2.0600000000
3.4999000000 0.9102000000 0.9123000000
3.4998000000 3.6821000000 2.5709000000
3.4996000000 5.4723000000 1.6956000000
3.4990000000 4.9816000000 1.9470000000
3.4988000000 3.5013000000 2.4979000000
3.4987000000 3.3459000000 2.4166000000
3.4985000000 4.9764000000 1.9513000000
3.4970000000 7.2110000000 0.2037000000
3.4958000000 0.4761000000 0.4616000000
3.2623000000 3.1030000000 2.4968000000
3.2611000000 7.3478000000 0.0595000000
3.2598000000 3.0828000000 2.4910000000
3.2592000000 7.0496000000 0.3666000000
3.2591000000 7.0393000000 0.3827000000
3.2588000000 2.5298000000 2.2034000000
3.2585000000 0.6120000000 0.6070000000
3.2580000000 7.1501000000 0.2676000000
3.2577000000 7.3868000000 0.0966000000
3.2574000000 1.1949000000 1.2104000000
3.2572000000 3.8417000000 2.7562000000
3.2570000000 4.2747000000 2.5306000000
3.2568000000 5.3914000000 1.9508000000
3.2567000000 2.2535000000 2.0651000000
3.2565000000 3.4517000000 2.6785000000
3.2563000000 7.2544000000 0.1579000000
3.2562000000 6.6755000000 0.7549000000
3.2560000000 4.2320000000 2.5547000000
3.2558000000 3.8082000000 2.7696000000
3.2556000000 3.2428000000 2.5737000000
3.2555000000 6.3202000000 1.1240000000
3.2553000000 3.1559000000 2.5324000000
3.2550000000 5.2843000000 2.0062000000
3.2546000000 3.9925000000 2.6789000000
3.2545000000 3.4055000000 2.6638000000
3.2542000000 7.0482000000 0.3726000000
3.2540000000 3.8151000000 2.7724000000
3.2539000000 1.5257000000 1.5521000000
3.2538000000 1.5724000000 1.5986000000
3.2537000000 6.0046000000 1.4552000000
3.2536000000 2.9475000000 2.4264000000
3.2534000000 7.4519000000 0.0330000000
3.2533000000 3.1124000000 2.5118000000
3.2532000000 7.4090000000 0.0660000000
3.2528000000 3.3357000000 2.6247000000
3.2527000000 3.7423000000 2.7976000000
3.2525000000 1.8038000000 1.8233000000
3.2525000000 3.5189000000 2.7202000000
3.2523000000 5.0099000000 2.1546000000
3.2520000000 3.2288000000 2.5676000000
3.2519000000 2.1179000000 2.0024000000
3.2517000000 6.8419000000 0.5835000000
3.2515000000 6.2251000000 1.2219000000
3.2512000000 0.0568000000 0.1074000000
3.2509000000 2.9803000000 2.4451000000
3.2504000000 2.6743000000 2.2879000000
3.2498000000 5.9535000000 1.5041000000
3.2490000000 4.9939000000 2.1677000000
3.2476000000 0.1860000000 0.1657000000
3.2473000000 2.1399000000 2.0172000000
3.2463000000 3.4875000000 2.7088000000
3.0150000000 4.6259000000 2.5686000000
3.0121000000 7.3116000000 0.0999000000
3.0110000000 4.3888000000 2.6916000000
3.0108000000 1.5075000000 1.5310000000
3.0103000000 6.5635000000 0.8708000000
3.0096000000 5.0728000000 2.3420000000
3.0095000000 3.2591000000 2.8054000000
3.0088000000 3.8091000000 2.9956000000
3.0086000000 7.4591000000 0.0249000000
3.0084000000 4.8036000000 2.4851000000
3.0082000000 4.2642000000 2.7565000000
3.0081000000 3.3884000000 2.8701000000
3.0076000000 5.6384000000 1.8247000000
3.0074000000 6.3347000000 1.1094000000
3.0069000000 2.2408000000 2.2668000000
3.0066000000 3.5503000000 2.9566000000
3.0065000000 3.2890000000 2.8238000000
3.0061000000 6.9438000000 0.4841000000
3.0059000000 4.2980000000 2.7515000000
3.0058000000 1.6945000000 1.7259000000
3.0057000000 4.7540000000 2.5118000000
3.0053000000 2.9885000000 2.6767000000
3.0050000000 6.0651000000 1.3893000000
3.0048000000 3.7639000000 3.0109000000
3.0048000000 6.0965000000 1.3567000000
3.0045000000 0.5853000000 0.5815000000
3.0044000000 5.4915000000 1.9866000000
3.0042000000 1.1548000000 1.1624000000
3.0036000000 4.4538000000 2.6675000000
3.0035000000 1.9049000000 1.9454000000
3.0034000000 0.7403000000 0.7370000000
3.0032000000 3.4478000000 2.9066000000
3.0031000000 2.0520000000 2.0965000000
3.0028000000 7.1805000000 0.2354000000
3.0026000000 2.2683000000 2.2833000000
3.0024000000 0.1830000000 0.1624000000
3.0021000000 1.1828000000 1.1967000000
3.0020000000 3.8208000000 2.9973000000
3.0018000000 5.6083000000 1.8622000000
3.0016000000 4.0334000000 2.8886000000
3.0014000000 2.5501000000 2.4471000000
3.0012000000 4.3114000000 2.7475000000
3.0009000000 3.2117000000 2.7884000000
3.0008000000 6.0860000000 1.3664000000
3.0006000000 4.8781000000 2.4540000000
3.0002000000 1.0348000000 1.0452000000
3.0000000000 0.8617000000 0.8670000000
2.9997000000 5.6740000000 1.7922000000
2.9996000000 4.2621000000 2.7695000000
2.9985000000 1.1779000000 1.1879000000
2.9973000000 2.6760000000 2.5187000000
2.9968000000 4.0205000000 2.8973000000
2.9935000000 1.4947000000 1.5204000000
2.7629000000 7.0724000000 0.3456000000
2.7611000000 7.3987000000 0.0830000000
2.7605000000 6.5841000000 0.8500000000
2.7601000000 2.3090000000 2.3636000000
2.7596000000 6.8253000000 0.5991000000
2.7592000000 3.7328000000 3.2375000000
2.7590000000 5.2234000000 2.2608000000
2.7586000000 7.0148000000 0.4031000000
2.7584000000 7.2878000000 0.1194000000
2.7581000000 4.7193000000 2.7318000000
2.7576000000 5.3391000000 2.1447000000
2.7574000000 6.5866000000 0.8467000000
2.7572000000 4.8004000000 2.6768000000
2.7571000000 4.5332000000 2.8469000000
2.7567000000 7.1221000000 0.2964000000
2.7565000000 5.8701000000 1.5886000000
2.7563000000 4.8591000000 2.6195000000
2.7562000000 2.9723000000 2.8837000000
2.7560000000 5.1195000000 2.3696000000
2.7555000000 2.3773000000 2.4275000000
2.7552000000 6.5351000000 0.8987000000
2.7550000000 1.4557000000 1.4822000000
2.7550000000 4.0920000000 3.0747000000
2.7545000000 4.3976000000 2.9166000000
2.7545000000 6.7250000000 0.7006000000
2.7544000000 5.0906000000 2.3914000000
2.7542000000 2.6771000000 2.7204000000
2.7540000000 0.3950000000 0.3870000000
2.7538000000 5.7770000000 1.6883000000
2.7536000000 5.3087000000 2.1749000000
2.7536000000 4.0932000000 3.0785000000
2.7535000000 4.1891000000 3.0264000000
2.7532000000 3.9112000000 3.1725000000
2.7530000000 3.7576000000 3.2358000000
2.7528000000 5.6959000000 1.7718000000
2.7523000000 5.4536000000 2.0221000000
2.7522000000 5.2724000000 2.2051000000
2.7519000000 0.4018000000 0.3901000000
2.7518000000 0.9938000000 1.0008000000
2.7518000000 1.4807000000 1.5052000000
2.7516000000 3.7939000000 3.2323000000
2.7514000000 4.8491000000 2.6259000000
2.7511000000 3.1629000000 2.9827000000
2.7508000000 2.9666000000 2.8880000000
2.7505000000 0.1613000000 0.1397000000
2.7498000000 2.3590000000 2.4103000000
2.7496000000 1.9624000000 2.0046000000
2.7494000000 6.1757000000 1.2750000000
2.7491000000 3.3454000000 3.0889000000
2.7486000000 2.6869000000 2.7242000000
2.7483000000 0.9802000000 0.9930000000
2.7481000000 0.7538000000 0.7552000000
2.7463000000 0.9907000000 0.9934000000
2.7454000000 4.6080000000 2.8157000000
2.7440000000 0.5274000000 0.5172000000
2.5120000000 6.2477000000 1.1955000000
2.5105000000 6.3248000000 1.1229000000
2.5102000000 0.7382000000 0.7407000000
2.5099000000 6.0562000000 1.3979000000
2.5098000000 3.1816000000 3.2042000000
2.5095000000 3.0752000000 3.1284000000
2.5092000000 4.5646000000 2.9385000000
2.5087000000 3.8273000000 3.4297000000
2.5085000000 7.1130000000 0.3050000000
2.5081000000 5.0807000000 2.4057000000
2.5079000000 2.6490000000 2.7127000000
2.5076000000 5.0763000000 2.4070000000
2.5072000000 6.7471000000 0.6828000000
2.5069000000 4.9964000000 2.4922000000
2.5067000000 3.8352000000 3.4328000000
2.5064000000 7.2377000000 0.1743000000
2.5062000000 2.2698000000 2.3179000000
2.5061000000 5.4730000000 2.0034000000
2.5058000000 2.2050000000 2.2577000000
2.5056000000 7.4645000000 0.0853000000
2.5055000000 3.8853000000 3.4062000000
2.5053000000 1.8634000000 1.9022000000
2.5052000000 2.0977000000 2.1423000000
2.5050000000 3.1034000000 3.1615000000
2.5047000000 1.8328000000 1.8753000000
2.5046000000 5.6058000000 1.8640000000
2.5045000000 1.7683000000 1.8045000000
2.5044000000 3.4046000000 3.3378000000
2.5042000000 0.4023000000 0.3848000000
2.5042000000 4.7753000000 2.7239000000
2.5038000000 1.3122000000 1.3295000000
2.5036000000 1.0381000000 1.0470000000
2.5035000000 1.4240000000 1.4489000000
2.5034000000 4.7687000000 2.7281000000
2.5033000000 4.2323000000 3.2236000000
2.5030000000 3.1273000000 3.1760000000
2.5028000000 0.3772000000 0.3655000000
2.5024000000 5.8341000000 1.6324000000
2.5022000000 4.1877000000 3.2509000000
2.5019000000 3.1539000000 3.1903000000
2.5017000000 4.6051000000 2.8940000000
2.5015000000 0.6658000000 0.6650000000
2.5015000000 2.2259000000 2.2780000000
2.5010000000 3.6658000000 3.4638000000
2.5008000000 4.2300000000 3.2222000000
2.5002000000 4.5339000000 2.9698000000
2.4990000000 5.4507000000 2.0220000000
2.4982000000 0.7992000000 0.8052000000
2.4958000000 2.0073000000 2.0583000000
2.2601000000 5.7572000000 1.7032000000
2.2593000000 0.3220000000 0.3113000000
2.2592000000 3.1381000000 3.2220000000
2.2583000000 1.0607000000 1.0720000000
2.2580000000 6.6714000000 0.7581000000
2.2577000000 1.6097000000 1.6364000000
2.2575000000 5.9912000000 1.4633000000
2.2565000000 0.5744000000 0.5705000000
2.2563000000 5.9990000000 1.4561000000
2.2560000000 5.9687000000 1.4853000000
2.2559000000 6.9583000000 0.4626000000
2.2559000000 4.5329000000 2.9725000000
2.2558000000 1.1521000000 1.1716000000
2.2555000000 4.0201000000 3.5005000000
2.2552000000 4.1639000000 3.3578000000
2.2550000000 0.7625000000 0.7671000000
2.2547000000 0.0098000000 0.0625000000
2.2547000000 5.8646000000 1.5954000000
2.2544000000 0.3639000000 0.3536000000
2.2543000000 0.1380000000 0.1206000000
2.2542000000 3.2868000000 3.3748000000
2.2538000000 3.5978000000 3.6378000000
2.2538000000 3.6176000000 3.6566000000
2.2535000000 3.0961000000 3.1763000000
2.2531000000 5.5419000000 1.9275000000
2.2530000000 6.6684000000 0.7642000000
2.2526000000 3.1653000000 3.2461000000
2.2526000000 1.4201000000 1.4418000000
2.2525000000 4.5296000000 2.9727000000
2.2524000000 3.7734000000 3.6920000000
2.2522000000 0.9868000000 0.9927000000
2.2521000000 3.0414000000 3.1191000000
2.2520000000 4.4352000000 3.0716000000
2.2517000000 1.5046000000 1.5276000000
2.2516000000 2.7275000000 2.7967000000
2.2514000000 2.5405000000 2.6052000000
2.2513000000 1.3597000000 1.3782000000
2.2510000000 0.8581000000 0.8600000000
2.2508000000 7.2532000000 0.1564000000
2.2507000000 5.2868000000 2.1922000000
2.2506000000 3.9064000000 3.6059000000
2.2503000000 2.0307000000 2.0755000000
2.2503000000 0.1942000000 0.1755000000
2.2502000000 6.4853000000 0.9557000000
2.2501000000 1.1875000000 1.2055000000
2.2500000000 4.8283000000 2.6750000000
2.2495000000 5.9569000000 1.5018000000
2.2492000000 6.3887000000 1.0520000000
2.2487000000 3.5937000000 3.6368000000
2.2482000000 2.2019000000 2.2554000000
2.2462000000 1.4965000000 1.5244000000
2.2451000000 3.6013000000 3.6436000000
2.2440000000 0.2985000000 0.2762000000
2.0135000000 7.0541000000 0.3667000000
2.0120000000 7.3950000000 0.0928000000
2.0112000000 7.2236000000 0.1845000000
2.0105000000 3.4749000000 3.5516000000
2.0097000000 5.7743000000 1.6888000000
2.0090000000 2.6419000000 2.7032000000
2.0087000000 5.5889000000 1.8796000000
2.0083000000 7.4694000000 0.0816000000
2.0075000000 7.2125000000 0.2012000000
2.0073000000 7.4119000000 0.0697000000
2.0070000000 6.7189000000 0.7107000000
2.0068000000 4.9521000000 2.5333000000
2.0064000000 7.1800000000 0.2335000000
2.0061000000 0.2396000000 0.2227000000
2.0058000000 5.9860000000 1.4694000000
2.0056000000 1.8748000000 1.9171000000
2.0055000000 0.9419000000 0.9507000000
2.0051000000 4.7787000000 2.7192000000
2.0051000000 4.6783000000 2.8257000000
2.0049000000 6.7029000000 0.7308000000
2.0045000000 7.0935000000 0.3227000000
2.0042000000 3.6298000000 3.6464000000
2.0041000000 7.0152000000 0.4057000000
2.0038000000 1.1513000000 1.1617000000
2.0036000000 5.1954000000 2.2863000000
2.0032000000 2.6953000000 2.7662000000
2.0031000000 3.5516000000 3.5913000000
2.0028000000 0.8617000000 0.8677000000
2.0026000000 3.2608000000 3.3459000000
2.0024000000 4.2392000000 3.2758000000
2.0022000000 1.9732000000 2.0150000000
2.0018000000 7.4688000000 0.0856000000
2.0017000000 3.5827000000 3.6189000000
2.0016000000 4.9719000000 2.5161000000
2.0012000000 4.1860000000 3.3318000000
2.0010000000 4.5551000000 2.9465000000
2.0008000000 4.1103000000 3.4071000000
2.0001000000 2.2881000000 2.3427000000
1.9996000000 2.3626000000 2.4160000000
1.9995000000 2.4793000000 2.5384000000
1.9993000000 1.4602000000 1.4836000000
1.9988000000 2.4634000000 2.5177000000
1.9986000000 3.6504000000 3.6520000000
1.9984000000 2.9052000000 2.9814000000
1.9983000000 1.0028000000 1.0184000000
1.9973000000 0.1467000000 0.1293000000
1.9970000000 2.8608000000 2.9310000000
1.9909000000 0.8077000000 0.8114000000
1.7625000000 4.7295000000 2.7655000000
1.7609000000 0.9559000000 0.9604000000
1.7602000000 4.0608000000 3.2899000000
1.7598000000 5.2879000000 2.1927000000
1.7591000000 6.0882000000 1.3611000000
1.7588000000 2.8166000000 2.8923000000
1.7584000000 3.6153000000 3.4149000000
1.7582000000 4.2744000000 3.1806000000
1.7581000000 1.8411000000 1.8798000000
1.7577000000 6.0961000000 1.3510000000
1.7573000000 1.3079000000 1.3248000000
1.7570000000 0.5155000000 0.5091000000
1.7568000000 1.8512000000 1.8921000000
1.7565000000 4.8517000000 2.6431000000
1.7563000000 5.9496000000 1.5069000000
1.7562000000 5.6977000000 1.7668000000
1.7558000000 4.0137000000 3.3170000000
1.7556000000 6.6362000000 0.7993000000
1.7556000000 4.0565000000 3.2967000000
1.7555000000 1.8619000000 1.8988000000
1.7553000000 1.8863000000 1.9304000000
1.7552000000 2.7369000000 2.8058000000
1.7550000000 6.9040000000 0.5157000000
1.7548000000 6.5877000000 0.8505000000
1.7547000000 5.2157000000 2.2653000000
1.7546000000 5.4426000000 2.0310000000
1.7545000000 3.8878000000 3.3800000000
1.7543000000 0.6582000000 0.6576000000
1.7541000000 3.0834000000 3.1234000000
1.7540000000 1.1790000000 1.1906000000
1.7538000000 4.6757000000 2.8301000000
1.7536000000 4.1214000000 3.2580000000
1.7535000000 6.0063000000 1.4477000000
1.7533000000 3.6764000000 3.4277000000
1.7530000000 6.8829000000 0.5408000000
1.7529000000 4.1640000000 3.2351000000
1.7526000000 5.5152000000 1.9575000000
1.7522000000 5.4600000000 2.0109000000
1.7521000000 2.4911000000 2.5502000000
1.7520000000 2.2664000000 2.3200000000
1.7518000000 4.3114000000 3.1396000000
1.7517000000 6.6988000000 0.7333000000
1.7515000000 1.0630000000 1.0723000000
1.7513000000 2.6136000000 2.6765000000
1.7511000000 1.0445000000 1.0586000000
1.7508000000 2.1951000000 2.2410000000
1.7504000000 4.9592000000 2.5316000000
1.7498000000 5.0221000000 2.4683000000
1.7495000000 1.6446000000 1.6750000000
1.7494000000 1.3626000000 1.3798000000
1.7493000000 2.2381000000 2.2871000000
1.7488000000 2.4736000000 2.5287000000
1.7486000000 3.3378000000 3.2664000000
1.7475000000 2.3703000000 2.4243000000
1.5122000000 2.6775000000 2.6983000000
1.5118000000 5.5074000000 1.9656000000
1.5109000000 4.8250000000 2.6565000000
1.5104000000 5.5858000000 1.8772000000
1.5096000000 1.1486000000 1.1582000000
1.5092000000 3.4381000000 3.1020000000
1.5088000000 4.7206000000 2.7096000000
1.5084000000 6.6854000000 0.7474000000
1.5081000000 6.0056000000 1.4440000000
1.5078000000 3.0961000000 2.9236000000
1.5073000000 5.8999000000 1.5559000000
1.5072000000 4.3957000000 2.8957000000
1.5068000000 1.3035000000 1.3232000000
1.5067000000 1.9844000000 2.0270000000
1.5065000000 3.3464000000 3.0534000000
1.5063000000 6.2033000000 1.2441000000
1.5062000000 4.5844000000 2.7946000000
1.5061000000 1.6256000000 1.6536000000
1.5060000000 6.9858000000 0.4380000000
1.5059000000 5.0975000000 2.3864000000
1.5057000000 5.9190000000 1.5476000000
1.5054000000 3.1844000000 2.9706000000
1.5053000000 2.2815000000 2.3310000000
1.5050000000 0.5262000000 0.5128000000
1.5049000000 3.8014000000 3.1975000000
1.5048000000 3.3081000000 3.0294000000
1.5046000000 1.6503000000 1.6866000000
1.5044000000 6.2979000000 1.1438000000
1.5043000000 3.4540000000 3.1054000000
1.5042000000 1.3226000000 1.3495000000
1.5040000000 2.8399000000 2.7869000000
1.5036000000 0.4188000000 0.4074000000
1.5035000000 4.2705000000 2.9505000000
1.5033000000 6.9873000000 0.4350000000
1.5031000000 1.2584000000 1.2742000000
1.5029000000 3.2662000000 3.0077000000
1.5024000000 0.0198000000 0.0687000000
1.5023000000 0.4629000000 0.4561000000
1.5021000000 5.1661000000 2.3193000000
1.5020000000 0.9512000000 0.9588000000
1.5018000000 3.2518000000 2.9967000000
1.5015000000 0.6287000000 0.6278000000
1.5012000000 4.8914000000 2.5880000000
1.5006000000 1.2255000000 1.2377000000
1.5005000000 3.2584000000 3.0004000000
1.5001000000 0.9758000000 0.9850000000
1.4999000000 1.9234000000 1.9675000000
1.4997000000 3.6331000000 3.2007000000
1.4995000000 0.9875000000 0.9958000000
1.4990000000 1.6649000000 1.6997000000
1.4988000000 0.4460000000 0.4407000000
1.4977000000 4.3173000000 2.9342000000
1.4970000000 1.6550000000 1.6866000000
1.4962000000 2.1343000000 2.1812000000
1.2618000000 2.2531000000 2.2571000000
1.2616000000 7.3393000000 0.0720000000
1.2613000000 4.3723000000 2.6840000000
1.2601000000 4.3589000000 2.6974000000
1.2595000000 6.6144000000 0.8255000000
1.2590000000 5.6045000000 1.8599000000
1.2584000000 4.2690000000 2.7366000000
1.2582000000 1.7053000000 1.7370000000
1.2578000000 4.5710000000 2.5801000000
1.2576000000 7.3148000000 0.0961000000
1.2570000000 1.9717000000 2.0066000000
1.2569000000 2.0257000000 2.0723000000
1.2565000000 4.5772000000 2.5778000000
1.2564000000 3.8596000000 2.9479000000
1.2560000000 4.4841000000 2.6226000000
1.2558000000 5.4878000000 1.9830000000
1.2556000000 4.2057000000 2.7702000000
1.2555000000 6.9146000000 0.5085000000
1.2553000000 7.2464000000 0.1657000000
1.2552000000 5.0153000000 2.3512000000
1.2551000000 6.9102000000 0.5132000000
1.2550000000 2.5393000000 2.4079000000
1.2549000000 2.6837000000 2.4892000000
1.2548000000 2.4332000000 2.3578000000
1.2546000000 0.8270000000 0.8289000000
1.2545000000 5.9907000000 1.4614000000
1.2543000000 6.0289000000 1.4224000000
1.2541000000 4.8837000000 2.4133000000
1.2537000000 5.0439000000 2.3302000000
1.2535000000 2.6930000000 2.4894000000
1.2530000000 6.7354000000 0.6932000000
1.2528000000 5.2573000000 2.2068000000
1.2528000000 5.2219000000 2.2224000000
1.2525000000 5.1830000000 2.2376000000
1.2524000000 3.8803000000 2.9314000000
1.2519000000 1.6555000000 1.6812000000
1.2516000000 7.0321000000 0.3908000000
1.2513000000 5.4181000000 2.0572000000
1.2508000000 5.3630000000 2.1016000000
1.2506000000 6.7170000000 0.7160000000
1.2504000000 6.0640000000 1.3837000000
1.2501000000 0.7757000000 0.7796000000
1.2499000000 6.2895000000 1.1553000000
1.2498000000 0.8358000000 0.8358000000
1.2495000000 3.0762000000 2.6830000000
1.2480000000 3.1325000000 2.7139000000
1.2464000000 0.0380000000 0.0933000000
1.2444000000 2.6964000000 2.4821000000
1.0114000000 6.7264000000 0.7090000000
1.0110000000 4.9399000000 2.1682000000
1.0105000000 5.4542000000 1.9056000000
1.0104000000 2.9324000000 2.3924000000
1.0098000000 4.8871000000 2.1962000000
1.0093000000 7.2871000000 0.1155000000
1.0088000000 5.8454000000 1.6111000000
1.0082000000 5.7657000000 1.6776000000
1.0077000000 3.1673000000 2.5147000000
1.0075000000 6.8951000000 0.5301000000
1.0073000000 6.7277000000 0.7025000000
1.0069000000 5.3279000000 1.9685000000
1.0067000000 7.1486000000 0.2661000000
1.0065000000 5.2616000000 2.0019000000
1.0064000000 2.5203000000 2.1761000000
1.0061000000 5.5757000000 1.8292000000
1.0059000000 6.9237000000 0.4974000000
1.0056000000 1.4447000000 1.4687000000
1.0055000000 6.5459000000 0.8897000000
1.0053000000 5.4822000000 1.8854000000
1.0051000000 2.9641000000 2.4090000000
1.0050000000 4.7327000000 2.2674000000
1.0047000000 6.3301000000 1.1077000000
1.0045000000 2.9103000000 2.3800000000
1.0043000000 2.0529000000 1.9329000000
1.0042000000 3.9656000000 2.6704000000
1.0041000000 2.4454000000 2.1381000000
1.0040000000 0.2834000000 0.2720000000
1.0038000000 3.5908000000 2.7294000000
1.0037000000 0.2307000000 0.2112000000
1.0035000000 3.3571000000 2.6065000000
1.0033000000 2.6749000000 2.2574000000
1.0032000000 2.4391000000 2.1331000000
1.0028000000 1.2843000000 1.3030000000
1.0025000000 1.6708000000 1.6841000000
1.0022000000 5.2385000000 2.0059000000
1.0019000000 0.4610000000 0.4526000000
1.0018000000 4.2059000000 2.5476000000
1.0018000000 4.9314000000 2.1627000000
1.0014000000 1.4293000000 1.4498000000
1.0011000000 3.1247000000 2.4856000000
1.0005000000 4.8460000000 2.2077000000
1.0005000000 3.1590000000 2.5058000000
1.0003000000 3.5247000000 2.6893000000
1.0000000000 0.2231000000 0.1999000000
0.9997000000 4.8522000000 2.2044000000
0.9993000000 3.0671000000 2.4609000000
0.9991000000 1.8332000000 1.8059000000
0.9987000000 2.4294000000 2.1280000000
0.9985000000 5.2640000000 1.9883000000
0.9972000000 3.3269000000 2.5830000000
0.9959000000 1.9052000000 1.8471000000
0.9934000000 0.1653000000 0.1434000000
0.7619000000 6.8641000000 0.5572000000
0.7615000000 6.5449000000 0.8916000000
0.7609000000 6.3506000000 1.0929000000
0.7597000000 6.5128000000 0.9253000000
0.7591000000 2.2221000000 1.8009000000
0.7589000000 5.1790000000 1.8143000000
0.7588000000 1.2784000000 1.2816000000
0.7583000000 5.4505000000 1.6799000000
0.7581000000 5.0322000000 1.8984000000
0.7579000000 5.6762000000 1.5586000000
0.7577000000 0.9728000000 0.9742000000
0.7573000000 1.7743000000 1.5687000000
0.7570000000 5.5076000000 1.6465000000
0.7567000000 4.3821000000 2.2260000000
0.7566000000 5.4772000000 1.6673000000
0.7563000000 3.3050000000 2.3585000000
0.7561000000 2.5011000000 1.9400000000
0.7560000000 6.4944000000 0.9403000000
0.7558000000 6.6517000000 0.7790000000
0.7555000000 7.3014000000 0.1070000000
0.7551000000 4.5690000000 2.1353000000
0.7549000000 3.6330000000 2.5327000000
0.7548000000 4.6097000000 2.1088000000
0.7545000000 3.9244000000 2.4642000000
0.7543000000 3.8931000000 2.4795000000
0.7542000000 3.1985000000 2.3052000000
0.7540000000 4.8249000000 1.9981000000
0.7536000000 4.0348000000 2.4046000000
0.7534000000 5.5871000000 1.6051000000
0.7532000000 3.5774000000 2.4980000000
0.7529000000 0.0054000000 0.0613000000
0.7528000000 1.4063000000 1.3655000000
0.7523000000 4.9589000000 1.9271000000
0.7521000000 1.0588000000 1.0710000000
0.7520000000 0.4450000000 0.4368000000
0.7519000000 4.4415000000 2.1942000000
0.7517000000 1.7584000000 1.5581000000
0.7515000000 2.4221000000 1.9025000000
0.7513000000 5.3289000000 1.7335000000
0.7510000000 3.8241000000 2.5145000000
0.7509000000 0.3565000000 0.3474000000
0.7508000000 5.8882000000 1.4448000000
0.7506000000 2.4526000000 1.9102000000
0.7504000000 0.4797000000 0.4706000000
0.7501000000 2.2867000000 1.8250000000
0.7498000000 3.3556000000 2.3771000000
0.7497000000 5.3744000000 1.7135000000
0.7495000000 0.1894000000 0.1733000000
0.7492000000 0.9585000000 0.9722000000
0.7489000000 1.7245000000 1.5389000000
0.7486000000 3.5835000000 2.5069000000
0.7472000000 6.8065000000 0.6192000000
0.7442000000 3.3606000000 2.3795000000
0.5115000000 3.7401000000 2.3275000000
0.5102000000 4.0554000000 2.1777000000
0.5096000000 5.3171000000 1.5269000000
0.5095000000 5.9069000000 1.2196000000
0.5092000000 6.3847000000 0.9699000000
0.5089000000 5.3758000000 1.4937000000
0.5085000000 5.6682000000 1.3397000000
0.5081000000 0.4745000000 0.4620000000
0.5079000000 5.3524000000 1.5078000000
0.5077000000 3.6318000000 2.3095000000
0.5075000000 4.1008000000 2.1520000000
0.5074000000 0.2810000000 0.2661000000
0.5073000000 6.1215000000 1.1066000000
0.5071000000 2.6576000000 1.8026000000
0.5069000000 7.4236000000 0.0604000000
0.5068000000 4.7266000000 1.8283000000
0.5066000000 1.5042000000 1.2043000000
0.5062000000 7.4735000000 0.0805000000
0.5060000000 5.4640000000 1.4439000000
0.5058000000 0.4397000000 0.4273000000
0.5054000000 7.0193000000 0.4027000000
0.5053000000 4.6788000000 1.8484000000
0.5050000000 7.2306000000 0.1833000000
0.5047000000 0.9283000000 0.8937000000
0.5044000000 1.2825000000 1.0886000000
0.5040000000 6.6130000000 0.8045000000
0.5039000000 2.5898000000 1.7634000000
0.5036000000 3.7222000000 2.3291000000
0.5035000000 1.8571000000 1.3890000000
0.5033000000 2.8433000000 1.8946000000
0.5031000000 6.2324000000 1.0467000000
0.5030000000 3.7523000000 2.3166000000
0.5029000000 1.4025000000 1.1475000000
0.5028000000 3.9013000000 2.2523000000
0.5026000000 0.3638000000 0.3457000000
0.5025000000 5.2225000000 1.5679000000
0.5020000000 4.3808000000 1.9994000000
0.5018000000 3.2564000000 2.1054000000
0.5016000000 0.9511000000 0.8953000000
0.5015000000 6.0437000000 1.1428000000
0.5010000000 1.5240000000 1.2090000000
0.5008000000 0.0597000000 0.1123000000
0.5004000000 1.2223000000 1.0521000000
0.5003000000 6.2961000000 1.0154000000
0.5000000000 2.0011000000 1.4596000000
0.4996000000 1.7451000000 1.3265000000
0.4995000000 7.1167000000 0.2989000000
0.4993000000 1.1634000000 1.0275000000
0.4992000000 3.5342000000 2.2502000000
0.4990000000 3.0766000000 2.0069000000
0.4974000000 3.1983000000 2.0735000000
0.4959000000 1.1215000000 1.0002000000
0.2639000000 4.3960000000 1.7821000000
0.2608000000 5.3611000000 1.2782000000
0.2600000000 3.2690000000 1.9030000000
0.2595000000 4.5887000000 1.6764000000
0.2586000000 2.2487000000 1.3704000000
0.2579000000 2.2872000000 1.3858000000
0.2575000000 6.9409000000 0.4417000000
0.2573000000 3.5125000000 2.0214000000
0.2572000000 2.9311000000 1.7197000000
0.2570000000 7.1401000000 0.2794000000
0.2569000000 0.4974000000 0.4488000000
0.2566000000 1.7030000000 1.0907000000
0.2564000000 4.8114000000 1.5625000000
0.2560000000 7.3500000000 0.0564000000
0.2558000000 1.8122000000 1.1378000000
0.2557000000 7.0181000000 0.3850000000
0.2555000000 4.7593000000 1.5840000000
0.2554000000 6.4586000000 0.7034000000
0.2551000000 4.1251000000 1.9096000000
0.2550000000 5.6607000000 1.1178000000
0.2548000000 2.8287000000 1.6656000000
0.2545000000 7.4138000000 0.0683000000
0.2543000000 4.2263000000 1.8596000000
0.2541000000 2.0244000000 1.2480000000
0.2540000000 0.0286000000 0.0766000000
0.2537000000 6.3476000000 0.7620000000
0.2535000000 7.3301000000 0.0785000000
0.2533000000 7.1316000000 0.2882000000
0.2530000000 7.2714000000 0.1398000000
0.2529000000 5.5593000000 1.1684000000
0.2526000000 2.4881000000 1.4847000000
0.2524000000 4.7386000000 1.5918000000
0.2522000000 5.4624000000 1.2147000000
0.2520000000 5.4737000000 1.2102000000
0.2518000000 1.6089000000 1.0347000000
0.2515000000 4.7208000000 1.6046000000
0.2514000000 7.2393000000 0.1735000000
0.2512000000 4.2242000000 1.8588000000
0.2509000000 0.5074000000 0.4498000000
0.2508000000 5.7801000000 1.0480000000
0.2506000000 1.7288000000 1.0925000000
0.2504000000 4.2561000000 1.8407000000
0.2503000000 3.1557000000 1.8349000000
0.2500000000 0.8004000000 0.6105000000
0.2495000000 2.8510000000 1.6793000000
0.2492000000 1.1573000000 0.7989000000
0.2485000000 2.0589000000 1.2613000000
0.2482000000 4.4458000000 1.7428000000
0.2477000000 5.6699000000 1.1066000000
0.2465000000 1.4418000000 0.9421000000
0.2430000000 4.1798000000 1.8748000000
0.0103000000 4.9702000000 1.2543000000
0.0099000000 7.2653000000 0.0726000000
0.0089000000 6.4457000000 0.4966000000
0.0083000000 4.5296000000 1.4826000000
0.0075000000 6.2929000000 0.5714000000
0.0073000000 0.4275000000 0.2044000000
0.0070000000 2.4615000000 1.2572000000
0.0068000000 4.2829000000 1.6103000000
0.0066000000 5.8297000000 0.8037000000
0.0063000000 7.3332000000 0.0924000000
0.0061000000 7.0903000000 0.1605000000
0.0058000000 0.5668000000 0.2717000000
0.0056000000 2.3913000000 1.2050000000
0.0055000000 3.5962000000 1.8423000000
0.0053000000 5.7411000000 0.8538000000
0.0050000000 0.5919000000 0.2867000000
0.0050000000 3.7567000000 1.8631000000
0.0047000000 2.6241000000 1.3362000000
0.0043000000 1.0065000000 0.5015000000
0.0041000000 0.8189000000 0.4043000000
0.0039000000 4.1659000000 1.6637000000
0.0038000000 5.8011000000 0.8237000000
0.0036000000 1.0378000000 0.5176000000
0.0035000000 3.2115000000 1.6353000000
0.0033000000 5.4099000000 1.0209000000
0.0030000000 5.9347000000 0.7504000000
0.0029000000 5.3459000000 1.0545000000
0.0026000000 2.6085000000 1.3296000000
0.0025000000 0.4889000000 0.2304000000
0.0024000000 2.9926000000 1.5191000000
0.0021000000 4.1994000000 1.6482000000
0.0020000000 0.7506000000 0.3667000000
0.0017000000 5.0100000000 1.2304000000
0.0016000000 5.6234000000 0.9110000000
0.0012000000 1.0605000000 0.5164000000
0.0011000000 0.0624000000 0.0653000000
0.0007000000 0.6633000000 0.3185000000
0.0004000000 7.4200000000 0.0436000000
0.0002000000 4.0555000000 1.7248000000
0.0000000000 0.4949000000 0.2281000000
-0.0003000000 7.1348000000 0.1322000000
-0.0005000000 6.3077000000 0.5544000000
-0.0006000000 0.7916000000 0.3854000000
-0.0020000000 2.0839000000 1.0572000000
-0.0022000000 3.5153000000 1.7919000000
-0.0025000000 0.2973000000 0.1247000000
-0.0040000000 4.3496000000 1.5670000000
-0.2395000000 6.4722000000 0.2583000000
-0.2400000000 2.5909000000 1.0959000000
-0.2403000000 4.0868000000 1.4916000000
-0.2403000000 5.7820000000 0.6155000000
-0.2407000000 6.8091000000 0.0782000000
-0.2411000000 1.6166000000 0.5937000000
-0.2412000000 1.7147000000 0.6448000000
-0.2416000000 2.1240000000 0.8559000000
-0.2417000000 6.5627000000 0.2089000000
-0.2420000000 1.4075000000 0.4838000000
-0.2422000000 6.5902000000 0.1917000000
-0.2426000000 3.6070000000 1.6236000000
-0.2427000000 5.4406000000 0.7837000000
-0.2430000000 0.7321000000 0.1388000000
-0.2432000000 5.3800000000 0.8182000000
-0.2435000000 4.3011000000 1.3753000000
-0.2436000000 6.3550000000 0.3157000000
-0.2437000000 1.9710000000 0.7719000000
-0.2438000000 6.5330000000 0.2252000000
-0.2439000000 1.8461000000 0.7113000000
-0.2442000000 5.1201000000 0.9492000000
-0.2443000000 6.9450000000 0.0810000000
-0.2444000000 1.1380000000 0.3466000000
-0.2446000000 6.9255000000 0.0940000000
-0.2448000000 4.8167000000 1.1045000000
-0.2450000000 6.0225000000 0.4865000000
-0.2452000000 2.5108000000 1.0544000000
-0.2454000000 7.1452000000 0.0529000000
-0.2457000000 2.3778000000 0.9849000000
-0.2459000000 2.1729000000 0.8745000000
-0.2460000000 0.7499000000 0.1445000000
-0.2462000000 1.4439000000 0.5063000000
-0.2462000000 6.1414000000 0.4212000000
-0.2466000000 6.4433000000 0.2665000000
-0.2470000000 2.9283000000 1.2717000000
-0.2472000000 0.9684000000 0.2546000000
-0.2475000000 2.3066000000 0.9442000000
-0.2477000000 0.7399000000 0.1373000000
-0.2478000000 6.9610000000 0.0693000000
-0.2480000000 4.8847000000 1.0668000000
-0.2484000000 3.5363000000 1.5733000000
-0.2485000000 6.3303000000 0.3190000000
-0.2487000000 1.7172000000 0.6404000000
-0.2493000000 6.7205000000 0.1132000000
-0.2495000000 4.3726000000 1.3347000000
-0.2497000000 0.8061000000 0.1696000000
-0.2498000000 2.0346000000 0.8042000000
-0.2499000000 0.5065000000 0.0857000000
-0.2502000000 5.2445000000 0.8852000000
-0.2511000000 5.9456000000 0.5195000000
-0.2515000000 4.8263000000 1.0948000000
-0.2522000000 1.7421000000 0.6462000000
-0.2527000000 3.2219000000 1.4122000000
-0.2539000000 3.8909000000 1.5782000000
-0.2555000000 3.7978000000 1.6273000000
-0.4866000000 4.3299000000 1.1414000000
-0.4905000000 2.7638000000 0.9639000000
-0.4909000000 6.0567000000 0.2460000000
-0.4911000000 5.6230000000 0.4674000000
-0.4913000000 5.5117000000 0.5250000000
-0.4920000000 5.1428000000 0.7149000000
-0.4921000000 2.3974000000 0.7722000000
-0.4926000000 3.5601000000 1.3749000000
-0.4930000000 4.0613000000 1.2716000000
-0.4934000000 3.0762000000 1.1229000000
-0.4936000000 4.7630000000 0.9124000000
-0.4937000000 6.0870000000 0.2274000000
-0.4942000000 0.7055000000 0.0441000000
-0.4942000000 1.7669000000 0.4464000000
-0.4945000000 5.3680000000 0.5994000000
-0.4946000000 5.4258000000 0.5674000000
-0.4947000000 2.7112000000 0.9363000000
-0.4948000000 2.9362000000 1.0446000000
-0.4950000000 6.7961000000 0.0023000000
-0.4952000000 2.1128000000 0.6228000000
-0.4955000000 6.1226000000 0.2042000000
-0.4956000000 3.9986000000 1.3051000000
-0.4958000000 3.7993000000 1.4051000000
-0.4960000000 4.0257000000 1.2895000000
-0.4964000000 2.1123000000 0.6217000000
-0.4967000000 4.3837000000 1.1038000000
-0.4970000000 3.7571000000 1.4166000000
-0.4972000000 4.0822000000 1.2577000000
-0.4973000000 1.6462000000 0.3794000000
-0.4975000000 2.9495000000 1.0567000000
-0.4979000000 2.8932000000 1.0248000000
-0.4980000000 1.9642000000 0.5409000000
-0.4983000000 6.7971000000 0.0072000000
-0.4985000000 4.8465000000 0.8641000000
-0.4988000000 3.4717000000 1.3287000000
-0.4990000000 4.2445000000 1.1832000000
-0.4991000000 6.0602000000 0.2343000000
-0.4993000000 3.8089000000 1.4007000000
-0.5000000000 5.0130000000 0.7773000000
-0.5002000000 5.1972000000 0.6838000000
-0.5005000000 3.9553000000 1.3263000000
-0.5019000000 6.6774000000 0.0587000000
-0.7395000000 1.3635000000 0.0840000000
-0.7407000000 5.9643000000 0.0708000000
-0.7416000000 5.9726000000 0.0673000000
-0.7423000000 2.8185000000 0.7696000000
-0.7428000000 5.5636000000 0.2780000000
-0.7433000000 4.7923000000 0.6740000000
-0.7435000000 4.3735000000 0.8857000000
-0.7437000000 3.2216000000 0.9775000000
-0.7440000000 4.0171000000 1.0744000000
-0.7442000000 6.3503000000 0.0181000000
-0.7444000000 3.6351000000 1.1937000000
-0.7450000000 6.0177000000 0.1207000000
-0.7452000000 2.3805000000 0.5343000000
-0.7456000000 4.0208000000 1.0755000000
-0.7457000000 4.2174000000 0.9665000000
-0.7461000000 4.2659000000 0.9438000000
-0.7462000000 6.0280000000 0.1075000000
-0.7466000000 2.3258000000 0.5044000000
-0.7467000000 2.9917000000 0.8440000000
-0.7470000000 1.1651000000 0.0572000000
-0.7472000000 6.0642000000 0.0820000000
-0.7474000000 5.0380000000 0.5423000000
-0.7476000000 4.2012000000 0.9789000000
-0.7481000000 2.4734000000 0.5770000000
-0.7485000000 2.1596000000 0.4198000000
-0.7489000000 6.1150000000 0.0594000000
-0.7490000000 2.8157000000 0.7612000000
-0.7491000000 5.1088000000 0.4986000000
-0.7498000000 2.8874000000 0.7894000000
-0.7502000000 2.5710000000 0.6307000000
-0.7508000000 1.3729000000 0.0871000000
-0.7510000000 3.2334000000 0.9755000000
-0.7519000000 4.2313000000 0.9595000000
-0.7542000000 1.4745000000 0.0591000000
-0.9895000000 3.6535000000 0.9742000000
-0.9907000000 5.8952000000 0.0265000000
-0.9914000000 4.8971000000 0.4015000000
-0.9929000000 4.5318000000 0.5831000000
-0.9933000000 4.8793000000 0.4083000000
-0.9937000000 2.5212000000 0.3850000000
-0.9939000000 3.0260000000 0.6450000000
-0.9940000000 1.5987000000 0.0649000000
-0.9943000000 5.5676000000 0.0416000000
-0.9945000000 4.6138000000 0.5417000000
-0.9948000000 2.7178000000 0.4915000000
