3.2520000000 1.8878000000 0.7730000000
3.2518000000 5.2702000000 0.0469000000
3.2516000000 1.7852000000 0.7254000000
3.2515000000 3.3797000000 0.8660000000
3.2513000000 3.7689000000 0.6802000000
3.2512000000 4.3164000000 0.4258000000
3.2511000000 1.5669000000 0.6253000000
3.2509000000 0.7323000000 0.2320000000
3.2507000000 4.3875000000 0.3936000000
3.2506000000 0.7326000000 0.2334000000
3.2500000000 1.8456000000 0.7540000000
3.2500000000 4.1930000000 0.4864000000
3.2499000000 2.2885000000 0.9669000000
3.2497000000 2.6320000000 1.1238000000
3.2496000000 2.9228000000 1.0815000000
3.2496000000 1.7052000000 0.6911000000
3.2488000000 3.0230000000 1.0389000000
3.2485000000 1.7189000000 0.6930000000
3.2483000000 4.5365000000 0.3237000000
3.2482000000 1.2718000000 0.4845000000
3.2477000000 1.8979000000 0.7791000000
3.2477000000 3.0202000000 1.0331000000
3.2473000000 1.2218000000 0.4574000000
3.2472000000 3.0120000000 1.0390000000
3.2469000000 3.9726000000 0.5917000000
3.2465000000 3.3852000000 0.8683000000
3.2460000000 0.6058000000 0.1761000000
3.0110000000 4.3217000000 0.6168000000
3.0096000000 5.0526000000 0.2777000000
3.0093000000 0.5796000000 0.3530000000
3.0092000000 3.7820000000 0.8703000000
3.0090000000 1.7281000000 0.8972000000
3.0088000000 4.8604000000 0.3671000000
3.0086000000 5.4568000000 0.0513000000
3.0082000000 1.2117000000 0.6579000000
3.0081000000 5.1088000000 0.2391000000
3.0080000000 2.9263000000 1.2772000000
3.0079000000 4.0033000000 0.7646000000
3.0078000000 2.7945000000 1.3437000000
3.0076000000 3.7103000000 0.9088000000
3.0075000000 4.7965000000 0.4014000000
3.0073000000 0.1575000000 0.0985000000
3.0070000000 5.2233000000 0.1787000000
3.0067000000 5.3978000000 0.1001000000
3.0066000000 1.8112000000 0.9402000000
3.0067000000 2.1859000000 1.1088000000
3.0065000000 2.0282000000 1.0398000000
3.0064000000 4.2667000000 0.6468000000
3.0064000000 4.8061000000 0.3984000000
3.0063000000 1.9684000000 1.0136000000
3.0062000000 0.8744000000 0.4963000000
3.0061000000 5.1728000000 0.2038000000
3.0059000000 1.3575000000 0.7240000000
3.0059000000 3.4591000000 1.0250000000
3.0056000000 3.0348000000 1.2288000000
3.0055000000 5.0157000000 0.2934000000
3.0055000000 3.6999000000 0.9158000000
3.0055000000 1.7075000000 0.8892000000
3.0053000000 1.9071000000 0.9801000000
3.0052000000 1.0607000000 0.5834000000
3.0050000000 1.3252000000 0.7084000000
3.0050000000 3.4192000000 1.0497000000
3.0048000000 2.7362000000 1.3616000000
3.0048000000 2.8889000000 1.2956000000
3.0046000000 2.8829000000 1.2964000000
3.0045000000 1.0086000000 0.5591000000
3.0045000000 1.9727000000 1.0148000000
3.0041000000 0.8088000000 0.4686000000
3.0040000000 4.2789000000 0.6443000000
3.0038000000 3.3994000000 1.0616000000
3.0037000000 2.4675000000 1.2450000000
3.0037000000 4.9610000000 0.3278000000
3.0036000000 4.9936000000 0.3125000000
3.0033000000 2.1962000000 1.1200000000
3.0032000000 3.6924000000 0.9223000000
3.0031000000 0.4059000000 0.2836000000
3.0030000000 2.3710000000 1.2031000000
3.0028000000 2.0904000000 1.0654000000
3.0025000000 3.2192000000 1.1445000000
3.0024000000 4.1850000000 0.6926000000
3.0023000000 5.0411000000 0.2821000000
3.0020000000 2.0536000000 1.0532000000
3.0019000000 0.9873000000 0.5480000000
3.0019000000 4.6709000000 0.4614000000
3.0018000000 3.4599000000 1.0366000000
3.0017000000 3.6172000000 0.9556000000
3.0016000000 3.4619000000 1.0275000000
3.0016000000 2.5734000000 1.2993000000
3.0013000000 2.7528000000 1.3483000000
3.0011000000 2.2977000000 1.1649000000
3.0009000000 0.3184000000 0.2227000000
3.0007000000 0.1238000000 0.0839000000
3.0005000000 0.7492000000 0.4420000000
3.0003000000 1.7704000000 0.9264000000
3.0002000000 0.7564000000 0.4457000000
3.0001000000 1.5399000000 0.8120000000
3.0000000000 1.3534000000 0.7260000000
2.9999000000 0.3764000000 0.2587000000
2.9999000000 5.3108000000 0.1075000000
2.9995000000 0.1464000000 0.0938000000
2.9995000000 0.7217000000 0.4308000000
2.9994000000 3.5456000000 0.9948000000
2.9994000000 5.4226000000 0.0837000000
2.9988000000 0.1797000000 0.1155000000
2.9979000000 4.2153000000 0.6810000000
2.9970000000 0.7559000000 0.4487000000
2.9961000000 4.1478000000 0.7117000000
2.7635000000 4.7168000000 0.6245000000
2.7618000000 4.9836000000 0.4207000000
2.7605000000 3.0946000000 1.3953000000
2.7605000000 5.3987000000 0.0956000000
2.7603000000 5.2461000000 0.1692000000
2.7594000000 3.3776000000 1.2674000000
2.7583000000 4.9018000000 0.5007000000
2.7583000000 5.4811000000 0.0235000000
2.7581000000 1.6050000000 1.0398000000
2.7581000000 4.4170000000 0.7856000000
2.7579000000 4.4567000000 0.7606000000
2.7578000000 0.0572000000 0.0919000000
2.7577000000 3.7314000000 1.1018000000
2.7577000000 0.4448000000 0.3793000000
2.7575000000 4.5773000000 0.7076000000
2.7571000000 2.5002000000 1.4629000000
2.7571000000 0.4785000000 0.4116000000
2.7570000000 4.9181000000 0.4863000000
2.7567000000 0.8307000000 0.6727000000
2.7567000000 4.9804000000 0.4168000000
2.7566000000 4.5687000000 0.7111000000
2.7562000000 4.3210000000 0.8277000000
2.7561000000 1.1702000000 0.8403000000
2.7559000000 2.0047000000 1.2298000000
2.7557000000 4.7467000000 0.6142000000
2.7556000000 3.8512000000 1.0510000000
2.7563000000 4.8156000000 0.5569000000
2.7555000000 0.6986000000 0.6002000000
2.7555000000 1.9230000000 1.1958000000
2.7553000000 2.7456000000 1.5536000000
2.7553000000 4.7277000000 0.6216000000
2.7553000000 1.5082000000 1.0011000000
2.7551000000 4.3497000000 0.8092000000
2.7549000000 0.4170000000 0.3561000000
2.7549000000 2.2139000000 1.3338000000
2.7548000000 4.4962000000 0.7429000000
2.7548000000 4.3719000000 0.8049000000
2.7545000000 3.9473000000 1.0046000000
2.7547000000 0.3388000000 0.2820000000
2.7542000000 2.6757000000 1.5423000000
2.7543000000 0.5314000000 0.4649000000
2.7541000000 1.7338000000 1.0999000000
2.7541000000 3.1308000000 1.3858000000
2.7540000000 5.0140000000 0.3900000000
2.7540000000 2.4000000000 1.4167000000
2.7540000000 3.1669000000 1.3712000000
2.7539000000 3.4218000000 1.2543000000
2.7538000000 4.4096000000 0.7855000000
2.7535000000 0.8797000000 0.7018000000
2.7534000000 4.6974000000 0.6365000000
2.7534000000 2.8234000000 1.5360000000
2.7533000000 3.0335000000 1.4338000000
2.7531000000 2.5560000000 1.4938000000
2.7529000000 1.1940000000 0.8576000000
2.7529000000 3.3718000000 1.2785000000
2.7527000000 0.7414000000 0.6308000000
2.7525000000 2.5241000000 1.4748000000
2.7523000000 2.5308000000 1.4824000000
2.7523000000 0.9331000000 0.7242000000
2.7522000000 5.2651000000 0.1508000000
2.7522000000 4.6406000000 0.6757000000
2.7520000000 4.0040000000 0.9790000000
2.7519000000 2.1543000000 1.3083000000
2.7518000000 3.2368000000 1.3410000000
2.7517000000 3.7123000000 1.1130000000
2.7515000000 0.0214000000 0.0593000000
2.7514000000 1.5503000000 1.0235000000
2.7513000000 0.9510000000 0.7447000000
2.7513000000 0.9287000000 0.7276000000
2.7512000000 3.6184000000 1.1545000000
2.7511000000 0.5071000000 0.4388000000
2.7509000000 4.6584000000 0.6682000000
2.7506000000 2.0366000000 1.2529000000
2.7505000000 0.5494000000 0.4815000000
2.7501000000 0.0137000000 0.0544000000
2.7502000000 3.9281000000 1.0154000000
2.7500000000 2.9244000000 1.4901000000
2.7500000000 4.5961000000 0.7009000000
2.7499000000 3.5490000000 1.1951000000
2.7499000000 1.0612000000 0.7920000000
2.7498000000 1.2395000000 0.8731000000
2.7497000000 0.8421000000 0.6849000000
2.7497000000 3.2152000000 1.3525000000
2.7495000000 2.2490000000 1.3527000000
2.7493000000 0.8349000000 0.6860000000
2.7489000000 0.6275000000 0.5430000000
2.7488000000 1.7209000000 1.1013000000
2.7487000000 2.1239000000 1.2887000000
2.7481000000 3.1444000000 1.3839000000
2.7479000000 3.8261000000 1.0668000000
2.7459000000 4.0023000000 0.9874000000
2.7458000000 2.1480000000 1.3087000000
2.7445000000 0.1447000000 0.1031000000
2.7443000000 2.1072000000 1.2885000000
2.7436000000 0.1214000000 0.0749000000
2.5139000000 3.2852000000 1.5099000000
2.5123000000 4.2589000000 1.0422000000
2.5109000000 5.4716000000 0.0310000000
2.5106000000 4.2124000000 1.0779000000
2.5104000000 0.9378000000 0.8481000000
2.5100000000 3.6626000000 1.3376000000
2.5092000000 4.9658000000 0.4328000000
2.5084000000 0.0438000000 0.0768000000
2.5083000000 5.4125000000 0.0887000000
2.5081000000 3.2081000000 1.5533000000
2.5080000000 4.5517000000 0.8234000000
2.5077000000 1.8421000000 1.3564000000
2.5073000000 2.2151000000 1.5404000000
2.5072000000 2.8393000000 1.7320000000
2.5069000000 1.7556000000 1.3138000000
2.5068000000 5.3413000000 0.0774000000
2.5067000000 2.4615000000 1.6495000000
2.5063000000 0.3148000000 0.2621000000
2.5061000000 0.8323000000 0.7486000000
2.5058000000 0.9568000000 0.8643000000
2.5056000000 2.2315000000 1.5419000000
2.5056000000 4.7058000000 0.6787000000
2.5055000000 3.8600000000 1.2521000000
2.5053000000 2.8210000000 1.7341000000
2.5052000000 2.5380000000 1.6895000000
2.5052000000 4.6755000000 0.7099000000
2.5051000000 4.1103000000 1.1313000000
2.5051000000 0.2759000000 0.2281000000
2.5050000000 4.2389000000 1.0680000000
2.5048000000 0.5870000000 0.5146000000
2.5048000000 1.9735000000 1.4282000000
2.5048000000 3.2640000000 1.5320000000
2.5047000000 4.4937000000 0.8785000000
2.5045000000 3.4459000000 1.4463000000
2.5043000000 4.2247000000 1.0752000000
2.5040000000 1.3892000000 1.1435000000
2.5038000000 2.0410000000 1.4537000000
2.5038000000 2.2375000000 1.5467000000
2.5036000000 0.3974000000 0.3366000000
2.5034000000 3.9030000000 1.2320000000
2.5032000000 3.9990000000 1.1833000000
2.5030000000 1.4394000000 1.1754000000
2.5030000000 0.2922000000 0.2394000000
2.5029000000 1.6720000000 1.2842000000
2.5028000000 5.4573000000 0.0444000000
2.5028000000 1.1592000000 1.0262000000
2.5028000000 0.5164000000 0.4526000000
2.5026000000 5.1080000000 0.3031000000
2.5024000000 2.0168000000 1.4426000000
2.5023000000 2.4097000000 1.6379000000
2.5020000000 2.6789000000 1.7494000000
2.5018000000 2.3247000000 1.5957000000
2.5018000000 4.8747000000 0.5172000000
2.5017000000 2.8119000000 1.7465000000
2.5016000000 0.7343000000 0.6554000000
2.5016000000 4.4901000000 0.8787000000
2.5015000000 0.5623000000 0.4971000000
2.5015000000 0.2367000000 0.1846000000
2.5014000000 0.4475000000 0.3849000000
2.5013000000 3.4143000000 1.4570000000
2.5013000000 0.5052000000 0.4393000000
2.5010000000 3.3269000000 1.5056000000
2.5009000000 0.1897000000 0.1471000000
2.5007000000 4.0004000000 1.1893000000
2.5004000000 4.1832000000 1.0962000000
2.5003000000 2.3272000000 1.5972000000
2.5002000000 0.4819000000 0.4166000000
2.4998000000 0.1351000000 0.0876000000
2.4997000000 1.7538000000 1.3233000000
2.4997000000 4.0330000000 1.1769000000
2.4996000000 2.1033000000 1.4892000000
2.4994000000 3.0268000000 1.6467000000
2.4991000000 0.9215000000 0.8342000000
2.4988000000 2.0062000000 1.4385000000
2.4988000000 5.1396000000 0.2718000000
2.4979000000 0.8940000000 0.8049000000
2.4978000000 0.3515000000 0.2913000000
2.4968000000 1.1083000000 0.9860000000
2.4954000000 1.1573000000 1.0277000000
2.4942000000 0.5497000000 0.4801000000
2.4915000000 2.1788000000 1.5329000000
2.2622000000 5.3913000000 0.1122000000
2.2615000000 5.1279000000 0.2763000000
2.2613000000 2.8017000000 1.9500000000
2.2600000000 2.7592000000 1.9481000000
2.2595000000 3.8874000000 1.4261000000
2.2594000000 5.1416000000 0.2711000000
2.2588000000 2.1952000000 1.7314000000
2.2588000000 3.0243000000 1.8402000000
2.2577000000 3.6229000000 1.5673000000
2.2574000000 5.4855000000 0.0171000000
2.2572000000 2.9142000000 1.9010000000
2.2569000000 0.5821000000 0.5148000000
2.2563000000 4.7491000000 0.6356000000
2.2561000000 3.0699000000 1.8223000000
2.2560000000 3.7165000000 1.5242000000
2.2559000000 3.9833000000 1.3461000000
2.2559000000 2.4404000000 1.8451000000
2.2558000000 4.1777000000 1.1790000000
2.2557000000 0.7960000000 0.7150000000
2.2556000000 0.6146000000 0.5429000000
2.2555000000 1.5307000000 1.3869000000
2.2555000000 2.5200000000 1.8821000000
2.2554000000 2.9445000000 1.8877000000
2.2552000000 2.5944000000 1.9181000000
2.2550000000 1.9231000000 1.6023000000
2.2550000000 1.3636000000 1.2487000000
2.2548000000 3.4170000000 1.6646000000
2.2545000000 5.4360000000 0.0654000000
2.2541000000 4.0016000000 1.3287000000
2.2540000000 1.1867000000 1.0778000000
2.2540000000 4.2160000000 1.1400000000
2.2538000000 1.7035000000 1.4974000000
2.2538000000 4.0435000000 1.2999000000
2.2537000000 4.7630000000 0.6244000000
2.2535000000 4.1752000000 1.1822000000
2.2534000000 1.1456000000 1.0402000000
2.2533000000 0.4410000000 0.3772000000
2.2533000000 2.1796000000 1.7249000000
2.2531000000 0.0691000000 0.1019000000
2.2527000000 2.6988000000 1.9606000000
2.2529000000 1.0192000000 0.9269000000
2.2523000000 4.5527000000 0.8261000000
2.2523000000 3.2788000000 1.7308000000
2.2522000000 2.7773000000 1.9539000000
2.2523000000 1.2676000000 1.1562000000
2.2521000000 4.7927000000 0.6051000000
2.2520000000 1.1178000000 1.0165000000
2.2520000000 2.9892000000 1.8636000000
2.2520000000 1.4147000000 1.2914000000
2.2519000000 1.1084000000 1.0108000000
2.2518000000 3.3970000000 1.6693000000
2.2517000000 1.1877000000 1.0799000000
2.2517000000 5.3693000000 0.1328000000
2.2515000000 1.0088000000 0.9106000000
2.2515000000 0.5653000000 0.4910000000
2.2514000000 1.9996000000 1.6460000000
2.2512000000 1.8353000000 1.5668000000
2.2510000000 5.1951000000 0.2169000000
2.2510000000 1.5675000000 1.4202000000
2.2509000000 5.3202000000 0.0995000000
2.2506000000 3.4515000000 1.6499000000
2.2504000000 4.8151000000 0.5792000000
2.2504000000 0.5955000000 0.5182000000
2.2499000000 2.7746000000 1.9494000000
2.2498000000 2.2315000000 1.7534000000
2.2497000000 1.8649000000 1.5818000000
2.2495000000 0.0582000000 0.0885000000
2.2490000000 0.3723000000 0.3152000000
2.2481000000 0.4289000000 0.3639000000
2.2480000000 1.0793000000 0.9810000000
2.2480000000 1.1812000000 1.0763000000
2.2478000000 4.6856000000 0.6981000000
2.2476000000 0.7454000000 0.6610000000
2.2469000000 0.4703000000 0.4076000000
2.2468000000 4.0164000000 1.3263000000
2.2468000000 1.5256000000 1.3903000000
2.2468000000 0.3768000000 0.3186000000
2.2461000000 2.8339000000 1.9433000000
2.2451000000 1.2839000000 1.1743000000
2.2395000000 1.6419000000 1.4664000000
2.0136000000 4.9148000000 0.4815000000
2.0108000000 2.9628000000 2.0701000000
2.0095000000 4.0310000000 1.3103000000
2.0095000000 4.2047000000 1.1497000000
2.0093000000 3.5403000000 1.7607000000
2.0088000000 1.4449000000 1.3221000000
2.0086000000 1.4895000000 1.3704000000
2.0084000000 4.9819000000 0.4227000000
2.0081000000 4.1620000000 1.1908000000
2.0080000000 2.2910000000 1.9824000000
2.0074000000 2.6162000000 2.1270000000
2.0073000000 0.5271000000 0.4602000000
2.0073000000 3.3620000000 1.8828000000
2.0072000000 0.7982000000 0.7146000000
2.0070000000 4.8895000000 0.5034000000
2.0070000000 4.4381000000 0.9295000000
2.0066000000 2.0244000000 1.8388000000
2.0065000000 3.9371000000 1.4039000000
2.0065000000 1.6267000000 1.4942000000
2.0063000000 5.0107000000 0.3932000000
2.0058000000 4.0920000000 1.2547000000
2.0058000000 3.8370000000 1.4977000000
2.0057000000 1.2988000000 1.1903000000
2.0056000000 1.0952000000 0.9931000000
2.0053000000 2.2546000000 1.9604000000
2.0050000000 5.4086000000 0.0930000000
2.0051000000 3.2687000000 1.9388000000
2.0049000000 3.8759000000 1.4611000000
2.0048000000 1.0513000000 0.9492000000
2.0047000000 1.8216000000 1.6783000000
2.0044000000 4.8258000000 0.5687000000
2.0043000000 4.2991000000 1.0618000000
2.0042000000 0.2139000000 0.1627000000
2.0042000000 4.2277000000 1.1264000000
2.0041000000 2.6469000000 2.1502000000
2.0040000000 4.7827000000 0.6046000000
2.0039000000 1.8552000000 1.7056000000
2.0039000000 2.0498000000 1.8546000000
2.0038000000 1.6176000000 1.4863000000
2.0037000000 2.1108000000 1.8950000000
2.0036000000 3.5669000000 1.7412000000
2.0035000000 4.1847000000 1.1736000000
2.0034000000 0.3456000000 0.2876000000
2.0033000000 4.9866000000 0.4180000000
2.0031000000 0.6012000000 0.5313000000
2.0029000000 3.0378000000 2.0466000000
2.0029000000 5.2363000000 0.1823000000
2.0028000000 5.4369000000 0.0657000000
2.0026000000 1.2353000000 1.1302000000
2.0027000000 1.0899000000 0.9927000000
2.0025000000 2.5496000000 2.1057000000
2.0023000000 3.6954000000 1.6302000000
2.0021000000 5.2516000000 0.1641000000
2.0020000000 2.5222000000 2.0912000000
2.0019000000 1.9315000000 1.7705000000
2.0018000000 3.6361000000 1.6860000000
2.0016000000 3.0647000000 2.0330000000
2.0013000000 0.4595000000 0.3902000000
2.0013000000 4.8073000000 0.5879000000
2.0012000000 1.0919000000 0.9868000000
2.0008000000 0.1084000000 0.1428000000
2.0007000000 2.0337000000 1.8433000000
2.0007000000 2.1584000000 1.9252000000
2.0006000000 1.1332000000 1.0350000000
2.0005000000 1.6883000000 1.5517000000
2.0003000000 3.3943000000 1.8648000000
2.0003000000 2.2973000000 1.9872000000
2.0002000000 4.2224000000 1.1353000000
2.0001000000 1.1669000000 1.0576000000
2.0000000000 3.0690000000 2.0333000000
2.0000000000 0.5192000000 0.4481000000
1.9996000000 2.6002000000 2.1268000000
1.9995000000 2.1886000000 1.9412000000
1.9994000000 1.0869000000 0.9852000000
1.9991000000 0.3471000000 0.2863000000
1.9988000000 0.4332000000 0.3684000000
1.9983000000 5.1374000000 0.2662000000
1.9982000000 1.6520000000 1.5195000000
1.9981000000 0.7243000000 0.6444000000
1.9979000000 2.3560000000 2.0148000000
1.9979000000 1.9106000000 1.7521000000
1.9978000000 2.5863000000 2.1251000000
1.9978000000 2.8191000000 2.1524000000
1.9975000000 2.2269000000 1.9570000000
1.9975000000 2.6154000000 2.1374000000
1.9938000000 0.1667000000 0.1199000000
1.7627000000 3.3306000000 1.9707000000
1.7618000000 5.1974000000 0.2139000000
1.7613000000 4.7382000000 0.6495000000
1.7603000000 5.1196000000 0.2903000000
1.7602000000 4.9664000000 0.4247000000
1.7597000000 2.5445000000 2.2957000000
1.7592000000 4.0730000000 1.2738000000
1.7589000000 3.1958000000 2.1021000000
1.7587000000 5.3793000000 0.1191000000
1.7585000000 3.6144000000 1.7011000000
1.7585000000 2.8077000000 2.3542000000
1.7580000000 5.3882000000 0.1128000000
1.7575000000 3.6883000000 1.6358000000
1.7572000000 0.5587000000 0.4919000000
1.7572000000 2.9438000000 2.2784000000
1.7566000000 5.1388000000 0.2687000000
1.7564000000 2.4497000000 2.2404000000
1.7562000000 4.9602000000 0.4437000000
1.7561000000 1.7836000000 1.6423000000
1.7561000000 4.0469000000 1.2979000000
1.7559000000 4.4662000000 0.9008000000
1.7558000000 3.8773000000 1.4633000000
1.7558000000 4.8363000000 0.5596000000
1.7557000000 2.9430000000 2.2797000000
1.7557000000 3.9280000000 1.4106000000
1.7554000000 2.4829000000 2.2567000000
1.7554000000 2.0230000000 1.8706000000
1.7553000000 4.6791000000 0.7107000000
1.7553000000 4.2385000000 1.1190000000
1.7553000000 4.4501000000 0.9189000000
1.7552000000 3.9855000000 1.3567000000
1.7551000000 3.1340000000 2.1484000000
1.7550000000 2.7373000000 2.3668000000
1.7549000000 5.3070000000 0.1153000000
1.7548000000 1.5418000000 1.4110000000
1.7549000000 0.9632000000 0.8675000000
1.7548000000 4.9852000000 0.4145000000
1.7546000000 4.3659000000 0.9998000000
1.7546000000 4.4495000000 0.9172000000
1.7544000000 1.2424000000 1.1318000000
1.7540000000 0.7878000000 0.7024000000
1.7538000000 3.4284000000 1.8836000000
1.7537000000 2.1960000000 2.0323000000
1.7536000000 3.1412000000 2.1454000000
1.7537000000 0.6717000000 0.5952000000
1.7535000000 2.5861000000 2.3234000000
1.7535000000 2.3162000000 2.1367000000
1.7533000000 0.9077000000 0.8135000000
1.7533000000 1.9521000000 1.8049000000
1.7531000000 1.3092000000 1.1973000000
1.7531000000 0.6950000000 0.6200000000
1.7530000000 0.7136000000 0.6315000000
1.7530000000 3.8961000000 1.4409000000
1.7528000000 1.1922000000 1.0852000000
1.7527000000 2.1083000000 1.9474000000
1.7526000000 5.4701000000 0.0407000000
1.7525000000 1.9272000000 1.7737000000
1.7525000000 3.9512000000 1.3896000000
1.7524000000 0.9802000000 0.8864000000
1.7522000000 2.9629000000 2.2747000000
1.7521000000 4.9017000000 0.4927000000
1.7519000000 1.1551000000 1.0516000000
1.7519000000 1.5573000000 1.4244000000
1.7518000000 1.8343000000 1.6931000000
1.7518000000 2.0934000000 1.9357000000
1.7517000000 2.2061000000 2.0397000000
1.7512000000 1.0642000000 0.9615000000
1.7510000000 4.2531000000 1.1073000000
1.7510000000 0.1218000000 0.0786000000
1.7505000000 0.9482000000 0.8579000000
1.7505000000 3.6091000000 1.7112000000
1.7503000000 3.6728000000 1.6544000000
1.7501000000 4.2659000000 1.0961000000
1.7501000000 5.1221000000 0.2845000000
1.7500000000 1.0766000000 0.9776000000
1.7499000000 0.6053000000 0.5366000000
1.7497000000 0.6179000000 0.5401000000
1.7496000000 3.6597000000 1.6639000000
1.7494000000 1.5035000000 1.3767000000
1.7493000000 0.8894000000 0.8012000000
1.7477000000 4.8316000000 0.5600000000
1.7475000000 5.0898000000 0.3195000000
1.7473000000 1.3759000000 1.2634000000
1.7462000000 4.5306000000 0.8409000000
1.7460000000 1.8138000000 1.6735000000
1.7401000000 0.9037000000 0.8131000000
1.5106000000 3.3884000000 1.9187000000
1.5101000000 1.0491000000 0.9533000000
1.5095000000 5.0203000000 0.3796000000
1.5092000000 3.6970000000 1.6308000000
1.5089000000 0.2335000000 0.1832000000
1.5088000000 0.8618000000 0.7790000000
1.5084000000 5.3462000000 0.1466000000
1.5083000000 1.8559000000 1.7137000000
1.5076000000 2.4334000000 2.2533000000
1.5070000000 4.4959000000 0.8755000000
1.5070000000 0.0997000000 0.1312000000
1.5069000000 3.8108000000 1.5226000000
1.5068000000 3.7375000000 1.5875000000
1.5065000000 5.4241000000 0.0757000000
1.5060000000 2.5914000000 2.3896000000
1.5059000000 4.8277000000 0.5664000000
1.5059000000 3.1303000000 2.1625000000
1.5058000000 2.7284000000 2.4749000000
1.5057000000 5.1871000000 0.2296000000
1.5056000000 1.8128000000 1.6742000000
1.5054000000 4.1254000000 1.2237000000
1.5054000000 3.8890000000 1.4446000000
1.5053000000 3.2861000000 2.0089000000
1.5053000000 0.2157000000 0.1698000000
1.5052000000 3.2803000000 2.0195000000
1.5052000000 1.2248000000 1.1198000000
1.5050000000 1.4200000000 1.2977000000
1.5048000000 3.5161000000 1.7983000000
1.5046000000 4.8887000000 0.5088000000
1.5045000000 2.8235000000 2.4855000000
1.5042000000 3.6294000000 1.6913000000
1.5042000000 3.1348000000 2.1588000000
1.5040000000 1.3513000000 1.2377000000
1.5040000000 3.7887000000 1.5471000000
1.5039000000 4.5872000000 0.7919000000
1.5038000000 4.5645000000 0.8144000000
1.5038000000 4.0661000000 1.2834000000
1.5036000000 2.2885000000 2.1161000000
1.5033000000 5.2620000000 0.1609000000
1.5030000000 2.8058000000 2.4694000000
1.5029000000 4.5298000000 0.8490000000
1.5029000000 3.5108000000 1.8043000000
1.5028000000 4.9481000000 0.4501000000
1.5028000000 1.0379000000 0.9392000000
1.5027000000 2.5909000000 2.3808000000
1.5026000000 3.9810000000 1.3636000000
1.5025000000 4.4967000000 0.8741000000
1.5025000000 5.4362000000 0.0683000000
1.5025000000 3.6398000000 1.6887000000
1.5020000000 0.1827000000 0.1359000000
1.5019000000 4.0768000000 1.2692000000
1.5018000000 4.5725000000 0.8046000000
1.5018000000 0.5013000000 0.4364000000
1.5018000000 4.6375000000 0.7393000000
1.5017000000 1.4020000000 1.2785000000
1.5015000000 0.0902000000 0.1228000000
1.5015000000 4.2599000000 1.0970000000
1.5014000000 2.0785000000 1.9187000000
1.5013000000 3.7330000000 1.5933000000
1.5010000000 3.6293000000 1.6925000000
1.5009000000 4.0139000000 1.3301000000
1.5007000000 1.5368000000 1.4109000000
1.5006000000 4.8161000000 0.5753000000
1.5006000000 0.6215000000 0.5459000000
1.5004000000 0.2979000000 0.2430000000
1.5001000000 2.1032000000 1.9395000000
1.5000000000 2.4619000000 2.2818000000
1.4997000000 4.7039000000 0.6777000000
1.4995000000 0.2271000000 0.1763000000
1.4993000000 0.3391000000 0.2868000000
1.4992000000 1.3088000000 1.1958000000
1.4990000000 2.8029000000 2.4789000000
1.4985000000 1.1746000000 1.0677000000
1.4984000000 0.8878000000 0.7981000000
1.4983000000 1.2190000000 1.1126000000
1.4974000000 1.2356000000 1.1235000000
1.4964000000 1.9685000000 1.8131000000
1.4955000000 0.9125000000 0.8216000000
1.4952000000 1.3274000000 1.2108000000
1.4943000000 4.0338000000 1.3164000000
1.2616000000 3.7527000000 1.5756000000
1.2614000000 4.7980000000 0.5949000000
1.2609000000 4.5244000000 0.8486000000
1.2608000000 4.3390000000 1.0208000000
1.2600000000 2.2348000000 2.0277000000
1.2598000000 3.2909000000 2.0029000000
1.2597000000 3.3045000000 1.9845000000
1.2594000000 5.2973000000 0.1262000000
1.2593000000 0.9604000000 0.8712000000
1.2590000000 4.4474000000 0.9256000000
1.2582000000 4.3773000000 0.9895000000
1.2578000000 5.1685000000 0.2501000000
1.2576000000 3.4191000000 1.8900000000
1.2576000000 0.7018000000 0.6230000000
1.2573000000 3.7972000000 1.5380000000
1.2573000000 2.2990000000 2.0708000000
1.2570000000 3.6642000000 1.6603000000
1.2568000000 0.3500000000 0.2926000000
1.2568000000 3.6497000000 1.6681000000
1.2563000000 1.2500000000 1.1376000000
1.2563000000 4.4571000000 0.9139000000
1.2561000000 4.8364000000 0.5567000000
1.2560000000 5.3039000000 0.1223000000
1.2555000000 5.2903000000 0.1275000000
1.2555000000 4.2390000000 1.1157000000
1.2554000000 4.1320000000 1.2167000000
1.2551000000 5.1740000000 0.2382000000
1.2549000000 3.8567000000 1.4796000000
1.2548000000 2.9551000000 2.1725000000
1.2548000000 5.1205000000 0.2908000000
1.2545000000 1.8973000000 1.7484000000
1.2544000000 2.8210000000 2.2293000000
1.2543000000 4.1796000000 1.1803000000
1.2538000000 0.6724000000 0.5965000000
1.2537000000 1.3820000000 1.2665000000
1.2536000000 4.2805000000 1.0832000000
1.2534000000 0.1781000000 0.1315000000
1.2533000000 4.4719000000 0.8966000000
1.2533000000 5.0707000000 0.3342000000
1.2530000000 1.4661000000 1.3427000000
1.2530000000 3.3794000000 1.9188000000
1.2529000000 0.0008000000 0.0381000000
1.2526000000 1.6562000000 1.5263000000
1.2526000000 1.7277000000 1.5920000000
1.2525000000 0.5243000000 0.4524000000
1.2525000000 1.5389000000 1.4140000000
1.2521000000 3.2462000000 2.0177000000
1.2521000000 3.3310000000 1.9588000000
1.2520000000 3.7925000000 1.5394000000
1.2516000000 3.6427000000 1.6873000000
1.2514000000 2.9556000000 2.1672000000
1.2513000000 4.6628000000 0.7133000000
1.2513000000 2.8711000000 2.2088000000
1.2513000000 0.6357000000 0.5606000000
1.2509000000 0.4041000000 0.3378000000
1.2508000000 0.1833000000 0.1377000000
1.2508000000 0.3370000000 0.2831000000
1.2506000000 0.6626000000 0.5907000000
1.2505000000 3.0864000000 2.1039000000
1.2500000000 2.3654000000 2.0951000000
1.2497000000 1.3140000000 1.2028000000
1.2497000000 0.6772000000 0.5970000000
1.2494000000 0.1447000000 0.0952000000
1.2490000000 2.7385000000 2.2512000000
1.2489000000 3.6880000000 1.6412000000
1.2487000000 1.7371000000 1.5975000000
1.2483000000 1.5806000000 1.4495000000
1.2481000000 3.5098000000 1.8004000000
1.2477000000 2.6044000000 2.2105000000
1.2474000000 0.3508000000 0.2923000000
1.2473000000 5.2246000000 0.1892000000
1.2470000000 0.3111000000 0.2542000000
1.2452000000 0.5954000000 0.5242000000
1.2427000000 0.3610000000 0.2982000000
1.0135000000 4.8874000000 0.5146000000
1.0110000000 4.5612000000 0.8118000000
1.0101000000 3.1405000000 1.8823000000
1.0099000000 5.3709000000 0.1288000000
1.0097000000 4.9694000000 0.4319000000
1.0089000000 4.5825000000 0.7919000000
1.0085000000 5.4142000000 0.0847000000
1.0082000000 5.0792000000 0.3288000000
1.0080000000 1.6220000000 1.4895000000
1.0080000000 2.1949000000 1.8177000000
1.0078000000 3.9179000000 1.4219000000
1.0073000000 4.9456000000 0.4534000000
1.0072000000 4.5304000000 0.8441000000
1.0071000000 1.9190000000 1.6869000000
1.0071000000 5.3318000000 0.0919000000
1.0070000000 1.6465000000 1.4952000000
1.0067000000 2.9860000000 1.9525000000
1.0066000000 0.5444000000 0.4745000000
1.0063000000 5.1460000000 0.2637000000
1.0062000000 5.1873000000 0.2268000000
1.0061000000 3.0570000000 1.9154000000
1.0056000000 2.6555000000 2.0358000000
1.0055000000 5.4246000000 0.0795000000
1.0053000000 0.8775000000 0.7906000000
1.0052000000 0.0817000000 0.1168000000
1.0052000000 4.2530000000 1.1019000000
1.0050000000 1.6202000000 1.4914000000
1.0049000000 0.1151000000 0.1488000000
1.0049000000 4.5196000000 0.8573000000
1.0050000000 2.1614000000 1.8014000000
1.0047000000 0.2388000000 0.1891000000
1.0047000000 4.2841000000 1.0801000000
1.0046000000 0.0131000000 0.0481000000
1.0045000000 3.0532000000 1.9229000000
1.0041000000 5.2772000000 0.1415000000
1.0041000000 2.4246000000 1.9208000000
1.0040000000 3.5972000000 1.6591000000
1.0040000000 5.3044000000 0.1192000000
1.0039000000 2.6486000000 2.0221000000
1.0038000000 4.0700000000 1.2799000000
1.0037000000 2.6961000000 2.0347000000
1.0037000000 3.8868000000 1.4541000000
1.0035000000 0.0016000000 0.0383000000
1.0034000000 5.3015000000 0.1103000000
1.0033000000 0.5365000000 0.4692000000
1.0030000000 4.9118000000 0.4828000000
1.0030000000 1.7247000000 1.5735000000
1.0029000000 1.5623000000 1.4290000000
1.0028000000 1.8940000000 1.6732000000
1.0026000000 0.2761000000 0.2211000000
1.0025000000 4.8729000000 0.5132000000
1.0023000000 3.9352000000 1.3994000000
1.0022000000 4.8777000000 0.5198000000
1.0021000000 4.6254000000 0.7539000000
1.0020000000 0.8895000000 0.7999000000
1.0019000000 4.7796000000 0.6095000000
1.0019000000 0.6308000000 0.5538000000
1.0018000000 4.9193000000 0.4789000000
1.0016000000 0.0544000000 0.0866000000
1.0016000000 3.3062000000 1.7939000000
1.0014000000 3.0105000000 1.9350000000
1.0013000000 0.7993000000 0.7106000000
1.0013000000 4.2503000000 1.1047000000
1.0010000000 5.0056000000 0.3979000000
1.0007000000 5.0423000000 0.3623000000
1.0006000000 1.5882000000 1.4569000000
1.0005000000 0.1753000000 0.1282000000
1.0002000000 0.8446000000 0.7592000000
1.0001000000 2.9202000000 1.9779000000
1.0000000000 2.3260000000 1.8684000000
1.0000000000 0.0959000000 0.1314000000
1.0001000000 3.5088000000 1.6966000000
0.9998000000 1.1761000000 1.0691000000
0.9997000000 2.3558000000 1.8888000000
0.9995000000 0.6880000000 0.6121000000
0.9995000000 4.7201000000 0.6702000000
0.9994000000 1.2517000000 1.1377000000
0.9993000000 1.5859000000 1.4570000000
0.9993000000 4.7632000000 0.6264000000
0.9992000000 0.6106000000 0.5414000000
0.9990000000 1.8941000000 1.6727000000
0.9985000000 0.5671000000 0.4968000000
0.9982000000 2.3534000000 1.8889000000
0.9982000000 1.6530000000 1.5054000000
0.9974000000 1.5330000000 1.3978000000
0.9973000000 2.7735000000 2.0253000000
0.9971000000 2.0476000000 1.7387000000
0.9970000000 0.6081000000 0.5328000000
0.9944000000 1.9924000000 1.7106000000
0.9935000000 5.0579000000 0.3530000000
0.7650000000 4.9235000000 0.4668000000
0.7628000000 3.1265000000 1.6841000000
0.7612000000 0.4024000000 0.3407000000
0.7603000000 4.0791000000 1.2229000000
0.7601000000 0.7134000000 0.6419000000
0.7598000000 5.0112000000 0.3979000000
0.7593000000 1.4284000000 1.2581000000
0.7588000000 0.7646000000 0.6826000000
0.7585000000 4.2225000000 1.1203000000
0.7584000000 4.8215000000 0.5702000000
0.7583000000 5.3737000000 0.1279000000
0.7584000000 3.2414000000 1.6324000000
0.7582000000 3.0107000000 1.7322000000
0.7581000000 1.5696000000 1.3219000000
0.7579000000 4.4769000000 0.8922000000
0.7577000000 3.8594000000 1.3370000000
0.7576000000 3.8336000000 1.3475000000
0.7570000000 5.1384000000 0.2760000000
0.7565000000 3.4390000000 1.5365000000
0.7564000000 1.0345000000 0.9391000000
0.7563000000 0.5010000000 0.4330000000
0.7561000000 2.6817000000 1.8314000000
0.7559000000 3.1209000000 1.6871000000
0.7558000000 4.9508000000 0.4500000000
0.7556000000 1.3101000000 1.1851000000
0.7555000000 0.1824000000 0.1367000000
0.7555000000 3.2743000000 1.6207000000
0.7554000000 4.4665000000 0.9003000000
0.7552000000 3.4451000000 1.5251000000
0.7548000000 1.4875000000 1.2733000000
0.7548000000 2.9475000000 1.7681000000
0.7547000000 3.5722000000 1.4748000000
0.7545000000 2.8192000000 1.8208000000
0.7545000000 5.0568000000 0.3483000000
0.7539000000 4.9172000000 0.4767000000
0.7538000000 4.0143000000 1.2618000000
0.7538000000 1.5493000000 1.3093000000
0.7537000000 0.4441000000 0.3832000000
0.7535000000 5.4036000000 0.0999000000
0.7533000000 1.0138000000 0.9145000000
0.7535000000 4.4845000000 0.8867000000
0.7532000000 3.5538000000 1.4739000000
0.7532000000 4.6226000000 0.7596000000
0.7531000000 3.3839000000 1.5565000000
0.7530000000 2.0939000000 1.5623000000
0.7529000000 0.0371000000 0.0720000000
0.7527000000 3.8885000000 1.3216000000
0.7525000000 0.4482000000 0.3790000000
0.7523000000 1.2478000000 1.1271000000
0.7522000000 1.0991000000 0.9972000000
0.7520000000 2.4038000000 1.7103000000
0.7517000000 5.0910000000 0.3106000000
0.7516000000 2.7874000000 1.8336000000
0.7513000000 0.7947000000 0.7149000000
0.7510000000 1.4308000000 1.2479000000
0.7510000000 4.7693000000 0.6126000000
0.7508000000 0.3471000000 0.2866000000
0.7499000000 3.4029000000 1.5446000000
0.7498000000 1.0894000000 0.9910000000
0.7494000000 2.7097000000 1.8312000000
0.7494000000 5.2490000000 0.1682000000
0.7488000000 2.1634000000 1.5896000000
0.7488000000 0.2907000000 0.2385000000
0.7486000000 1.2682000000 1.1393000000
0.7486000000 1.1335000000 1.0295000000
0.7484000000 0.7556000000 0.6751000000
0.7483000000 1.4437000000 1.2526000000
0.7477000000 1.0391000000 0.9368000000
0.7473000000 2.3806000000 1.6901000000
0.5135000000 0.8462000000 0.7408000000
0.5115000000 1.9594000000 1.3064000000
0.5099000000 3.5937000000 1.2559000000
0.5098000000 3.7719000000 1.1770000000
0.5095000000 0.1339000000 0.0922000000
0.5092000000 5.4264000000 0.0748000000
0.5086000000 0.7660000000 0.6824000000
0.5085000000 2.7998000000 1.6303000000
0.5078000000 1.1437000000 0.9177000000
0.5078000000 1.4804000000 1.0736000000
0.5076000000 5.2026000000 0.2131000000
0.5075000000 4.7158000000 0.6697000000
0.5075000000 4.8850000000 0.5134000000
0.5068000000 1.4329000000 1.0429000000
0.5065000000 5.1294000000 0.2789000000
0.5064000000 1.0721000000 0.8774000000
0.5063000000 1.9940000000 1.3174000000
0.5062000000 2.5232000000 1.5662000000
0.5060000000 1.9568000000 1.2999000000
0.5058000000 3.2100000000 1.4398000000
0.5057000000 3.4672000000 1.3138000000
0.5057000000 4.7354000000 0.6553000000
0.5056000000 1.5686000000 1.1146000000
0.5055000000 1.9012000000 1.2692000000
0.5050000000 0.4896000000 0.4241000000
0.5050000000 1.0715000000 0.8795000000
0.5049000000 4.2627000000 0.9406000000
0.5047000000 2.2720000000 1.4414000000
0.5044000000 0.5550000000 0.4812000000
0.5043000000 0.9278000000 0.7981000000
0.5043000000 4.3685000000 0.8902000000
0.5041000000 4.7519000000 0.6398000000
0.5036000000 4.1011000000 1.0194000000
0.5035000000 1.8280000000 1.2315000000
0.5033000000 3.2156000000 1.4390000000
0.5032000000 2.7175000000 1.6404000000
0.5030000000 0.1217000000 0.0679000000
0.5029000000 2.7781000000 1.6222000000
0.5028000000 5.2540000000 0.1626000000
0.5028000000 2.2111000000 1.4144000000
0.5025000000 2.9302000000 1.5734000000
0.5025000000 0.0737000000 0.1070000000
0.5024000000 1.3900000000 1.0342000000
0.5023000000 3.9338000000 1.0940000000
0.5022000000 5.0404000000 0.3658000000
0.5021000000 0.6982000000 0.6189000000
0.5020000000 2.4581000000 1.5327000000
0.5019000000 0.1442000000 0.1001000000
0.5018000000 1.1692000000 0.9277000000
0.5016000000 1.0689000000 0.8712000000
0.5015000000 2.7901000000 1.6285000000
0.5014000000 4.4476000000 0.8483000000
0.5013000000 0.5488000000 0.4775000000
0.5012000000 4.9423000000 0.4545000000
0.5012000000 4.7326000000 0.6532000000
0.5011000000 3.8145000000 1.1461000000
0.5011000000 1.7048000000 1.1747000000
0.5006000000 1.9557000000 1.2929000000
0.5004000000 0.8514000000 0.7502000000
0.5002000000 3.0324000000 1.5162000000
0.5002000000 4.6365000000 0.7291000000
0.4999000000 4.0207000000 1.0543000000
0.4998000000 1.1025000000 0.8887000000
0.4990000000 0.1478000000 0.1074000000
0.4987000000 2.3037000000 1.4520000000
0.4985000000 2.6402000000 1.6138000000
0.4983000000 3.0153000000 1.5220000000
0.4980000000 0.8107000000 0.7091000000
0.4979000000 1.7111000000 1.1707000000
0.4977000000 0.5735000000 0.5050000000
0.4961000000 4.0440000000 1.0398000000
0.2660000000 2.8194000000 1.4238000000
0.2631000000 3.3734000000 1.1651000000
0.2613000000 0.3664000000 0.2972000000
0.2597000000 5.0492000000 0.3410000000
0.2596000000 1.4330000000 0.8508000000
0.2594000000 3.1872000000 1.2425000000
0.2590000000 3.8769000000 0.9226000000
0.2590000000 5.2101000000 0.2037000000
0.2586000000 0.7382000000 0.5210000000
0.2584000000 4.6240000000 0.5661000000
0.2581000000 4.8003000000 0.4912000000
0.2579000000 2.8770000000 1.3885000000
0.2578000000 2.5221000000 1.3630000000
0.2577000000 0.4194000000 0.3454000000
0.2576000000 0.1112000000 0.1352000000
0.2573000000 1.5630000000 0.9020000000
0.2572000000 3.5541000000 1.0712000000
0.2570000000 3.5941000000 1.0503000000
0.2568000000 0.0587000000 0.0882000000
0.2564000000 5.4693000000 0.0343000000
0.2563000000 3.6403000000 1.0355000000
0.2560000000 4.4725000000 0.6448000000
0.2558000000 4.5667000000 0.5951000000
0.2558000000 2.8245000000 1.4098000000
0.2555000000 4.0556000000 0.8393000000
0.2554000000 3.7707000000 0.9749000000
0.2553000000 4.7417000000 0.5116000000
0.2551000000 4.6378000000 0.5579000000
0.2550000000 3.4261000000 1.1297000000
0.2550000000 2.9521000000 1.3531000000
0.2548000000 4.9688000000 0.3871000000
0.2548000000 2.9296000000 1.3628000000
0.2545000000 4.8157000000 0.4737000000
0.2543000000 4.8166000000 0.4850000000
0.2540000000 1.8580000000 1.0480000000
0.2540000000 4.0499000000 0.8371000000
0.2539000000 1.4123000000 0.8315000000
0.2533000000 2.9732000000 1.3421000000
0.2531000000 2.4692000000 1.3344000000
0.2528000000 2.5809000000 1.3841000000
0.2528000000 4.7959000000 0.4870000000
0.2527000000 2.7588000000 1.4275000000
0.2527000000 1.7890000000 1.0111000000
0.2526000000 1.2683000000 0.7642000000
0.2526000000 2.5065000000 1.3446000000
0.2525000000 2.5717000000 1.3813000000
0.2524000000 2.3355000000 1.2691000000
0.2523000000 3.2608000000 1.2076000000
0.2520000000 4.3716000000 0.6808000000
0.2520000000 2.5473000000 1.3715000000
0.2519000000 2.1428000000 1.1770000000
0.2518000000 0.1552000000 0.1080000000
0.2518000000 0.2158000000 0.1657000000
0.2518000000 1.8890000000 1.0534000000
0.2516000000 4.9423000000 0.4026000000
0.2510000000 2.3281000000 1.2601000000
0.2508000000 2.5582000000 1.3728000000
0.2507000000 5.3960000000 0.1035000000
0.2505000000 5.4375000000 0.0613000000
0.2488000000 5.0502000000 0.3442000000
0.2486000000 0.0841000000 0.1213000000
0.2475000000 2.0873000000 1.1459000000
0.2475000000 4.0655000000 0.8241000000
0.2475000000 1.0915000000 0.6784000000
0.2473000000 0.3214000000 0.2556000000
0.2472000000 3.1192000000 1.2675000000
0.2442000000 0.6246000000 0.4498000000
0.2434000000 5.3451000000 0.1508000000
0.0124000000 4.9651000000 0.2071000000
0.0112000000 4.3495000000 0.4990000000
0.0107000000 2.5986000000 1.1912000000
0.0099000000 3.2995000000 0.9914000000
0.0096000000 3.6864000000 0.8095000000
0.0093000000 1.3201000000 0.5915000000
0.0092000000 4.8946000000 0.2419000000
0.0084000000 2.2618000000 1.0314000000
0.0083000000 2.9546000000 1.1504000000
0.0081000000 2.4690000000 1.1378000000
0.0080000000 5.3616000000 0.0855000000
0.0078000000 4.8442000000 0.2638000000
0.0069000000 3.1160000000 1.0749000000
0.0066000000 0.6823000000 0.2854000000
0.0065000000 5.0622000000 0.1631000000
0.0063000000 3.4802000000 0.9037000000
0.0063000000 4.0223000000 0.6481000000
0.0061000000 3.3992000000 0.9386000000
0.0060000000 2.3561000000 1.0778000000
0.0058000000 4.0219000000 0.6492000000
0.0055000000 4.2929000000 0.5203000000
0.0054000000 5.1409000000 0.1213000000
0.0053000000 3.7320000000 0.7862000000
0.0048000000 2.3746000000 1.0809000000
0.0045000000 0.3170000000 0.1148000000
0.0045000000 2.1386000000 0.9720000000
0.0042000000 5.0354000000 0.1684000000
0.0043000000 0.8811000000 0.3816000000
0.0041000000 4.8532000000 0.2547000000
0.0041000000 4.3830000000 0.4778000000
0.0040000000 1.1948000000 0.5342000000
0.0039000000 3.0421000000 1.1050000000
0.0038000000 2.7164000000 1.2266000000
0.0037000000 2.1195000000 0.9717000000
0.0036000000 0.8703000000 0.3793000000
0.0035000000 3.1620000000 1.0477000000
0.0035000000 4.1049000000 0.6003000000
0.0033000000 4.7504000000 0.3046000000
0.0033000000 1.6102000000 0.7213000000
0.0031000000 2.5644000000 1.1746000000
0.0030000000 2.5461000000 1.1622000000
0.0029000000 1.9718000000 0.8936000000
0.0028000000 2.1108000000 0.9569000000
0.0026000000 2.8886000000 1.1835000000
0.0025000000 1.2708000000 0.5677000000
0.0024000000 2.6339000000 1.2114000000
0.0023000000 0.0672000000 0.0570000000
0.0020000000 3.8174000000 0.7383000000
0.0019000000 0.4975000000 0.2045000000
0.0018000000 4.6033000000 0.3650000000
0.0017000000 3.3008000000 0.9845000000
0.0015000000 2.4730000000 1.1276000000
0.0014000000 2.8676000000 1.1844000000
0.0013000000 3.6213000000 0.8349000000
0.0013000000 1.5450000000 0.6946000000
0.0012000000 0.9292000000 0.4022000000
0.0012000000 0.1504000000 0.1131000000
0.0011000000 2.4266000000 1.1095000000
0.0011000000 1.7329000000 0.7798000000
0.0010000000 4.0054000000 0.6570000000
0.0007000000 4.5586000000 0.3877000000
0.0002000000 1.0741000000 0.4691000000
-0.0012000000 4.4486000000 0.4411000000
-0.0013000000 4.8560000000 0.2454000000
-0.0014000000 0.0817000000 0.0637000000
-0.0014000000 3.1125000000 1.0683000000
-0.0018000000 3.1444000000 1.0542000000
-0.0024000000 0.0875000000 0.0653000000
-0.0028000000 4.7885000000 0.2799000000
-0.0032000000 2.6042000000 1.1848000000
-0.0039000000 1.9630000000 0.8860000000
-0.2375000000 3.5233000000 0.6839000000
-0.2390000000 3.3611000000 0.7580000000
-0.2393000000 4.5887000000 0.1838000000
-0.2395000000 1.7498000000 0.5899000000
-0.2403000000 1.9775000000 0.6975000000
-0.2405000000 0.9955000000 0.2369000000
-0.2409000000 2.8019000000 1.0207000000
-0.2411000000 3.7585000000 0.5665000000
-0.2421000000 4.9221000000 0.1026000000
-0.2425000000 4.1273000000 0.3979000000
-0.2428000000 3.9060000000 0.5002000000
-0.2429000000 4.3015000000 0.3127000000
-0.2430000000 1.6642000000 0.5510000000
-0.2432000000 3.3754000000 0.7480000000
-0.2433000000 4.1487000000 0.3843000000
-0.2434000000 4.7592000000 0.0958000000
-0.2437000000 4.6889000000 0.1305000000
-0.2439000000 1.6812000000 0.5549000000
-0.2442000000 4.1599000000 0.3814000000
-0.2447000000 0.6961000000 0.0987000000
-0.2450000000 2.3591000000 0.8764000000
-0.2451000000 3.9783000000 0.4696000000
-0.2452000000 4.1741000000 0.3716000000
-0.2453000000 2.7402000000 1.0297000000
-0.2455000000 1.4291000000 0.4353000000
-0.2456000000 4.5786000000 0.1827000000
-0.2460000000 4.3460000000 0.2872000000
-0.2460000000 5.0303000000 0.0432000000
-0.2460000000 3.3299000000 0.7670000000
-0.2461000000 3.7620000000 0.5591000000
-0.2462000000 0.7727000000 0.1287000000
-0.2464000000 1.3890000000 0.4154000000
-0.2465000000 4.5887000000 0.1755000000
-0.2466000000 3.2404000000 0.8104000000
-0.2470000000 1.8808000000 0.6494000000
-0.2470000000 3.4101000000 0.7251000000
-0.2471000000 1.3561000000 0.3982000000
-0.2472000000 3.5133000000 0.6824000000
-0.2472000000 2.0713000000 0.7383000000
-0.2476000000 2.6753000000 1.0191000000
-0.2477000000 4.4691000000 0.2270000000
-0.2478000000 3.0774000000 0.8847000000
-0.2478000000 3.1865000000 0.8372000000
-0.2479000000 0.3952000000 0.0169000000
-0.2480000000 2.3493000000 0.8631000000
-0.2481000000 2.6809000000 1.0124000000
-0.2481000000 1.7388000000 0.5793000000
-0.2482000000 5.1547000000 0.0590000000
-0.2483000000 2.5259000000 0.9488000000
-0.2484000000 2.0112000000 0.7068000000
-0.2485000000 4.0923000000 0.4092000000
-0.2485000000 2.2885000000 0.8337000000
-0.2487000000 3.7635000000 0.5593000000
-0.2487000000 3.0569000000 0.8985000000
-0.2488000000 1.6092000000 0.5178000000
-0.2491000000 1.7374000000 0.5771000000
-0.2492000000 4.1694000000 0.3718000000
-0.2493000000 5.0510000000 0.0296000000
-0.2494000000 4.7132000000 0.1101000000
-0.2495000000 3.9486000000 0.4735000000
-0.2495000000 0.1919000000 -0.0021000000
-0.2497000000 4.3659000000 0.2749000000
-0.2499000000 1.4201000000 0.4281000000
-0.2502000000 2.8746000000 0.9766000000
-0.2503000000 3.4943000000 0.6852000000
-0.2512000000 4.3533000000 0.2829000000
-0.2522000000 5.1397000000 0.0626000000
-0.2526000000 1.1771000000 0.3066000000
-0.2527000000 3.0857000000 0.8720000000
-0.2547000000 1.7497000000 0.5759000000
-0.2552000000 4.0998000000 0.4017000000
-0.2576000000 2.9381000000 0.9417000000
-0.4883000000 1.9749000000 0.4924000000
-0.4889000000 2.6394000000 0.8007000000
-0.4900000000 4.2584000000 0.1309000000
-0.4903000000 2.8761000000 0.7785000000
-0.4908000000 4.3902000000 0.1428000000
-0.4915000000 2.3472000000 0.6688000000
-0.4916000000 4.1267000000 0.1917000000
-0.4920000000 0.9975000000 0.1072000000
-0.4920000000 2.3839000000 0.6776000000
-0.4922000000 3.8155000000 0.3425000000
-0.4925000000 2.9960000000 0.7222000000
-0.4929000000 3.1050000000 0.6746000000
-0.4930000000 1.3945000000 0.2172000000
-0.4933000000 0.9109000000 0.0609000000
-0.4935000000 2.8607000000 0.7845000000
-0.4938000000 3.0007000000 0.7234000000
-0.4939000000 3.8429000000 0.3281000000
-0.4941000000 2.0547000000 0.5214000000
-0.4942000000 3.0184000000 0.7133000000
-0.4943000000 3.3728000000 0.5502000000
-0.4947000000 2.4112000000 0.7009000000
-0.4951000000 1.3070000000 0.1752000000
-0.4952000000 3.0155000000 0.7134000000
-0.4952000000 2.4044000000 0.6917000000
-0.4959000000 1.0226000000 0.1110000000
-0.4959000000 3.8344000000 0.3229000000
-0.4962000000 2.6932000000 0.8068000000
-0.4963000000 1.8532000000 0.4290000000
-0.4964000000 1.0979000000 0.1535000000
-0.4965000000 1.2576000000 0.1498000000
-0.4965000000 3.5399000000 0.4667000000
-0.4968000000 4.2618000000 0.1220000000
-0.4969000000 4.6603000000 0.0174000000
-0.4970000000 4.7140000000 0.0665000000
-0.4972000000 3.8547000000 0.3223000000
-0.4973000000 0.7046000000 0.0365000000
-0.4976000000 1.0680000000 0.1366000000
-0.4977000000 1.8025000000 0.4056000000
-0.4977000000 1.7338000000 0.3731000000
-0.4979000000 4.4019000000 0.1342000000
-0.4981000000 1.5361000000 0.2863000000
-0.4982000000 3.5655000000 0.4503000000
-0.4984000000 1.9479000000 0.4702000000
-0.4984000000 4.4168000000 0.1261000000
-0.4985000000 1.5638000000 0.2904000000
-0.4987000000 2.0898000000 0.5375000000
-0.4987000000 2.2578000000 0.6208000000
-0.4993000000 2.5460000000 0.7539000000
-0.4995000000 3.1999000000 0.6241000000
-0.4996000000 4.7182000000 0.0569000000
-0.4996000000 4.1169000000 0.1907000000
-0.4997000000 0.7357000000 0.0491000000
-0.5004000000 3.3914000000 0.5304000000
-0.5005000000 2.8308000000 0.7925000000
-0.5010000000 2.5441000000 0.7513000000
-0.5012000000 3.0108000000 0.7142000000
-0.5012000000 1.8624000000 0.4327000000
-0.5017000000 4.8106000000 0.0122000000
-0.5018000000 2.7908000000 0.8126000000
-0.5019000000 0.9557000000 0.0768000000
-0.5021000000 1.1433000000 0.0917000000
-0.5025000000 1.9079000000 0.4572000000
-0.5042000000 2.7941000000 0.8084000000
-0.5045000000 1.9559000000 0.4718000000
-0.7372000000 3.5818000000 0.2550000000
-0.7410000000 4.0802000000 0.0899000000
-0.7417000000 2.6382000000 0.5988000000
-0.7419000000 4.4079000000 0.0090000000
-0.7422000000 3.2837000000 0.3839000000
-0.7422000000 4.0224000000 0.1096000000
-0.7432000000 3.0486000000 0.4921000000
-0.7438000000 2.6297000000 0.5943000000
-0.7440000000 2.5653000000 0.5606000000
-0.7442000000 1.3415000000 0.0669000000
-0.7447000000 1.1014000000 0.0240000000
-0.7447000000 2.2151000000 0.4007000000
-0.7450000000 2.4283000000 0.4964000000
-0.7455000000 2.6058000000 0.5846000000
-0.7456000000 2.9080000000 0.5603000000
-0.7457000000 2.6099000000 0.5838000000
-0.7462000000 4.3126000000 0.0430000000
-0.7463000000 3.7456000000 0.1651000000
-0.7467000000 1.8209000000 0.2134000000
-0.7470000000 2.1539000000 0.3684000000
-0.7470000000 3.5934000000 0.2408000000
-0.7471000000 3.8134000000 0.1387000000
-0.7472000000 1.8897000000 0.2428000000
-0.7475000000 2.9840000000 0.5244000000
-0.7476000000 4.2865000000 0.0555000000
-0.7478000000 1.9375000000 0.2645000000
-0.7480000000 1.7686000000 0.1854000000
-0.7481000000 1.0571000000 0.0005000000
-0.7487000000 3.3905000000 0.3306000000
-0.7491000000 4.2288000000 0.0838000000
-0.7492000000 4.3660000000 0.0168000000
-0.7493000000 4.2898000000 0.0541000000
