5.5127000000 3.5717000000 0.0317000000
5.5078000000 3.5484000000 0.0567000000
5.5063000000 3.6616000000 0.0564000000
5.5049000000 3.6437000000 0.0715000000
5.5043000000 3.0367000000 0.0275000000
5.5036000000 3.5532000000 0.0562000000
5.5030000000 3.2061000000 0.1288000000
5.5027000000 3.4075000000 0.0806000000
5.5009000000 3.4574000000 0.0488000000
5.2603000000 2.4226000000 0.0501000000
5.2575000000 2.7495000000 0.1157000000
5.2565000000 2.5593000000 0.0703000000
5.2545000000 3.0913000000 0.2799000000
5.2539000000 4.0927000000 0.0607000000
5.2537000000 3.8428000000 0.0792000000
5.2531000000 4.0564000000 0.0129000000
5.2528000000 3.9517000000 0.0763000000
5.2526000000 3.9534000000 0.0809000000
5.2517000000 2.9888000000 0.2104000000
5.2507000000 4.1468000000 0.0219000000
5.2503000000 2.7111000000 0.0996000000
5.2484000000 3.8997000000 0.0465000000
5.0101000000 3.0344000000 0.5229000000
5.0083000000 2.5473000000 0.2027000000
5.0075000000 3.9961000000 0.1843000000
5.0071000000 3.4737000000 0.5364000000
5.0068000000 4.1549000000 0.1547000000
5.0065000000 2.3969000000 0.1004000000
5.0060000000 4.4640000000 0.0198000000
5.0057000000 3.4002000000 0.5949000000
5.0051000000 2.8126000000 0.3879000000
5.0049000000 2.5407000000 0.1907000000
5.0042000000 3.8171000000 0.3137000000
5.0035000000 2.1486000000 0.0180000000
5.0032000000 2.7160000000 0.3158000000
5.0028000000 4.5416000000 0.0500000000
5.0027000000 2.7695000000 0.3578000000
5.0013000000 2.4156000000 0.1141000000
5.0000000000 2.7462000000 0.3483000000
4.9987000000 2.3627000000 0.1609000000
4.9983000000 2.1230000000 0.0785000000
4.7620000000 1.5545000000 0.0450000000
4.7605000000 2.5731000000 0.5058000000
4.7596000000 4.5525000000 0.1044000000
4.7595000000 4.1345000000 0.3831000000
4.7588000000 1.8287000000 0.0859000000
4.7581000000 3.0249000000 0.8093000000
4.7576000000 2.7079000000 0.5951000000
4.7574000000 4.2972000000 0.2737000000
4.7572000000 4.1157000000 0.3953000000
4.7570000000 3.5712000000 0.7639000000
4.7564000000 4.7444000000 0.0504000000
4.7563000000 1.7905000000 0.0566000000
4.7558000000 5.0351000000 0.0079000000
4.7554000000 4.7561000000 0.0418000000
4.7547000000 2.3122000000 0.3379000000
4.7543000000 3.4171000000 0.8744000000
4.7541000000 1.7922000000 0.0648000000
4.7539000000 2.9646000000 0.7772000000
4.7538000000 1.5387000000 0.0450000000
4.7527000000 2.2243000000 0.2815000000
4.7527000000 1.9033000000 0.1409000000
4.7523000000 4.9896000000 0.0388000000
4.7517000000 4.4095000000 0.2048000000
4.7516000000 4.5134000000 0.1358000000
4.7514000000 2.9921000000 0.7968000000
4.7507000000 2.1222000000 0.2154000000
4.7497000000 1.6691000000 0.0611000000
4.7493000000 2.6455000000 0.5637000000
4.7487000000 1.8424000000 0.1014000000
4.7477000000 2.5594000000 0.5139000000
4.7468000000 3.3080000000 1.0149000000
4.5116000000 4.7755000000 0.2432000000
4.5100000000 4.1355000000 0.6723000000
4.5093000000 1.6539000000 0.1852000000
4.5089000000 4.8634000000 0.1839000000
4.5084000000 5.0529000000 0.1316000000
4.5080000000 5.0996000000 0.1013000000
4.5075000000 5.3500000000 0.0066000000
4.5071000000 2.4290000000 0.7073000000
4.5068000000 5.3747000000 0.0675000000
4.5066000000 3.4716000000 1.1301000000
4.5064000000 2.4329000000 0.7073000000
4.5062000000 5.2217000000 0.0244000000
4.5060000000 1.7912000000 0.2720000000
4.5060000000 1.9903000000 0.4131000000
4.5058000000 1.1960000000 0.0290000000
4.5056000000 1.5812000000 0.1341000000
4.5053000000 4.7031000000 0.2986000000
4.5051000000 4.1232000000 0.6871000000
4.5045000000 5.3947000000 0.0583000000
4.5041000000 4.1493000000 0.6692000000
4.5040000000 3.7551000000 0.9370000000
4.5037000000 1.0452000000 0.0046000000
4.5033000000 5.3632000000 0.0824000000
4.5031000000 1.8497000000 0.3156000000
4.5030000000 2.8342000000 0.9815000000
4.5027000000 2.0811000000 0.4797000000
4.5026000000 1.2601000000 0.0754000000
4.5021000000 4.3151000000 0.5545000000
4.5018000000 3.3313000000 1.2201000000
4.5017000000 1.1271000000 0.0614000000
4.5016000000 2.3263000000 0.6449000000
4.5012000000 1.5251000000 0.1002000000
4.5000000000 4.1716000000 0.6564000000
4.4990000000 4.9014000000 0.1724000000
4.4987000000 1.1106000000 0.0472000000
4.4982000000 3.8546000000 0.8816000000
4.4965000000 1.5367000000 0.1176000000
4.4936000000 2.7067000000 0.9076000000
4.2611000000 5.0395000000 0.3599000000
4.2602000000 3.9426000000 1.0930000000
4.2598000000 5.1672000000 0.2746000000
4.2593000000 2.3951000000 0.9736000000
4.2584000000 4.3389000000 0.8310000000
4.2581000000 2.9586000000 1.3488000000
4.2579000000 5.1850000000 0.2645000000
4.2575000000 5.7159000000 0.0568000000
4.2573000000 5.0397000000 0.3596000000
4.2570000000 2.1072000000 0.7795000000
4.2564000000 1.7937000000 0.5715000000
4.2560000000 1.6350000000 0.4637000000
4.2558000000 3.1179000000 1.4571000000
4.2554000000 2.1766000000 0.8293000000
4.2549000000 1.9018000000 0.6464000000
4.2545000000 3.3536000000 1.4948000000
4.2540000000 3.7852000000 1.2025000000
4.2539000000 2.7895000000 1.2405000000
4.2538000000 1.8798000000 0.6298000000
4.2536000000 2.1720000000 0.8257000000
4.2532000000 3.8465000000 1.1704000000
4.2527000000 1.9489000000 0.6763000000
4.2523000000 3.5924000000 1.3358000000
4.2520000000 1.2813000000 0.2272000000
4.2519000000 1.0068000000 0.1279000000
4.2515000000 5.9014000000 0.0113000000
4.2512000000 0.9572000000 0.0912000000
4.2507000000 2.4626000000 1.0286000000
4.2490000000 0.6308000000 0.0237000000
4.2487000000 4.0870000000 1.0051000000
4.2477000000 3.2371000000 1.6014000000
4.2473000000 2.8679000000 1.3022000000
4.0119000000 0.2715000000 0.0548000000
4.0102000000 4.6842000000 0.8873000000
4.0092000000 4.6348000000 0.9185000000
4.0089000000 5.9001000000 0.1421000000
4.0076000000 3.7848000000 1.4904000000
4.0074000000 3.2720000000 1.8909000000
4.0071000000 5.7838000000 0.1554000000
4.0070000000 2.5248000000 1.3512000000
4.0067000000 5.0359000000 0.6499000000
4.0060000000 6.2631000000 0.0539000000
4.0057000000 1.0207000000 0.3415000000
4.0054000000 1.8378000000 0.8877000000
4.0050000000 4.0816000000 1.2937000000
4.0048000000 4.7926000000 0.8193000000
4.0045000000 3.9559000000 1.3831000000
4.0044000000 5.5821000000 0.2941000000
4.0043000000 1.0670000000 0.3764000000
4.0042000000 0.7451000000 0.1598000000
4.0040000000 4.2338000000 1.1955000000
4.0040000000 4.1540000000 1.2482000000
4.0039000000 1.1271000000 0.4130000000
4.0036000000 2.1078000000 1.0723000000
4.0032000000 0.3276000000 0.0279000000
4.0032000000 2.8332000000 1.5689000000
4.0030000000 0.2938000000 0.0075000000
4.0028000000 4.2971000000 1.1502000000
4.0027000000 5.7539000000 0.1773000000
4.0025000000 4.4693000000 1.0360000000
4.0023000000 0.1722000000 0.0032000000
4.0022000000 1.0397000000 0.3559000000
4.0021000000 5.6263000000 0.2636000000
4.0020000000 4.0701000000 1.3020000000
4.0018000000 3.6767000000 1.5749000000
4.0009000000 1.3101000000 0.5412000000
4.0005000000 4.0132000000 1.3432000000
4.0003000000 1.6335000000 0.7582000000
3.9998000000 1.6994000000 0.8068000000
3.9995000000 2.5903000000 1.4033000000
3.9990000000 3.9329000000 1.4009000000
3.9982000000 4.0132000000 1.3562000000
3.9963000000 0.3378000000 0.0451000000
3.7631000000 3.8743000000 1.7193000000
3.7621000000 6.2534000000 0.1224000000
3.7615000000 1.9079000000 1.2214000000
3.7594000000 6.0329000000 0.2723000000
3.7590000000 6.2413000000 0.1338000000
3.7589000000 0.2433000000 0.1086000000
3.7585000000 4.8775000000 1.0526000000
3.7583000000 1.6950000000 1.0779000000
3.7578000000 3.4166000000 2.0311000000
3.7575000000 4.8277000000 1.0874000000
3.7573000000 3.3748000000 2.0543000000
3.7564000000 6.0486000000 0.2698000000
3.7561000000 4.2615000000 1.4641000000
3.7560000000 2.2683000000 1.4703000000
3.7558000000 2.2083000000 1.4344000000
3.7555000000 1.6082000000 1.0288000000
3.7553000000 4.9627000000 1.0000000000
3.7552000000 5.2778000000 0.7859000000
3.7548000000 4.3955000000 1.3765000000
3.7546000000 5.2018000000 0.8391000000
3.7543000000 2.7573000000 1.8033000000
3.7541000000 3.6802000000 1.8625000000
3.7540000000 2.4652000000 1.6062000000
3.7540000000 0.0563000000 0.1093000000
3.7537000000 0.1766000000 0.1445000000
3.7533000000 5.9783000000 0.3172000000
3.7530000000 1.2411000000 0.7852000000
3.7529000000 3.0755000000 2.0208000000
3.7526000000 6.0972000000 0.2388000000
3.7524000000 2.5240000000 1.6456000000
3.7521000000 0.4441000000 0.2518000000
3.7518000000 2.7743000000 1.8207000000
3.7515000000 4.9783000000 0.9919000000
3.7512000000 3.1417000000 2.0610000000
3.7510000000 5.6198000000 0.5527000000
3.7508000000 1.3793000000 0.8782000000
3.7502000000 5.2681000000 0.7995000000
3.7497000000 1.9056000000 1.2360000000
3.7489000000 3.8309000000 1.7658000000
3.7485000000 2.2522000000 1.4727000000
3.7476000000 3.3320000000 2.0998000000
3.7466000000 4.4501000000 1.3517000000
3.5116000000 2.9329000000 2.2722000000
3.5108000000 2.4358000000 1.8703000000
3.5101000000 6.4142000000 0.1612000000
3.5085000000 1.5656000000 1.2849000000
3.5083000000 3.3866000000 2.3477000000
3.5080000000 5.1482000000 1.1582000000
3.5079000000 4.8987000000 1.3294000000
3.5073000000 3.2885000000 2.4613000000
3.5072000000 1.4499000000 1.2156000000
3.5068000000 4.1689000000 1.8161000000
3.5065000000 5.1409000000 1.1712000000
3.5059000000 6.2300000000 0.3294000000
3.5057000000 1.3003000000 1.1167000000
3.5055000000 0.6127000000 0.6490000000
3.5050000000 0.0328000000 0.0557000000
3.5050000000 5.2758000000 1.0682000000
3.5046000000 6.3218000000 0.2083000000
3.5042000000 0.9456000000 0.8777000000
3.5040000000 2.9136000000 2.1914000000
3.5039000000 5.7044000000 0.7901000000
3.5035000000 5.7504000000 0.7593000000
3.5033000000 0.5242000000 0.6454000000
3.5032000000 2.5646000000 2.0417000000
3.5030000000 0.9228000000 0.8622000000
3.5029000000 6.4173000000 0.1572000000
3.5028000000 3.0113000000 2.2639000000
3.5027000000 0.5319000000 0.6552000000
3.5026000000 2.3639000000 1.8307000000
3.5024000000 0.3813000000 0.4988000000
3.5022000000 0.7043000000 0.7181000000
3.5021000000 0.9470000000 0.8766000000
3.5014000000 5.9108000000 0.6602000000
3.5012000000 4.0054000000 1.9442000000
3.5007000000 2.8825000000 2.1780000000
3.5004000000 2.3314000000 1.8842000000
3.4999000000 2.6074000000 2.0033000000
3.4996000000 1.4553000000 1.2214000000
3.4993000000 0.4382000000 0.5814000000
3.4988000000 2.6076000000 2.0024000000
3.4981000000 1.9391000000 1.5502000000
3.4978000000 1.3032000000 1.1236000000
3.4969000000 5.1674000000 1.1573000000
3.4960000000 0.2837000000 0.3202000000
3.4957000000 3.4547000000 2.3130000000
3.2617000000 5.8002000000 0.9088000000
3.2603000000 5.0266000000 1.5279000000
3.2595000000 2.5128000000 2.2180000000
3.2590000000 4.5899000000 1.8289000000
3.2587000000 2.9157000000 2.4858000000
3.2584000000 2.5713000000 2.2571000000
3.2580000000 4.1519000000 2.1208000000
3.2579000000 4.2471000000 2.0525000000
3.2568000000 4.5565000000 1.8474000000
3.2567000000 5.9504000000 0.7067000000
3.2564000000 4.6191000000 1.8092000000
3.2563000000 4.4394000000 1.9292000000
3.2560000000 2.3713000000 2.1231000000
3.2558000000 3.0657000000 2.6629000000
3.2557000000 0.9577000000 1.2281000000
3.2555000000 5.0024000000 1.5458000000
3.2554000000 4.0604000000 2.1886000000
3.2550000000 6.2149000000 0.3489000000
3.2547000000 5.7837000000 0.9376000000
3.2544000000 3.7333000000 2.4000000000
3.2542000000 2.0842000000 1.9378000000
3.2540000000 1.0637000000 1.2486000000
3.2538000000 0.3337000000 0.3872000000
3.2537000000 0.6507000000 0.8100000000
3.2534000000 2.0663000000 1.9234000000
3.2533000000 3.7865000000 2.3697000000
3.2532000000 1.1875000000 1.3332000000
3.2529000000 1.9588000000 1.8483000000
3.2528000000 3.6586000000 2.4583000000
3.2527000000 5.0189000000 1.5457000000
3.2523000000 4.2027000000 2.0901000000
3.2522000000 3.5027000000 2.5682000000
3.2514000000 0.5300000000 0.6480000000
3.2513000000 1.8698000000 1.7984000000
3.2510000000 4.9648000000 1.5853000000
3.2509000000 0.6583000000 0.8223000000
3.2507000000 4.6192000000 1.8135000000
3.2504000000 3.7937000000 2.3709000000
3.2502000000 1.7283000000 1.6996000000
3.2499000000 4.3008000000 2.0270000000
3.2498000000 5.2386000000 1.4033000000
3.2488000000 0.7212000000 0.9150000000
3.2487000000 0.3184000000 0.3622000000
3.2480000000 4.8530000000 1.6602000000
3.2475000000 1.8283000000 1.7686000000
3.2415000000 3.8398000000 2.3489000000
3.0119000000 4.0302000000 2.4937000000
3.0110000000 0.5478000000 0.6715000000
3.0098000000 5.3117000000 1.6252000000
3.0091000000 4.3309000000 2.2894000000
3.0085000000 2.3374000000 2.4616000000
3.0083000000 5.4748000000 1.3489000000
3.0081000000 3.8438000000 2.6232000000
3.0078000000 4.4050000000 2.2395000000
3.0077000000 6.0570000000 0.5585000000
3.0073000000 3.5640000000 2.8027000000
3.0071000000 2.1680000000 2.3501000000
3.0068000000 1.3096000000 1.7576000000
3.0066000000 1.6919000000 1.9568000000
3.0063000000 5.8780000000 0.8048000000
3.0061000000 4.9750000000 1.8617000000
3.0060000000 6.3521000000 0.1661000000
3.0056000000 3.7088000000 2.7121000000
3.0055000000 5.8494000000 0.8428000000
3.0053000000 3.7857000000 2.6585000000
3.0049000000 6.5048000000 0.0394000000
3.0048000000 1.0044000000 1.2895000000
3.0046000000 6.0328000000 0.5938000000
3.0045000000 3.7540000000 2.6805000000
3.0043000000 6.3564000000 0.1637000000
3.0040000000 2.5885000000 2.5644000000
3.0036000000 2.2937000000 2.3649000000
3.0035000000 6.0511000000 0.5691000000
3.0033000000 1.1167000000 1.4393000000
3.0032000000 5.2036000000 1.7677000000
3.0030000000 3.7363000000 2.6994000000
3.0029000000 2.5619000000 2.5477000000
3.0028000000 4.9752000000 1.8654000000
3.0024000000 0.7327000000 0.9193000000
3.0022000000 5.1856000000 1.7807000000
3.0019000000 2.8252000000 2.7261000000
3.0017000000 2.4438000000 2.4639000000
3.0016000000 2.1192000000 2.2526000000
3.0014000000 4.1534000000 2.4185000000
3.0009000000 2.4368000000 2.5408000000
3.0006000000 0.2066000000 0.2153000000
3.0003000000 0.2287000000 0.2479000000
2.9999000000 3.8865000000 2.5983000000
2.9995000000 4.4294000000 2.2334000000
2.9988000000 1.0450000000 1.3452000000
2.9985000000 1.9939000000 2.1685000000
2.9983000000 4.4571000000 2.2147000000
2.9981000000 1.6330000000 1.9324000000
2.9976000000 0.1667000000 0.1643000000
2.9960000000 6.4830000000 0.0661000000
2.7635000000 5.7681000000 0.9538000000
2.7616000000 1.8432000000 2.3384000000
2.7606000000 3.5395000000 3.1081000000
2.7604000000 5.0467000000 1.9201000000
2.7585000000 3.0744000000 3.2469000000
2.7582000000 6.4795000000 0.0707000000
2.7580000000 2.4280000000 2.7446000000
2.7578000000 4.5346000000 2.4459000000
2.7577000000 3.3873000000 3.2178000000
2.7567000000 4.8648000000 2.2249000000
2.7565000000 5.5241000000 1.2838000000
2.7563000000 5.9675000000 0.6808000000
2.7562000000 1.0815000000 1.3899000000
2.7561000000 3.4874000000 3.1526000000
2.7559000000 4.8493000000 2.2363000000
2.7557000000 5.3622000000 1.4952000000
2.7554000000 0.1805000000 0.1793000000
2.7548000000 5.0240000000 1.9516000000
2.7547000000 0.6173000000 0.7658000000
2.7543000000 4.2895000000 2.6186000000
2.7542000000 6.5017000000 0.0413000000
2.7538000000 0.4696000000 0.5623000000
2.7534000000 2.6563000000 2.9017000000
2.7532000000 3.5937000000 3.0803000000
2.7531000000 3.6521000000 3.0440000000
2.7529000000 2.7161000000 2.9414000000
2.7527000000 0.0957000000 0.1377000000
2.7525000000 3.7227000000 3.0010000000
2.7524000000 4.0806000000 2.7513000000
2.7521000000 5.4047000000 1.4370000000
2.7520000000 3.4370000000 3.1902000000
2.7520000000 4.5271000000 2.4592000000
2.7517000000 4.0805000000 2.7607000000
2.7516000000 4.6104000000 2.3999000000
2.7515000000 5.2701000000 1.6175000000
2.7513000000 0.0662000000 0.1024000000
2.7512000000 3.7733000000 2.9699000000
2.7511000000 1.7309000000 2.3162000000
2.7509000000 0.0000000000 0.0099000000
2.7503000000 1.4187000000 1.8438000000
2.7498000000 2.1929000000 2.5850000000
2.7495000000 1.6626000000 2.2300000000
2.7492000000 0.1975000000 0.2048000000
2.7485000000 0.1409000000 0.1271000000
2.7482000000 4.7731000000 2.3395000000
2.7474000000 1.8263000000 2.4056000000
2.7465000000 3.0670000000 3.2559000000
2.7463000000 2.8318000000 3.1037000000
2.5131000000 3.4705000000 3.4485000000
2.5108000000 6.1915000000 0.3874000000
2.5100000000 3.3016000000 3.6180000000
2.5097000000 4.9701000000 2.0263000000
2.5093000000 5.6094000000 1.1615000000
2.5087000000 6.5231000000 0.0827000000
2.5083000000 5.3302000000 1.5394000000
2.5082000000 5.2747000000 1.6144000000
2.5080000000 1.6893000000 2.2081000000
2.5076000000 5.9812000000 0.6590000000
2.5074000000 5.3940000000 1.4559000000
2.5071000000 1.5911000000 2.1491000000
2.5068000000 6.0861000000 0.5262000000
2.5064000000 5.1855000000 1.7341000000
2.5058000000 4.0865000000 3.0428000000
2.5055000000 0.7921000000 1.0031000000
2.5055000000 1.1450000000 1.4715000000
2.5051000000 1.8438000000 2.4169000000
2.5049000000 3.7439000000 3.2722000000
2.5048000000 3.6843000000 3.3054000000
2.5046000000 1.1103000000 1.4250000000
2.5044000000 4.8635000000 2.1585000000
2.5041000000 4.5844000000 2.5385000000
2.5040000000 4.6536000000 2.4503000000
2.5038000000 3.2659000000 3.6457000000
2.5037000000 3.2633000000 3.6467000000
2.5035000000 0.0688000000 0.1064000000
2.5034000000 5.5946000000 1.1874000000
2.5031000000 0.8786000000 1.1163000000
2.5030000000 1.9850000000 2.6759000000
2.5029000000 5.3691000000 1.4880000000
2.5027000000 2.4264000000 3.1118000000
2.5026000000 3.3510000000 3.5478000000
2.5023000000 0.2931000000 0.3369000000
2.5020000000 0.1477000000 0.1302000000
2.5018000000 3.4007000000 3.5039000000
2.5015000000 3.9045000000 3.1643000000
2.5008000000 5.0472000000 1.9234000000
2.5001000000 2.6126000000 3.2337000000
2.4995000000 0.6762000000 0.8438000000
2.4989000000 1.7173000000 2.2499000000
2.4987000000 1.3954000000 1.8105000000
2.4977000000 2.3687000000 3.0085000000
2.4973000000 3.9739000000 3.1272000000
2.4970000000 1.1602000000 1.4950000000
2.4961000000 0.2093000000 0.2212000000
2.4954000000 1.1004000000 1.4103000000
2.2624000000 5.9947000000 0.6441000000
2.2608000000 6.1933000000 0.3765000000
2.2603000000 6.4880000000 0.0579000000
2.2595000000 3.9030000000 3.5048000000
2.2585000000 0.7410000000 0.9314000000
2.2580000000 5.0347000000 1.9396000000
2.2575000000 5.7145000000 1.0249000000
2.2572000000 3.4861000000 3.7347000000
2.2570000000 4.6856000000 2.4025000000
2.2568000000 5.9466000000 0.7117000000
2.2566000000 1.4367000000 1.8672000000
2.2563000000 6.1939000000 0.3751000000
2.2562000000 5.4981000000 1.3161000000
2.2559000000 0.5423000000 0.6628000000
2.2557000000 5.0789000000 1.8801000000
2.2554000000 2.7247000000 3.5209000000
2.2550000000 2.3976000000 3.2313000000
2.2548000000 4.8023000000 2.2539000000
2.2545000000 5.1956000000 1.7228000000
2.2543000000 1.5694000000 2.0465000000
2.2543000000 5.7133000000 1.0215000000
2.2541000000 4.3301000000 2.8880000000
2.2540000000 5.7411000000 0.9863000000
2.2539000000 3.3788000000 3.8127000000
2.2536000000 0.0758000000 0.1112000000
2.2534000000 4.3425000000 2.8705000000
2.2533000000 3.5474000000 3.6991000000
2.2532000000 3.2000000000 3.8484000000
2.2530000000 1.8558000000 2.5026000000
2.2528000000 2.5315000000 3.3912000000
2.2528000000 0.5716000000 0.7040000000
2.2525000000 1.1728000000 1.5144000000
2.2524000000 6.1857000000 0.3999000000
2.2518000000 1.9468000000 2.6316000000
2.2517000000 2.6287000000 3.5182000000
2.2515000000 5.4720000000 1.3454000000
2.2511000000 0.1753000000 0.1719000000
2.2501000000 4.5164000000 2.6327000000
2.2498000000 2.5443000000 3.4134000000
2.2495000000 1.7611000000 2.3802000000
2.2493000000 2.9036000000 3.7348000000
2.2486000000 0.9007000000 1.1437000000
2.2482000000 0.6547000000 0.8139000000
2.2479000000 3.3962000000 3.8012000000
2.2475000000 1.3011000000 1.6879000000
2.2465000000 3.6724000000 3.6234000000
2.0143000000 6.2756000000 0.2751000000
2.0118000000 3.3149000000 4.1294000000
2.0111000000 1.1753000000 1.5162000000
2.0095000000 6.0955000000 0.5107000000
2.0092000000 5.7015000000 1.0492000000
2.0084000000 1.4594000000 1.9741000000
2.0081000000 5.0067000000 1.9795000000
2.0080000000 4.0078000000 3.3176000000
2.0078000000 2.6467000000 3.5674000000
2.0074000000 6.3760000000 0.1335000000
2.0070000000 3.9700000000 3.3715000000
2.0069000000 6.0472000000 0.5767000000
2.0068000000 5.2035000000 1.7127000000
2.0064000000 1.6240000000 2.1983000000
2.0063000000 1.7834000000 2.4060000000
2.0060000000 0.9672000000 1.2347000000
2.0059000000 3.1550000000 4.1066000000
2.0057000000 2.0597000000 2.7837000000
2.0055000000 2.9164000000 3.8556000000
2.0051000000 1.2544000000 1.6259000000
2.0049000000 5.2981000000 1.5878000000
2.0048000000 1.5416000000 2.0128000000
2.0046000000 1.7357000000 2.2751000000
2.0044000000 4.3190000000 2.9047000000
2.0043000000 0.1288000000 0.1115000000
2.0042000000 1.2979000000 1.6762000000
2.0038000000 3.0383000000 4.0697000000
2.0037000000 6.4894000000 0.0567000000
2.0034000000 3.6566000000 3.7888000000
2.0028000000 0.0399000000 0.0653000000
2.0025000000 1.2835000000 1.7330000000
2.0023000000 0.0698000000 0.1055000000
2.0018000000 1.3771000000 1.7880000000
2.0015000000 3.4545000000 4.1083000000
2.0012000000 0.1323000000 0.1138000000
2.0008000000 0.9692000000 1.2389000000
2.0004000000 1.3754000000 1.8591000000
2.0003000000 0.0463000000 0.0711000000
2.0000000000 0.6850000000 0.8580000000
1.9995000000 2.0122000000 2.7206000000
1.9991000000 2.9822000000 4.0007000000
1.9984000000 3.9867000000 3.3501000000
1.9969000000 0.9056000000 1.1461000000
1.7620000000 5.9239000000 0.7418000000
1.7614000000 5.9847000000 0.6600000000
1.7599000000 2.7184000000 3.6685000000
1.7596000000 5.7761000000 0.9426000000
1.7593000000 6.3095000000 0.2256000000
1.7587000000 5.9505000000 0.7046000000
1.7584000000 5.9894000000 0.6526000000
1.7582000000 5.6901000000 1.0598000000
1.7580000000 4.8971000000 2.1226000000
1.7575000000 0.2728000000 0.3089000000
1.7574000000 3.8833000000 3.4852000000
1.7572000000 4.5905000000 2.5362000000
1.7566000000 2.8993000000 3.9069000000
1.7565000000 3.2864000000 4.2079000000
1.7562000000 2.8240000000 3.8079000000
1.7560000000 0.3418000000 0.3956000000
1.7558000000 1.1189000000 1.4422000000
1.7557000000 3.7915000000 3.6130000000
1.7554000000 3.0079000000 4.0351000000
1.7552000000 4.9482000000 2.0542000000
1.7550000000 1.2034000000 1.5541000000
1.7548000000 5.8350000000 0.8620000000
1.7545000000 5.8029000000 0.9107000000
1.7539000000 4.5095000000 2.6421000000
1.7538000000 4.5550000000 2.5847000000
1.7535000000 4.7794000000 2.2831000000
1.7534000000 5.5957000000 1.1809000000
1.7531000000 4.0447000000 3.2707000000
1.7530000000 2.7485000000 3.7078000000
1.7528000000 2.7623000000 3.7263000000
1.7525000000 4.2577000000 2.9783000000
1.7524000000 3.1637000000 4.1043000000
1.7525000000 4.3488000000 2.8602000000
1.7522000000 3.9165000000 3.4351000000
1.7520000000 0.7720000000 0.9718000000
1.7521000000 4.4856000000 2.6760000000
1.7519000000 2.9112000000 3.8500000000
1.7516000000 3.3485000000 4.1132000000
1.7513000000 1.5751000000 2.0576000000
1.7512000000 2.7685000000 3.7325000000
1.7509000000 1.0107000000 1.2931000000
1.7506000000 0.2441000000 0.2667000000
1.7505000000 2.1907000000 2.9533000000
1.7495000000 3.6043000000 3.8550000000
1.7493000000 6.1850000000 0.3947000000
1.7481000000 0.4413000000 0.5295000000
1.7473000000 0.8248000000 1.0413000000
1.7465000000 0.7867000000 0.9960000000
1.7456000000 0.0346000000 0.0629000000
1.7453000000 1.6919000000 2.2849000000
1.5124000000 6.1123000000 0.4908000000
1.5103000000 3.5674000000 3.6871000000
1.5100000000 3.2520000000 3.9330000000
1.5088000000 2.9709000000 3.7668000000
1.5085000000 4.0919000000 3.2086000000
1.5078000000 4.9225000000 2.0903000000
1.5077000000 3.5410000000 3.6958000000
1.5075000000 4.6939000000 2.3976000000
1.5072000000 5.0503000000 1.9181000000
1.5067000000 4.5850000000 2.5416000000
1.5065000000 3.8941000000 3.5061000000
1.5059000000 0.7253000000 0.9124000000
1.5056000000 3.3367000000 3.8415000000
1.5055000000 2.4988000000 3.2854000000
1.5052000000 4.4407000000 2.7381000000
1.5051000000 1.0511000000 1.3569000000
1.5049000000 6.3275000000 0.2002000000
1.5048000000 3.2165000000 3.9072000000
1.5047000000 3.8842000000 3.5131000000
1.5043000000 6.3854000000 0.1256000000
1.5041000000 2.7717000000 3.6240000000
1.5040000000 5.2104000000 1.7024000000
1.5036000000 0.4486000000 0.5356000000
1.5031000000 5.2115000000 1.6975000000
1.5025000000 3.6802000000 3.6025000000
1.5021000000 3.6297000000 3.6285000000
1.5019000000 5.0155000000 1.9639000000
1.5017000000 0.9176000000 1.1799000000
1.5016000000 0.4323000000 0.5214000000
1.5013000000 4.1751000000 3.0940000000
1.5011000000 4.9906000000 1.9996000000
1.5010000000 6.2904000000 0.2513000000
1.5008000000 3.1979000000 3.8351000000
1.5003000000 2.4250000000 3.2704000000
1.5001000000 0.8279000000 1.0462000000
1.5000000000 3.4170000000 3.7772000000
1.4994000000 5.6570000000 1.0970000000
1.4993000000 5.6313000000 1.1342000000
1.4990000000 4.4304000000 2.7509000000
1.4984000000 0.3525000000 0.4082000000
1.4983000000 1.7883000000 2.3413000000
1.4977000000 3.9637000000 3.4374000000
1.4966000000 4.0119000000 3.3709000000
1.4964000000 5.1603000000 1.7671000000
1.4923000000 3.9803000000 3.4108000000
1.2607000000 6.3343000000 0.1939000000
1.2600000000 3.8089000000 3.2309000000
1.2593000000 1.6236000000 2.1905000000
1.2592000000 1.3471000000 1.7436000000
1.2588000000 3.1698000000 3.6070000000
1.2584000000 4.5336000000 2.6102000000
1.2580000000 2.3875000000 3.0076000000
1.2577000000 1.8895000000 2.5562000000
1.2573000000 4.5827000000 2.5437000000
1.2570000000 3.5163000000 3.4224000000
1.2569000000 5.1285000000 1.8084000000
1.2566000000 0.6142000000 0.7627000000
1.2566000000 5.0866000000 1.8658000000
1.2565000000 6.0308000000 0.5977000000
1.2560000000 4.5802000000 2.5504000000
1.2559000000 6.5220000000 0.0898000000
1.2558000000 3.9697000000 3.1140000000
1.2556000000 5.0971000000 1.8551000000
1.2552000000 1.0259000000 1.3171000000
1.2550000000 4.2462000000 2.9139000000
1.2548000000 0.0342000000 0.0648000000
1.2547000000 3.2074000000 3.5459000000
1.2545000000 2.5041000000 3.1512000000
1.2543000000 1.1803000000 1.5234000000
1.2540000000 0.9520000000 1.2158000000
1.2538000000 6.1267000000 0.4645000000
1.2536000000 1.1325000000 1.4573000000
1.2533000000 1.2957000000 1.6772000000
1.2532000000 5.9917000000 0.6477000000
1.2530000000 0.6672000000 0.8357000000
1.2527000000 5.0180000000 1.9644000000
1.2522000000 1.6234000000 2.1221000000
1.2520000000 1.8837000000 2.5488000000
1.2518000000 3.3829000000 3.5076000000
1.2516000000 3.5943000000 3.3707000000
1.2515000000 3.8166000000 3.2143000000
1.2513000000 5.6868000000 1.0578000000
1.2508000000 2.9275000000 3.4353000000
1.2502000000 1.6672000000 2.2534000000
1.2494000000 0.9093000000 1.1563000000
1.2489000000 3.9589000000 3.1128000000
1.2486000000 2.3538000000 3.0467000000
1.2482000000 3.5612000000 3.3815000000
1.2476000000 2.5066000000 3.0731000000
1.2452000000 3.3325000000 3.5268000000
1.0145000000 5.1106000000 1.8314000000
1.0115000000 5.5406000000 1.2570000000
1.0105000000 1.9867000000 2.4514000000
1.0095000000 6.1093000000 0.4896000000
1.0093000000 6.2667000000 0.2846000000
1.0086000000 1.7151000000 2.2963000000
1.0083000000 3.0551000000 3.1668000000
1.0080000000 1.2542000000 1.6232000000
1.0075000000 2.1923000000 2.6573000000
1.0071000000 4.3642000000 2.5632000000
1.0067000000 5.4756000000 1.3448000000
1.0065000000 2.3311000000 2.6784000000
1.0064000000 1.5396000000 2.0808000000
1.0058000000 6.3500000000 0.1710000000
1.0053000000 5.2142000000 1.6966000000
1.0047000000 6.5149000000 0.0215000000
1.0046000000 3.9942000000 2.8076000000
1.0042000000 6.3490000000 0.1779000000
1.0039000000 4.6690000000 2.3509000000
1.0038000000 6.2237000000 0.3364000000
1.0034000000 0.1610000000 0.1565000000
1.0033000000 3.7927000000 2.9385000000
1.0027000000 6.2725000000 0.2764000000
1.0025000000 3.8021000000 2.9335000000
1.0024000000 3.8615000000 2.8936000000
1.0020000000 2.1478000000 2.5480000000
1.0015000000 2.1150000000 2.5953000000
1.0010000000 3.3422000000 3.2416000000
1.0005000000 1.9066000000 2.3853000000
1.0002000000 2.7406000000 3.0218000000
0.9993000000 1.0826000000 1.3914000000
0.9992000000 0.3956000000 0.4730000000
0.9990000000 5.0538000000 1.9118000000
0.9988000000 0.4813000000 0.5836000000
0.9982000000 0.7429000000 0.9356000000
0.9972000000 3.7282000000 2.9799000000
0.9951000000 1.5033000000 2.0310000000
0.7621000000 3.9341000000 2.5655000000
0.7618000000 2.9164000000 2.7896000000
0.7592000000 0.1074000000 0.1591000000
0.7585000000 2.8730000000 2.8249000000
0.7580000000 0.3862000000 0.4506000000
0.7578000000 6.5644000000 0.0305000000
0.7576000000 3.5824000000 2.7958000000
0.7574000000 5.0955000000 1.7755000000
0.7570000000 3.5734000000 2.8019000000
0.7569000000 5.7584000000 0.9667000000
0.7566000000 4.7645000000 2.0030000000
0.7565000000 4.1024000000 2.4420000000
0.7560000000 4.3564000000 2.2777000000
0.7556000000 5.9943000000 0.6526000000
0.7555000000 5.7189000000 1.0193000000
0.7551000000 1.9695000000 2.2195000000
0.7548000000 0.5082000000 0.6206000000
0.7547000000 2.1493000000 2.2648000000
0.7545000000 1.5193000000 1.8366000000
0.7545000000 5.0934000000 1.7767000000
0.7542000000 5.8183000000 0.8777000000
0.7541000000 2.8229000000 2.7829000000
0.7540000000 0.9665000000 1.2410000000
0.7538000000 5.7943000000 0.9160000000
0.7537000000 5.2786000000 1.6672000000
0.7536000000 3.4690000000 2.8638000000
0.7535000000 6.2621000000 0.2867000000
0.7534000000 6.3091000000 0.2248000000
0.7533000000 3.6564000000 2.7389000000
0.7529000000 2.9585000000 2.8759000000
0.7527000000 1.6565000000 1.9279000000
0.7525000000 5.8484000000 0.8411000000
0.7523000000 4.3010000000 2.3043000000
0.7520000000 4.9723000000 1.8587000000
0.7519000000 1.4334000000 1.7797000000
0.7518000000 3.2793000000 3.0473000000
0.7515000000 1.3038000000 1.7399000000
0.7514000000 0.7409000000 0.9293000000
0.7513000000 4.6357000000 2.0766000000
0.7511000000 3.8049000000 2.6378000000
0.7510000000 1.3596000000 1.7757000000
0.7508000000 5.2403000000 1.7186000000
0.7505000000 5.2180000000 1.7418000000
0.7497000000 1.4959000000 1.8137000000
0.7488000000 0.0535000000 0.0761000000
0.7488000000 1.4953000000 1.8142000000
0.7478000000 1.4438000000 1.7816000000
0.7476000000 5.1143000000 1.7482000000
0.7470000000 1.4329000000 1.7693000000
0.7461000000 0.7687000000 0.9755000000
0.5115000000 6.5594000000 0.0309000000
0.5099000000 6.5231000000 0.0813000000
0.5095000000 1.8607000000 1.7797000000
0.5092000000 5.4819000000 1.2321000000
0.5087000000 5.8515000000 0.8355000000
0.5076000000 6.3324000000 0.1954000000
0.5072000000 5.8777000000 0.8091000000
0.5068000000 3.0957000000 2.6831000000
0.5063000000 4.7179000000 1.7416000000
0.5062000000 5.7324000000 1.0542000000
0.5056000000 3.6327000000 2.4696000000
0.5055000000 3.6068000000 2.4886000000
0.5053000000 4.2210000000 2.0745000000
0.5052000000 5.1956000000 1.4190000000
0.5050000000 3.3887000000 2.6364000000
0.5048000000 6.2138000000 0.3521000000
0.5045000000 5.1102000000 1.4720000000
0.5042000000 4.6072000000 1.8153000000
0.5040000000 4.0930000000 2.1558000000
0.5037000000 3.0081000000 2.6252000000
0.5035000000 2.0588000000 1.9067000000
0.5033000000 4.3793000000 1.9641000000
0.5029000000 4.4626000000 1.9067000000
0.5029000000 6.3155000000 0.2154000000
0.5027000000 0.8080000000 1.0708000000
0.5023000000 5.7560000000 0.9538000000
0.5025000000 0.2322000000 0.2471000000
0.5020000000 4.4640000000 1.9005000000
0.5018000000 1.8973000000 1.7978000000
0.5017000000 2.1917000000 2.0007000000
0.5015000000 4.0039000000 2.2105000000
0.5013000000 4.0901000000 2.1569000000
0.5010000000 0.2300000000 0.2429000000
0.5001000000 1.5389000000 1.5508000000
0.4998000000 5.8949000000 0.7874000000
0.4993000000 0.2542000000 0.2811000000
0.4986000000 1.5302000000 1.5430000000
0.4983000000 0.7287000000 0.9116000000
0.4979000000 3.0554000000 2.6433000000
0.4974000000 4.8046000000 1.6748000000
0.4960000000 1.6275000000 1.6077000000
0.2626000000 2.4007000000 1.8598000000
0.2600000000 2.3432000000 1.8135000000
0.2595000000 4.8232000000 1.3821000000
0.2590000000 6.4302000000 0.1351000000
0.2585000000 5.4264000000 0.9774000000
0.2580000000 0.2594000000 0.2840000000
0.2578000000 5.9013000000 0.6587000000
0.2573000000 3.6712000000 2.1576000000
0.2572000000 5.9997000000 0.6425000000
0.2569000000 4.0949000000 1.8718000000
0.2566000000 3.0644000000 2.2923000000
0.2564000000 2.4255000000 1.8643000000
0.2563000000 4.9698000000 1.2773000000
0.2561000000 5.5582000000 0.8817000000
0.2558000000 5.7838000000 0.7291000000
0.2556000000 4.5028000000 1.5928000000
0.2555000000 1.7167000000 1.3875000000
0.2553000000 1.0681000000 0.9518000000
0.2551000000 6.1317000000 0.5129000000
0.2549000000 2.6107000000 2.0599000000
0.2548000000 2.6655000000 2.0250000000
0.2545000000 5.1020000000 1.1835000000
0.2541000000 1.7031000000 1.3717000000
0.2538000000 0.5019000000 0.6290000000
0.2537000000 2.3562000000 1.8176000000
0.2536000000 1.6103000000 1.3106000000
0.2534000000 0.2476000000 0.2674000000
0.2532000000 2.5797000000 1.9653000000
0.2530000000 5.4132000000 0.9774000000
0.2529000000 5.9954000000 0.6398000000
0.2527000000 0.2526000000 0.2806000000
0.2525000000 2.2410000000 1.7364000000
0.2523000000 1.4625000000 1.2122000000
0.2520000000 0.5668000000 0.6118000000
0.2519000000 0.6829000000 0.6917000000
0.2515000000 6.1707000000 0.4679000000
0.2513000000 5.0376000000 1.2251000000
0.2510000000 1.1543000000 1.0022000000
0.2507000000 3.0569000000 2.2773000000
0.2505000000 0.4796000000 0.6068000000
0.2499000000 1.3795000000 1.1550000000
0.2496000000 6.1947000000 0.3685000000
0.2494000000 1.1546000000 1.0018000000
0.2488000000 5.5145000000 0.9087000000
0.2485000000 0.5169000000 0.6270000000
0.2483000000 1.1238000000 0.9842000000
0.2477000000 4.8613000000 1.3419000000
0.2467000000 1.5523000000 1.2666000000
0.2457000000 0.3156000000 0.3531000000
0.2428000000 0.1886000000 0.1928000000
0.0168000000 4.8029000000 1.1088000000
0.0130000000 3.7233000000 1.8309000000
0.0116000000 5.2907000000 0.7749000000
0.0113000000 1.2409000000 0.7853000000
0.0105000000 3.6084000000 1.9073000000
0.0098000000 2.3147000000 1.5013000000
0.0094000000 6.5306000000 0.0553000000
0.0093000000 5.4789000000 0.6565000000
0.0089000000 5.8461000000 0.4038000000
0.0083000000 6.3296000000 0.1493000000
0.0078000000 6.4269000000 0.0599000000
0.0071000000 6.1757000000 0.1821000000
0.0069000000 3.4152000000 2.0292000000
0.0061000000 0.6367000000 0.3706000000
0.0058000000 0.1788000000 0.1427000000
0.0055000000 3.4940000000 1.9797000000
0.0055000000 3.7737000000 1.7898000000
0.0053000000 0.3836000000 0.2027000000
0.0050000000 0.0832000000 0.0497000000
0.0048000000 6.2898000000 0.1801000000
0.0044000000 1.2261000000 0.7630000000
0.0043000000 2.7047000000 1.7542000000
0.0038000000 4.8458000000 1.0662000000
0.0035000000 2.0277000000 1.2990000000
0.0033000000 1.9563000000 1.2546000000
0.0028000000 5.3163000000 0.7535000000
0.0028000000 3.4491000000 2.0050000000
0.0026000000 2.9486000000 1.9198000000
0.0025000000 4.7766000000 1.1099000000
0.0023000000 0.4312000000 0.2283000000
0.0020000000 1.1547000000 0.7184000000
0.0018000000 5.2499000000 0.7993000000
0.0016000000 1.4106000000 0.8871000000
0.0013000000 4.3094000000 1.4255000000
0.0009000000 3.9057000000 1.6969000000
0.0007000000 5.4421000000 0.6647000000
0.0001000000 6.3445000000 0.1282000000
-0.0006000000 2.1485000000 1.3782000000
-0.0010000000 3.5907000000 1.9081000000
-0.0011000000 5.3026000000 0.7610000000
-0.0017000000 6.3040000000 0.1563000000
-0.0018000000 0.6305000000 0.3538000000
-0.0022000000 4.2620000000 1.4490000000
-0.0028000000 2.2217000000 1.4265000000
-0.0056000000 6.1687000000 0.1684000000
-0.0060000000 1.7959000000 1.1373000000
-0.2341000000 3.8525000000 1.4542000000
-0.2391000000 4.1881000000 1.2303000000
-0.2397000000 2.1982000000 1.1336000000
-0.2411000000 5.5323000000 0.3229000000
-0.2413000000 1.9254000000 0.9500000000
-0.2417000000 3.1261000000 1.8291000000
-0.2426000000 6.1864000000 0.0302000000
-0.2429000000 0.9024000000 0.2623000000
-0.2430000000 3.1833000000 1.8672000000
-0.2432000000 6.1882000000 0.0263000000
-0.2436000000 0.1932000000 0.0088000000
-0.2439000000 2.9500000000 1.6353000000
-0.2443000000 0.8480000000 0.2149000000
-0.2449000000 6.1270000000 0.0697000000
-0.2451000000 0.3526000000 0.0390000000
-0.2455000000 0.3682000000 0.0542000000
-0.2457000000 1.1210000000 0.4011000000
-0.2461000000 0.4864000000 0.0484000000
-0.2461000000 5.4700000000 0.3606000000
-0.2463000000 0.8606000000 0.2272000000
-0.2465000000 3.0622000000 1.7845000000
-0.2468000000 5.9614000000 0.1052000000
-0.2470000000 2.5297000000 1.3457000000
-0.2470000000 5.8241000000 0.1195000000
-0.2472000000 5.8147000000 0.1246000000
-0.2474000000 3.2406000000 1.8859000000
-0.2475000000 5.0015000000 0.6696000000
-0.2478000000 0.2187000000 0.0173000000
-0.2482000000 3.1307000000 1.7561000000
-0.2482000000 1.9941000000 0.9959000000
-0.2484000000 1.6407000000 0.7509000000
-0.2485000000 1.9353000000 0.9460000000
-0.2487000000 4.9652000000 0.6927000000
-0.2489000000 2.9666000000 1.7192000000
-0.2490000000 0.7984000000 0.1880000000
-0.2492000000 0.3476000000 0.0248000000
-0.2496000000 2.9073000000 1.5990000000
-0.2497000000 6.0890000000 0.0861000000
-0.2502000000 1.4759000000 0.6390000000
-0.2504000000 5.5525000000 0.3017000000
-0.2509000000 2.9179000000 1.6059000000
-0.2512000000 3.2034000000 1.7944000000
-0.2518000000 1.5618000000 0.6900000000
-0.2525000000 0.5017000000 0.0521000000
-0.2527000000 4.7437000000 0.8409000000
-0.2531000000 1.5376000000 0.6688000000
-0.2537000000 3.2118000000 1.7921000000
-0.2539000000 0.9659000000 0.2933000000
-0.2547000000 0.7672000000 0.1607000000
-0.2560000000 1.2336000000 0.4679000000
-0.4878000000 3.7604000000 1.2234000000
-0.4889000000 3.5566000000 1.3571000000
-0.4911000000 3.6330000000 1.3090000000
-0.4913000000 4.1576000000 0.9538000000
-0.4920000000 4.6591000000 0.6159000000
-0.4924000000 4.1581000000 0.9527000000
-0.4925000000 3.4885000000 1.4042000000
-0.4927000000 1.5945000000 0.4350000000
-0.4931000000 5.7353000000 0.0424000000
-0.4932000000 2.6289000000 1.1276000000
-0.4937000000 0.9161000000 0.0477000000
-0.4939000000 2.0424000000 0.7348000000
-0.4943000000 1.7462000000 0.5318000000
-0.4946000000 5.8178000000 0.0624000000
-0.4946000000 4.3112000000 0.8455000000
-0.4951000000 4.6075000000 0.6490000000
-0.4954000000 5.1135000000 0.3095000000
-0.4955000000 2.9619000000 1.3509000000
-0.4957000000 2.3958000000 0.9683000000
-0.4959000000 4.9453000000 0.4209000000
-0.4964000000 2.5212000000 1.0546000000
-0.4967000000 1.8011000000 0.5680000000
-0.4970000000 5.5447000000 0.0918000000
-0.4974000000 3.2814000000 1.5876000000
-0.4977000000 2.2284000000 0.8547000000
-0.4979000000 1.3762000000 0.2793000000
-0.4981000000 2.8441000000 1.2744000000
-0.4984000000 1.8934000000 0.6295000000
-0.4989000000 5.3404000000 0.1529000000
-0.4996000000 4.7088000000 0.5739000000
-0.5000000000 5.8334000000 0.0417000000
-0.5002000000 3.1191000000 1.5265000000
-0.5008000000 1.2527000000 0.1976000000
-0.5025000000 0.6829000000 0.0389000000
-0.5034000000 0.6349000000 0.0029000000
-0.5063000000 1.6173000000 0.4314000000
-0.7386000000 5.0635000000 0.1307000000
-0.7403000000 4.1233000000 0.6904000000
-0.7407000000 4.6798000000 0.3093000000
-0.7418000000 3.5339000000 1.0806000000
-0.7425000000 3.9624000000 0.7931000000
-0.7431000000 1.4757000000 0.1383000000
-0.7439000000 4.4078000000 0.4888000000
-0.7442000000 5.0012000000 0.1647000000
-0.7445000000 4.9553000000 0.1212000000
-0.7449000000 3.7353000000 0.9473000000
-0.7452000000 4.4381000000 0.4698000000
-0.7455000000 4.8563000000 0.1891000000
-0.7458000000 5.2115000000 0.0234000000
-0.7460000000 4.6677000000 0.3177000000
-0.7462000000 3.1258000000 1.1694000000
-0.7464000000 4.0372000000 0.7391000000
-0.7467000000 3.2059000000 1.2179000000
-0.7468000000 1.9053000000 0.3453000000
-0.7470000000 3.9392000000 0.8037000000
-0.7472000000 4.9259000000 0.1431000000
-0.7476000000 2.6851000000 0.8697000000
-0.7479000000 2.2423000000 0.5741000000
-0.7481000000 3.3611000000 1.1895000000
-0.7488000000 5.2809000000 0.0451000000
-0.7494000000 1.5719000000 0.1171000000
-0.7502000000 1.3415000000 0.0351000000
-0.7509000000 4.8110000000 0.2143000000
-0.7515000000 4.0011000000 0.7551000000
-0.7520000000 1.0786000000 0.0056000000
-0.7530000000 2.4920000000 0.7315000000
-0.7536000000 4.4044000000 0.4838000000
-0.9871000000 4.8348000000 0.0684000000
-0.9894000000 2.7057000000 0.6055000000
-0.9907000000 5.0089000000 0.0224000000
-0.9915000000 2.4303000000 0.4108000000
-0.9920000000 5.0322000000 0.0123000000
-0.9923000000 4.7794000000 0.0300000000
-0.9925000000 4.4384000000 0.1792000000
-0.9927000000 4.2730000000 0.2931000000
-0.9929000000 2.5124000000 0.4660000000
-0.9933000000 4.1655000000 0.3628000000
-0.9940000000 2.2440000000 0.2873000000
-0.9945000000 1.9528000000 0.1646000000
-0.9952000000 4.2116000000 0.3260000000
-0.9955000000 3.8470000000 0.5760000000
-0.9958000000 3.8608000000 0.5680000000
-0.9960000000 3.5699000000 0.7634000000
-0.9961000000 1.5836000000 0.0688000000
-0.9963000000 4.4943000000 0.1405000000
-0.9968000000 3.5153000000 0.7973000000
-0.9970000000 3.6191000000 0.7305000000
-0.9974000000 3.0712000000 0.8386000000
-0.9975000000 1.8238000000 0.0735000000
-0.9978000000 3.9171000000 0.5293000000
-0.9984000000 4.2078000000 0.3325000000
-0.9984000000 2.8519000000 0.6899000000
-0.9992000000 3.6585000000 0.7005000000
-0.9992000000 1.5550000000 0.0418000000
-0.9995000000 4.6274000000 0.1225000000
-0.9996000000 2.7162000000 0.5964000000
-1.0003000000 2.5883000000 0.5131000000
-1.0013000000 2.8879000000 0.7080000000
-1.0021000000 2.5056000000 0.4520000000
-1.0036000000 4.7892000000 0.0836000000
-1.0061000000 2.9471000000 0.7428000000
-1.2389000000 3.1008000000 0.5787000000
-1.2395000000 3.6341000000 0.4352000000
-1.2405000000 4.3568000000 0.0208000000
-1.2419000000 2.1765000000 0.0273000000
-1.2427000000 2.7567000000 0.3420000000
-1.2433000000 2.8058000000 0.3736000000
-1.2436000000 2.7809000000 0.3583000000
-1.2438000000 2.6752000000 0.2868000000
-1.2441000000 4.2689000000 0.0764000000
-1.2446000000 3.5434000000 0.4898000000
-1.2448000000 3.7183000000 0.3696000000
-1.2454000000 3.5625000000 0.4778000000
-1.2458000000 3.2757000000 0.7239000000
-1.2469000000 4.5468000000 0.0418000000
-1.2473000000 3.3357000000 0.6272000000
-1.2475000000 2.2202000000 0.0542000000
-1.2477000000 4.3104000000 0.0446000000
-1.2483000000 3.6065000000 0.4383000000
-1.2485000000 2.9781000000 0.4836000000
-1.2492000000 2.2189000000 0.0494000000
-1.2496000000 2.0546000000 0.0153000000
-1.2504000000 4.2934000000 0.0555000000
-1.2505000000 2.6311000000 0.2506000000
-1.2510000000 4.4993000000 0.0652000000
-1.2520000000 4.0838000000 0.1217000000
-1.2527000000 1.9772000000 0.0364000000
-1.2577000000 2.4204000000 0.0963000000
-1.4897000000 3.5429000000 0.2057000000
-1.4925000000 3.6250000000 0.1434000000
-1.4933000000 2.9184000000 0.1626000000
-1.4957000000 3.5020000000 0.2225000000
-1.4970000000 4.0952000000 0.0506000000
-1.4983000000 3.9186000000 0.0176000000
-1.4996000000 3.7005000000 0.1633000000
-1.5032000000 3.0686000000 0.2503000000
-1.7414000000 3.3977000000 0.0829000000
-1.7453000000 3.6133000000 0.0104000000
-1.7474000000 2.9031000000 0.0726000000
-1.7494000000 2.9746000000 0.0531000000
-1.7525000000 3.5981000000 0.0098000000
