6.7573000000 3.9028000000 0.0471000000
6.7540000000 4.0680000000 0.0430000000
6.7502000000 3.8647000000 0.0264000000
6.5091000000 3.3389000000 0.0642000000
6.5082000000 3.7894000000 0.1670000000
6.5058000000 3.3558000000 0.0777000000
6.5054000000 3.5818000000 0.1239000000
6.5042000000 3.5336000000 0.1060000000
6.5036000000 4.0141000000 0.1751000000
6.5010000000 4.0475000000 0.1623000000
6.2626000000 3.9611000000 0.4411000000
6.2602000000 3.9076000000 0.4558000000
6.2595000000 3.8807000000 0.4492000000
6.2585000000 3.5872000000 0.2982000000
6.2570000000 4.9279000000 0.0524000000
6.2551000000 4.7180000000 0.0922000000
6.2544000000 4.2537000000 0.2812000000
6.2540000000 4.1564000000 0.3400000000
6.2538000000 4.4446000000 0.1770000000
6.2517000000 3.9174000000 0.4605000000
6.2494000000 3.4113000000 0.2052000000
6.0102000000 4.4584000000 0.4073000000
6.0085000000 4.2670000000 0.5153000000
6.0073000000 4.6078000000 0.3276000000
6.0063000000 4.5231000000 0.3793000000
6.0055000000 2.9965000000 0.2101000000
6.0048000000 2.6001000000 0.0638000000
6.0040000000 4.2077000000 0.5516000000
6.0032000000 3.8369000000 0.6923000000
6.0030000000 3.2454000000 0.3577000000
6.0024000000 3.9376000000 0.6891000000
6.0020000000 2.7878000000 0.0988000000
6.0013000000 5.3099000000 0.0805000000
5.9986000000 4.5259000000 0.3842000000
5.9947000000 3.6964000000 0.6197000000
5.7610000000 3.7201000000 0.8594000000
5.7597000000 5.4980000000 0.0603000000
5.7584000000 5.7753000000 0.0538000000
5.7573000000 4.4055000000 0.6884000000
5.7566000000 3.0724000000 0.4984000000
5.7562000000 3.8682000000 0.9367000000
5.7560000000 4.8732000000 0.4207000000
5.7555000000 4.2671000000 0.7650000000
5.7549000000 5.6782000000 0.0359000000
5.7543000000 2.1135000000 0.0318000000
5.7538000000 5.1308000000 0.2783000000
5.7534000000 4.1000000000 0.8644000000
5.7528000000 2.4869000000 0.1721000000
5.7526000000 2.0096000000 0.0455000000
5.7518000000 3.2107000000 0.5860000000
5.7506000000 3.6827000000 0.8564000000
5.7501000000 2.0855000000 0.0951000000
5.7495000000 2.7194000000 0.3043000000
5.7460000000 5.2577000000 0.2112000000
5.5126000000 4.9933000000 0.5938000000
5.5106000000 4.3984000000 0.9328000000
5.5093000000 3.6625000000 1.0808000000
5.5084000000 3.1785000000 0.8046000000
5.5080000000 3.9683000000 1.1792000000
5.5076000000 3.2954000000 0.8718000000
5.5072000000 3.6939000000 1.0917000000
5.5068000000 5.4598000000 0.3287000000
5.5065000000 3.0357000000 0.7250000000
5.5054000000 3.4532000000 0.9647000000
5.5052000000 3.2320000000 0.8355000000
5.5048000000 5.7221000000 0.1838000000
5.5044000000 3.3508000000 0.9025000000
5.5043000000 5.0304000000 0.5787000000
5.5039000000 5.7596000000 0.1675000000
5.5036000000 5.3978000000 0.3729000000
5.5033000000 4.2358000000 1.0325000000
5.5032000000 5.7581000000 0.1694000000
5.5021000000 5.0922000000 0.5498000000
5.5018000000 3.2076000000 0.8287000000
5.5010000000 3.7221000000 1.1219000000
5.5007000000 4.1474000000 1.0867000000
5.4995000000 3.3157000000 0.8914000000
5.4987000000 4.4140000000 0.9354000000
5.2626000000 6.1945000000 0.1585000000
5.2616000000 1.5235000000 0.1112000000
5.2595000000 2.9960000000 0.9410000000
5.2586000000 5.7586000000 0.4075000000
5.2583000000 3.5034000000 1.2379000000
5.2575000000 5.2950000000 0.6680000000
5.2572000000 6.7423000000 0.0018000000
5.2569000000 4.0995000000 1.3533000000
5.2566000000 2.3648000000 0.5866000000
5.2563000000 1.8461000000 0.2930000000
5.2560000000 3.2122000000 1.0756000000
5.2556000000 3.3876000000 1.1731000000
5.2554000000 1.6317000000 0.1724000000
5.2551000000 3.2596000000 1.1017000000
5.2549000000 3.7707000000 1.3878000000
5.2545000000 6.5997000000 0.0779000000
5.2540000000 2.3883000000 0.6015000000
5.2537000000 3.2049000000 1.0674000000
5.2534000000 6.4286000000 0.1064000000
5.2532000000 1.8514000000 0.3040000000
5.2530000000 2.1058000000 0.4417000000
5.2528000000 3.5460000000 1.2621000000
5.2524000000 6.6879000000 0.0381000000
5.2518000000 4.3334000000 1.2242000000
5.2513000000 1.6599000000 0.1966000000
5.2510000000 1.1786000000 0.0744000000
5.2506000000 3.2888000000 1.1200000000
5.2499000000 3.6882000000 1.3484000000
5.2497000000 1.8172000000 0.2892000000
5.2484000000 3.0653000000 0.9928000000
5.2463000000 2.9504000000 0.9356000000
5.0125000000 5.2937000000 0.9168000000
5.0105000000 3.6339000000 1.5448000000
5.0099000000 4.9450000000 1.1099000000
5.0093000000 7.1473000000 0.0147000000
5.0088000000 4.4816000000 1.3791000000
5.0083000000 5.5221000000 0.7893000000
5.0077000000 3.3207000000 1.3725000000
5.0072000000 3.2958000000 1.3604000000
5.0069000000 6.1499000000 0.4324000000
5.0067000000 4.6972000000 1.2642000000
5.0063000000 0.6518000000 0.0114000000
5.0059000000 4.8234000000 1.1845000000
5.0056000000 6.7484000000 0.0925000000
5.0053000000 3.9886000000 1.6623000000
5.0052000000 1.7060000000 0.4620000000
5.0047000000 4.9169000000 1.1353000000
5.0043000000 4.6789000000 1.2749000000
5.0040000000 5.5808000000 0.7603000000
5.0039000000 5.6075000000 0.7453000000
5.0036000000 2.2016000000 0.7507000000
5.0033000000 6.3576000000 0.3197000000
5.0030000000 0.8531000000 0.0571000000
5.0025000000 3.2192000000 1.3209000000
5.0023000000 0.9245000000 0.0986000000
5.0021000000 2.9663000000 1.1807000000
5.0018000000 1.0473000000 0.0947000000
5.0016000000 5.5777000000 0.7626000000
5.0012000000 6.7673000000 0.0881000000
5.0009000000 3.3025000000 1.3721000000
5.0004000000 5.2869000000 0.9290000000
5.0000000000 1.9255000000 0.5925000000
4.9997000000 4.3066000000 1.4895000000
4.9988000000 1.6771000000 0.4486000000
4.7642000000 4.4813000000 1.6208000000
4.7620000000 7.4530000000 0.0833000000
4.7603000000 4.4322000000 1.6512000000
4.7588000000 6.2290000000 0.6341000000
4.7585000000 6.8329000000 0.2981000000
4.7584000000 5.3988000000 1.1030000000
4.7583000000 4.7457000000 1.4792000000
4.7577000000 7.1522000000 0.1086000000
4.7573000000 7.1123000000 0.1322000000
4.7571000000 1.4062000000 0.5400000000
4.7570000000 1.5628000000 0.6284000000
4.7568000000 5.1891000000 1.2280000000
4.7565000000 5.2547000000 1.1848000000
4.7563000000 2.1276000000 0.9429000000
4.7560000000 2.6225000000 1.2239000000
4.7557000000 4.4459000000 1.6489000000
4.7550000000 3.3412000000 1.6355000000
4.7548000000 0.6010000000 0.0813000000
4.7543000000 7.1783000000 0.1046000000
4.7540000000 0.6663000000 0.1212000000
4.7536000000 3.0409000000 1.4666000000
4.7534000000 3.8843000000 1.9280000000
4.7533000000 1.5733000000 0.6319000000
4.7529000000 0.2547000000 0.0384000000
4.7528000000 2.5653000000 1.1982000000
4.7525000000 4.3024000000 1.7298000000
4.7522000000 2.9065000000 1.3931000000
4.7519000000 0.4870000000 0.0955000000
4.7518000000 0.2671000000 0.0497000000
4.7516000000 5.1318000000 1.2612000000
4.7506000000 3.9595000000 1.9249000000
4.7499000000 0.5310000000 0.1267000000
4.7484000000 2.0974000000 0.9382000000
4.7468000000 0.8074000000 0.2076000000
4.5149000000 6.0192000000 0.9931000000
4.5109000000 4.1475000000 2.0499000000
4.5100000000 5.0067000000 1.5703000000
4.5094000000 4.6502000000 1.7736000000
4.5090000000 6.1138000000 0.9451000000
4.5088000000 5.9052000000 1.0627000000
4.5083000000 2.4582000000 1.3769000000
4.5078000000 4.5342000000 1.8421000000
4.5076000000 6.4681000000 0.7383000000
4.5068000000 4.6359000000 1.7830000000
4.5064000000 1.8767000000 1.0534000000
4.5062000000 5.2704000000 1.4233000000
4.5060000000 2.9538000000 1.6584000000
4.5054000000 6.9695000000 0.4602000000
4.5051000000 2.0875000000 1.1741000000
4.5050000000 0.8490000000 0.4707000000
4.5047000000 1.7217000000 0.9625000000
4.5043000000 6.0988000000 0.9576000000
4.5040000000 5.2991000000 1.4106000000
4.5037000000 1.4541000000 0.8119000000
4.5033000000 4.9915000000 1.5865000000
4.5030000000 3.3895000000 1.9124000000
4.5026000000 0.7005000000 0.3837000000
4.5024000000 1.2027000000 0.6722000000
4.5020000000 2.7378000000 1.5451000000
4.5015000000 0.0648000000 0.0090000000
4.5013000000 6.2977000000 0.8435000000
4.5010000000 1.3895000000 0.7834000000
4.5008000000 2.3236000000 1.3037000000
4.5002000000 1.7036000000 0.9547000000
4.4999000000 6.4446000000 0.7641000000
4.4995000000 6.9180000000 0.4967000000
4.4993000000 3.2651000000 1.8459000000
4.4988000000 6.5122000000 0.7327000000
4.4965000000 3.1705000000 1.7947000000
4.2618000000 4.8600000000 1.8973000000
4.2613000000 5.5628000000 1.5012000000
4.2608000000 6.7033000000 0.8559000000
4.2601000000 6.1104000000 1.1934000000
4.2598000000 3.4976000000 2.2118000000
4.2593000000 6.8320000000 0.7859000000
4.2583000000 7.3677000000 0.4663000000
4.2577000000 6.8530000000 0.7687000000
4.2575000000 5.0350000000 1.8029000000
4.2571000000 1.3935000000 1.0159000000
4.2568000000 7.5182000000 0.3174000000
4.2566000000 0.6680000000 0.6062000000
4.2561000000 3.8947000000 2.4258000000
4.2559000000 5.0739000000 1.7787000000
4.2556000000 4.9601000000 1.8462000000
4.2552000000 3.3540000000 2.1352000000
4.2550000000 6.3273000000 1.0728000000
4.2548000000 4.7640000000 1.9571000000
4.2545000000 0.5633000000 0.5504000000
4.2541000000 6.3923000000 1.0340000000
4.2538000000 0.1343000000 0.1386000000
4.2536000000 5.8530000000 1.3408000000
4.2533000000 1.4734000000 1.0683000000
4.2529000000 1.8129000000 1.2645000000
4.2528000000 2.0191000000 1.3867000000
4.2525000000 3.8215000000 2.4075000000
4.2523000000 0.8190000000 0.7015000000
4.2520000000 0.1152000000 0.1169000000
4.2518000000 3.8600000000 2.4147000000
4.2511000000 4.3570000000 2.1963000000
4.2505000000 1.8943000000 1.3074000000
4.2495000000 2.9634000000 1.9151000000
4.2485000000 1.6220000000 1.1562000000
4.2436000000 0.8958000000 0.7530000000
4.0138000000 7.2995000000 0.5591000000
4.0104000000 2.9750000000 2.1625000000
4.0092000000 7.8553000000 0.0788000000
4.0087000000 7.2488000000 0.6159000000
4.0081000000 7.6590000000 0.1605000000
4.0077000000 3.4764000000 2.4459000000
4.0074000000 6.9368000000 0.9539000000
4.0071000000 7.7659000000 0.1090000000
4.0068000000 4.4469000000 2.3871000000
4.0065000000 1.1144000000 1.1100000000
4.0062000000 5.7517000000 1.6406000000
4.0060000000 0.0953000000 0.0919000000
4.0058000000 1.4527000000 1.3002000000
4.0056000000 1.0638000000 1.0832000000
4.0053000000 5.1323000000 1.9945000000
4.0050000000 0.8520000000 0.9394000000
4.0050000000 3.3577000000 2.3807000000
4.0048000000 2.7388000000 2.0316000000
4.0045000000 6.4781000000 1.2319000000
4.0043000000 4.8771000000 2.1412000000
4.0039000000 3.6856000000 2.5707000000
4.0036000000 6.6005000000 1.1645000000
4.0033000000 2.5659000000 1.9380000000
4.0031000000 1.7616000000 1.4850000000
4.0027000000 2.3966000000 1.8391000000
4.0022000000 6.5766000000 1.1810000000
4.0020000000 2.2779000000 1.7658000000
4.0018000000 0.8069000000 0.8833000000
4.0014000000 1.9877000000 1.6078000000
4.0012000000 5.4894000000 1.7967000000
4.0009000000 2.7493000000 2.0407000000
4.0001000000 7.4326000000 0.4066000000
3.9999000000 2.5054000000 1.9011000000
3.9995000000 5.8869000000 1.5734000000
3.9990000000 1.8726000000 1.5466000000
3.9961000000 1.0158000000 1.0617000000
3.9950000000 2.6795000000 2.0074000000
3.7619000000 6.3346000000 1.5528000000
3.7610000000 7.8143000000 0.0540000000
3.7605000000 2.9564000000 2.3960000000
3.7598000000 1.0634000000 1.1969000000
3.7593000000 6.8768000000 1.0413000000
3.7588000000 6.4998000000 1.4459000000
3.7577000000 4.3702000000 2.6660000000
3.7575000000 2.0586000000 1.8887000000
3.7573000000 0.7520000000 0.8390000000
3.7571000000 7.2002000000 0.6754000000
3.7567000000 5.0855000000 2.2674000000
3.7566000000 0.4312000000 0.4779000000
3.7563000000 3.1533000000 2.5047000000
3.7558000000 4.2099000000 2.7611000000
3.7556000000 0.4869000000 0.5402000000
3.7555000000 1.4004000000 1.5087000000
3.7552000000 2.1708000000 1.9574000000
3.7548000000 6.9096000000 1.0122000000
3.7546000000 1.0993000000 1.2327000000
3.7543000000 1.4571000000 1.5475000000
3.7542000000 0.5365000000 0.5974000000
3.7539000000 6.7300000000 1.2121000000
3.7538000000 4.3643000000 2.6822000000
3.7535000000 4.2446000000 2.7474000000
3.7533000000 2.3762000000 2.0711000000
3.7530000000 5.0242000000 2.3084000000
3.7528000000 4.1823000000 2.7842000000
3.7524000000 4.1081000000 2.8286000000
3.7521000000 6.1317000000 1.6779000000
3.7520000000 3.3867000000 2.6486000000
3.7518000000 3.5722000000 2.7516000000
3.7515000000 2.0312000000 1.8829000000
3.7512000000 6.6658000000 1.2800000000
3.7508000000 4.1044000000 2.8300000000
3.7504000000 0.5549000000 0.6126000000
3.7499000000 5.5240000000 2.0230000000
3.7494000000 5.0250000000 2.3032000000
3.7488000000 1.7023000000 1.6982000000
3.7475000000 0.8674000000 0.9677000000
3.7468000000 0.1905000000 0.2058000000
3.5113000000 7.2301000000 0.6414000000
3.5103000000 4.6106000000 2.7747000000
3.5093000000 2.7375000000 2.5172000000
3.5089000000 3.4208000000 2.9077000000
3.5079000000 2.4954000000 2.3814000000
3.5077000000 7.2347000000 0.6400000000
3.5074000000 3.1519000000 2.7512000000
3.5070000000 0.7570000000 0.8442000000
3.5068000000 5.8902000000 2.0616000000
3.5063000000 1.4065000000 1.5807000000
3.5060000000 6.9293000000 0.9824000000
3.5058000000 4.3601000000 2.9203000000
3.5054000000 6.2029000000 1.8078000000
3.5051000000 6.4036000000 1.5803000000
3.5049000000 1.8765000000 2.0309000000
3.5045000000 3.6171000000 3.0252000000
3.5042000000 5.3127000000 2.3850000000
3.5040000000 6.3846000000 1.6027000000
3.5034000000 0.3961000000 0.4380000000
3.5033000000 0.5417000000 0.5972000000
3.5030000000 5.5257000000 2.2661000000
3.5025000000 2.6470000000 2.4724000000
3.5023000000 4.7096000000 2.7292000000
3.5021000000 1.7476000000 1.9447000000
3.5018000000 2.9108000000 2.6232000000
3.5015000000 4.4218000000 2.8952000000
3.5012000000 6.7926000000 1.1348000000
3.5010000000 2.1266000000 2.1797000000
3.5007000000 5.1169000000 2.4997000000
3.5004000000 2.5263000000 2.4045000000
3.4998000000 0.0456000000 0.1180000000
3.4990000000 1.1018000000 1.2329000000
3.4984000000 0.3859000000 0.4291000000
3.4979000000 5.5816000000 2.2424000000
3.4960000000 1.1602000000 1.3036000000
3.2601000000 3.8615000000 3.3841000000
3.2595000000 4.5874000000 3.0361000000
3.2589000000 3.6233000000 3.2616000000
3.2583000000 6.8535000000 1.0696000000
3.2581000000 3.7456000000 3.3378000000
3.2577000000 5.8678000000 2.1909000000
3.2571000000 7.7218000000 0.0839000000
3.2570000000 3.3136000000 3.0922000000
3.2566000000 4.3714000000 3.1649000000
3.2563000000 4.2678000000 3.2224000000
3.2561000000 0.5551000000 0.6177000000
3.2559000000 5.1039000000 2.7449000000
3.2554000000 7.0438000000 0.8533000000
3.2552000000 3.3106000000 3.0884000000
3.2548000000 4.6836000000 2.9890000000
3.2547000000 2.2381000000 2.4601000000
3.2543000000 2.3063000000 2.5221000000
3.2542000000 4.2656000000 3.2244000000
3.2540000000 2.9992000000 2.9204000000
3.2539000000 2.1120000000 2.3724000000
3.2536000000 0.9128000000 1.0225000000
3.2534000000 2.0094000000 2.2711000000
3.2529000000 3.1272000000 2.9950000000
3.2527000000 2.4757000000 2.6262000000
3.2525000000 6.4567000000 1.5168000000
3.2524000000 3.0886000000 2.9694000000
3.2521000000 6.6300000000 1.3242000000
3.2520000000 5.7310000000 2.3261000000
3.2518000000 0.7969000000 0.8950000000
3.2512000000 0.1353000000 0.1415000000
3.2510000000 5.7376000000 2.3238000000
3.2503000000 4.6672000000 3.0020000000
3.2498000000 2.3157000000 2.5351000000
3.2495000000 2.9850000000 2.9200000000
3.2485000000 0.8952000000 1.0036000000
3.2474000000 2.2722000000 2.4977000000
3.2454000000 3.5252000000 3.2281000000
3.0125000000 7.4430000000 0.3942000000
3.0104000000 3.5043000000 3.4492000000
3.0101000000 5.4138000000 2.7017000000
3.0089000000 2.7325000000 3.0136000000
3.0086000000 2.4648000000 2.7834000000
3.0082000000 7.3833000000 0.4672000000
3.0078000000 5.4529000000 2.6564000000
3.0075000000 6.3029000000 1.6894000000
3.0072000000 7.7258000000 0.0777000000
3.0070000000 7.3629000000 0.4875000000
3.0067000000 6.5596000000 1.4005000000
3.0064000000 2.2414000000 2.5243000000
3.0062000000 4.3611000000 3.4154000000
3.0059000000 0.1608000000 0.1675000000
3.0056000000 3.4006000000 3.3880000000
3.0055000000 3.2083000000 3.2796000000
3.0053000000 4.0220000000 3.6094000000
3.0049000000 6.5510000000 1.4124000000
3.0046000000 4.0497000000 3.5970000000
3.0045000000 6.6754000000 1.2753000000
3.0040000000 3.3131000000 3.3444000000
3.0038000000 3.8742000000 3.6445000000
3.0037000000 3.7443000000 3.5830000000
3.0034000000 2.6736000000 2.9625000000
3.0032000000 0.1736000000 0.1800000000
3.0029000000 2.1275000000 2.4086000000
3.0025000000 1.6240000000 1.8303000000
3.0021000000 5.6726000000 2.4071000000
3.0020000000 0.0939000000 0.0979000000
3.0018000000 5.3493000000 2.7748000000
3.0015000000 5.5307000000 2.5701000000
3.0010000000 5.1703000000 2.9478000000
3.0006000000 2.5955000000 2.9106000000
2.9998000000 3.3582000000 3.3756000000
2.9993000000 0.0203000000 0.0882000000
2.9987000000 0.1897000000 0.2046000000
2.9969000000 7.1338000000 0.7484000000
2.9960000000 0.3412000000 0.3710000000
2.9958000000 1.7085000000 1.9215000000
2.7637000000 5.6567000000 2.4304000000
2.7599000000 0.5180000000 0.5698000000
2.7588000000 6.5485000000 1.4142000000
2.7580000000 4.3313000000 3.6782000000
2.7578000000 6.8852000000 1.0342000000
2.7576000000 1.7261000000 1.9428000000
2.7572000000 0.6719000000 0.7471000000
2.7568000000 7.4256000000 0.4169000000
2.7566000000 3.0143000000 3.3911000000
2.7564000000 5.7183000000 2.3597000000
2.7562000000 6.0904000000 1.9319000000
2.7560000000 0.9022000000 1.0115000000
2.7557000000 2.2439000000 2.5303000000
2.7555000000 3.6248000000 3.7631000000
2.7553000000 1.3234000000 1.4863000000
2.7550000000 6.5028000000 1.4627000000
2.7550000000 4.8958000000 3.2879000000
2.7548000000 0.3530000000 0.3861000000
2.7545000000 6.9545000000 0.9571000000
2.7543000000 6.6752000000 1.2716000000
2.7540000000 5.2628000000 2.8772000000
2.7538000000 6.3174000000 1.6776000000
2.7536000000 1.1655000000 1.3068000000
2.7533000000 2.1234000000 2.3960000000
2.7528000000 0.6967000000 0.7745000000
2.7526000000 4.0394000000 3.8470000000
2.7524000000 2.3830000000 2.6878000000
2.7521000000 1.0953000000 1.2307000000
2.7519000000 1.5416000000 1.7348000000
2.7518000000 5.4770000000 2.6348000000
2.7515000000 3.0669000000 3.4318000000
2.7513000000 2.3915000000 2.6962000000
2.7510000000 1.8980000000 2.1405000000
2.7506000000 6.4605000000 1.5179000000
2.7502000000 1.6770000000 1.8853000000
2.7498000000 4.8178000000 3.3602000000
2.7496000000 0.4859000000 0.5295000000
2.7489000000 2.6777000000 3.0231000000
2.7485000000 4.3065000000 3.6992000000
2.7461000000 4.4062000000 3.6448000000
2.5120000000 2.6066000000 2.9453000000
2.5115000000 3.4070000000 3.8348000000
2.5110000000 7.0555000000 0.8376000000
2.5098000000 2.4419000000 2.7526000000
2.5092000000 5.8530000000 2.2005000000
2.5082000000 5.5055000000 2.5987000000
2.5078000000 6.6813000000 1.2594000000
2.5077000000 0.0599000000 0.1288000000
2.5070000000 2.3466000000 2.6460000000
2.5067000000 0.4804000000 0.5290000000
2.5062000000 3.8011000000 4.1094000000
2.5058000000 1.6116000000 1.8135000000
2.5055000000 4.5638000000 3.6677000000
2.5052000000 7.6348000000 0.1762000000
2.5050000000 3.5359000000 3.9358000000
2.5048000000 6.1253000000 1.8947000000
2.5046000000 6.6624000000 1.2922000000
2.5043000000 2.3955000000 2.7023000000
2.5040000000 2.2972000000 2.5941000000
2.5037000000 7.2051000000 0.6716000000
2.5033000000 0.7834000000 0.8715000000
2.5030000000 2.3666000000 2.6736000000
2.5028000000 3.3270000000 3.7565000000
2.5026000000 2.3703000000 2.6780000000
2.5024000000 1.9457000000 2.1988000000
2.5020000000 2.3092000000 2.6091000000
2.5018000000 5.3772000000 2.7398000000
2.5017000000 6.1800000000 1.8346000000
2.5012000000 2.0275000000 2.2908000000
2.5008000000 4.3045000000 3.9322000000
2.5005000000 4.0417000000 4.0957000000
2.4991000000 4.3027000000 3.9284000000
2.4982000000 3.8404000000 4.1344000000
2.4978000000 7.0137000000 0.8883000000
2.4971000000 0.0753000000 0.0707000000
2.4965000000 4.1919000000 4.0122000000
2.4942000000 0.1382000000 0.1428000000
2.2617000000 3.5869000000 4.0553000000
2.2610000000 5.8625000000 2.1922000000
2.2608000000 7.7430000000 0.0648000000
2.2595000000 2.6088000000 2.9428000000
2.2582000000 5.8401000000 2.2188000000
2.2575000000 5.2855000000 2.8486000000
2.2572000000 1.2184000000 1.3708000000
2.2571000000 6.0497000000 1.9808000000
2.2569000000 5.8330000000 2.2229000000
2.2566000000 1.3902000000 1.5636000000
2.2565000000 4.9218000000 3.2620000000
2.2563000000 7.5092000000 0.3234000000
2.2561000000 4.9099000000 3.2730000000
2.2558000000 3.4769000000 3.9293000000
2.2555000000 4.3700000000 3.8842000000
2.2553000000 4.6821000000 3.5352000000
2.2550000000 1.6897000000 1.9051000000
2.2547000000 4.1763000000 4.1024000000
2.2544000000 0.5380000000 0.5931000000
2.2542000000 0.5590000000 0.6164000000
2.2540000000 3.5347000000 3.9980000000
2.2538000000 3.4215000000 3.8704000000
2.2536000000 6.1517000000 1.8627000000
2.2535000000 3.9788000000 4.3375000000
2.2535000000 4.5073000000 3.7304000000
2.2533000000 4.1082000000 4.1825000000
2.2528000000 0.2541000000 0.2756000000
2.2525000000 0.8632000000 0.9689000000
2.2523000000 5.4586000000 2.6529000000
2.2521000000 1.4515000000 1.6313000000
2.2515000000 5.6668000000 2.4160000000
2.2508000000 0.0589000000 0.1289000000
2.2506000000 2.4637000000 2.7816000000
2.2503000000 0.2791000000 0.3042000000
2.2501000000 1.6621000000 1.8706000000
2.2498000000 0.4245000000 0.4683000000
2.2494000000 3.1180000000 3.5269000000
2.2474000000 1.0943000000 1.2265000000
2.2463000000 1.3751000000 1.5443000000
2.0119000000 6.2202000000 1.7876000000
2.0108000000 4.6383000000 3.5812000000
2.0100000000 2.8954000000 3.2710000000
2.0096000000 7.6132000000 0.2055000000
2.0093000000 4.8777000000 3.3099000000
2.0090000000 6.6434000000 1.3093000000
2.0087000000 7.5599000000 0.2653000000
2.0081000000 0.5933000000 0.6598000000
2.0078000000 4.0046000000 4.1134000000
2.0072000000 3.9727000000 4.1400000000
2.0070000000 7.0896000000 0.7974000000
2.0067000000 0.4171000000 0.4568000000
2.0065000000 2.5156000000 2.8391000000
2.0063000000 2.2332000000 2.5219000000
2.0059000000 6.9638000000 0.9459000000
2.0055000000 6.4772000000 1.4941000000
2.0054000000 3.2282000000 3.6471000000
2.0053000000 7.2023000000 0.6735000000
2.0050000000 1.8054000000 2.0347000000
2.0048000000 5.5209000000 2.5820000000
2.0043000000 3.1730000000 3.5915000000
2.0040000000 4.1395000000 4.0399000000
2.0038000000 5.1031000000 3.0549000000
2.0033000000 0.1014000000 0.1050000000
2.0031000000 4.2954000000 3.9258000000
2.0029000000 2.4548000000 2.7738000000
2.0026000000 3.8213000000 4.1218000000
2.0023000000 7.4394000000 0.4084000000
2.0021000000 2.9742000000 3.3623000000
2.0019000000 4.4298000000 3.7972000000
2.0015000000 2.5079000000 2.8332000000
2.0012000000 6.7064000000 1.2364000000
2.0010000000 3.2446000000 3.6719000000
2.0008000000 0.4864000000 0.5415000000
2.0003000000 1.9758000000 2.2259000000
1.9998000000 3.3448000000 3.7838000000
1.9992000000 3.3028000000 3.7337000000
1.9983000000 0.5640000000 0.6261000000
1.7622000000 6.9437000000 0.9647000000
1.7605000000 3.3795000000 3.6332000000
1.7596000000 4.6575000000 3.4878000000
1.7591000000 5.2662000000 2.8746000000
1.7586000000 6.2743000000 1.7241000000
1.7581000000 7.5850000000 0.2396000000
1.7579000000 2.5209000000 2.8486000000
1.7570000000 4.8129000000 3.3650000000
1.7568000000 0.9279000000 1.0397000000
1.7563000000 4.5086000000 3.5845000000
1.7561000000 6.2202000000 1.7864000000
1.7559000000 7.3450000000 0.5082000000
1.7554000000 4.1735000000 3.7749000000
1.7552000000 6.6436000000 1.3072000000
1.7550000000 3.6034000000 3.7515000000
1.7546000000 5.6763000000 2.4056000000
1.7544000000 0.8995000000 1.0061000000
1.7543000000 7.1273000000 0.7548000000
1.7540000000 5.2013000000 2.9410000000
1.7539000000 6.7370000000 1.2015000000
1.7536000000 6.8017000000 1.1283000000
1.7533000000 1.2311000000 1.3852000000
1.7531000000 0.1576000000 0.1651000000
1.7529000000 7.7665000000 0.1074000000
1.7527000000 5.2294000000 2.9119000000
1.7525000000 4.1677000000 3.7698000000
1.7523000000 1.9710000000 2.2159000000
1.7520000000 3.8162000000 3.8749000000
1.7518000000 1.5246000000 1.7186000000
1.7510000000 5.5741000000 2.5264000000
1.7509000000 1.4334000000 1.6164000000
1.7505000000 6.6397000000 1.3102000000
1.7503000000 7.0298000000 0.8648000000
1.7498000000 7.3183000000 0.5428000000
1.7493000000 1.3003000000 1.4590000000
1.7485000000 2.5482000000 2.8745000000
1.7468000000 0.8086000000 0.9070000000
1.7458000000 4.1877000000 3.7565000000
1.7433000000 4.8028000000 3.3727000000
1.5108000000 1.2473000000 1.4021000000
1.5085000000 4.4136000000 3.3928000000
1.5077000000 7.5098000000 0.3246000000
1.5075000000 6.8778000000 1.0387000000
1.5073000000 5.9500000000 2.0940000000
1.5070000000 5.6046000000 2.4886000000
1.5070000000 2.9716000000 3.1504000000
1.5066000000 4.1653000000 3.5310000000
1.5062000000 5.3300000000 2.7943000000
1.5059000000 1.4503000000 1.6272000000
1.5056000000 0.0435000000 0.1071000000
1.5055000000 2.9337000000 3.1297000000
1.5052000000 7.0377000000 0.8570000000
1.5049000000 5.2923000000 2.8261000000
1.5044000000 5.8744000000 2.1833000000
1.5041000000 1.9830000000 2.2403000000
1.5038000000 3.1311000000 3.2411000000
1.5035000000 6.2214000000 1.7880000000
1.5033000000 4.6052000000 3.2782000000
1.5031000000 7.0041000000 0.8960000000
1.5030000000 0.6820000000 0.7681000000
1.5027000000 6.3603000000 1.6278000000
1.5025000000 4.7244000000 3.2110000000
1.5023000000 2.4177000000 2.7276000000
1.5022000000 5.3141000000 2.8059000000
1.5018000000 7.6628000000 0.1476000000
1.5015000000 3.1014000000 3.2187000000
1.5009000000 7.4203000000 0.4207000000
1.5006000000 6.1045000000 1.9205000000
1.5000000000 1.5036000000 1.6884000000
1.4992000000 0.9526000000 1.0691000000
1.4990000000 0.2880000000 0.3147000000
1.4980000000 1.4991000000 1.6869000000
1.4968000000 3.7822000000 3.5958000000
1.2611000000 2.8109000000 2.8182000000
1.2603000000 7.2510000000 0.6190000000
1.2584000000 2.0863000000 2.3346000000
1.2576000000 6.4177000000 1.5621000000
1.2575000000 5.5922000000 2.4626000000
1.2573000000 0.6741000000 0.7504000000
1.2570000000 6.4284000000 1.5437000000
1.2565000000 7.8483000000 0.0886000000
1.2563000000 2.9298000000 2.8844000000
1.2553000000 7.1220000000 0.7710000000
1.2552000000 5.8932000000 2.1632000000
1.2550000000 4.0350000000 3.3572000000
1.2547000000 1.1860000000 1.3346000000
1.2547000000 1.8050000000 2.0332000000
1.2543000000 2.0210000000 2.2790000000
1.2540000000 1.3828000000 1.5587000000
1.2536000000 2.3865000000 2.5737000000
1.2534000000 4.7321000000 2.9650000000
1.2533000000 1.8256000000 2.0638000000
1.2530000000 2.9010000000 2.8660000000
1.2526000000 2.8541000000 2.8413000000
1.2521000000 2.7714000000 2.7901000000
1.2517000000 5.7633000000 2.3088000000
1.2514000000 2.7449000000 2.7735000000
1.2510000000 5.6879000000 2.3755000000
1.2505000000 1.4754000000 1.6606000000
1.2499000000 1.4956000000 1.6825000000
1.2496000000 5.2442000000 2.6699000000
1.2493000000 0.4672000000 0.5208000000
1.2480000000 1.3878000000 1.5592000000
1.2478000000 5.4789000000 2.5337000000
1.2471000000 5.2129000000 2.6868000000
1.0123000000 6.9254000000 0.9858000000
1.0117000000 7.1756000000 0.7043000000
1.0095000000 6.8354000000 1.0883000000
1.0084000000 3.2744000000 2.8417000000
1.0079000000 6.2442000000 1.7601000000
1.0071000000 6.1353000000 1.8646000000
1.0069000000 0.8606000000 0.9575000000
1.0067000000 7.0897000000 0.8018000000
1.0065000000 4.6580000000 2.7620000000
1.0063000000 0.9083000000 1.0102000000
1.0059000000 4.6243000000 2.7763000000
1.0055000000 6.5282000000 1.4387000000
1.0053000000 5.8713000000 2.0705000000
1.0051000000 2.0710000000 2.1549000000
1.0050000000 3.1452000000 2.7527000000
1.0048000000 4.7176000000 2.7260000000
1.0043000000 0.0581000000 0.1220000000
1.0040000000 6.9196000000 0.9916000000
1.0037000000 6.9121000000 1.0018000000
1.0033000000 0.9437000000 1.0565000000
1.0030000000 0.6693000000 0.7447000000
1.0029000000 1.9270000000 2.0657000000
1.0023000000 0.4089000000 0.4462000000
1.0022000000 4.9625000000 2.5884000000
1.0020000000 6.0019000000 1.9792000000
1.0018000000 3.3729000000 2.8864000000
1.0014000000 3.8555000000 3.1466000000
1.0007000000 0.1878000000 0.1952000000
1.0004000000 0.5163000000 0.5771000000
1.0001000000 7.5408000000 0.2873000000
0.9996000000 0.8073000000 0.8989000000
0.9991000000 0.5547000000 0.6146000000
0.9978000000 0.2499000000 0.2665000000
0.9969000000 7.4562000000 0.3870000000
0.7668000000 7.1203000000 0.7693000000
0.7620000000 6.4545000000 1.4843000000
0.7613000000 4.5285000000 2.5889000000
0.7607000000 7.4356000000 0.4077000000
0.7592000000 1.5642000000 1.6212000000
0.7586000000 4.3775000000 2.6805000000
0.7583000000 6.0299000000 1.7390000000
0.7578000000 4.7739000000 2.4538000000
0.7575000000 2.5287000000 2.1625000000
0.7570000000 0.1881000000 0.2040000000
0.7566000000 5.3244000000 2.1368000000
0.7565000000 3.9831000000 2.8995000000
0.7561000000 7.3705000000 0.4857000000
0.7558000000 6.9421000000 0.9701000000
0.7554000000 7.2169000000 0.6614000000
0.7553000000 5.2299000000 2.1989000000
0.7551000000 4.3198000000 2.7080000000
0.7549000000 4.7189000000 2.4765000000
0.7547000000 0.9849000000 1.0976000000
0.7545000000 4.2229000000 2.7643000000
0.7543000000 0.3784000000 0.4171000000
0.7541000000 2.0045000000 1.8614000000
0.7537000000 4.1773000000 2.7833000000
0.7534000000 5.5724000000 1.9912000000
0.7532000000 6.4050000000 1.5098000000
0.7530000000 1.8421000000 1.7672000000
0.7527000000 2.7660000000 2.2966000000
0.7525000000 0.3442000000 0.3759000000
0.7524000000 7.6151000000 0.2035000000
0.7523000000 1.2305000000 1.3629000000
0.7521000000 3.0195000000 2.4365000000
0.7519000000 4.8323000000 2.4100000000
0.7518000000 7.7336000000 0.0717000000
0.7516000000 6.3512000000 1.5530000000
0.7513000000 0.8821000000 0.9856000000
0.7508000000 5.9393000000 1.7840000000
0.7503000000 6.3458000000 1.5489000000
0.7501000000 0.8507000000 0.9575000000
0.7497000000 0.9549000000 1.0722000000
0.7494000000 0.6629000000 0.7366000000
0.7491000000 0.5571000000 0.6198000000
0.7477000000 0.5550000000 0.6208000000
0.7459000000 0.5285000000 0.5864000000
0.5135000000 7.8568000000 0.0763000000
0.5123000000 7.3178000000 0.5366000000
0.5103000000 6.9830000000 0.8973000000
0.5090000000 4.5630000000 2.3265000000
0.5082000000 7.2678000000 0.5967000000
0.5079000000 5.6048000000 1.7365000000
0.5077000000 7.5232000000 0.3106000000
0.5075000000 5.1075000000 2.0152000000
0.5072000000 4.9367000000 2.1072000000
0.5070000000 6.1871000000 1.4052000000
0.5068000000 5.8401000000 1.5984000000
0.5062000000 5.8967000000 1.5666000000
0.5058000000 5.6401000000 1.7153000000
0.5057000000 4.7698000000 2.2005000000
0.5050000000 7.3264000000 0.5326000000
0.5048000000 4.6355000000 2.2927000000
0.5045000000 4.3210000000 2.4600000000
0.5044000000 2.3827000000 1.8323000000
0.5041000000 2.6192000000 1.9666000000
0.5040000000 2.1348000000 1.6919000000
0.5036000000 6.5654000000 1.1824000000
0.5035000000 2.6999000000 2.0147000000
0.5033000000 6.3998000000 1.2732000000
0.5030000000 3.3420000000 2.3817000000
0.5028000000 1.3577000000 1.2472000000
0.5027000000 3.1043000000 2.2415000000
0.5022000000 2.9516000000 2.1552000000
0.5019000000 2.6841000000 1.9996000000
0.5017000000 0.9940000000 1.0454000000
0.5015000000 1.2140000000 1.1646000000
0.5013000000 0.2935000000 0.3224000000
0.5008000000 1.3175000000 1.2207000000
0.5003000000 1.1329000000 1.1165000000
0.4995000000 3.6044000000 2.5225000000
0.4992000000 0.2427000000 0.2636000000
0.4987000000 3.9914000000 2.6386000000
0.4975000000 0.9132000000 0.9755000000
0.4973000000 1.3579000000 1.2411000000
0.2620000000 3.9466000000 2.4191000000
0.2600000000 7.3146000000 0.5049000000
0.2589000000 2.8644000000 1.8690000000
0.2585000000 7.2282000000 0.5734000000
0.2581000000 6.3050000000 1.0978000000
0.2578000000 0.9185000000 0.7638000000
0.2576000000 7.0170000000 0.6914000000
0.2575000000 7.0658000000 0.6599000000
0.2570000000 6.8403000000 0.7861000000
0.2565000000 7.1225000000 0.6223000000
0.2564000000 6.7329000000 0.8501000000
0.2562000000 4.2339000000 2.2644000000
0.2561000000 1.8527000000 1.2870000000
0.2560000000 2.3592000000 1.5767000000
0.2556000000 6.5415000000 0.9508000000
0.2555000000 6.5653000000 0.9395000000
0.2551000000 5.5777000000 1.5010000000
0.2548000000 3.9113000000 2.4315000000
0.2546000000 4.9762000000 1.8408000000
0.2544000000 0.5158000000 0.5096000000
0.2541000000 5.6248000000 1.4758000000
0.2538000000 2.8698000000 1.8609000000
0.2535000000 1.6402000000 1.1669000000
0.2532000000 4.8315000000 1.9197000000
0.2530000000 0.9281000000 0.7600000000
0.2527000000 2.9038000000 1.8785000000
0.2523000000 4.5290000000 2.0951000000
0.2520000000 5.9802000000 1.2740000000
0.2517000000 0.9363000000 0.7654000000
0.2515000000 1.2753000000 0.9601000000
0.2514000000 0.4725000000 0.4809000000
0.2509000000 7.4831000000 0.3501000000
0.2507000000 2.7137000000 1.7703000000
0.2500000000 5.8003000000 1.3684000000
0.2498000000 1.3202000000 0.9825000000
0.2491000000 3.7857000000 2.3789000000
0.2489000000 6.6290000000 0.9010000000
0.2479000000 0.4925000000 0.4966000000
0.2473000000 5.1771000000 1.7187000000
0.2455000000 0.5606000000 0.5453000000
0.0178000000 7.1159000000 0.3947000000
0.0116000000 0.8675000000 0.4888000000
0.0110000000 7.6482000000 0.0884000000
0.0102000000 6.0879000000 0.9699000000
0.0089000000 6.9147000000 0.4940000000
0.0088000000 7.7562000000 0.0871000000
0.0078000000 0.3519000000 0.1996000000
0.0076000000 7.5280000000 0.1550000000
0.0072000000 6.1452000000 0.9347000000
0.0068000000 6.1983000000 0.9033000000
0.0065000000 2.3975000000 1.3517000000
0.0059000000 0.8726000000 0.4853000000
0.0057000000 7.0010000000 0.4477000000
0.0055000000 3.8357000000 2.1686000000
0.0052000000 2.1426000000 1.2045000000
0.0050000000 2.9915000000 1.6866000000
0.0048000000 6.7311000000 0.6045000000
0.0047000000 5.0546000000 1.5521000000
0.0045000000 6.4474000000 0.7622000000
0.0042000000 2.7488000000 1.5463000000
0.0040000000 3.2336000000 1.8241000000
0.0037000000 0.3412000000 0.1789000000
0.0033000000 7.2448000000 0.3087000000
0.0030000000 3.9921000000 2.1562000000
0.0028000000 1.5600000000 0.8746000000
0.0025000000 3.0392000000 1.7117000000
0.0024000000 4.5992000000 1.8068000000
0.0021000000 0.5083000000 0.2760000000
0.0021000000 5.0720000000 1.5474000000
0.0017000000 2.2904000000 1.2844000000
0.0015000000 0.7980000000 0.4407000000
0.0005000000 0.5270000000 0.2823000000
0.0000000000 1.0463000000 0.5786000000
-0.0009000000 0.5979000000 0.3283000000
-0.0015000000 4.8016000000 1.6853000000
-0.0020000000 3.4624000000 1.9462000000
-0.0028000000 1.5218000000 0.8497000000
-0.2378000000 5.7183000000 0.9369000000
-0.2396000000 2.4822000000 1.1611000000
-0.2402000000 7.5508000000 0.0429000000
-0.2403000000 6.7350000000 0.3575000000
-0.2414000000 4.4675000000 1.6440000000
-0.2418000000 7.4304000000 0.0422000000
-0.2424000000 4.1965000000 1.7895000000
-0.2428000000 5.9566000000 0.8027000000
-0.2434000000 6.5684000000 0.4529000000
-0.2442000000 7.1455000000 0.1239000000
-0.2445000000 0.6699000000 0.1267000000
-0.2449000000 5.4328000000 1.0970000000
-0.2452000000 1.4461000000 0.5635000000
-0.2457000000 1.5054000000 0.5945000000
-0.2459000000 3.9085000000 1.9411000000
-0.2461000000 4.8703000000 1.4116000000
-0.2463000000 6.6341000000 0.4091000000
-0.2465000000 0.3641000000 0.1042000000
-0.2467000000 4.7067000000 1.5026000000
-0.2470000000 6.0361000000 0.7478000000
-0.2474000000 0.6554000000 0.1158000000
-0.2475000000 5.6175000000 0.9806000000
-0.2476000000 5.6575000000 0.9624000000
-0.2479000000 3.8582000000 1.9189000000
-0.2481000000 3.9685000000 1.9200000000
-0.2484000000 1.6999000000 0.7093000000
-0.2487000000 2.4098000000 1.1137000000
-0.2492000000 1.2059000000 0.4257000000
-0.2497000000 0.7299000000 0.1592000000
-0.2501000000 0.9669000000 0.2926000000
-0.2506000000 1.3652000000 0.5169000000
-0.2512000000 6.7641000000 0.3275000000
-0.2515000000 5.2646000000 1.1783000000
-0.2521000000 2.6328000000 1.2327000000
-0.2533000000 1.5807000000 0.6308000000
-0.4892000000 3.6193000000 1.5566000000
-0.4908000000 4.8927000000 1.1574000000
-0.4918000000 4.6456000000 1.2965000000
-0.4921000000 3.6953000000 1.5980000000
-0.4929000000 2.5097000000 0.9251000000
-0.4937000000 2.7890000000 1.0859000000
-0.4945000000 2.3539000000 0.8331000000
-0.4947000000 4.0337000000 1.6400000000
-0.4949000000 5.2856000000 0.9301000000
-0.4953000000 1.7445000000 0.4913000000
-0.4954000000 4.0472000000 1.6325000000
-0.4956000000 5.0721000000 1.0513000000
-0.4960000000 5.4435000000 0.8368000000
-0.4963000000 2.9518000000 1.1742000000
-0.4964000000 1.5151000000 0.3581000000
-0.4967000000 4.7057000000 1.2530000000
-0.4968000000 0.7612000000 0.0807000000
-0.4970000000 5.0466000000 1.0619000000
-0.4973000000 1.1083000000 0.1273000000
-0.4975000000 4.5590000000 1.3398000000
-0.4979000000 5.7872000000 0.6437000000
-0.4982000000 2.6196000000 0.9815000000
-0.4982000000 4.3443000000 1.4635000000
-0.4986000000 2.6721000000 1.0159000000
-0.4990000000 4.8820000000 1.1557000000
-0.4993000000 0.9545000000 0.1087000000
-0.4995000000 3.3799000000 1.4153000000
-0.5000000000 0.7389000000 0.0642000000
-0.5001000000 3.3034000000 1.3646000000
-0.5005000000 5.4319000000 0.8360000000
-0.5011000000 6.4953000000 0.2419000000
-0.5030000000 3.5543000000 1.5136000000
-0.5033000000 2.4893000000 0.9051000000
-0.7385000000 5.4419000000 0.6043000000
-0.7396000000 4.1060000000 1.3532000000
-0.7404000000 3.2974000000 1.1255000000
-0.7415000000 1.0994000000 0.0287000000
-0.7421000000 4.9562000000 0.8704000000
-0.7426000000 1.8087000000 0.2843000000
-0.7434000000 1.3998000000 0.1300000000
-0.7440000000 2.1742000000 0.4888000000
-0.7444000000 5.1947000000 0.7346000000
-0.7447000000 2.2572000000 0.5365000000
-0.7450000000 3.6370000000 1.3154000000
-0.7452000000 1.2001000000 0.0897000000
-0.7455000000 1.8809000000 0.3203000000
-0.7457000000 2.8853000000 0.8898000000
-0.7462000000 2.3022000000 0.5590000000
-0.7465000000 6.7211000000 0.0180000000
-0.7469000000 1.5272000000 0.1143000000
-0.7475000000 4.5840000000 1.0815000000
-0.7477000000 3.7429000000 1.3739000000
-0.7479000000 1.1313000000 0.0404000000
-0.7484000000 2.9739000000 0.9394000000
-0.7497000000 4.8955000000 0.9005000000
-0.7502000000 4.5775000000 1.0836000000
-0.7506000000 3.4559000000 1.2088000000
-0.7512000000 1.9243000000 0.3429000000
-0.7516000000 1.4251000000 0.0581000000
-0.7523000000 5.0592000000 0.8065000000
-0.7530000000 1.9719000000 0.3688000000
-0.9888000000 5.9812000000 0.1248000000
-0.9912000000 6.0026000000 0.1150000000
-0.9919000000 3.2257000000 0.8469000000
-0.9925000000 4.5802000000 0.8398000000
-0.9932000000 4.5692000000 0.8490000000
-0.9934000000 4.8017000000 0.7160000000
-0.9936000000 3.1620000000 0.8015000000
-0.9939000000 5.2242000000 0.4757000000
-0.9942000000 2.5379000000 0.4501000000
-0.9945000000 3.8755000000 1.1848000000
-0.9949000000 5.6314000000 0.2411000000
-0.9950000000 4.2269000000 1.0385000000
-0.9956000000 2.8255000000 0.6117000000
-0.9959000000 3.1085000000 0.7637000000
-0.9966000000 6.1152000000 0.0440000000
-0.9970000000 1.7861000000 0.0927000000
-0.9972000000 2.8056000000 0.5921000000
-0.9978000000 2.6338000000 0.4989000000
-0.9985000000 2.1478000000 0.2241000000
-0.9991000000 4.0747000000 1.1178000000
-0.9995000000 2.5515000000 0.4470000000
-0.9999000000 2.9942000000 0.7012000000
-1.0015000000 3.5662000000 1.0277000000
-1.0021000000 4.9849000000 0.6036000000
-1.0046000000 4.9507000000 0.6172000000
-1.2417000000 4.2691000000 0.7745000000
-1.2427000000 4.8843000000 0.4216000000
-1.2432000000 4.3577000000 0.7226000000
-1.2445000000 5.5065000000 0.0657000000
-1.2448000000 3.7052000000 0.8606000000
-1.2450000000 5.3215000000 0.1713000000
-1.2456000000 5.4763000000 0.0841000000
-1.2460000000 5.0184000000 0.3402000000
-1.2470000000 5.0407000000 0.3290000000
-1.2474000000 3.5269000000 0.7631000000
-1.2481000000 3.3623000000 0.6702000000
-1.2491000000 5.4104000000 0.1131000000
-1.2505000000 4.2495000000 0.7755000000
-1.2511000000 5.6221000000 0.0719000000
-1.2519000000 2.8037000000 0.3491000000
-1.4907000000 5.2800000000 0.0311000000
-1.4921000000 3.9921000000 0.6794000000
-1.4939000000 3.3479000000 0.4211000000
-1.4940000000 5.1107000000 0.1224000000
-1.4947000000 3.3971000000 0.4426000000
-1.4954000000 4.0763000000 0.6385000000
-1.4960000000 3.7797000000 0.6627000000
-1.4976000000 4.1108000000 0.6105000000
-1.4985000000 2.9074000000 0.1614000000
-1.4997000000 4.3475000000 0.4781000000
-1.5012000000 3.6474000000 0.5800000000
-1.5032000000 4.3768000000 0.4524000000
-1.7407000000 4.7499000000 0.0891000000
-1.7415000000 3.2581000000 0.1256000000
-1.7427000000 4.8710000000 0.0897000000
-1.7435000000 3.8346000000 0.4484000000
-1.7449000000 4.8384000000 0.0319000000
-1.7455000000 3.2975000000 0.1399000000
-1.7457000000 3.6089000000 0.3193000000
-1.7459000000 4.3713000000 0.2229000000
-1.7462000000 4.5708000000 0.1011000000
-1.7467000000 3.5072000000 0.2600000000
-1.7472000000 4.3929000000 0.2087000000
-1.7479000000 3.2969000000 0.1405000000
-1.7495000000 3.5649000000 0.2878000000
-1.7512000000 3.9602000000 0.4470000000
-1.7533000000 3.1924000000 0.0759000000
-1.9892000000 4.2103000000 0.0733000000
-1.9912000000 3.9487000000 0.2062000000
-1.9925000000 3.7692000000 0.1659000000
-1.9935000000 4.2575000000 0.1187000000
-1.9944000000 4.0361000000 0.1617000000
-1.9963000000 4.4756000000 0.0667000000
-1.9971000000 3.6353000000 0.0854000000
-1.9983000000 3.2376000000 0.0086000000
-1.9992000000 3.7493000000 0.1501000000
-1.9999000000 3.5989000000 0.0631000000
