3.0043000000 3.5059000000 1.2453000000
3.0043000000 4.4761000000 0.8249000000
3.0042000000 1.7007000000 0.9611000000
3.0041000000 5.7472000000 0.1278000000
3.0038000000 5.7920000000 0.0907000000
3.0037000000 1.6675000000 0.9462000000
3.0036000000 2.6176000000 1.3591000000
3.0036000000 3.7793000000 1.1237000000
3.0034000000 5.3837000000 0.3648000000
3.0033000000 4.0714000000 1.0004000000
3.0032000000 1.4265000000 0.8437000000
3.0031000000 3.7182000000 1.1540000000
3.0031000000 4.4997000000 0.8175000000
3.0028000000 3.9617000000 1.0489000000
3.0027000000 1.6065000000 0.9279000000
3.0026000000 4.0460000000 1.0115000000
3.0023000000 0.4678000000 0.3538000000
3.0025000000 4.5854000000 0.7814000000
3.0022000000 1.4173000000 0.8423000000
3.0019000000 5.0484000000 0.5793000000
3.0018000000 1.8459000000 1.0258000000
3.0015000000 0.9049000000 0.6219000000
3.0015000000 2.2909000000 1.2189000000
3.0013000000 1.9414000000 1.0676000000
3.0011000000 0.8062000000 0.5845000000
3.0010000000 4.2541000000 0.9252000000
3.0010000000 1.2594000000 0.7715000000
3.0010000000 1.5773000000 0.9161000000
3.0006000000 0.1284000000 0.0634000000
3.0005000000 5.6854000000 0.1084000000
3.0002000000 2.8068000000 1.4389000000
3.0001000000 0.1565000000 0.0878000000
3.0002000000 0.0980000000 0.1142000000
3.0000000000 2.3184000000 1.2263000000
2.9999000000 4.9771000000 0.6125000000
2.9998000000 4.7962000000 0.6996000000
2.9997000000 4.3101000000 0.9008000000
2.9995000000 0.8772000000 0.6138000000
2.9995000000 4.5091000000 0.8155000000
2.9994000000 0.5915000000 0.5206000000
2.9994000000 0.7792000000 0.5735000000
2.9986000000 2.6019000000 1.3512000000
2.9983000000 5.6261000000 0.1549000000
2.9981000000 4.1281000000 0.9784000000
2.9976000000 0.2610000000 0.1786000000
2.9972000000 3.1267000000 1.4104000000
2.9971000000 5.7039000000 0.0900000000
2.9970000000 5.3460000000 0.3983000000
2.9965000000 0.6494000000 0.5678000000
2.9964000000 0.6662000000 0.5801000000
2.7629000000 2.5653000000 1.5118000000
2.7611000000 4.7062000000 0.9670000000
2.7605000000 5.7234000000 0.0714000000
2.7601000000 2.8956000000 1.7188000000
2.7602000000 3.9925000000 1.2175000000
2.7599000000 1.5795000000 1.0897000000
2.7592000000 5.0130000000 0.6850000000
2.7590000000 5.4136000000 0.3375000000
2.7589000000 4.8358000000 0.8925000000
2.7582000000 0.2124000000 0.1350000000
2.7579000000 3.6759000000 1.3531000000
2.7578000000 4.3590000000 1.0593000000
2.7576000000 5.5638000000 0.2091000000
2.7573000000 4.1341000000 1.1570000000
2.7573000000 0.6196000000 0.4805000000
2.7572000000 4.9584000000 0.7260000000
2.7572000000 2.2890000000 1.3971000000
2.7570000000 4.5727000000 0.9672000000
2.7570000000 5.1443000000 0.5752000000
2.7564000000 5.0660000000 0.6368000000
2.7562000000 5.8682000000 0.0276000000
2.7563000000 1.6629000000 1.1307000000
2.7561000000 3.5016000000 1.4287000000
2.7554000000 3.7829000000 1.3072000000
2.7554000000 4.2375000000 1.1114000000
2.7553000000 3.5834000000 1.3968000000
2.7551000000 5.5566000000 0.2143000000
2.7547000000 5.2961000000 0.4350000000
2.7547000000 1.9074000000 1.2364000000
2.7545000000 0.0667000000 0.0834000000
2.7544000000 2.2827000000 1.3975000000
2.7543000000 2.7947000000 1.6175000000
2.7543000000 3.3613000000 1.4937000000
2.7542000000 3.7877000000 1.3039000000
2.7540000000 0.2771000000 0.1864000000
2.7539000000 1.9081000000 1.2348000000
2.7538000000 5.7021000000 0.0871000000
2.7537000000 2.3475000000 1.4221000000
2.7537000000 3.2150000000 1.5512000000
2.7536000000 2.7724000000 1.6094000000
2.7535000000 5.5867000000 0.1896000000
2.7533000000 1.3804000000 1.0106000000
2.7531000000 0.7780000000 0.6208000000
2.7528000000 3.4608000000 1.4511000000
2.7528000000 2.0701000000 1.3016000000
2.7526000000 1.7308000000 1.1556000000
2.7525000000 1.0242000000 0.8926000000
2.7525000000 3.8431000000 1.2844000000
2.7524000000 1.2935000000 0.9781000000
2.7523000000 1.7892000000 1.1884000000
2.7530000000 4.4172000000 1.0397000000
2.7520000000 2.0089000000 1.2765000000
2.7520000000 3.6243000000 1.3796000000
2.7519000000 4.1837000000 1.1399000000
2.7518000000 2.3988000000 1.4569000000
2.7517000000 4.2390000000 1.1170000000
2.7514000000 1.3294000000 0.9880000000
2.7512000000 5.4770000000 0.2859000000
2.7511000000 2.1937000000 1.3648000000
2.7510000000 1.9857000000 1.2687000000
2.7510000000 1.1607000000 0.9756000000
2.7510000000 5.5307000000 0.2349000000
2.7509000000 4.3546000000 1.0675000000
2.7509000000 3.0880000000 1.6071000000
2.7508000000 3.7388000000 1.3382000000
2.7506000000 2.5502000000 1.5214000000
2.7502000000 4.2638000000 1.1120000000
2.7500000000 4.2881000000 1.1002000000
2.7493000000 0.5680000000 0.4446000000
2.7491000000 1.9755000000 1.3497000000
2.7490000000 2.1822000000 1.4328000000
2.7488000000 5.3344000000 0.4011000000
2.7488000000 3.3277000000 1.5023000000
2.7485000000 2.5429000000 1.5132000000
2.7480000000 0.0449000000 0.0619000000
2.7480000000 0.0386000000 0.0673000000
2.7478000000 4.1697000000 1.1539000000
2.7475000000 5.6071000000 0.1700000000
2.7472000000 1.8092000000 1.1993000000
2.7471000000 0.5048000000 0.3915000000
2.7470000000 3.6934000000 1.3543000000
2.7467000000 1.6224000000 1.1207000000
2.7464000000 2.0353000000 1.2929000000
2.7463000000 5.3385000000 0.4057000000
2.7462000000 0.1813000000 0.1030000000
2.5110000000 0.8271000000 0.6630000000
2.5103000000 4.7381000000 0.9141000000
2.5099000000 1.9398000000 1.4312000000
2.5096000000 3.2886000000 1.6999000000
2.5091000000 4.9321000000 0.7534000000
2.5083000000 2.2460000000 1.5638000000
2.5078000000 4.6166000000 1.0224000000
2.5071000000 1.0648000000 0.8603000000
2.5069000000 5.8427000000 0.0461000000
2.5068000000 2.4614000000 1.6568000000
2.5068000000 5.1768000000 0.5373000000
2.5066000000 4.9389000000 0.7444000000
2.5065000000 5.5349000000 0.2269000000
2.5061000000 2.6381000000 1.7300000000
2.5060000000 0.9020000000 0.7257000000
2.5058000000 5.3056000000 0.4328000000
2.5058000000 4.1223000000 1.3531000000
2.5055000000 2.6014000000 1.7177000000
2.5055000000 1.0797000000 0.8742000000
2.5054000000 2.6131000000 1.7180000000
2.5054000000 5.4982000000 0.2628000000
2.5053000000 5.8433000000 0.0441000000
2.5052000000 4.0025000000 1.4046000000
2.5051000000 4.0161000000 1.3949000000
2.5050000000 0.9927000000 0.7983000000
2.5046000000 5.7895000000 0.0933000000
2.5043000000 2.3547000000 1.6093000000
2.5043000000 3.1525000000 1.7650000000
2.5043000000 2.2892000000 1.5885000000
2.5041000000 4.0175000000 1.3981000000
2.5040000000 1.9410000000 1.4350000000
2.5040000000 2.3243000000 1.6031000000
2.5039000000 5.2842000000 0.4467000000
2.5039000000 2.6057000000 1.7176000000
2.5038000000 3.8703000000 1.4639000000
2.5036000000 1.2351000000 1.0090000000
2.5033000000 1.2940000000 1.0596000000
2.5031000000 4.1007000000 1.3569000000
2.5030000000 4.7872000000 0.8774000000
2.5032000000 3.1711000000 1.7611000000
2.5029000000 1.2836000000 1.0521000000
2.5029000000 1.0344000000 0.8433000000
2.5028000000 5.1770000000 0.5372000000
2.5023000000 0.2287000000 0.1535000000
2.5022000000 1.9693000000 1.4501000000
2.5021000000 0.1272000000 0.0610000000
2.5020000000 4.9145000000 0.7683000000
2.5018000000 3.5600000000 1.5934000000
2.5016000000 3.1237000000 1.7852000000
2.5016000000 4.3724000000 1.2887000000
2.5015000000 4.6149000000 1.0196000000
2.5015000000 4.1555000000 1.3379000000
2.5014000000 0.7829000000 0.6264000000
2.5012000000 0.8401000000 0.6726000000
2.5009000000 0.0792000000 0.0948000000
2.5008000000 2.2594000000 1.5765000000
2.5007000000 0.1176000000 0.1254000000
2.5007000000 4.6333000000 1.0012000000
2.5006000000 4.5611000000 1.0706000000
2.5005000000 5.3684000000 0.3775000000
2.5002000000 4.4739000000 1.1400000000
2.5001000000 4.9113000000 0.7686000000
2.5000000000 5.2950000000 0.4434000000
2.5000000000 0.2801000000 0.1896000000
2.4998000000 1.2629000000 1.0291000000
2.4998000000 1.3713000000 1.1237000000
2.4993000000 1.8146000000 1.3815000000
2.4988000000 0.6612000000 0.5184000000
2.4981000000 3.5218000000 1.6099000000
2.4976000000 1.7477000000 1.3572000000
2.4971000000 0.3733000000 0.2768000000
2.4970000000 0.6407000000 0.5004000000
2.2634000000 3.8738000000 1.6994000000
2.2624000000 5.0823000000 0.6260000000
2.2622000000 2.6006000000 1.8994000000
2.2619000000 5.6578000000 0.1208000000
2.2612000000 4.3269000000 1.2714000000
2.2610000000 4.9650000000 0.7206000000
2.2621000000 3.8532000000 1.7076000000
2.2603000000 4.3794000000 1.2174000000
2.2599000000 5.0877000000 0.6183000000
2.2598000000 4.1635000000 1.4061000000
2.2592000000 3.3219000000 1.8735000000
2.2589000000 2.5020000000 1.8578000000
2.2586000000 4.2612000000 1.3264000000
2.2582000000 5.4940000000 0.2683000000
2.2580000000 3.3663000000 1.8543000000
2.2575000000 5.4339000000 0.3152000000
2.2574000000 1.6952000000 1.4067000000
2.2573000000 3.8993000000 1.6900000000
2.2570000000 5.2729000000 0.4563000000
2.2569000000 0.0785000000 0.0940000000
2.2568000000 1.2752000000 1.0442000000
2.2567000000 2.1768000000 1.7260000000
2.2566000000 3.2929000000 1.8914000000
2.2564000000 1.3111000000 1.0737000000
2.2563000000 3.7640000000 1.6909000000
2.2563000000 4.4022000000 1.2014000000
2.2560000000 5.5954000000 0.1809000000
2.2560000000 3.5406000000 1.7784000000
2.2559000000 3.5697000000 1.7750000000
2.2558000000 3.4296000000 1.8311000000
2.2558000000 4.7148000000 0.9380000000
2.2554000000 3.9809000000 1.6273000000
2.2553000000 0.5649000000 0.4385000000
2.2553000000 0.9234000000 0.7434000000
2.2551000000 2.9997000000 2.0096000000
2.2552000000 5.4690000000 0.2888000000
2.2550000000 2.2598000000 1.7573000000
2.2549000000 2.5742000000 1.8884000000
2.2550000000 2.4034000000 1.8179000000
2.2547000000 3.1014000000 1.9706000000
2.2543000000 0.8758000000 0.7003000000
2.2541000000 4.7935000000 0.8704000000
2.2541000000 3.2980000000 1.8906000000
2.2540000000 3.7628000000 1.6952000000
2.2540000000 2.7417000000 1.9684000000
2.2539000000 4.3802000000 1.2202000000
2.2539000000 0.9828000000 0.7964000000
2.2537000000 5.8534000000 0.0390000000
2.2535000000 3.8695000000 1.7056000000
2.2533000000 5.2832000000 0.4510000000
2.2533000000 4.2217000000 1.3570000000
2.2533000000 0.1830000000 0.1061000000
2.2531000000 5.2422000000 0.4830000000
2.2530000000 0.5062000000 0.3872000000
2.2529000000 2.8068000000 1.9946000000
2.2530000000 2.1739000000 1.7226000000
2.2529000000 2.7851000000 1.9837000000
2.2527000000 3.1267000000 1.9675000000
2.2526000000 0.7370000000 0.5797000000
2.2525000000 3.6728000000 1.7265000000
2.2524000000 2.8993000000 2.0978000000
2.2523000000 2.2736000000 1.7642000000
2.2523000000 0.9089000000 0.7302000000
2.2523000000 2.3773000000 1.8132000000
2.2521000000 5.6399000000 0.1434000000
2.2520000000 5.4506000000 0.3053000000
2.2519000000 3.8880000000 1.7020000000
2.2517000000 4.5391000000 1.0909000000
2.2516000000 3.7233000000 1.7150000000
2.2515000000 0.1616000000 0.0952000000
2.2514000000 2.2066000000 1.7394000000
2.2513000000 2.4717000000 1.8552000000
2.2509000000 1.1259000000 0.9194000000
2.2507000000 1.0243000000 0.8344000000
2.2506000000 3.6186000000 1.7554000000
2.2504000000 4.2341000000 1.3452000000
2.2500000000 5.2075000000 0.5154000000
2.2497000000 1.3987000000 1.1473000000
2.2496000000 2.2836000000 1.7741000000
2.2492000000 3.7399000000 1.7039000000
2.2488000000 5.4852000000 0.2718000000
2.2483000000 0.5362000000 0.4082000000
2.2481000000 0.4909000000 0.3740000000
2.2463000000 3.5222000000 1.7905000000
2.2461000000 2.7407000000 1.9700000000
2.2431000000 5.1597000000 0.5596000000
2.0104000000 3.9222000000 1.6128000000
2.0103000000 2.8829000000 2.2658000000
2.0103000000 4.8131000000 0.8533000000
2.0094000000 2.2243000000 1.8563000000
2.0093000000 3.3055000000 2.0626000000
2.0093000000 1.1610000000 0.9435000000
2.0090000000 5.8485000000 0.0422000000
2.0086000000 4.4961000000 1.1245000000
2.0081000000 3.3181000000 2.0628000000
2.0080000000 5.7727000000 0.1068000000
2.0080000000 3.7769000000 1.7419000000
2.0077000000 2.5926000000 2.0851000000
2.0075000000 4.5591000000 1.0666000000
2.0073000000 4.7319000000 0.9170000000
2.0070000000 0.5821000000 0.4571000000
2.0067000000 3.0138000000 2.1870000000
2.0066000000 1.6999000000 1.4070000000
2.0064000000 4.1558000000 1.4094000000
2.0064000000 5.6790000000 0.1099000000
2.0061000000 2.8750000000 2.2795000000
2.0060000000 3.9244000000 1.6176000000
2.0060000000 4.5018000000 1.1194000000
2.0058000000 0.7779000000 0.6225000000
2.0057000000 5.3001000000 0.4385000000
2.0051000000 4.2843000000 1.3074000000
2.0050000000 4.1920000000 1.3767000000
2.0051000000 2.0234000000 1.6856000000
2.0050000000 0.8137000000 0.6523000000
2.0049000000 4.6192000000 1.0198000000
2.0048000000 2.3322000000 2.0162000000
2.0047000000 5.8680000000 0.0250000000
2.0046000000 2.8764000000 2.2793000000
2.0045000000 5.2553000000 0.4679000000
2.0044000000 4.7008000000 0.9469000000
2.0042000000 1.0800000000 0.8792000000
2.0040000000 2.7913000000 2.1701000000
2.0040000000 2.3903000000 2.0594000000
2.0039000000 4.1604000000 1.4110000000
2.0038000000 3.4136000000 2.0865000000
2.0038000000 1.4546000000 1.1999000000
2.0037000000 0.9953000000 0.8033000000
2.0036000000 1.7340000000 1.4384000000
2.0034000000 3.4192000000 2.0834000000
2.0034000000 3.6006000000 1.8945000000
2.0033000000 2.4311000000 2.0765000000
2.0033000000 0.4296000000 0.3227000000
2.0032000000 4.3674000000 1.2283000000
2.0031000000 1.7659000000 1.4691000000
2.0030000000 3.4994000000 2.0368000000
2.0030000000 4.6995000000 0.9486000000
2.0030000000 0.8418000000 0.6754000000
2.0029000000 4.9155000000 0.7668000000
2.0029000000 2.8707000000 2.2061000000
2.0028000000 2.6150000000 2.0950000000
2.0027000000 0.4657000000 0.3496000000
2.0026000000 5.2520000000 0.4694000000
2.0026000000 5.7115000000 0.0834000000
2.0023000000 3.9855000000 1.5593000000
2.0022000000 3.6406000000 1.8598000000
2.0021000000 1.2597000000 1.0317000000
2.0018000000 3.1619000000 2.1340000000
2.0017000000 0.1141000000 0.1214000000
2.0016000000 4.3544000000 1.2452000000
2.0015000000 1.0555000000 0.8515000000
2.0015000000 4.1590000000 1.4105000000
2.0014000000 4.5878000000 1.0450000000
2.0013000000 0.8650000000 0.6917000000
2.0013000000 2.0092000000 1.6772000000
2.0010000000 5.1946000000 0.5209000000
2.0010000000 4.7930000000 0.8647000000
2.0010000000 1.2232000000 1.0024000000
2.0008000000 3.8936000000 1.6383000000
2.0008000000 2.2948000000 1.9840000000
2.0007000000 5.2408000000 0.4856000000
2.0007000000 0.3599000000 0.2611000000
2.0005000000 5.6073000000 0.1728000000
2.0005000000 0.2727000000 0.1831000000
2.0003000000 2.1165000000 1.7627000000
2.0001000000 0.2204000000 0.1418000000
2.0000000000 5.6702000000 0.1211000000
1.9998000000 4.3195000000 1.2741000000
1.9998000000 3.2210000000 2.1105000000
1.9996000000 4.5892000000 1.0414000000
1.9993000000 3.5586000000 1.9895000000
1.9990000000 3.6570000000 1.8404000000
1.9986000000 0.1193000000 0.1297000000
1.9985000000 1.6084000000 1.3297000000
1.9982000000 0.5423000000 0.4209000000
1.9977000000 2.5702000000 2.0823000000
1.9975000000 0.6474000000 0.5098000000
1.9969000000 4.4452000000 1.1676000000
1.9968000000 2.3742000000 2.0452000000
1.9966000000 1.4577000000 1.1997000000
1.9956000000 2.6242000000 2.1086000000
1.9955000000 4.7667000000 0.8983000000
1.7640000000 5.1731000000 0.5439000000
1.7630000000 0.9166000000 0.7431000000
1.7620000000 3.6398000000 1.8548000000
1.7618000000 2.5884000000 2.1716000000
1.7602000000 3.4886000000 1.9815000000
1.7599000000 4.9461000000 0.7374000000
1.7597000000 3.2696000000 2.1686000000
1.7592000000 0.5160000000 0.3935000000
1.7591000000 5.4112000000 0.3402000000
1.7590000000 2.5029000000 2.0939000000
1.7588000000 1.2809000000 1.0474000000
1.7580000000 0.7220000000 0.5723000000
1.7578000000 5.0261000000 0.6710000000
1.7573000000 5.8549000000 0.0349000000
1.7572000000 3.5577000000 1.9248000000
1.7570000000 4.8460000000 0.8203000000
1.7568000000 4.3979000000 1.2059000000
1.7567000000 5.8650000000 0.0216000000
1.7567000000 5.4802000000 0.2793000000
1.7565000000 5.8096000000 0.0733000000
1.7565000000 3.1240000000 2.3614000000
1.7564000000 0.0562000000 0.0780000000
1.7564000000 4.1107000000 1.4500000000
1.7561000000 2.1700000000 1.8107000000
1.7558000000 0.5702000000 0.4412000000
1.7557000000 4.5299000000 1.0926000000
1.7559000000 2.4915000000 2.0861000000
1.7555000000 2.1629000000 1.8106000000
1.7555000000 2.0978000000 1.7468000000
1.7553000000 4.2632000000 1.3214000000
1.7552000000 3.9311000000 1.6101000000
1.7552000000 4.4504000000 1.1614000000
1.7549000000 3.3752000000 2.0857000000
1.7548000000 5.5169000000 0.2495000000
1.7546000000 3.2295000000 2.2059000000
1.7544000000 1.3622000000 1.1191000000
1.7545000000 4.1869000000 1.3860000000
1.7543000000 1.7478000000 1.4505000000
1.7543000000 2.9005000000 2.4301000000
1.7541000000 5.0494000000 0.6431000000
1.7541000000 0.8976000000 0.7197000000
1.7540000000 2.8721000000 2.4084000000
1.7540000000 1.8807000000 1.5624000000
1.7539000000 1.4290000000 1.1772000000
1.7535000000 4.1747000000 1.3975000000
1.7535000000 5.7406000000 0.1307000000
1.7533000000 1.1774000000 0.9566000000
1.7533000000 0.2814000000 0.1930000000
1.7532000000 4.9506000000 0.7304000000
1.7530000000 3.9432000000 1.5993000000
1.7530000000 5.7778000000 0.1029000000
1.7529000000 4.4775000000 1.1400000000
1.7528000000 1.9062000000 1.5871000000
1.7527000000 1.9345000000 1.6061000000
1.7525000000 3.3074000000 2.1496000000
1.7524000000 1.7353000000 1.4403000000
1.7524000000 1.8287000000 1.5162000000
1.7523000000 2.5306000000 2.1206000000
1.7523000000 4.1618000000 1.4070000000
1.7522000000 3.0746000000 2.3986000000
1.7520000000 0.7663000000 0.6098000000
1.7520000000 2.0925000000 1.7428000000
1.7517000000 4.8583000000 0.8122000000
1.7515000000 0.8701000000 0.6966000000
1.7515000000 4.6198000000 1.0188000000
1.7514000000 2.7601000000 2.3760000000
1.7513000000 1.4078000000 1.1570000000
1.7512000000 4.2071000000 1.3714000000
1.7510000000 3.1286000000 2.3598000000
1.7508000000 0.8200000000 0.6584000000
1.7506000000 3.6480000000 1.8531000000
1.7505000000 2.7184000000 2.3486000000
1.7504000000 3.2701000000 2.1798000000
1.7500000000 2.8939000000 2.4247000000
1.7495000000 3.3392000000 2.1157000000
1.7495000000 2.0329000000 1.6948000000
1.7490000000 4.2244000000 1.3538000000
1.7489000000 1.3939000000 1.1463000000
1.7487000000 1.9051000000 1.5816000000
1.7484000000 4.1251000000 1.4417000000
1.7483000000 0.8760000000 0.6974000000
1.7480000000 0.0714000000 0.0875000000
1.7477000000 2.1622000000 1.8810000000
1.7453000000 3.1962000000 2.2356000000
1.7438000000 0.1225000000 0.0586000000
1.5125000000 5.1431000000 0.5708000000
1.5115000000 3.7146000000 1.7893000000
1.5108000000 2.4064000000 2.0086000000
1.5105000000 1.5879000000 1.3111000000
1.5103000000 4.0804000000 1.4802000000
1.5099000000 4.7836000000 0.8755000000
1.5100000000 2.5564000000 2.2007000000
1.5098000000 2.1248000000 1.7766000000
1.5096000000 5.8548000000 0.0382000000
1.5095000000 4.3208000000 1.2756000000
1.5094000000 4.4257000000 1.1882000000
1.5090000000 5.4232000000 0.3306000000
1.5089000000 1.4727000000 1.2154000000
1.5078000000 3.7034000000 1.8015000000
1.5078000000 2.1512000000 1.7937000000
1.5076000000 4.1382000000 1.4300000000
1.5074000000 4.8093000000 0.8593000000
1.5069000000 3.4587000000 2.0103000000
1.5068000000 0.3304000000 0.2365000000
1.5067000000 3.2557000000 2.2500000000
1.5064000000 5.7725000000 0.1033000000
1.5064000000 2.7589000000 2.2476000000
1.5065000000 5.4002000000 0.3510000000
1.5063000000 0.6157000000 0.4822000000
1.5063000000 3.2318000000 2.2602000000
1.5060000000 1.5793000000 1.3063000000
1.5060000000 4.7020000000 0.9483000000
1.5059000000 4.8267000000 0.8351000000
1.5057000000 3.6581000000 1.8398000000
1.5053000000 0.3500000000 0.2522000000
1.5053000000 0.4635000000 0.3520000000
1.5050000000 3.8826000000 1.6469000000
1.5049000000 4.5861000000 1.0475000000
1.5049000000 4.5248000000 1.0983000000
1.5048000000 0.7866000000 0.6304000000
1.5047000000 4.6499000000 0.9971000000
1.5046000000 0.4191000000 0.3084000000
1.5045000000 2.0549000000 1.7083000000
1.5045000000 0.0508000000 0.0744000000
1.5043000000 5.3095000000 0.4284000000
1.5042000000 0.7264000000 0.5745000000
1.5040000000 1.1189000000 0.9081000000
1.5040000000 4.9896000000 0.6989000000
1.5039000000 1.6880000000 1.3987000000
1.5036000000 0.0220000000 0.0474000000
1.5035000000 1.3450000000 1.1054000000
1.5034000000 5.8668000000 0.0199000000
1.5033000000 2.8597000000 2.2932000000
1.5030000000 3.3994000000 2.0625000000
1.5028000000 2.0417000000 1.7012000000
1.5028000000 3.3245000000 2.1866000000
1.5027000000 3.2613000000 2.2375000000
1.5026000000 3.9867000000 1.5576000000
1.5025000000 4.1777000000 1.3993000000
1.5025000000 2.0570000000 1.7139000000
1.5024000000 0.6405000000 0.5025000000
1.5021000000 1.8483000000 1.5334000000
1.5020000000 1.4416000000 1.1847000000
1.5020000000 3.7075000000 1.7952000000
1.5019000000 3.3032000000 2.2045000000
1.5019000000 1.2210000000 1.0002000000
1.5014000000 1.5890000000 1.3151000000
1.5013000000 3.4137000000 2.0537000000
1.5013000000 0.0538000000 0.0700000000
1.5012000000 4.4261000000 1.1853000000
1.5011000000 2.7609000000 2.2437000000
1.5010000000 4.2552000000 1.3338000000
1.5010000000 4.3207000000 1.2660000000
1.5009000000 5.3974000000 0.3548000000
1.5008000000 0.5531000000 0.4272000000
1.5007000000 5.8063000000 0.0723000000
1.5006000000 1.2324000000 1.0059000000
1.5004000000 0.4507000000 0.3341000000
1.5004000000 2.8527000000 2.2874000000
1.5001000000 1.9909000000 1.6548000000
1.5000000000 5.2286000000 0.4993000000
1.4995000000 0.8419000000 0.6737000000
1.4993000000 2.3545000000 1.9690000000
1.4988000000 0.3591000000 0.2623000000
1.4985000000 2.4261000000 2.0307000000
1.4984000000 4.2302000000 1.3510000000
1.4980000000 5.1485000000 0.5604000000
1.4979000000 4.3107000000 1.2829000000
1.4978000000 1.7382000000 1.4433000000
1.4977000000 0.1997000000 0.1196000000
1.4969000000 2.8742000000 2.2926000000
1.4966000000 3.8882000000 1.6446000000
1.4950000000 3.1868000000 2.2663000000
1.2627000000 2.6900000000 2.0410000000
1.2613000000 3.5944000000 1.9202000000
1.2605000000 0.6003000000 0.4711000000
1.2604000000 3.8145000000 1.7080000000
1.2603000000 3.8248000000 1.6956000000
1.2595000000 4.0680000000 1.4896000000
1.2588000000 5.7218000000 0.0742000000
1.2586000000 5.5691000000 0.2026000000
1.2585000000 3.3696000000 1.9586000000
1.2585000000 5.4425000000 0.3124000000
1.2583000000 3.8594000000 1.6697000000
1.2582000000 5.0791000000 0.6249000000
1.2581000000 5.2728000000 0.4634000000
1.2576000000 4.2532000000 1.3299000000
1.2574000000 3.6919000000 1.8702000000
1.2572000000 1.7854000000 1.4835000000
1.2571000000 4.1207000000 1.4450000000
1.2570000000 5.3373000000 0.4025000000
1.2568000000 4.4773000000 1.1402000000
1.2568000000 3.5095000000 1.8907000000
1.2566000000 3.3353000000 1.9672000000
1.2566000000 3.6033000000 1.9125000000
1.2564000000 4.0306000000 1.5184000000
1.2561000000 3.5678000000 1.8684000000
1.2561000000 5.4294000000 0.3254000000
1.2558000000 3.8424000000 1.6803000000
1.2557000000 2.7188000000 2.0471000000
1.2554000000 4.3934000000 1.2127000000
1.2553000000 2.6929000000 2.0405000000
1.2553000000 3.2095000000 2.0228000000
1.2552000000 4.7247000000 0.9307000000
1.2550000000 3.6515000000 1.8925000000
1.2550000000 1.3600000000 1.1153000000
1.2549000000 1.8996000000 1.5786000000
1.2548000000 3.4638000000 1.9144000000
1.2548000000 4.8283000000 0.8349000000
1.2547000000 5.7356000000 0.0615000000
1.2545000000 4.5278000000 1.0999000000
1.2544000000 0.3619000000 0.2647000000
1.2543000000 1.2250000000 1.0006000000
1.2543000000 4.3829000000 1.2175000000
1.2541000000 0.8614000000 0.6893000000
1.2539000000 5.1540000000 0.5525000000
1.2539000000 4.4549000000 1.1549000000
1.2537000000 3.9341000000 1.6057000000
1.2536000000 3.8098000000 1.7122000000
1.2535000000 4.0345000000 1.5197000000
1.2535000000 5.0447000000 0.6493000000
1.2534000000 3.3405000000 1.9642000000
1.2533000000 1.8120000000 1.5084000000
1.2533000000 1.1956000000 0.9803000000
1.2531000000 5.4213000000 0.3306000000
1.2530000000 3.4419000000 1.9153000000
1.2530000000 1.9397000000 1.6136000000
1.2529000000 4.9480000000 0.7300000000
1.2529000000 2.3611000000 1.8932000000
1.2527000000 0.0675000000 0.0813000000
1.2526000000 1.0469000000 0.8482000000
1.2524000000 2.3019000000 1.8730000000
1.2520000000 0.0167000000 0.0430000000
1.2520000000 4.5602000000 1.0772000000
1.2516000000 5.1187000000 0.5902000000
1.2515000000 1.4253000000 1.1719000000
1.2515000000 0.8668000000 0.6959000000
1.2513000000 5.7390000000 0.0612000000
1.2512000000 2.4216000000 1.9154000000
1.2511000000 3.2091000000 2.0177000000
1.2508000000 0.1388000000 0.0722000000
1.2510000000 4.9685000000 0.7174000000
1.2506000000 0.5956000000 0.4604000000
1.2505000000 3.7656000000 1.8090000000
1.2502000000 0.2742000000 0.1929000000
1.2500000000 4.9623000000 0.7200000000
1.2500000000 2.0156000000 1.6841000000
1.2497000000 1.8703000000 1.5537000000
1.2496000000 5.2444000000 0.4844000000
1.2492000000 0.0333000000 0.0555000000
1.2488000000 1.3902000000 1.1413000000
1.2482000000 5.2132000000 0.5140000000
1.2479000000 2.3006000000 1.8633000000
1.2473000000 5.6599000000 0.1275000000
1.2472000000 0.6091000000 0.4729000000
1.2465000000 1.4660000000 1.2058000000
1.2463000000 1.8580000000 1.5441000000
1.2448000000 5.3340000000 0.4080000000
1.0135000000 4.5934000000 1.0407000000
1.0118000000 4.9785000000 0.7116000000
1.0109000000 1.8871000000 1.5086000000
1.0108000000 3.6314000000 1.6603000000
1.0105000000 1.2843000000 1.0564000000
1.0105000000 2.3804000000 1.7236000000
1.0102000000 2.4503000000 1.7530000000
1.0102000000 4.9697000000 0.7168000000
1.0096000000 3.7827000000 1.5939000000
1.0093000000 3.1687000000 1.8554000000
1.0092000000 5.1694000000 0.5523000000
1.0088000000 1.2332000000 1.0076000000
1.0086000000 2.7775000000 1.8887000000
1.0080000000 3.4383000000 1.7355000000
1.0078000000 2.0938000000 1.5977000000
1.0078000000 0.4307000000 0.3218000000
1.0076000000 4.7416000000 0.9156000000
1.0073000000 3.9779000000 1.5036000000
1.0072000000 0.8351000000 0.6667000000
1.0072000000 4.4878000000 1.1254000000
1.0071000000 1.3100000000 1.0705000000
1.0069000000 3.6181000000 1.6598000000
1.0068000000 5.6027000000 0.1791000000
1.0068000000 4.3062000000 1.2910000000
1.0064000000 5.3221000000 0.4147000000
1.0061000000 1.4469000000 1.1922000000
1.0060000000 5.5522000000 0.2243000000
1.0058000000 0.9205000000 0.7436000000
1.0057000000 3.9182000000 1.5345000000
1.0056000000 3.0828000000 1.8911000000
1.0055000000 4.6913000000 0.9593000000
1.0050000000 3.1340000000 1.8683000000
1.0050000000 5.1802000000 0.5366000000
1.0048000000 2.2836000000 1.6824000000
1.0048000000 0.8006000000 0.6433000000
1.0044000000 1.1098000000 0.8991000000
1.0042000000 2.5809000000 1.8035000000
1.0041000000 3.9092000000 1.5358000000
1.0040000000 1.6775000000 1.4487000000
1.0036000000 0.9614000000 0.7738000000
1.0034000000 4.7029000000 0.9457000000
1.0033000000 3.5548000000 1.6861000000
1.0033000000 3.6384000000 1.6519000000
1.0032000000 5.5684000000 0.2102000000
1.0031000000 2.4485000000 1.7445000000
1.0030000000 4.6869000000 0.9568000000
1.0027000000 4.7127000000 0.9384000000
1.0025000000 5.6552000000 0.1246000000
1.0022000000 0.9835000000 0.7929000000
1.0020000000 5.0834000000 0.6193000000
1.0020000000 1.4335000000 1.1748000000
1.0017000000 0.6414000000 0.5034000000
1.0016000000 3.8301000000 1.5709000000
1.0016000000 4.2968000000 1.2994000000
1.0015000000 4.8332000000 0.8338000000
1.0014000000 2.0675000000 1.5843000000
1.0014000000 1.3940000000 1.1496000000
1.0013000000 2.3160000000 1.6915000000
1.0011000000 5.7754000000 0.1029000000
1.0009000000 0.9171000000 0.7359000000
1.0008000000 0.9240000000 0.7454000000
1.0005000000 0.0895000000 0.1075000000
1.0004000000 3.7127000000 1.6155000000
1.0003000000 0.4170000000 0.3121000000
1.0002000000 0.8938000000 0.7174000000
1.0003000000 0.3923000000 0.2895000000
1.0002000000 3.4300000000 1.7393000000
1.0001000000 1.0572000000 0.8548000000
1.0000000000 1.1264000000 0.9194000000
0.9999000000 2.1825000000 1.6270000000
0.9998000000 0.2366000000 0.1501000000
0.9996000000 4.9777000000 0.7048000000
0.9994000000 1.4120000000 1.1559000000
0.9993000000 0.2727000000 0.1887000000
0.9991000000 3.2311000000 1.8193000000
0.9983000000 1.4065000000 1.1610000000
0.9982000000 2.1310000000 1.6062000000
0.9980000000 1.3749000000 1.1267000000
0.9980000000 1.4431000000 1.1875000000
0.9975000000 1.7692000000 1.5115000000
0.9974000000 5.3737000000 0.3692000000
0.7634000000 5.4843000000 0.2790000000
0.7602000000 2.7497000000 1.6966000000
0.7599000000 1.9983000000 1.3710000000
0.7598000000 0.8501000000 0.6809000000
0.7596000000 5.0260000000 0.6724000000
0.7595000000 5.0474000000 0.6516000000
0.7593000000 1.6035000000 1.2046000000
0.7590000000 0.6448000000 0.4998000000
0.7588000000 5.4379000000 0.3124000000
0.7587000000 3.2106000000 1.6508000000
0.7585000000 3.6845000000 1.4510000000
0.7585000000 5.8083000000 0.0746000000
0.7579000000 5.8389000000 0.0478000000
0.7576000000 5.0156000000 0.6768000000
0.7572000000 3.9037000000 1.3522000000
0.7571000000 1.4215000000 1.1953000000
0.7569000000 1.6309000000 1.2102000000
0.7569000000 1.6734000000 1.2309000000
0.7568000000 2.5949000000 1.6310000000
0.7563000000 5.6441000000 0.1405000000
0.7562000000 4.1504000000 1.2462000000
0.7560000000 3.3038000000 1.6052000000
0.7558000000 5.4350000000 0.3261000000
0.7555000000 3.4945000000 1.5278000000
0.7553000000 2.8995000000 1.8143000000
0.7552000000 0.2717000000 0.1878000000
0.7550000000 2.0272000000 1.3780000000
0.7550000000 4.4491000000 1.1884000000
0.7549000000 4.2710000000 1.1946000000
0.7548000000 5.0109000000 0.6830000000
0.7547000000 4.6030000000 1.0950000000
0.7545000000 1.5426000000 1.1807000000
0.7544000000 1.0675000000 0.8713000000
0.7543000000 5.6438000000 0.1389000000
0.7543000000 1.2955000000 1.1240000000
0.7543000000 3.4594000000 1.5460000000
0.7541000000 4.8660000000 0.8077000000
0.7540000000 1.8677000000 1.3110000000
0.7539000000 1.1702000000 0.9544000000
0.7538000000 4.7316000000 0.9239000000
0.7536000000 3.1947000000 1.6487000000
0.7535000000 2.3469000000 1.5184000000
0.7534000000 1.4678000000 1.1396000000
0.7534000000 0.3260000000 0.2300000000
0.7532000000 4.2324000000 1.2069000000
0.7532000000 4.7048000000 0.9456000000
0.7530000000 2.4971000000 1.5845000000
0.7529000000 1.6772000000 1.2286000000
0.7527000000 5.8567000000 0.0343000000
0.7528000000 1.0387000000 0.8389000000
0.7525000000 4.1267000000 1.2543000000
0.7523000000 5.0457000000 0.6502000000
0.7521000000 2.0264000000 1.3729000000
0.7520000000 2.0459000000 1.3842000000
0.7519000000 1.3882000000 1.1730000000
0.7518000000 2.6706000000 1.6570000000
0.7517000000 1.0969000000 0.8925000000
0.7515000000 3.7073000000 1.4333000000
0.7514000000 4.5081000000 1.1470000000
0.7513000000 1.5088000000 1.1585000000
0.7513000000 3.2478000000 1.6292000000
0.7512000000 5.0653000000 0.6399000000
0.7511000000 2.2024000000 1.4498000000
0.7509000000 5.7365000000 0.0613000000
0.7506000000 4.3457000000 1.1583000000
0.7505000000 3.3529000000 1.5899000000
0.7501000000 1.0357000000 0.8423000000
0.7498000000 0.8361000000 0.6728000000
0.7495000000 0.1581000000 0.0844000000
0.7494000000 4.9736000000 0.7130000000
0.7490000000 2.8435000000 1.7274000000
0.7490000000 1.8569000000 1.3041000000
0.7485000000 3.8005000000 1.3931000000
0.7478000000 0.8995000000 0.7251000000
0.7477000000 3.5698000000 1.4902000000
0.7475000000 2.7209000000 1.6709000000
0.7466000000 5.2412000000 0.4822000000
0.7446000000 4.5711000000 1.1160000000
0.7447000000 4.9957000000 0.6944000000
0.5136000000 4.1617000000 1.0635000000
0.5128000000 5.3524000000 0.3889000000
0.5117000000 3.8151000000 1.2148000000
0.5111000000 4.5694000000 0.8849000000
0.5099000000 5.8102000000 0.0700000000
0.5098000000 5.6139000000 0.1681000000
0.5096000000 4.4534000000 0.9358000000
0.5090000000 4.3677000000 0.9701000000
0.5089000000 4.5843000000 0.8772000000
0.5083000000 4.5914000000 0.8748000000
0.5083000000 3.0291000000 1.5394000000
0.5081000000 5.3381000000 0.4051000000
0.5079000000 2.7011000000 1.4828000000
0.5071000000 5.8177000000 0.0623000000
0.5072000000 2.7230000000 1.4968000000
0.5069000000 5.7330000000 0.0622000000
0.5064000000 5.5198000000 0.2448000000
0.5064000000 2.0898000000 1.2263000000
0.5063000000 5.6469000000 0.1353000000
0.5063000000 2.6359000000 1.4513000000
0.5061000000 4.5516000000 0.8933000000
0.5060000000 3.7140000000 1.2485000000
0.5060000000 0.8639000000 0.7509000000
0.5059000000 1.1175000000 0.8065000000
0.5058000000 2.5409000000 1.4203000000
0.5058000000 5.6778000000 0.1102000000
0.5056000000 5.7656000000 0.1148000000
0.5055000000 3.3592000000 1.3963000000
0.5054000000 2.1140000000 1.2320000000
0.5053000000 4.8360000000 0.7696000000
0.5050000000 0.5802000000 0.4454000000
0.5049000000 2.4953000000 1.3911000000
0.5049000000 0.7785000000 0.6875000000
0.5048000000 1.6318000000 1.0291000000
0.5048000000 2.6517000000 1.4581000000
0.5044000000 3.6159000000 1.2869000000
0.5044000000 4.2970000000 0.9930000000
0.5043000000 5.0323000000 0.7308000000
0.5042000000 3.4065000000 1.3770000000
0.5042000000 3.3862000000 1.3902000000
0.5041000000 5.4371000000 0.3173000000
0.5040000000 5.6866000000 0.1005000000
0.5040000000 3.6440000000 1.2779000000
0.5039000000 0.0309000000 0.0561000000
0.5039000000 3.0445000000 1.5384000000
0.5038000000 3.0590000000 1.5273000000
0.5038000000 2.0175000000 1.1902000000
0.5035000000 3.8035000000 1.2054000000
0.5034000000 2.1707000000 1.2543000000
0.5033000000 4.6908000000 0.8318000000
0.5032000000 3.6213000000 1.2915000000
0.5030000000 0.8685000000 0.7606000000
0.5030000000 5.2313000000 0.4882000000
0.5029000000 4.5888000000 0.8697000000
0.5029000000 2.1842000000 1.2644000000
0.5028000000 3.1021000000 1.5069000000
0.5027000000 3.5369000000 1.3198000000
0.5027000000 5.2712000000 0.4618000000
0.5026000000 3.8934000000 1.1658000000
0.5025000000 4.6243000000 0.8540000000
0.5025000000 1.8979000000 1.1385000000
0.5020000000 5.5892000000 0.1824000000
0.5020000000 1.2238000000 0.8509000000
0.5018000000 2.8049000000 1.5247000000
0.5018000000 1.3871000000 0.9189000000
0.5016000000 5.0012000000 0.7515000000
0.5015000000 4.4536000000 0.9245000000
0.5015000000 2.5466000000 1.4172000000
0.5014000000 2.5859000000 1.4313000000
0.5013000000 5.0718000000 0.6927000000
0.5011000000 2.7729000000 1.5118000000
0.5010000000 4.1072000000 1.0829000000
0.5010000000 0.7787000000 0.6815000000
0.5010000000 1.1963000000 0.8331000000
0.5009000000 3.4022000000 1.3791000000
0.5008000000 3.3210000000 1.4071000000
0.5006000000 1.7847000000 1.0902000000
0.5004000000 3.0925000000 1.5154000000
0.5002000000 0.1267000000 0.0639000000
0.4997000000 4.6627000000 0.8422000000
0.4996000000 1.2923000000 0.8769000000
0.4995000000 5.0686000000 0.6895000000
0.4994000000 0.0239000000 0.0465000000
0.4993000000 3.8663000000 1.1763000000
0.4990000000 0.5345000000 0.4102000000
0.4988000000 5.5721000000 0.2038000000
0.4987000000 3.0311000000 1.5383000000
0.4986000000 4.8044000000 0.7801000000
0.4983000000 2.5248000000 1.4019000000
0.4981000000 1.8056000000 1.0912000000
0.4976000000 1.8066000000 1.0919000000
0.4973000000 3.0889000000 1.5091000000
0.4973000000 0.2677000000 0.1832000000
0.4967000000 0.0478000000 0.0675000000
0.4967000000 1.9400000000 1.1510000000
0.4957000000 0.3746000000 0.2687000000
0.2632000000 5.7170000000 0.0794000000
0.2625000000 1.5388000000 0.8059000000
0.2620000000 2.6511000000 1.2824000000
0.2598000000 2.4452000000 1.1921000000
0.2593000000 4.5304000000 0.7172000000
0.2592000000 2.7192000000 1.3062000000
0.2586000000 2.9760000000 1.4412000000
0.2585000000 5.4278000000 0.3887000000
0.2578000000 4.9118000000 0.5483000000
0.2578000000 3.2355000000 1.2671000000
0.2576000000 4.5305000000 0.7131000000
0.2573000000 5.4153000000 0.3982000000
0.2570000000 3.5608000000 1.1271000000
0.2567000000 1.9011000000 0.9566000000
0.2566000000 0.5999000000 0.4018000000
0.2562000000 4.1974000000 0.8551000000
0.2562000000 2.6204000000 1.2641000000
0.2560000000 0.1307000000 0.0649000000
0.2557000000 4.3736000000 0.7783000000
0.2556000000 4.9571000000 0.5290000000
0.2555000000 5.6308000000 0.1521000000
0.2554000000 5.5726000000 0.2013000000
0.2554000000 4.2130000000 0.8532000000
0.2553000000 1.3627000000 0.7262000000
0.2550000000 1.8193000000 0.9205000000
0.2548000000 2.7658000000 1.3221000000
0.2550000000 1.2952000000 0.6977000000
0.2546000000 5.7082000000 0.0879000000
0.2545000000 4.9068000000 0.5465000000
0.2544000000 1.8783000000 0.9420000000
0.2543000000 2.6552000000 1.2782000000
0.2543000000 0.9511000000 0.5534000000
0.2540000000 0.3652000000 0.3317000000
0.2540000000 0.1590000000 0.0871000000
0.2539000000 1.5797000000 0.8148000000
0.2538000000 3.7069000000 1.0633000000
0.2538000000 5.1094000000 0.4632000000
0.2538000000 3.8099000000 1.0203000000
0.2537000000 4.4390000000 0.7490000000
0.2535000000 4.3138000000 0.8017000000
0.2535000000 3.2879000000 1.2406000000
0.2535000000 1.7821000000 0.9001000000
0.2534000000 4.9090000000 0.5471000000
0.2534000000 5.0443000000 0.4936000000
0.2533000000 3.5641000000 1.1260000000
0.2533000000 2.6041000000 1.2567000000
0.2532000000 2.7743000000 1.3280000000
0.2531000000 0.7321000000 0.4567000000
0.2529000000 5.0556000000 0.4908000000
0.2526000000 5.0655000000 0.4823000000
0.2525000000 0.9949000000 0.5638000000
0.2524000000 4.8251000000 0.5811000000
0.2524000000 3.8940000000 0.9849000000
0.2521000000 3.1024000000 1.3171000000
0.2520000000 2.5043000000 1.2098000000
0.2521000000 4.3492000000 0.7879000000
0.2520000000 1.1926000000 0.6520000000
0.2519000000 0.8725000000 0.5157000000
0.2518000000 1.6645000000 0.8492000000
0.2518000000 0.8671000000 0.5142000000
0.2518000000 2.1010000000 1.0386000000
0.2512000000 5.3057000000 0.3805000000
0.2511000000 3.8255000000 1.0081000000
0.2510000000 3.0960000000 1.3232000000
0.2506000000 3.5961000000 1.1144000000
0.2505000000 2.6743000000 1.2813000000
0.2505000000 3.6245000000 1.0915000000
0.2505000000 0.4877000000 0.4083000000
0.2504000000 0.0572000000 0.0762000000
0.2500000000 3.0605000000 1.3408000000
0.2497000000 3.8665000000 0.9979000000
0.2494000000 1.0686000000 0.5948000000
0.2494000000 1.3682000000 0.7240000000
0.2479000000 0.3900000000 0.3459000000
0.2468000000 1.0297000000 0.5756000000
0.2460000000 0.1859000000 0.1126000000
0.2450000000 3.3446000000 1.2133000000
0.0118000000 4.6550000000 0.4833000000
0.0112000000 2.6965000000 1.1170000000
0.0107000000 3.2903000000 1.0627000000
0.0103000000 4.1596000000 0.6899000000
0.0100000000 3.2067000000 1.0970000000
0.0098000000 4.8780000000 0.3801000000
0.0091000000 3.8429000000 0.8257000000
0.0084000000 3.5805000000 0.9403000000
0.0078000000 0.0295000000 0.0302000000
0.0077000000 5.3652000000 0.1713000000
0.0077000000 1.4872000000 0.5976000000
0.0076000000 2.5555000000 1.0570000000
0.0075000000 4.4803000000 0.5534000000
0.0073000000 2.9580000000 1.2633000000
0.0066000000 3.2411000000 1.0838000000
0.0065000000 5.0097000000 0.3242000000
0.0064000000 5.4124000000 0.1554000000
0.0063000000 2.3018000000 0.9421000000
0.0063000000 1.1315000000 0.4431000000
0.0061000000 2.3716000000 0.9666000000
0.0060000000 4.6159000000 0.4964000000
0.0058000000 4.4017000000 0.5832000000
0.0058000000 3.9195000000 0.7901000000
0.0057000000 0.8924000000 0.3384000000
0.0055000000 5.6341000000 0.1263000000
0.0055000000 4.5010000000 0.5402000000
0.0053000000 0.8077000000 0.3041000000
0.0053000000 3.1557000000 1.1111000000
0.0052000000 3.1732000000 1.1084000000
0.0049000000 3.8673000000 0.8084000000
0.0048000000 4.5437000000 0.5180000000
0.0044000000 5.4302000000 0.1507000000
0.0043000000 2.2748000000 0.9291000000
0.0042000000 1.7438000000 0.7085000000
0.0043000000 1.5439000000 0.6166000000
0.0042000000 3.4682000000 0.9815000000
0.0041000000 4.9073000000 0.3711000000
0.0040000000 5.4741000000 0.1238000000
0.0039000000 0.5893000000 0.2057000000
0.0039000000 1.2874000000 0.5086000000
0.0038000000 3.7911000000 0.8411000000
0.0037000000 4.3949000000 0.5834000000
0.0033000000 5.7678000000 0.0592000000
0.0031000000 2.6953000000 1.1071000000
0.0030000000 4.6552000000 0.4644000000
0.0027000000 4.4710000000 0.5533000000
0.0026000000 1.3215000000 0.5155000000
0.0025000000 5.3783000000 0.1607000000
0.0024000000 4.9777000000 0.3384000000
0.0023000000 4.3935000000 0.5811000000
0.0024000000 2.3279000000 0.9506000000
0.0022000000 3.6108000000 0.9149000000
0.0021000000 3.8861000000 0.7962000000
0.0021000000 0.4714000000 0.1530000000
0.0020000000 0.4631000000 0.1545000000
0.0019000000 4.4138000000 0.5741000000
0.0018000000 1.3002000000 0.5061000000
0.0016000000 3.8519000000 0.8169000000
0.0015000000 1.7499000000 0.7015000000
0.0013000000 3.0788000000 1.1472000000
0.0013000000 0.9809000000 0.3733000000
0.0011000000 1.7410000000 0.6994000000
0.0011000000 0.7740000000 0.2884000000
0.0010000000 5.3138000000 0.1885000000
0.0009000000 0.0769000000 0.0499000000
0.0008000000 0.3505000000 0.1004000000
0.0007000000 2.2129000000 0.9075000000
0.0005000000 2.2152000000 0.9036000000
0.0004000000 0.2996000000 0.0821000000
0.0003000000 1.8110000000 0.7225000000
0.0003000000 0.4414000000 0.1421000000
0.0002000000 1.4807000000 0.5912000000
0.0001000000 1.4334000000 0.5682000000
-0.0001000000 3.1685000000 1.1066000000
-0.0002000000 5.2013000000 0.2368000000
-0.0003000000 3.0548000000 1.1553000000
-0.0004000000 4.4820000000 0.5426000000
-0.0007000000 3.4870000000 0.9672000000
-0.0007000000 4.3509000000 0.5960000000
-0.0011000000 0.2756000000 0.0656000000
-0.0012000000 2.5139000000 1.0270000000
-0.0014000000 0.7031000000 0.2479000000
-0.0015000000 0.8104000000 0.3006000000
-0.0025000000 2.3969000000 0.9758000000
-0.0027000000 3.8468000000 0.8116000000
-0.0038000000 1.1968000000 0.4607000000
-0.0039000000 1.7795000000 0.7105000000
-0.2349000000 4.0766000000 0.5399000000
-0.2384000000 4.1762000000 0.5022000000
-0.2398000000 1.1593000000 0.2709000000
-0.2401000000 4.7218000000 0.2564000000
-0.2406000000 3.0334000000 0.9868000000
-0.2407000000 2.8470000000 0.9954000000
-0.2408000000 4.5691000000 0.3316000000
-0.2410000000 1.9610000000 0.6159000000
-0.2415000000 5.5600000000 0.0555000000
-0.2417000000 5.6122000000 0.0276000000
-0.2417000000 4.5512000000 0.3395000000
-0.2422000000 4.4958000000 0.3642000000
-0.2427000000 2.0287000000 0.6399000000
-0.2432000000 5.1815000000 0.0590000000
-0.2433000000 1.5527000000 0.4360000000
-0.2436000000 3.8946000000 0.6150000000
-0.2438000000 1.1629000000 0.2659000000
-0.2439000000 1.9931000000 0.6262000000
-0.2444000000 2.3705000000 0.7877000000
-0.2445000000 1.7838000000 0.5309000000
-0.2449000000 2.8946000000 1.0678000000
-0.2451000000 3.1989000000 0.9177000000
-0.2451000000 1.4536000000 0.3945000000
-0.2452000000 0.7690000000 0.0999000000
-0.2452000000 1.5652000000 0.4440000000
-0.2454000000 3.8668000000 0.6251000000
-0.2454000000 3.3318000000 0.8514000000
-0.2455000000 0.7929000000 0.1145000000
-0.2456000000 5.3099000000 0.0871000000
-0.2457000000 0.7720000000 0.1008000000
-0.2457000000 4.1797000000 0.4967000000
-0.2459000000 5.0877000000 0.0997000000
-0.2459000000 4.5960000000 0.3146000000
-0.2460000000 3.7047000000 0.6898000000
-0.2461000000 3.7943000000 0.6564000000
-0.2461000000 4.7916000000 0.2266000000
-0.2462000000 3.3065000000 0.8591000000
-0.2465000000 3.1406000000 0.9390000000
-0.2466000000 4.0178000000 0.5596000000
-0.2467000000 1.4234000000 0.3829000000
-0.2469000000 5.1363000000 0.0806000000
-0.2470000000 3.0849000000 0.9584000000
-0.2470000000 4.7905000000 0.2234000000
-0.2472000000 4.6139000000 0.3084000000
-0.2472000000 1.6620000000 0.4823000000
-0.2473000000 3.8996000000 0.6096000000
-0.2474000000 2.4837000000 0.8305000000
-0.2475000000 2.9280000000 1.0844000000
-0.2475000000 4.2874000000 0.4430000000
-0.2477000000 2.1378000000 0.6756000000
-0.2478000000 2.1762000000 0.7005000000
-0.2480000000 2.3421000000 0.7737000000
-0.2481000000 5.5173000000 0.0679000000
-0.2481000000 3.2337000000 0.8947000000
-0.2483000000 4.7433000000 0.2491000000
-0.2486000000 0.4232000000 0.0310000000
-0.2485000000 2.7083000000 0.9237000000
-0.2487000000 5.2646000000 0.0934000000
-0.2487000000 3.3569000000 0.8418000000
-0.2490000000 4.2961000000 0.4393000000
-0.2492000000 2.2103000000 0.7136000000
-0.2493000000 1.9922000000 0.6208000000
-0.2494000000 2.6282000000 0.8928000000
-0.2495000000 1.3235000000 0.3361000000
-0.2495000000 4.8659000000 0.1936000000
-0.2497000000 4.4223000000 0.3827000000
-0.2497000000 1.8677000000 0.5681000000
-0.2500000000 0.5586000000 0.0799000000
-0.2501000000 0.4291000000 0.0265000000
-0.2502000000 1.3096000000 0.3297000000
-0.2505000000 2.1303000000 0.6795000000
-0.2507000000 4.1015000000 0.5222000000
-0.2507000000 2.0788000000 0.6584000000
-0.2509000000 2.5507000000 0.8583000000
-0.2509000000 2.9141000000 1.0721000000
-0.2510000000 5.6594000000 0.0008000000
-0.2511000000 0.5974000000 0.0967000000
-0.2515000000 3.7034000000 0.6937000000
-0.2518000000 4.7588000000 0.2375000000
-0.2520000000 5.2128000000 0.1196000000
-0.2521000000 0.8616000000 0.1366000000
-0.2524000000 4.1879000000 0.4813000000
-0.2527000000 0.8710000000 0.1414000000
-0.2527000000 2.4000000000 0.7930000000
-0.2531000000 4.0613000000 0.5396000000
-0.2542000000 1.1477000000 0.2560000000
-0.2551000000 2.5805000000 0.8697000000
-0.2563000000 4.5372000000 0.3296000000
-0.4883000000 5.0966000000 0.0684000000
-0.4886000000 3.3958000000 0.6555000000
-0.4900000000 4.4269000000 0.2046000000
-0.4901000000 2.3228000000 0.5904000000
-0.4902000000 4.6159000000 0.1264000000
-0.4905000000 5.2211000000 0.0119000000
-0.4912000000 4.0821000000 0.3502000000
-0.4913000000 3.3817000000 0.6482000000
-0.4914000000 2.8117000000 0.7915000000
-0.4916000000 2.8306000000 0.8019000000
-0.4917000000 3.4820000000 0.6092000000
-0.4922000000 1.6506000000 0.2927000000
-0.4925000000 4.3783000000 0.2242000000
-0.4928000000 4.3189000000 0.2485000000
-0.4930000000 1.6044000000 0.2768000000
-0.4930000000 4.2449000000 0.2834000000
-0.4939000000 2.0970000000 0.4838000000
-0.4942000000 4.3198000000 0.2451000000
-0.4947000000 3.7926000000 0.4691000000
-0.4950000000 2.9570000000 0.8923000000
-0.4951000000 2.6904000000 0.7352000000
-0.4952000000 1.0296000000 0.1000000000
-0.4954000000 2.3728000000 0.6014000000
-0.4956000000 0.8313000000 0.0201000000
-0.4957000000 4.8085000000 0.1060000000
-0.4958000000 3.4378000000 0.6231000000
-0.4960000000 2.5173000000 0.6615000000
-0.4959000000 2.4977000000 0.6520000000
-0.4961000000 2.6004000000 0.6954000000
-0.4962000000 3.2293000000 0.7157000000
-0.4965000000 1.4209000000 0.1955000000
-0.4967000000 3.1523000000 0.7411000000
-0.4967000000 1.5794000000 0.2629000000
-0.4970000000 0.7687000000 0.0576000000
-0.4970000000 4.4725000000 0.1809000000
-0.4974000000 4.4063000000 0.2095000000
-0.4976000000 4.0601000000 0.3507000000
-0.4977000000 1.5191000000 0.2309000000
-0.4977000000 4.9865000000 0.0302000000
-0.4979000000 2.2618000000 0.5494000000
-0.4980000000 1.5768000000 0.2600000000
-0.4979000000 4.3856000000 0.2174000000
-0.4981000000 4.2492000000 0.2727000000
-0.4983000000 1.3314000000 0.1541000000
-0.4987000000 4.0128000000 0.3781000000
-0.4988000000 1.5244000000 0.2357000000
-0.4989000000 3.8488000000 0.4456000000
-0.4992000000 3.2810000000 0.6850000000
-0.4994000000 2.9670000000 0.8813000000
-0.4995000000 3.3079000000 0.6758000000
-0.4997000000 1.2969000000 0.1325000000
-0.5000000000 1.2748000000 0.1321000000
-0.5005000000 2.7654000000 0.7666000000
-0.5008000000 0.6584000000 0.0132000000
-0.5010000000 2.6426000000 0.7159000000
-0.5012000000 1.4024000000 0.1825000000
-0.5013000000 0.7495000000 0.0517000000
-0.5013000000 2.8053000000 0.7850000000
-0.5017000000 0.7636000000 0.0598000000
-0.5037000000 1.8929000000 0.3839000000
-0.7373000000 4.3144000000 0.0714000000
-0.7381000000 3.4743000000 0.4314000000
-0.7383000000 2.2685000000 0.3738000000
-0.7386000000 2.1344000000 0.3207000000
-0.7410000000 2.2644000000 0.3743000000
-0.7410000000 3.1514000000 0.5620000000
-0.7416000000 4.7066000000 0.0491000000
-0.7417000000 2.4769000000 0.4616000000
-0.7419000000 4.7477000000 0.0265000000
-0.7420000000 4.0222000000 0.1885000000
-0.7422000000 3.7906000000 0.2850000000
-0.7428000000 1.8687000000 0.1990000000
