5.5063000000 2.8762000000 0.0336000000
5.5042000000 3.0323000000 0.0527000000
5.5036000000 3.4014000000 0.0781000000
5.5022000000 3.3973000000 0.0910000000
5.5020000000 3.4838000000 0.0385000000
5.5018000000 2.9961000000 0.0283000000
5.5007000000 3.1531000000 0.1153000000
5.2602000000 3.7160000000 0.0641000000
5.2584000000 3.3428000000 0.2659000000
5.2579000000 3.1212000000 0.2487000000
5.2572000000 3.9199000000 0.0297000000
5.2561000000 2.4429000000 0.0377000000
5.2555000000 2.5512000000 0.0203000000
5.2543000000 3.1059000000 0.2399000000
5.2536000000 3.5930000000 0.1317000000
5.2514000000 3.4523000000 0.2182000000
5.2502000000 3.7124000000 0.0825000000
5.2487000000 3.5134000000 0.1837000000
5.0116000000 3.8485000000 0.2225000000
5.0093000000 2.1026000000 0.0823000000
5.0068000000 3.4432000000 0.4510000000
5.0065000000 3.4184000000 0.4601000000
5.0063000000 3.9991000000 0.1401000000
5.0055000000 2.0520000000 0.0609000000
5.0053000000 3.2663000000 0.5276000000
5.0048000000 2.6092000000 0.2098000000
5.0045000000 2.9738000000 0.4032000000
5.0038000000 2.4792000000 0.1401000000
5.0038000000 3.6438000000 0.3368000000
5.0031000000 2.4210000000 0.1159000000
5.0025000000 3.4182000000 0.4634000000
5.0021000000 2.5609000000 0.1886000000
5.0011000000 2.3548000000 0.0802000000
5.0003000000 2.0665000000 0.0680000000
4.9995000000 2.0141000000 0.0404000000
4.9985000000 2.9490000000 0.3972000000
4.9956000000 2.5874000000 0.2058000000
4.7604000000 2.3222000000 0.2840000000
4.7588000000 3.9865000000 0.3874000000
4.7579000000 4.2112000000 0.2625000000
4.7577000000 2.6942000000 0.4854000000
4.7573000000 1.7027000000 0.0287000000
4.7568000000 4.4903000000 0.1184000000
4.7566000000 4.0052000000 0.3770000000
4.7565000000 4.0835000000 0.3359000000
4.7560000000 4.4062000000 0.1675000000
4.7558000000 2.5469000000 0.4101000000
4.7553000000 3.3931000000 0.7010000000
4.7549000000 2.1159000000 0.1816000000
4.7546000000 3.9571000000 0.4049000000
4.7545000000 3.1540000000 0.7400000000
4.7534000000 2.0324000000 0.1330000000
4.7532000000 2.3947000000 0.3311000000
4.7529000000 1.6022000000 0.0565000000
4.7525000000 3.6916000000 0.5541000000
4.7522000000 2.7383000000 0.5132000000
4.7521000000 4.8370000000 0.0834000000
4.7519000000 3.7764000000 0.5016000000
4.7514000000 2.6593000000 0.4712000000
4.7505000000 2.9705000000 0.6354000000
4.7460000000 4.4493000000 0.1485000000
4.5130000000 3.1177000000 0.9418000000
4.5106000000 4.4778000000 0.3476000000
4.5099000000 4.8171000000 0.1712000000
4.5097000000 3.5179000000 0.8654000000
4.5093000000 3.2540000000 0.9916000000
4.5090000000 1.9203000000 0.3027000000
4.5077000000 3.5426000000 0.8610000000
4.5074000000 2.3817000000 0.5525000000
4.5072000000 5.0780000000 0.1064000000
4.5066000000 4.7934000000 0.1868000000
4.5055000000 3.0790000000 0.9270000000
4.5053000000 3.1583000000 0.9710000000
4.5050000000 1.9025000000 0.2971000000
4.5049000000 2.6116000000 0.6823000000
4.5043000000 4.6740000000 0.2571000000
4.5034000000 4.1699000000 0.5226000000
4.5026000000 1.8355000000 0.2663000000
4.5023000000 4.3260000000 0.4412000000
4.5017000000 4.0038000000 0.6239000000
4.5013000000 1.9388000000 0.3215000000
4.5009000000 1.7357000000 0.2110000000
4.5001000000 2.0321000000 0.3673000000
4.4988000000 4.0957000000 0.5667000000
4.4977000000 1.9975000000 0.3617000000
4.4956000000 2.4399000000 0.5952000000
4.2605000000 4.2573000000 0.7049000000
4.2596000000 4.4505000000 0.5976000000
4.2593000000 5.0556000000 0.2671000000
4.2592000000 3.0864000000 1.1590000000
4.2590000000 1.3833000000 0.2474000000
4.2588000000 2.9308000000 1.0763000000
4.2584000000 4.3596000000 0.6547000000
4.2582000000 5.0320000000 0.2868000000
4.2581000000 3.0182000000 1.1217000000
4.2574000000 5.0441000000 0.2807000000
4.2572000000 1.8867000000 0.5193000000
4.2571000000 2.6501000000 0.9279000000
4.2570000000 2.8419000000 1.0300000000
4.2562000000 2.1859000000 0.6803000000
4.2560000000 3.2771000000 1.2162000000
4.2554000000 2.5343000000 0.8707000000
4.2553000000 4.3175000000 0.6824000000
4.2550000000 0.6433000000 0.0064000000
4.2549000000 2.1927000000 0.6868000000
4.2547000000 1.6106000000 0.3753000000
4.2545000000 5.1560000000 0.2294000000
4.2540000000 2.4330000000 0.8112000000
4.2536000000 3.4115000000 1.1641000000
4.2535000000 2.7200000000 0.9686000000
4.2533000000 1.7117000000 0.4282000000
4.2530000000 0.7752000000 0.0757000000
4.2528000000 4.4659000000 0.6002000000
4.2525000000 3.0792000000 1.1635000000
4.2523000000 3.1855000000 1.2213000000
4.2522000000 3.7776000000 0.9699000000
4.2520000000 0.8131000000 0.0227000000
4.2519000000 5.5094000000 0.1177000000
4.2515000000 4.3753000000 0.6481000000
4.2511000000 4.2033000000 0.7402000000
4.2508000000 1.6598000000 0.4043000000
4.2502000000 5.2613000000 0.1791000000
4.2499000000 5.2974000000 0.1585000000
4.2497000000 4.2777000000 0.6987000000
4.2489000000 5.5619000000 0.0885000000
4.2486000000 1.4436000000 0.2901000000
4.2465000000 3.6054000000 1.0665000000
4.2455000000 1.5165000000 0.3332000000
4.0112000000 4.8090000000 0.6378000000
4.0097000000 4.8874000000 0.5939000000
4.0091000000 1.2526000000 0.4127000000
4.0085000000 4.6201000000 0.7472000000
4.0080000000 5.7452000000 0.1377000000
4.0078000000 4.5847000000 0.7648000000
4.0075000000 5.8963000000 0.0595000000
4.0070000000 1.7425000000 0.6764000000
4.0067000000 3.8334000000 1.1657000000
4.0061000000 2.6344000000 1.1497000000
4.0058000000 2.6449000000 1.1579000000
4.0055000000 1.1087000000 0.3330000000
4.0052000000 6.0979000000 0.0252000000
4.0049000000 1.3891000000 0.4843000000
4.0047000000 3.0967000000 1.3979000000
4.0045000000 5.3115000000 0.3786000000
4.0043000000 4.7440000000 0.6807000000
4.0042000000 4.6427000000 0.7361000000
4.0040000000 0.4926000000 0.0812000000
4.0038000000 4.3481000000 0.8960000000
4.0034000000 3.5686000000 1.3129000000
4.0031000000 1.2620000000 0.4225000000
4.0028000000 3.0751000000 1.3957000000
4.0025000000 6.1681000000 0.0634000000
4.0018000000 0.3652000000 0.0905000000
4.0016000000 5.6217000000 0.2130000000
4.0015000000 1.9009000000 0.7614000000
4.0014000000 2.1624000000 0.9045000000
4.0013000000 5.2626000000 0.3961000000
4.0005000000 3.6040000000 1.3001000000
3.9997000000 1.4126000000 0.5037000000
3.9992000000 1.8648000000 0.7450000000
3.9990000000 3.1209000000 1.4194000000
3.9980000000 1.5786000000 0.5891000000
3.9968000000 1.2346000000 0.4116000000
3.9964000000 4.9782000000 0.5663000000
3.7631000000 3.3970000000 1.6361000000
3.7624000000 4.9292000000 0.8084000000
3.7600000000 3.2284000000 1.6839000000
3.7595000000 5.6725000000 0.4065000000
3.7593000000 1.6308000000 0.8437000000
3.7590000000 6.4813000000 0.0375000000
3.7588000000 4.4434000000 1.0730000000
3.7585000000 6.3225000000 0.0607000000
3.7579000000 6.3925000000 0.0982000000
3.7576000000 5.1509000000 0.6827000000
3.7573000000 1.4591000000 0.7481000000
3.7568000000 4.7008000000 0.9328000000
3.7567000000 1.1920000000 0.6098000000
3.7565000000 4.4142000000 1.0903000000
3.7563000000 1.0461000000 0.5322000000
3.7562000000 0.0941000000 0.0890000000
3.7557000000 0.2966000000 0.1318000000
3.7554000000 0.7082000000 0.3504000000
3.7553000000 4.2267000000 1.1857000000
3.7552000000 1.8556000000 0.9707000000
3.7551000000 3.4464000000 1.6057000000
3.7547000000 4.7697000000 0.8990000000
3.7546000000 4.8323000000 0.8658000000
3.7543000000 2.9819000000 1.5727000000
3.7541000000 3.7702000000 1.4381000000
3.7539000000 2.1253000000 1.1167000000
3.7539000000 2.2527000000 1.1790000000
3.7537000000 3.6741000000 1.4850000000
3.7536000000 1.9747000000 1.0365000000
3.7533000000 1.5190000000 0.7912000000
3.7530000000 0.9818000000 0.5050000000
3.7529000000 4.8885000000 0.8356000000
3.7528000000 6.0184000000 0.2289000000
3.7527000000 4.0326000000 1.3016000000
3.7525000000 0.4200000000 0.2022000000
3.7522000000 2.2133000000 1.1640000000
3.7520000000 0.9474000000 0.4845000000
3.7518000000 0.8498000000 0.4308000000
3.7518000000 2.4545000000 1.2965000000
3.7515000000 1.3117000000 0.6771000000
3.7513000000 3.8140000000 1.4130000000
3.7512000000 2.9050000000 1.5391000000
3.7510000000 6.0647000000 0.2081000000
3.7510000000 1.6193000000 0.8409000000
3.7503000000 3.0701000000 1.6232000000
3.7500000000 0.1274000000 0.0436000000
3.7498000000 1.2426000000 0.6416000000
3.7495000000 4.1308000000 1.2467000000
3.7491000000 3.3190000000 1.6824000000
3.7486000000 1.5584000000 0.8181000000
3.7477000000 1.9827000000 1.0437000000
3.5147000000 0.9009000000 0.6870000000
3.5118000000 1.7914000000 1.1589000000
3.5106000000 3.3668000000 1.8789000000
3.5104000000 1.2285000000 0.8611000000
3.5100000000 3.5680000000 1.7680000000
3.5096000000 4.3507000000 1.3534000000
3.5089000000 4.3236000000 1.3706000000
3.5086000000 0.9805000000 0.7345000000
3.5083000000 1.8639000000 1.2081000000
3.5083000000 0.8322000000 0.6459000000
3.5081000000 3.5215000000 1.7993000000
3.5078000000 5.6283000000 0.6726000000
3.5077000000 6.0751000000 0.4106000000
3.5074000000 5.9792000000 0.4694000000
3.5072000000 6.0909000000 0.3897000000
3.5070000000 2.3131000000 1.4472000000
3.5066000000 1.4067000000 0.9579000000
3.5065000000 6.1168000000 0.3666000000
3.5064000000 4.4264000000 1.3125000000
3.5061000000 6.1224000000 0.3628000000
3.5059000000 4.2695000000 1.3986000000
3.5058000000 1.8755000000 1.2105000000
3.5056000000 4.1828000000 1.4486000000
3.5053000000 1.8133000000 1.1763000000
3.5050000000 5.0349000000 0.9881000000
3.5048000000 0.4927000000 0.4493000000
3.5044000000 5.6261000000 0.6758000000
3.5043000000 0.5615000000 0.5041000000
3.5041000000 0.6091000000 0.5326000000
3.5040000000 1.5912000000 1.0620000000
3.5038000000 0.8961000000 0.6876000000
3.5036000000 3.0959000000 1.8675000000
3.5034000000 3.9045000000 1.6002000000
3.5034000000 2.3458000000 1.4662000000
3.5031000000 3.5987000000 1.7606000000
3.5030000000 1.8136000000 1.1819000000
3.5029000000 1.9430000000 1.2526000000
3.5024000000 1.5648000000 1.0415000000
3.5023000000 5.6822000000 0.6492000000
3.5023000000 1.5507000000 1.0400000000
3.5020000000 1.0028000000 0.7459000000
3.5019000000 4.6991000000 1.1762000000
3.5016000000 0.7621000000 0.6183000000
3.5013000000 2.3866000000 1.4918000000
3.5010000000 2.4850000000 1.5472000000
3.5009000000 2.9967000000 1.8160000000
3.5008000000 2.6070000000 1.6076000000
3.5002000000 1.2714000000 0.8953000000
3.4995000000 2.4417000000 1.5187000000
3.4993000000 2.5277000000 1.5648000000
3.4988000000 3.9399000000 1.5846000000
3.4980000000 2.4170000000 1.5111000000
3.4976000000 0.9188000000 0.7023000000
3.4958000000 0.9140000000 0.7085000000
3.2630000000 5.2901000000 1.0788000000
3.2598000000 4.2055000000 1.6657000000
3.2595000000 1.9883000000 1.5008000000
3.2591000000 2.1148000000 1.5670000000
3.2588000000 3.2554000000 2.1565000000
3.2588000000 1.2317000000 1.0965000000
3.2586000000 6.1449000000 0.3521000000
3.2584000000 5.8229000000 0.7013000000
3.2583000000 2.8697000000 1.9748000000
3.2581000000 1.2870000000 1.1236000000
3.2578000000 6.3154000000 0.1699000000
3.2578000000 5.2842000000 1.0820000000
3.2573000000 4.6693000000 1.4165000000
3.2569000000 1.7904000000 1.3961000000
3.2564000000 3.6764000000 1.9508000000
3.2560000000 5.7362000000 0.7764000000
3.2559000000 5.5749000000 0.9133000000
3.2557000000 3.8265000000 1.8698000000
3.2551000000 4.2149000000 1.6628000000
3.2550000000 1.6306000000 1.3119000000
3.2548000000 5.7606000000 0.7687000000
3.2545000000 3.5292000000 2.0286000000
3.2544000000 6.0857000000 0.4171000000
3.2541000000 3.9354000000 1.8115000000
3.2540000000 0.7029000000 0.7344000000
3.2538000000 6.2374000000 0.2562000000
3.2536000000 3.5643000000 2.0117000000
3.2534000000 3.3364000000 2.1393000000
3.2531000000 1.9189000000 1.4703000000
3.2528000000 0.9848000000 0.9711000000
3.2527000000 3.8307000000 1.8750000000
3.2525000000 1.2019000000 1.0847000000
3.2524000000 1.0411000000 0.9986000000
3.2521000000 4.8575000000 1.3205000000
3.2518000000 2.4431000000 1.7508000000
3.2517000000 3.2917000000 2.1488000000
3.2514000000 1.0991000000 1.0338000000
3.2509000000 1.5801000000 1.2893000000
3.2508000000 0.9518000000 0.9393000000
3.2503000000 0.6838000000 0.7160000000
3.2500000000 -0.0002000000 0.0622000000
3.2495000000 4.5396000000 1.4951000000
3.2493000000 1.5019000000 1.2488000000
3.2490000000 0.4349000000 0.4442000000
3.2483000000 1.5822000000 1.2927000000
3.2480000000 0.1046000000 0.0931000000
3.2475000000 2.4264000000 1.7490000000
3.2463000000 1.6702000000 1.3397000000
3.2427000000 0.8193000000 0.8463000000
3.0110000000 5.4791000000 1.0733000000
3.0102000000 5.6099000000 0.9311000000
3.0098000000 5.4730000000 1.0766000000
3.0092000000 5.9303000000 0.5842000000
3.0085000000 5.2438000000 1.3088000000
3.0081000000 5.6153000000 0.9214000000
3.0078000000 5.8337000000 0.6901000000
3.0073000000 1.0096000000 1.0649000000
3.0071000000 2.8909000000 2.2186000000
3.0065000000 0.4050000000 0.4180000000
3.0064000000 1.0919000000 1.1550000000
3.0062000000 4.7686000000 1.5982000000
3.0059000000 2.1361000000 1.8153000000
3.0058000000 3.3134000000 2.3767000000
3.0056000000 2.8730000000 2.2139000000
3.0055000000 0.8805000000 0.9277000000
3.0051000000 4.5309000000 1.7266000000
3.0049000000 4.1849000000 1.9096000000
3.0047000000 2.3993000000 1.9644000000
3.0044000000 2.2769000000 1.8930000000
3.0043000000 0.4227000000 0.4277000000
3.0040000000 6.4348000000 0.1173000000
3.0040000000 0.6778000000 0.7080000000
3.0038000000 5.8728000000 0.6482000000
3.0036000000 0.5109000000 0.5338000000
3.0035000000 4.1967000000 1.9094000000
3.0033000000 1.9807000000 1.7342000000
3.0032000000 2.8953000000 2.2316000000
3.0031000000 4.7839000000 1.5892000000
3.0028000000 3.7698000000 2.1373000000
3.0025000000 3.7061000000 2.1694000000
3.0023000000 0.7482000000 0.7862000000
3.0022000000 4.1756000000 1.9175000000
3.0020000000 0.7871000000 0.8215000000
3.0019000000 4.0551000000 1.9838000000
3.0016000000 4.4137000000 1.7962000000
3.0015000000 2.5502000000 2.0466000000
3.0014000000 2.1015000000 1.7993000000
3.0013000000 3.5517000000 2.2495000000
3.0010000000 1.0101000000 1.0610000000
3.0008000000 1.6099000000 1.5377000000
3.0003000000 5.0116000000 1.4760000000
3.0000000000 0.0833000000 0.0683000000
2.9996000000 0.9599000000 1.0113000000
2.9994000000 4.1247000000 1.9474000000
2.9992000000 0.1377000000 0.1299000000
2.9991000000 1.3836000000 1.4016000000
2.9986000000 2.5789000000 2.0579000000
2.9975000000 0.9188000000 0.9639000000
2.7641000000 4.8745000000 1.7034000000
2.7620000000 4.6524000000 1.8843000000
2.7612000000 2.2398000000 2.0991000000
2.7604000000 1.9317000000 1.9265000000
2.7596000000 1.5868000000 1.6849000000
2.7587000000 2.9692000000 2.4958000000
2.7584000000 5.2631000000 1.3109000000
2.7578000000 0.2363000000 0.2325000000
2.7577000000 3.5071000000 2.5069000000
2.7573000000 5.9395000000 0.5805000000
2.7570000000 5.1380000000 1.4351000000
2.7568000000 4.6502000000 1.8969000000
2.7568000000 4.0359000000 2.2160000000
2.7567000000 6.2714000000 0.2134000000
2.7564000000 4.9237000000 1.6627000000
2.7563000000 2.9057000000 2.4591000000
2.7560000000 6.1295000000 0.3775000000
2.7558000000 2.3938000000 2.1881000000
2.7557000000 4.1591000000 2.1549000000
2.7555000000 3.2135000000 2.6113000000
2.7554000000 4.8460000000 1.7342000000
2.7553000000 4.8494000000 1.7258000000
2.7551000000 4.1970000000 2.1364000000
2.7548000000 0.6548000000 0.6847000000
2.7549000000 1.9105000000 1.9324000000
2.7545000000 0.7530000000 0.7901000000
2.7542000000 2.5405000000 2.2629000000
2.7540000000 3.3045000000 2.6130000000
2.7537000000 2.5780000000 2.2902000000
2.7535000000 1.2185000000 1.2882000000
2.7533000000 5.8519000000 0.6691000000
2.7529000000 3.0494000000 2.5351000000
2.7528000000 1.5307000000 1.6267000000
2.7527000000 4.7720000000 1.8095000000
2.7524000000 0.8788000000 0.9254000000
2.7523000000 3.8078000000 2.3489000000
2.7520000000 1.6204000000 1.7122000000
2.7519000000 4.7676000000 1.8122000000
2.7518000000 6.3738000000 0.1086000000
2.7515000000 0.1331000000 0.1231000000
2.7515000000 3.3412000000 2.5949000000
2.7513000000 3.4253000000 2.5513000000
2.7510000000 1.4265000000 1.5041000000
2.7508000000 4.9988000000 1.5855000000
2.7506000000 1.8956000000 1.9226000000
2.7505000000 2.0156000000 1.9906000000
2.7500000000 1.8847000000 1.9197000000
2.7499000000 5.2568000000 1.3097000000
2.7496000000 3.7606000000 2.3765000000
2.7493000000 4.3942000000 2.0330000000
2.7491000000 0.2619000000 0.2575000000
2.7489000000 1.4406000000 1.5260000000
2.7483000000 3.2185000000 2.6217000000
2.7478000000 2.9226000000 2.4734000000
2.7471000000 4.9383000000 1.6507000000
2.7468000000 4.7343000000 1.8370000000
2.7441000000 3.9228000000 2.2925000000
2.5151000000 5.3715000000 1.1853000000
2.5117000000 0.8657000000 0.9071000000
2.5107000000 2.0966000000 2.2110000000
2.5102000000 0.2080000000 0.2001000000
2.5097000000 5.1047000000 1.4781000000
2.5094000000 6.0057000000 0.5064000000
2.5090000000 4.9089000000 1.6828000000
2.5079000000 5.4551000000 1.0948000000
2.5068000000 5.7255000000 0.8029000000
2.5067000000 6.0925000000 0.4124000000
2.5063000000 3.8785000000 2.5385000000
2.5063000000 4.3551000000 2.2613000000
2.5062000000 1.9865000000 2.1106000000
2.5059000000 1.2804000000 1.3544000000
2.5058000000 2.7841000000 2.6273000000
2.5058000000 4.3065000000 2.2891000000
2.5056000000 0.5194000000 0.5374000000
2.5055000000 5.9387000000 0.5816000000
2.5052000000 3.0421000000 2.7673000000
2.5049000000 5.9741000000 0.5355000000
2.5047000000 3.9840000000 2.4864000000
2.5045000000 4.2944000000 2.3061000000
2.5040000000 5.0540000000 1.5282000000
2.5036000000 1.0073000000 1.0590000000
2.5035000000 5.8854000000 0.6315000000
2.5033000000 2.3434000000 2.3919000000
2.5029000000 5.5288000000 1.0142000000
2.5028000000 1.8826000000 2.0005000000
2.5027000000 0.3870000000 0.3945000000
2.5024000000 5.8196000000 0.7051000000
2.5023000000 3.8388000000 2.5619000000
2.5020000000 3.0584000000 2.7751000000
2.5015000000 0.2445000000 0.2427000000
2.5013000000 1.8682000000 1.9830000000
2.5012000000 2.2565000000 2.3397000000
2.5011000000 2.0808000000 2.1949000000
2.5004000000 2.2996000000 2.3764000000
2.5002000000 2.3862000000 2.4172000000
2.5001000000 2.0148000000 2.1410000000
2.5000000000 0.4588000000 0.4689000000
2.4998000000 2.3319000000 2.3864000000
2.4995000000 2.5360000000 2.5018000000
2.4993000000 5.3555000000 1.2019000000
2.4991000000 2.9619000000 2.7348000000
2.4988000000 3.6711000000 2.6549000000
2.4988000000 1.9798000000 2.1048000000
2.4982000000 3.9024000000 2.5308000000
2.4974000000 0.9068000000 0.9550000000
2.4937000000 0.6410000000 0.6698000000
2.2616000000 5.0460000000 1.5344000000
2.2601000000 5.5597000000 0.9852000000
2.2592000000 2.6445000000 2.7606000000
2.2587000000 5.6922000000 0.8381000000
2.2583000000 5.3821000000 1.1732000000
2.2579000000 0.4683000000 0.4815000000
2.2576000000 5.6856000000 0.8473000000
2.2569000000 4.1461000000 2.5041000000
2.2565000000 5.3702000000 1.1909000000
2.2564000000 1.3921000000 1.4764000000
2.2558000000 1.4573000000 1.5441000000
2.2555000000 1.3171000000 1.3978000000
2.2553000000 4.7942000000 1.8017000000
2.2550000000 5.0749000000 1.5051000000
2.2547000000 6.3060000000 0.1817000000
2.2544000000 2.0866000000 2.2238000000
2.2542000000 0.0984000000 0.0837000000
2.2540000000 3.0204000000 2.9904000000
2.2539000000 0.0928000000 0.0695000000
2.2538000000 4.7440000000 1.8580000000
2.2537000000 0.9095000000 0.9589000000
2.2535000000 3.9575000000 2.6899000000
2.2534000000 3.2031000000 3.0744000000
2.2533000000 0.8587000000 0.9026000000
2.2532000000 5.3129000000 1.2486000000
2.2527000000 4.3864000000 2.2427000000
2.2525000000 1.3981000000 1.4781000000
2.2515000000 1.3821000000 1.4696000000
2.2512000000 6.1938000000 0.3001000000
2.2508000000 1.3182000000 1.3953000000
2.2508000000 1.3951000000 1.4762000000
2.2505000000 3.3199000000 3.0775000000
2.2501000000 3.0706000000 3.0178000000
2.2498000000 2.7797000000 2.8584000000
2.2497000000 2.9108000000 2.9333000000
2.2493000000 4.1548000000 2.4883000000
2.2493000000 4.8564000000 1.7351000000
2.2485000000 2.1177000000 2.2453000000
2.2479000000 2.8429000000 2.9019000000
2.0119000000 5.0447000000 1.5382000000
2.0112000000 5.7760000000 0.7519000000
2.0110000000 5.1333000000 1.4410000000
2.0090000000 2.7951000000 2.9787000000
2.0089000000 4.4827000000 2.1372000000
2.0087000000 3.9701000000 2.6896000000
2.0085000000 5.8751000000 0.6503000000
2.0080000000 4.1095000000 2.5405000000
2.0078000000 4.5009000000 2.1171000000
2.0077000000 4.0629000000 2.5869000000
2.0075000000 5.7036000000 0.8267000000
2.0071000000 3.1599000000 3.2977000000
2.0067000000 2.4063000000 2.5652000000
2.0064000000 6.1911000000 0.3060000000
2.0062000000 3.2436000000 3.3252000000
2.0058000000 1.7570000000 1.8691000000
2.0057000000 2.5849000000 2.7554000000
2.0055000000 6.2580000000 0.2408000000
2.0054000000 1.6188000000 1.7144000000
2.0052000000 4.1607000000 2.4851000000
2.0049000000 4.8495000000 1.7426000000
2.0047000000 1.2916000000 1.3666000000
2.0045000000 1.8817000000 1.9989000000
2.0042000000 2.4538000000 2.6141000000
2.0039000000 5.4788000000 1.0723000000
2.0036000000 4.4169000000 2.2004000000
2.0035000000 3.7134000000 2.9635000000
2.0034000000 1.8835000000 2.0074000000
2.0032000000 0.5000000000 0.5175000000
2.0031000000 5.6088000000 0.9366000000
2.0028000000 6.0196000000 0.4935000000
2.0025000000 0.8468000000 0.8855000000
2.0024000000 0.7971000000 0.8286000000
2.0023000000 0.7883000000 0.8250000000
2.0021000000 2.1284000000 2.2672000000
2.0016000000 4.5570000000 2.0615000000
2.0014000000 2.1981000000 2.3427000000
2.0013000000 1.3230000000 1.4029000000
2.0010000000 1.6379000000 1.7315000000
2.0008000000 0.3323000000 0.3334000000
2.0004000000 4.8129000000 1.7812000000
1.9995000000 0.9288000000 0.9752000000
1.9977000000 2.7112000000 2.8889000000
1.9970000000 0.7527000000 0.7882000000
1.9967000000 2.2800000000 2.4248000000
1.7621000000 5.5572000000 0.9920000000
1.7605000000 2.0847000000 2.2217000000
1.7588000000 3.4620000000 3.2195000000
1.7586000000 0.5925000000 0.6139000000
1.7583000000 2.2063000000 2.3521000000
1.7576000000 6.3955000000 0.0810000000
1.7575000000 5.6548000000 0.8795000000
1.7573000000 4.8231000000 1.7769000000
1.7566000000 1.3709000000 1.4499000000
1.7564000000 3.5594000000 3.1212000000
1.7560000000 3.6938000000 2.9821000000
1.7557000000 5.6890000000 0.8430000000
1.7556000000 5.8295000000 0.6894000000
1.7552000000 4.2900000000 2.3447000000
1.7549000000 2.3398000000 2.4927000000
1.7547000000 0.9625000000 1.0119000000
1.7542000000 5.3822000000 1.1743000000
1.7540000000 4.6972000000 1.9052000000
1.7539000000 5.5001000000 1.0481000000
1.7538000000 3.5787000000 3.1106000000
1.7537000000 3.9604000000 2.6958000000
1.7535000000 1.5557000000 1.6534000000
1.7532000000 0.0834000000 0.0688000000
1.7530000000 0.1574000000 0.1498000000
1.7528000000 3.1472000000 3.2960000000
1.7527000000 3.7796000000 2.8917000000
1.7526000000 3.6515000000 3.0285000000
1.7524000000 2.9617000000 3.1465000000
1.7520000000 4.8580000000 1.7393000000
1.7519000000 5.5424000000 1.0063000000
1.7518000000 1.2638000000 1.3386000000
1.7516000000 2.6611000000 2.8401000000
1.7515000000 3.1962000000 3.3190000000
1.7513000000 0.3742000000 0.3767000000
1.7509000000 0.7407000000 0.7782000000
1.7508000000 4.6034000000 2.0132000000
1.7507000000 1.0809000000 1.1351000000
1.7505000000 2.8074000000 2.9930000000
1.7501000000 2.8846000000 3.0796000000
1.7499000000 4.7371000000 1.8660000000
1.7498000000 1.5817000000 1.6788000000
1.7491000000 1.6278000000 1.7270000000
1.7489000000 2.5026000000 2.6721000000
1.7484000000 3.0441000000 3.2246000000
1.7483000000 2.2972000000 2.4442000000
1.7475000000 6.5284000000 0.0883000000
1.7464000000 0.5628000000 0.5813000000
1.5114000000 6.2630000000 0.2279000000
1.5093000000 1.1544000000 1.2234000000
1.5091000000 5.8582000000 0.6644000000
1.5084000000 6.0735000000 0.4339000000
1.5082000000 3.2114000000 3.0882000000
1.5078000000 3.6555000000 2.9055000000
1.5075000000 6.3696000000 0.1139000000
1.5073000000 2.7383000000 2.8552000000
1.5071000000 3.3520000000 3.0675000000
1.5070000000 4.1866000000 2.4558000000
1.5069000000 5.5490000000 0.9980000000
1.5068000000 4.6704000000 1.9368000000
1.5066000000 0.7454000000 0.7761000000
1.5065000000 3.2860000000 3.0835000000
1.5060000000 4.9301000000 1.6583000000
1.5060000000 5.8513000000 0.6725000000
1.5059000000 2.2198000000 2.3603000000
1.5056000000 5.1444000000 1.4294000000
1.5051000000 4.6460000000 1.9653000000
1.5049000000 3.3682000000 3.0640000000
1.5046000000 5.3698000000 1.1916000000
1.5044000000 5.8496000000 0.6762000000
1.5042000000 2.1379000000 2.2787000000
1.5039000000 6.0839000000 0.4224000000
1.5038000000 3.3553000000 3.0601000000
1.5035000000 1.5923000000 1.6889000000
1.5033000000 2.8405000000 2.9030000000
1.5030000000 1.1300000000 1.1941000000
1.5028000000 6.4874000000 0.0602000000
1.5026000000 3.8200000000 2.7943000000
1.5023000000 0.4206000000 0.4360000000
1.5021000000 6.2124000000 0.2810000000
1.5018000000 5.5443000000 1.0039000000
1.5015000000 5.2862000000 1.2753000000
1.5013000000 0.4853000000 0.5029000000
1.5010000000 3.9273000000 2.7199000000
1.5010000000 1.3845000000 1.4617000000
1.5007000000 0.4688000000 0.4819000000
1.5004000000 1.5829000000 1.6790000000
1.5002000000 0.9472000000 0.9926000000
1.5000000000 1.6489000000 1.7515000000
1.4998000000 0.9389000000 0.9844000000
1.4994000000 0.6105000000 0.6401000000
1.4991000000 0.3986000000 0.4072000000
1.4985000000 1.0439000000 1.0972000000
1.4982000000 4.4699000000 2.1579000000
1.4979000000 4.0391000000 2.6129000000
1.4972000000 2.4783000000 2.6403000000
1.4967000000 0.8220000000 0.8595000000
1.2614000000 1.7220000000 1.8304000000
1.2600000000 4.1649000000 2.4021000000
1.2591000000 4.6083000000 2.0069000000
1.2588000000 5.4118000000 1.1428000000
1.2585000000 3.4760000000 2.7718000000
1.2580000000 2.9969000000 2.7589000000
1.2576000000 5.1226000000 1.4554000000
1.2573000000 4.5714000000 2.0456000000
1.2569000000 2.7107000000 2.6067000000
1.2568000000 6.0248000000 0.4869000000
1.2567000000 0.5484000000 0.5729000000
1.2565000000 4.9371000000 1.6529000000
1.2562000000 5.8597000000 0.6614000000
1.2560000000 3.2647000000 2.8586000000
1.2558000000 5.2590000000 1.3040000000
1.2556000000 3.0184000000 2.7641000000
1.2553000000 5.0978000000 1.4753000000
1.2551000000 4.9442000000 1.6462000000
1.2550000000 3.5086000000 2.7516000000
1.2549000000 0.6021000000 0.6276000000
1.2545000000 6.0540000000 0.4499000000
1.2542000000 4.6866000000 1.9221000000
1.2540000000 3.9370000000 2.5197000000
1.2536000000 3.7862000000 2.6013000000
1.2535000000 3.1017000000 2.8080000000
1.2534000000 2.5748000000 2.5249000000
1.2533000000 1.4565000000 1.5440000000
1.2532000000 3.5333000000 2.7397000000
1.2530000000 1.5377000000 1.6270000000
1.2528000000 4.6562000000 1.9593000000
1.2525000000 5.5098000000 1.0393000000
1.2523000000 0.8806000000 0.9266000000
1.2521000000 3.7433000000 2.6203000000
1.2519000000 3.8873000000 2.5409000000
1.2518000000 5.6289000000 0.9076000000
1.2515000000 1.0371000000 1.0904000000
1.2513000000 3.8310000000 2.5739000000
1.2510000000 2.2406000000 2.3289000000
1.2504000000 1.0196000000 1.0733000000
1.2502000000 3.5109000000 2.7427000000
1.2497000000 5.3521000000 1.2023000000
1.2495000000 6.0901000000 0.4076000000
1.2482000000 5.0814000000 1.5020000000
1.2480000000 3.7881000000 2.5918000000
1.2465000000 3.8731000000 2.5480000000
1.2439000000 0.0027000000 0.0599000000
1.0119000000 0.1545000000 0.1465000000
1.0095000000 4.7283000000 1.8514000000
1.0087000000 5.9268000000 0.5876000000
1.0084000000 1.1030000000 1.1643000000
1.0081000000 2.0763000000 2.0307000000
1.0078000000 1.7953000000 1.8655000000
1.0071000000 5.8090000000 0.7168000000
1.0066000000 1.3121000000 1.3923000000
1.0063000000 3.6498000000 2.4449000000
1.0061000000 6.3307000000 0.1555000000
1.0058000000 3.0806000000 2.5657000000
1.0056000000 4.2640000000 2.1161000000
1.0052000000 0.0129000000 0.0653000000
1.0044000000 5.0773000000 1.4997000000
1.0042000000 4.2650000000 2.1135000000
1.0040000000 0.8452000000 0.8902000000
1.0038000000 0.3336000000 0.3386000000
1.0036000000 6.3450000000 0.1397000000
1.0034000000 0.8131000000 0.8514000000
1.0033000000 1.9607000000 1.9639000000
1.0031000000 6.4677000000 0.0814000000
1.0028000000 1.6475000000 1.7357000000
1.0026000000 1.3850000000 1.4612000000
1.0024000000 1.7070000000 1.7870000000
1.0022000000 4.1069000000 2.1956000000
1.0019000000 5.8624000000 0.6549000000
1.0015000000 1.4961000000 1.5872000000
1.0010000000 3.0427000000 2.5431000000
1.0005000000 1.9293000000 1.9412000000
1.0000000000 4.5229000000 1.9680000000
0.9998000000 2.0302000000 1.9998000000
0.9994000000 0.6657000000 0.6942000000
0.9987000000 0.4767000000 0.4974000000
0.9985000000 0.9703000000 1.0208000000
0.9962000000 3.2927000000 2.6082000000
0.9951000000 0.0865000000 0.0728000000
0.7619000000 2.7353000000 2.1525000000
0.7611000000 4.8007000000 1.5972000000
0.7600000000 5.6613000000 0.8782000000
0.7593000000 4.6626000000 1.6670000000
0.7588000000 4.9378000000 1.5213000000
0.7584000000 5.0219000000 1.4726000000
0.7578000000 3.2236000000 2.3960000000
0.7576000000 5.3423000000 1.2160000000
0.7574000000 3.2179000000 2.3959000000
0.7570000000 5.7736000000 0.7514000000
0.7565000000 4.1269000000 1.9530000000
0.7564000000 4.6389000000 1.6769000000
0.7562000000 1.8421000000 1.6730000000
0.7560000000 4.9977000000 1.4906000000
0.7557000000 5.6212000000 0.9152000000
0.7554000000 5.6661000000 0.8730000000
0.7553000000 3.4463000000 2.3202000000
0.7550000000 4.9023000000 1.5421000000
0.7548000000 3.9327000000 2.0536000000
0.7546000000 0.6853000000 0.7163000000
0.7543000000 5.1889000000 1.3628000000
0.7542000000 0.3001000000 0.2987000000
0.7538000000 0.7535000000 0.7865000000
0.7537000000 4.5675000000 1.7136000000
0.7535000000 2.4467000000 1.9921000000
0.7533000000 6.3934000000 0.0871000000
0.7532000000 4.4210000000 1.7883000000
0.7530000000 1.8975000000 1.6949000000
0.7528000000 0.6612000000 0.6856000000
0.7526000000 1.9372000000 1.7125000000
0.7522000000 1.7772000000 1.6298000000
0.7521000000 3.4094000000 2.3385000000
0.7520000000 2.6367000000 2.0969000000
0.7518000000 1.3200000000 1.3661000000
0.7514000000 3.6992000000 2.1800000000
0.7511000000 1.3635000000 1.3966000000
0.7510000000 2.9548000000 2.2643000000
0.7508000000 1.9933000000 1.7505000000
0.7505000000 2.0314000000 1.7639000000
0.7500000000 3.7823000000 2.1326000000
0.7498000000 0.7570000000 0.7890000000
0.7495000000 1.3787000000 1.4003000000
0.7490000000 0.2368000000 0.2374000000
0.7488000000 2.7574000000 2.1563000000
0.7479000000 2.9122000000 2.2313000000
0.7469000000 0.8210000000 0.8610000000
0.7457000000 2.3667000000 1.9432000000
0.7445000000 1.6873000000 1.5811000000
0.5116000000 6.3424000000 0.1483000000
0.5106000000 1.8611000000 1.4594000000
0.5090000000 5.3061000000 1.0856000000
0.5086000000 4.8178000000 1.3476000000
0.5081000000 3.5766000000 2.0199000000
0.5075000000 1.4988000000 1.2533000000
0.5075000000 3.5383000000 2.0427000000
0.5071000000 5.7261000000 0.8035000000
0.5066000000 3.9405000000 1.8217000000
0.5064000000 6.1688000000 0.3307000000
0.5063000000 1.2165000000 1.1032000000
0.5060000000 1.7147000000 1.3714000000
0.5057000000 4.7410000000 1.3927000000
0.5056000000 5.0108000000 1.2484000000
0.5055000000 2.6144000000 1.8513000000
0.5053000000 5.6330000000 0.8941000000
0.5050000000 4.0745000000 1.7423000000
0.5048000000 2.7649000000 1.9354000000
0.5045000000 6.4861000000 0.0664000000
0.5044000000 0.3161000000 0.3174000000
0.5042000000 0.3334000000 0.3409000000
0.5040000000 3.1319000000 2.1319000000
0.5039000000 3.9663000000 1.8024000000
0.5037000000 0.8135000000 0.8349000000
0.5035000000 0.9387000000 0.9329000000
0.5034000000 3.6147000000 1.9920000000
0.5030000000 0.3313000000 0.3340000000
0.5029000000 1.8377000000 1.4398000000
0.5027000000 3.0464000000 2.0805000000
0.5024000000 3.9893000000 1.7936000000
0.5023000000 5.6544000000 0.8678000000
0.5020000000 0.8433000000 0.8635000000
0.5018000000 4.4861000000 1.5221000000
0.5015000000 1.7567000000 1.3854000000
0.5013000000 1.4562000000 1.2219000000
0.5011000000 5.1388000000 1.1728000000
0.5009000000 0.8144000000 0.8395000000
0.5008000000 0.5913000000 0.6131000000
0.5004000000 3.0347000000 2.0745000000
0.5002000000 1.7573000000 1.3907000000
0.4998000000 3.2723000000 2.1535000000
0.4985000000 5.3071000000 1.0789000000
0.4979000000 2.7226000000 1.8993000000
0.4966000000 0.3955000000 0.4053000000
0.4958000000 6.4061000000 0.0768000000
0.4918000000 0.5504000000 0.5662000000
0.2621000000 5.9415000000 0.5132000000
0.2605000000 3.4016000000 1.8774000000
0.2599000000 1.0048000000 0.7599000000
0.2597000000 5.5532000000 0.7242000000
0.2590000000 0.3102000000 0.3030000000
0.2588000000 3.8340000000 1.6468000000
0.2582000000 4.3073000000 1.3950000000
0.2578000000 5.7142000000 0.6429000000
0.2577000000 2.8949000000 1.7698000000
0.2576000000 1.6192000000 1.0892000000
0.2573000000 2.6182000000 1.6243000000
0.2572000000 1.2881000000 0.9117000000
0.2569000000 0.7723000000 0.6339000000
0.2568000000 3.7438000000 1.6938000000
0.2567000000 1.2753000000 0.9018000000
0.2564000000 1.9200000000 1.2433000000
0.2561000000 5.0547000000 0.9897000000
0.2560000000 3.9848000000 1.5638000000
0.2559000000 5.4586000000 0.7701000000
0.2556000000 6.4278000000 0.0492000000
0.2552000000 4.2222000000 1.4413000000
0.2550000000 2.0585000000 1.3217000000
0.2548000000 3.2662000000 1.9304000000
0.2545000000 3.0332000000 1.8432000000
0.2545000000 6.0484000000 0.4425000000
0.2544000000 2.0802000000 1.3320000000
0.2542000000 2.8714000000 1.7527000000
0.2541000000 0.3041000000 0.3066000000
0.2540000000 5.6668000000 0.6609000000
0.2538000000 2.7782000000 1.7071000000
0.2533000000 0.0677000000 0.0527000000
0.2532000000 4.4726000000 1.2974000000
0.2530000000 5.7301000000 0.6196000000
0.2528000000 1.8988000000 1.2331000000
0.2527000000 0.9009000000 0.6971000000
0.2523000000 1.0438000000 0.7755000000
0.2521000000 2.3501000000 1.4762000000
0.2519000000 3.4967000000 1.8177000000
0.2515000000 6.3276000000 0.1568000000
0.2514000000 0.1893000000 0.1801000000
0.2512000000 4.9085000000 1.0598000000
0.2510000000 1.5467000000 1.0420000000
0.2509000000 3.9789000000 1.5660000000
0.2507000000 2.3427000000 1.4689000000
0.2503000000 6.1718000000 0.3183000000
0.2500000000 0.7643000000 0.6228000000
0.2497000000 3.6623000000 1.7341000000
0.2495000000 2.3247000000 1.4624000000
0.2494000000 3.9195000000 1.5884000000
0.2491000000 1.0808000000 0.7923000000
0.2488000000 0.5750000000 0.5201000000
0.2483000000 2.4516000000 1.5209000000
0.2481000000 6.1032000000 0.3857000000
0.2478000000 1.1806000000 0.8442000000
0.2475000000 2.5860000000 1.5955000000
0.2472000000 0.0040000000 0.0601000000
0.0141000000 5.6346000000 0.4554000000
0.0104000000 4.6984000000 0.9504000000
0.0089000000 5.3449000000 0.6096000000
0.0083000000 4.1400000000 1.2505000000
0.0081000000 5.2579000000 0.6462000000
0.0080000000 3.2359000000 1.7055000000
0.0078000000 4.6774000000 0.9617000000
0.0076000000 4.7915000000 0.8986000000
0.0073000000 6.3312000000 0.0753000000
0.0068000000 4.0313000000 1.3020000000
0.0067000000 0.3140000000 0.1559000000
0.0065000000 5.1938000000 0.6828000000
0.0061000000 5.3427000000 0.6096000000
0.0059000000 4.0499000000 1.2997000000
0.0056000000 5.6861000000 0.4167000000
0.0054000000 3.4860000000 1.6010000000
0.0053000000 3.6174000000 1.5323000000
0.0051000000 2.7996000000 1.4868000000
0.0050000000 4.6109000000 0.9952000000
0.0049000000 2.9652000000 1.5780000000
0.0047000000 5.6950000000 0.4157000000
0.0048000000 6.2729000000 0.1098000000
0.0043000000 1.7197000000 0.9095000000
0.0040000000 5.6502000000 0.4437000000
0.0039000000 2.6262000000 1.3892000000
0.0038000000 2.4297000000 1.2855000000
0.0036000000 5.7120000000 0.4016000000
0.0035000000 4.9199000000 0.8301000000
0.0034000000 3.1408000000 1.6632000000
0.0031000000 4.7160000000 0.9416000000
0.0029000000 1.8195000000 0.9547000000
0.0027000000 4.0351000000 1.3014000000
0.0025000000 1.7657000000 0.9262000000
0.0023000000 4.8681000000 0.8549000000
0.0021000000 0.0434000000 0.0583000000
0.0020000000 1.5732000000 0.8272000000
0.0018000000 5.8769000000 0.3096000000
0.0017000000 2.8531000000 1.5063000000
0.0013000000 5.4929000000 0.5186000000
0.0012000000 1.0733000000 0.5590000000
0.0010000000 1.6362000000 0.8575000000
0.0008000000 2.3588000000 1.2457000000
0.0006000000 4.5060000000 1.0509000000
0.0005000000 2.4088000000 1.2715000000
0.0003000000 3.8116000000 1.4190000000
-0.0007000000 1.3496000000 0.6973000000
-0.0015000000 1.8308000000 0.9607000000
-0.0017000000 1.3418000000 0.7040000000
-0.0025000000 1.3408000000 0.6953000000
-0.0033000000 0.1882000000 0.0822000000
-0.0049000000 0.3322000000 0.1564000000
-0.2371000000 2.2004000000 0.9379000000
-0.2392000000 4.2904000000 0.9408000000
-0.2397000000 4.4438000000 0.8591000000
-0.2401000000 6.1390000000 0.0975000000
-0.2408000000 6.0827000000 0.0527000000
-0.2418000000 5.9696000000 0.1107000000
-0.2419000000 0.3704000000 0.0311000000
-0.2424000000 5.4724000000 0.2976000000
-0.2429000000 6.2903000000 0.0099000000
-0.2434000000 4.5635000000 0.7879000000
-0.2437000000 5.2262000000 0.4348000000
-0.2440000000 4.3082000000 0.9251000000
-0.2442000000 3.9599000000 1.1148000000
-0.2447000000 5.9706000000 0.1105000000
-0.2449000000 4.9095000000 0.5982000000
-0.2450000000 4.4153000000 0.8672000000
-0.2452000000 4.6756000000 0.7326000000
-0.2454000000 3.4481000000 1.3892000000
-0.2457000000 1.3143000000 0.4579000000
-0.2459000000 3.5639000000 1.3266000000
-0.2462000000 5.6715000000 0.1946000000
-0.2465000000 3.6756000000 1.2651000000
-0.2466000000 3.2253000000 1.4612000000
-0.2467000000 4.5120000000 0.8185000000
-0.2469000000 1.6112000000 0.6135000000
-0.2470000000 4.6736000000 0.7298000000
-0.2472000000 6.0799000000 0.0424000000
-0.2474000000 3.1140000000 1.4184000000
-0.2475000000 5.7281000000 0.1625000000
-0.2477000000 2.0373000000 0.8428000000
-0.2480000000 2.4531000000 1.0645000000
-0.2481000000 4.5108000000 0.8095000000
-0.2483000000 1.7139000000 0.6660000000
-0.2485000000 1.7481000000 0.6915000000
-0.2490000000 1.4586000000 0.5340000000
-0.2491000000 4.2310000000 0.9646000000
-0.2492000000 1.7221000000 0.6730000000
-0.2493000000 4.6282000000 0.7501000000
-0.2496000000 0.7330000000 0.1382000000
-0.2499000000 2.9672000000 1.3438000000
-0.2500000000 3.2729000000 1.4603000000
-0.2502000000 4.1368000000 1.0085000000
-0.2506000000 2.1667000000 0.9073000000
-0.2510000000 4.8289000000 0.6392000000
-0.2512000000 5.2375000000 0.4194000000
-0.2519000000 1.6516000000 0.6337000000
-0.2530000000 0.3376000000 0.0731000000
-0.2536000000 0.8271000000 0.1830000000
-0.2546000000 2.2234000000 0.9441000000
-0.4894000000 4.5397000000 0.5747000000
-0.4911000000 3.7475000000 1.0016000000
-0.4919000000 2.9112000000 1.0818000000
-0.4929000000 3.4894000000 1.1330000000
-0.4934000000 5.5410000000 0.1090000000
-0.4939000000 4.4027000000 0.6412000000
-0.4942000000 3.4202000000 1.1671000000
-0.4944000000 2.6964000000 0.9711000000
-0.4945000000 2.4673000000 0.8447000000
-0.4949000000 3.3650000000 1.1998000000
-0.4950000000 1.8017000000 0.4845000000
-0.4951000000 2.4963000000 0.8597000000
-0.4953000000 5.4659000000 0.0747000000
-0.4954000000 5.2265000000 0.2003000000
-0.4956000000 0.6218000000 0.0027000000
-0.4960000000 5.1272000000 0.2508000000
-0.4964000000 5.7390000000 0.0765000000
-0.4965000000 4.7524000000 0.4523000000
-0.4969000000 4.2370000000 0.7251000000
-0.4970000000 3.3412000000 1.2160000000
-0.4972000000 2.7430000000 0.9899000000
-0.4975000000 0.6571000000 0.0171000000
-0.4986000000 0.7710000000 0.0769000000
-0.4987000000 4.9076000000 0.3626000000
-0.4989000000 4.9063000000 0.3665000000
-0.4992000000 1.4564000000 0.2992000000
-0.4995000000 1.5218000000 0.3297000000
-0.4997000000 0.9203000000 0.0813000000
-0.4999000000 0.9022000000 0.0737000000
-0.5005000000 1.3510000000 0.2461000000
-0.5009000000 4.8480000000 0.3996000000
-0.5015000000 0.6699000000 0.0198000000
-0.5019000000 2.7297000000 0.9763000000
-0.5027000000 3.0540000000 1.1466000000
-0.5037000000 0.7138000000 0.0441000000
-0.7390000000 2.5107000000 0.6378000000
-0.7419000000 3.9391000000 0.6582000000
-0.7422000000 4.8453000000 0.1774000000
-0.7427000000 4.6894000000 0.2588000000
-0.7430000000 1.3060000000 0.0711000000
-0.7430000000 5.0991000000 0.1118000000
-0.7436000000 1.9524000000 0.3386000000
-0.7439000000 3.5250000000 0.8813000000
-0.7442000000 4.4219000000 0.4005000000
-0.7448000000 1.4919000000 0.0906000000
-0.7452000000 4.0443000000 0.5981000000
-0.7457000000 2.1884000000 0.4576000000
-0.7458000000 4.9132000000 0.1312000000
-0.7461000000 2.8510000000 0.8185000000
-0.7462000000 2.7467000000 0.7578000000
-0.7465000000 4.2160000000 0.5050000000
-0.7470000000 4.1598000000 0.5462000000
-0.7472000000 1.1744000000 0.0620000000
-0.7474000000 1.4476000000 0.0617000000
-0.7478000000 2.3348000000 0.5363000000
-0.7480000000 3.1613000000 0.9781000000
-0.7483000000 3.3020000000 0.9920000000
-0.7486000000 1.8677000000 0.2850000000
-0.7489000000 1.1099000000 0.0341000000
-0.7491000000 3.6700000000 0.7978000000
-0.7492000000 2.5017000000 0.6249000000
-0.7495000000 4.2355000000 0.4968000000
-0.7497000000 1.7502000000 0.2167000000
-0.7507000000 2.1440000000 0.4308000000
-0.7508000000 3.9343000000 0.6579000000
-0.7514000000 4.5634000000 0.3163000000
-0.7518000000 4.9014000000 0.1309000000
-0.7535000000 2.0356000000 0.3666000000
-0.9899000000 3.0504000000 0.7043000000
-0.9903000000 1.4924000000 0.0100000000
-0.9915000000 1.6963000000 0.0412000000
-0.9927000000 4.0634000000 0.3607000000
-0.9932000000 3.2873000000 0.7588000000
-0.9937000000 2.1100000000 0.1882000000
-0.9945000000 3.0927000000 0.7131000000
-0.9952000000 3.1711000000 0.7525000000
-0.9957000000 4.5433000000 0.1021000000
-0.9960000000 3.4309000000 0.6945000000
-0.9962000000 1.8490000000 0.0442000000
-0.9965000000 2.9428000000 0.6344000000
-0.9972000000 2.7905000000 0.5470000000
-0.9976000000 4.1644000000 0.3022000000
-0.9978000000 2.9118000000 0.6183000000
-0.9980000000 3.4575000000 0.6822000000
-0.9984000000 3.9774000000 0.4064000000
-0.9992000000 4.9506000000 0.0316000000
-0.9995000000 3.2293000000 0.7643000000
-0.9997000000 2.8763000000 0.5944000000
-1.0005000000 2.4307000000 0.3556000000
-1.0012000000 2.1521000000 0.2011000000
-1.0020000000 1.8397000000 0.1111000000
-1.0024000000 4.3122000000 0.2145000000
-1.0032000000 1.5744000000 0.0404000000
-1.2382000000 3.0935000000 0.4837000000
-1.2418000000 3.0868000000 0.4792000000
-1.2434000000 3.3346000000 0.5156000000
-1.2447000000 3.3822000000 0.4891000000
-1.2454000000 4.5548000000 0.0088000000
-1.2457000000 3.7519000000 0.2919000000
-1.2462000000 4.0626000000 0.1272000000
-1.2467000000 3.9667000000 0.1782000000
-1.2475000000 4.3012000000 0.0761000000
-1.2486000000 2.2230000000 0.0904000000
-1.2490000000 2.2211000000 0.0818000000
-1.2497000000 2.9881000000 0.4245000000
-1.2502000000 4.5141000000 0.0283000000
-1.2504000000 2.3034000000 0.0529000000
-1.2516000000 3.7782000000 0.2768000000
-1.2518000000 2.8315000000 0.3344000000
-1.2523000000 3.1490000000 0.5037000000
-1.2535000000 2.7370000000 0.2785000000
-1.2551000000 3.0371000000 0.4380000000
-1.4909000000 2.6146000000 0.0721000000
-1.4927000000 3.4558000000 0.2188000000
-1.4934000000 4.0995000000 0.0260000000
-1.4946000000 3.8070000000 0.1119000000
-1.4952000000 2.7187000000 0.0474000000
-1.4954000000 3.9026000000 0.0548000000
-1.4960000000 2.5390000000 0.0229000000
-1.4972000000 3.4657000000 0.2101000000
-1.4975000000 3.1752000000 0.2895000000
-1.4979000000 3.0912000000 0.2465000000
-1.4989000000 3.7327000000 0.0633000000
-1.4990000000 3.6720000000 0.0981000000
-1.5005000000 2.8370000000 0.1056000000
-1.5020000000 2.3801000000 0.0141000000
-1.7450000000 3.5832000000 0.0684000000
-1.7457000000 2.7955000000 0.0083000000
-1.7465000000 3.4577000000 0.0594000000
-1.7477000000 3.0358000000 0.0618000000
-1.7490000000 2.8174000000 0.0119000000
-1.7495000000 3.2448000000 0.0723000000
-1.7499000000 2.9168000000 0.0721000000
-1.7541000000 3.5314000000 0.0888000000
