5.0080000000 2.0299000000 0.2947000000
5.0078000000 4.7819000000 0.4914000000
5.0075000000 5.1701000000 0.3393000000
5.0073000000 4.1290000000 0.7581000000
5.0068000000 4.2125000000 0.7276000000
5.0067000000 3.2054000000 0.7625000000
5.0064000000 5.2028000000 0.3291000000
5.0060000000 5.7007000000 0.1281000000
5.0059000000 5.2574000000 0.3078000000
5.0053000000 1.7683000000 0.1841000000
5.0052000000 3.7388000000 0.9179000000
5.0051000000 5.0449000000 0.3944000000
5.0050000000 1.8452000000 0.2181000000
5.0048000000 1.7853000000 0.1978000000
5.0046000000 6.0169000000 0.0802000000
5.0043000000 4.0727000000 0.7797000000
5.0040000000 2.5202000000 0.4952000000
5.0035000000 1.7183000000 0.1686000000
5.0031000000 2.3598000000 0.4304000000
5.0028000000 2.4756000000 0.4757000000
5.0026000000 5.8495000000 0.0728000000
5.0025000000 4.4036000000 0.6517000000
5.0023000000 2.1998000000 0.3594000000
5.0023000000 3.4316000000 0.8634000000
5.0020000000 1.1556000000 0.0237000000
5.0018000000 4.0471000000 0.7900000000
5.0015000000 3.9495000000 0.8350000000
5.0014000000 5.3378000000 0.2767000000
5.0009000000 2.4446000000 0.4620000000
5.0005000000 2.0226000000 0.2924000000
5.0004000000 1.7629000000 0.1896000000
4.9998000000 3.0265000000 0.6959000000
4.9997000000 3.3323000000 0.8207000000
4.9980000000 2.1603000000 0.3537000000
4.9929000000 3.4008000000 0.8551000000
4.7628000000 5.3439000000 0.4427000000
4.7619000000 6.0365000000 0.1686000000
4.7617000000 5.6557000000 0.3200000000
4.7601000000 1.8025000000 0.3754000000
4.7588000000 1.9965000000 0.4553000000
4.7585000000 5.0796000000 0.5537000000
4.7582000000 1.1026000000 0.0928000000
4.7580000000 5.3135000000 0.4613000000
4.7577000000 6.3967000000 0.0247000000
4.7575000000 5.4642000000 0.3975000000
4.7573000000 2.2683000000 0.5629000000
4.7569000000 3.8162000000 1.0561000000
4.7568000000 5.8324000000 0.2507000000
4.7566000000 5.1014000000 0.5394000000
4.7565000000 4.6592000000 0.7189000000
4.7563000000 5.2003000000 0.5089000000
4.7562000000 1.3978000000 0.2123000000
4.7560000000 0.7513000000 0.0301000000
4.7560000000 2.5886000000 0.6889000000
4.7556000000 4.8979000000 0.6258000000
4.7554000000 5.6496000000 0.3206000000
4.7553000000 0.9312000000 0.0255000000
4.7552000000 5.2892000000 0.4679000000
4.7551000000 2.6852000000 0.7356000000
4.7549000000 4.4687000000 0.7982000000
4.7546000000 2.8283000000 0.7858000000
4.7543000000 2.9300000000 0.8264000000
4.7541000000 5.7609000000 0.2835000000
4.7538000000 5.1111000000 0.5383000000
4.7537000000 0.8053000000 0.0517000000
4.7531000000 2.5071000000 0.6593000000
4.7529000000 3.1943000000 0.9362000000
4.7528000000 3.2052000000 0.9458000000
4.7521000000 2.2456000000 0.5521000000
4.7519000000 4.9662000000 0.6039000000
4.7511000000 1.1357000000 0.1129000000
4.7504000000 2.5486000000 0.6788000000
4.7494000000 4.6440000000 0.7309000000
4.7482000000 0.7819000000 0.0458000000
4.7479000000 3.2531000000 0.9603000000
4.5145000000 6.7989000000 0.0278000000
4.5132000000 3.9026000000 1.1954000000
4.5113000000 6.9959000000 0.0322000000
4.5104000000 6.8282000000 0.0220000000
4.5101000000 3.4001000000 1.1779000000
4.5094000000 4.1757000000 1.0860000000
4.5092000000 6.3542000000 0.2102000000
4.5089000000 1.9644000000 0.6147000000
4.5082000000 2.5139000000 0.8381000000
4.5079000000 1.4626000000 0.4113000000
4.5077000000 1.8099000000 0.5476000000
4.5076000000 4.4064000000 0.9934000000
4.5070000000 6.1470000000 0.3018000000
4.5068000000 4.4783000000 0.9655000000
4.5068000000 3.5247000000 1.2409000000
4.5067000000 3.3813000000 1.1787000000
4.5064000000 2.4516000000 0.8089000000
4.5063000000 5.4370000000 0.5790000000
4.5059000000 1.1196000000 0.2783000000
4.5058000000 5.6452000000 0.5003000000
4.5057000000 4.2568000000 1.0564000000
4.5055000000 0.6921000000 0.1063000000
4.5054000000 4.9883000000 0.7590000000
4.5053000000 4.3904000000 1.0041000000
4.5051000000 2.3535000000 0.7712000000
4.5049000000 0.5063000000 0.0313000000
4.5048000000 2.6375000000 0.8810000000
4.5047000000 6.5161000000 0.1507000000
4.5041000000 5.8542000000 0.4157000000
4.5039000000 3.5586000000 1.2528000000
4.5038000000 1.5767000000 0.4629000000
4.5037000000 0.5761000000 0.0568000000
4.5035000000 3.7524000000 1.2605000000
4.5034000000 2.7170000000 0.9194000000
4.5033000000 4.1269000000 1.1061000000
4.5031000000 2.1503000000 0.6864000000
4.5028000000 1.5935000000 0.4656000000
4.5026000000 1.9194000000 0.6021000000
4.5025000000 2.1256000000 0.6782000000
4.5023000000 3.8032000000 1.2385000000
4.5021000000 3.4544000000 1.2081000000
4.5020000000 6.4151000000 0.1955000000
4.5018000000 1.9530000000 0.6131000000
4.5016000000 3.6362000000 1.2703000000
4.5013000000 4.4105000000 0.9956000000
4.5011000000 2.2985000000 0.7498000000
4.5008000000 4.5569000000 0.9359000000
4.5003000000 0.3668000000 0.0568000000
4.5002000000 5.2878000000 0.6495000000
4.4995000000 0.7544000000 0.1323000000
4.4988000000 1.5489000000 0.4532000000
4.4976000000 5.3902000000 0.6083000000
4.2674000000 6.5636000000 0.2918000000
4.2627000000 2.8851000000 1.1571000000
4.2624000000 5.0642000000 0.9028000000
4.2619000000 6.6267000000 0.2747000000
4.2601000000 5.5489000000 0.7047000000
4.2596000000 2.7048000000 1.0794000000
4.2593000000 6.9371000000 0.1529000000
4.2590000000 2.1608000000 0.8715000000
4.2586000000 3.9712000000 1.3421000000
4.2584000000 4.6789000000 1.0534000000
4.2580000000 4.7717000000 1.0197000000
4.2578000000 2.1764000000 0.8715000000
4.2576000000 6.9462000000 0.1562000000
4.2575000000 5.3105000000 0.8055000000
4.2573000000 5.0727000000 0.9019000000
4.2571000000 4.0293000000 1.3125000000
4.2570000000 6.9506000000 0.1511000000
4.2568000000 1.0250000000 0.4058000000
4.2565000000 3.1972000000 1.2815000000
4.2564000000 2.3239000000 0.9292000000
4.2561000000 3.6175000000 1.4343000000
4.2559000000 6.1904000000 0.4506000000
4.2560000000 2.4687000000 0.9883000000
4.2558000000 1.6131000000 0.6471000000
4.2554000000 1.8027000000 0.7202000000
4.2553000000 5.2181000000 0.8437000000
4.2553000000 6.7441000000 0.2308000000
4.2550000000 4.6342000000 1.0833000000
4.2545000000 6.6241000000 0.2803000000
4.2544000000 5.8772000000 0.5824000000
4.2542000000 0.5567000000 0.2277000000
4.2540000000 0.1104000000 0.0471000000
4.2538000000 7.1290000000 0.0783000000
4.2535000000 1.1371000000 0.4557000000
4.2533000000 1.1059000000 0.4457000000
4.2532000000 6.4695000000 0.3433000000
4.2530000000 1.7977000000 0.7162000000
4.2529000000 3.1122000000 1.2468000000
4.2527000000 4.0884000000 1.2970000000
4.2525000000 2.4843000000 1.0001000000
4.2524000000 0.7451000000 0.3015000000
4.2522000000 2.3876000000 0.9562000000
4.2520000000 6.6193000000 0.2873000000
4.2518000000 2.1224000000 0.8509000000
4.2514000000 1.8948000000 0.7643000000
4.2511000000 1.3051000000 0.5201000000
4.2506000000 6.1352000000 0.4793000000
4.2505000000 2.1784000000 0.8746000000
4.2502000000 5.5255000000 0.7268000000
4.2498000000 3.1225000000 1.2546000000
4.2495000000 0.9363000000 0.3786000000
4.2493000000 4.6105000000 1.0858000000
4.2488000000 0.0552000000 0.0086000000
4.2481000000 0.5121000000 0.2100000000
4.2477000000 0.7521000000 0.3100000000
4.2463000000 1.9819000000 0.8022000000
4.2450000000 2.2793000000 0.9220000000
4.0170000000 6.1003000000 0.6531000000
4.0110000000 6.7017000000 0.4167000000
4.0105000000 4.8219000000 1.1696000000
4.0102000000 2.4536000000 1.1515000000
4.0098000000 5.5282000000 0.8950000000
4.0093000000 3.7259000000 1.6163000000
4.0088000000 3.4119000000 1.5408000000
4.0085000000 6.6330000000 0.4479000000
4.0081000000 3.0247000000 1.3854000000
4.0079000000 2.6183000000 1.2168000000
4.0077000000 2.1469000000 1.0279000000
4.0070000000 6.6143000000 0.4531000000
4.0069000000 2.1502000000 1.0355000000
4.0068000000 4.8674000000 1.1508000000
4.0065000000 6.7934000000 0.3838000000
4.0063000000 2.9731000000 1.3561000000
4.0061000000 3.1051000000 1.4167000000
4.0061000000 4.0982000000 1.4620000000
4.0057000000 2.0757000000 1.0046000000
4.0057000000 4.3792000000 1.3506000000
4.0055000000 6.0749000000 0.6735000000
4.0054000000 4.1864000000 1.4299000000
4.0052000000 6.9629000000 0.2986000000
4.0050000000 4.0657000000 1.4799000000
4.0049000000 5.0952000000 1.0629000000
4.0045000000 5.0363000000 1.0933000000
4.0045000000 4.4630000000 1.3190000000
4.0041000000 2.3561000000 1.1172000000
4.0040000000 5.8870000000 0.7498000000
4.0039000000 0.4909000000 0.3667000000
4.0038000000 4.3617000000 1.3589000000
4.0037000000 3.5027000000 1.5748000000
4.0034000000 6.4107000000 0.5402000000
4.0032000000 6.9775000000 0.2795000000
4.0030000000 3.7939000000 1.5883000000
4.0026000000 6.5797000000 0.4782000000
4.0024000000 2.6008000000 1.2164000000
4.0023000000 1.4989000000 0.7689000000
4.0020000000 3.5591000000 1.5994000000
4.0018000000 0.1028000000 0.0995000000
4.0018000000 3.5065000000 1.5847000000
4.0015000000 7.1680000000 0.1460000000
4.0012000000 2.9660000000 1.3611000000
4.0012000000 0.6841000000 0.4488000000
4.0010000000 6.8785000000 0.3444000000
4.0007000000 0.2426000000 0.2149000000
3.9999000000 2.1659000000 1.0471000000
3.9994000000 2.1168000000 1.0204000000
3.9993000000 3.2857000000 1.4925000000
3.7621000000 5.6163000000 1.0275000000
3.7612000000 5.5335000000 1.0658000000
3.7608000000 6.9061000000 0.3533000000
3.7603000000 7.3460000000 0.0019000000
3.7600000000 5.2937000000 1.1577000000
3.7591000000 5.2072000000 1.1938000000
3.7590000000 3.9209000000 1.7089000000
3.7587000000 3.3197000000 1.6771000000
3.7585000000 1.1839000000 0.8224000000
3.7583000000 5.5008000000 1.0770000000
3.7580000000 1.9028000000 1.1020000000
3.7578000000 6.2170000000 0.7889000000
3.7574000000 5.1204000000 1.2268000000
3.7573000000 2.7883000000 1.4600000000
3.7570000000 1.0318000000 0.7623000000
3.7569000000 4.8723000000 1.3273000000
3.7567000000 0.4123000000 0.3546000000
3.7566000000 7.0431000000 0.2458000000
3.7564000000 3.1827000000 1.6154000000
3.7564000000 5.5333000000 1.0683000000
3.7562000000 5.8773000000 0.9266000000
3.7561000000 5.3534000000 1.1341000000
3.7559000000 2.9086000000 1.5143000000
3.7557000000 7.0099000000 0.2712000000
3.7555000000 4.3936000000 1.5225000000
3.7554000000 7.2594000000 0.0657000000
3.7552000000 3.4553000000 1.7279000000
3.7553000000 1.9659000000 1.1368000000
3.7550000000 2.0816000000 1.1848000000
3.7550000000 5.2122000000 1.1893000000
3.7548000000 6.3978000000 0.7130000000
3.7546000000 1.9212000000 1.1163000000
3.7545000000 6.4035000000 0.7086000000
3.7543000000 2.6529000000 1.4135000000
3.7540000000 6.8777000000 0.3772000000
3.7539000000 4.5313000000 1.4646000000
3.7537000000 0.7533000000 0.6073000000
3.7535000000 2.1344000000 1.2039000000
3.7533000000 3.2868000000 1.6648000000
3.7533000000 1.6811000000 1.0215000000
3.7531000000 6.9872000000 0.2877000000
3.7525000000 5.5090000000 1.0756000000
3.7528000000 6.3249000000 0.7481000000
3.7523000000 3.1704000000 1.6192000000
3.7520000000 0.7074000000 0.5821000000
3.7519000000 0.2217000000 0.1957000000
3.7518000000 2.5384000000 1.3648000000
3.7516000000 0.8174000000 0.6615000000
3.7512000000 3.3785000000 1.7022000000
3.7506000000 1.3239000000 0.8825000000
3.7502000000 5.4301000000 1.1095000000
3.7492000000 0.1678000000 0.1552000000
3.7485000000 5.6891000000 1.0077000000
3.7479000000 1.5836000000 0.9823000000
3.7460000000 0.3865000000 0.3300000000
3.5143000000 5.1731000000 1.3787000000
3.5110000000 5.5522000000 1.2270000000
3.5108000000 5.0664000000 1.4205000000
3.5095000000 1.8316000000 1.2488000000
3.5077000000 7.0449000000 0.2478000000
3.5074000000 2.4715000000 1.5096000000
3.5072000000 6.0558000000 1.0188000000
3.5071000000 4.9008000000 1.4878000000
3.5069000000 4.7181000000 1.5643000000
3.5066000000 4.0359000000 1.8392000000
3.5065000000 5.9681000000 1.0517000000
3.5059000000 0.7924000000 0.6586000000
3.5056000000 0.3024000000 0.2616000000
3.5055000000 5.6003000000 1.2079000000
3.5054000000 2.0360000000 1.3405000000
3.5052000000 6.6284000000 0.5799000000
3.5051000000 6.9939000000 0.2829000000
3.5049000000 6.0300000000 1.0290000000
3.5047000000 2.1349000000 1.3795000000
3.5046000000 2.1969000000 1.4051000000
3.5044000000 4.2368000000 1.7622000000
3.5043000000 6.7453000000 0.4846000000
3.5042000000 1.2482000000 0.9980000000
3.5038000000 6.3683000000 0.7898000000
3.5037000000 5.8617000000 1.1090000000
3.5034000000 4.7178000000 1.5670000000
3.5031000000 5.6883000000 1.1830000000
3.5029000000 7.1191000000 0.1873000000
3.5028000000 0.5859000000 0.4875000000
3.5026000000 3.4619000000 1.9145000000
3.5023000000 3.6365000000 1.9624000000
3.5022000000 3.0646000000 1.7497000000
3.5020000000 4.2162000000 1.7685000000
3.5017000000 1.5042000000 1.1260000000
3.5015000000 0.7910000000 0.6543000000
3.5013000000 5.4348000000 1.2761000000
3.5009000000 4.1678000000 1.7882000000
3.5007000000 2.2503000000 1.4217000000
3.5004000000 4.1511000000 1.7941000000
3.5001000000 1.2135000000 0.9792000000
3.4998000000 2.5211000000 1.5347000000
3.4988000000 2.3610000000 1.4684000000
3.4976000000 3.0145000000 1.7329000000
3.4964000000 0.6712000000 0.5643000000
3.4951000000 4.8489000000 1.5168000000
3.2633000000 7.0713000000 0.2243000000
3.2611000000 2.2683000000 1.5945000000
3.2609000000 3.4508000000 2.0717000000
3.2605000000 1.4547000000 1.1814000000
3.2600000000 0.8588000000 0.7048000000
3.2595000000 4.4596000000 1.8351000000
3.2591000000 4.5092000000 1.8215000000
3.2584000000 5.6983000000 1.3075000000
3.2581000000 6.3371000000 0.8103000000
3.2578000000 6.0702000000 1.0193000000
3.2574000000 1.3254000000 1.0808000000
3.2571000000 4.8853000000 1.6692000000
3.2569000000 1.9956000000 1.4896000000
3.2566000000 2.1251000000 1.5460000000
3.2564000000 6.2661000000 0.8653000000
3.2561000000 4.4972000000 1.8226000000
3.2559000000 0.0643000000 0.0734000000
3.2555000000 0.4103000000 0.3538000000
3.2553000000 4.6041000000 1.7851000000
3.2552000000 4.3226000000 1.8951000000
3.2550000000 3.8476000000 2.0870000000
3.2547000000 1.2842000000 1.0504000000
3.2544000000 5.5841000000 1.3733000000
3.2543000000 1.8334000000 1.4343000000
3.2540000000 6.8911000000 0.3678000000
3.2540000000 3.6102000000 2.1345000000
3.2539000000 1.9954000000 1.4907000000
3.2536000000 2.2650000000 1.6025000000
3.2535000000 2.2844000000 1.6080000000
3.2534000000 0.5210000000 0.4347000000
3.2533000000 2.0068000000 1.5037000000
3.2531000000 6.0668000000 1.0289000000
3.2528000000 6.6965000000 0.5268000000
3.2527000000 0.9548000000 0.7864000000
3.2526000000 3.9615000000 2.0382000000
3.2522000000 1.5477000000 1.2591000000
3.2519000000 3.2357000000 1.9900000000
3.2518000000 5.4740000000 1.4446000000
3.2517000000 3.6477000000 2.1438000000
3.2514000000 1.4477000000 1.1793000000
3.2513000000 1.8558000000 1.4360000000
3.2513000000 3.2004000000 1.9786000000
3.2511000000 3.5736000000 2.1251000000
3.2510000000 3.2708000000 2.0042000000
3.2509000000 1.7175000000 1.3728000000
3.2506000000 1.4215000000 1.1583000000
3.2504000000 0.3666000000 0.3127000000
3.2498000000 1.4228000000 1.1586000000
3.2495000000 4.9862000000 1.6345000000
3.2494000000 4.3839000000 1.8738000000
3.2488000000 0.9595000000 0.7890000000
3.2487000000 6.6091000000 0.5886000000
3.2483000000 6.2122000000 0.9135000000
3.2479000000 2.1282000000 1.5548000000
3.2445000000 0.5182000000 0.4307000000
3.0124000000 6.4441000000 0.7243000000
3.0112000000 7.0058000000 0.2732000000
3.0100000000 2.9696000000 2.0506000000
3.0093000000 3.1527000000 2.1277000000
3.0086000000 5.5910000000 1.4071000000
3.0082000000 5.9365000000 1.1301000000
3.0081000000 6.3511000000 0.7956000000
3.0079000000 2.3994000000 1.8287000000
3.0075000000 3.8733000000 2.2506000000
3.0073000000 4.1465000000 2.1377000000
3.0071000000 6.5578000000 0.6375000000
3.0070000000 7.2980000000 0.0422000000
3.0069000000 3.0218000000 2.0782000000
3.0068000000 0.1481000000 0.1410000000
3.0066000000 1.5527000000 1.2632000000
3.0063000000 2.1427000000 1.7121000000
3.0061000000 0.0932000000 0.0891000000
3.0059000000 4.4648000000 2.0095000000
3.0058000000 4.3011000000 2.0747000000
3.0055000000 3.7745000000 2.2879000000
3.0055000000 7.3448000000 0.0749000000
3.0054000000 3.5067000000 2.2644000000
3.0053000000 6.3682000000 0.7874000000
3.0050000000 4.2247000000 2.1055000000
3.0049000000 3.9924000000 2.1953000000
3.0046000000 5.4669000000 1.5112000000
3.0043000000 7.1211000000 0.1832000000
3.0041000000 1.7659000000 1.4352000000
3.0041000000 0.6653000000 0.5523000000
3.0040000000 4.1477000000 2.1311000000
3.0038000000 6.5626000000 0.6235000000
3.0037000000 5.8831000000 1.1721000000
3.0034000000 6.3716000000 0.7827000000
3.0033000000 6.0116000000 1.0702000000
3.0033000000 6.5272000000 0.6605000000
3.0031000000 6.7620000000 0.4676000000
3.0026000000 5.0460000000 1.7790000000
3.0025000000 2.8669000000 2.0206000000
3.0024000000 3.2142000000 2.1533000000
3.0020000000 1.1568000000 0.9472000000
3.0017000000 3.7037000000 2.3064000000
3.0015000000 5.3024000000 1.6357000000
3.0013000000 2.8379000000 2.0077000000
3.0011000000 2.1145000000 1.7023000000
3.0006000000 4.0770000000 2.1672000000
3.0001000000 1.5318000000 1.2484000000
2.9999000000 1.2686000000 1.0344000000
2.9992000000 1.5676000000 1.2796000000
2.9980000000 0.1338000000 0.1271000000
2.9973000000 0.0229000000 0.0335000000
2.9945000000 5.9257000000 1.1381000000
2.7611000000 5.4036000000 1.5578000000
2.7600000000 6.9233000000 0.3379000000
2.7590000000 4.4037000000 2.2043000000
2.7587000000 3.4175000000 2.4010000000
2.7586000000 6.4289000000 0.7332000000
2.7577000000 1.4756000000 1.1968000000
2.7573000000 2.7763000000 2.1506000000
2.7573000000 3.7674000000 2.4664000000
2.7569000000 4.9600000000 1.9129000000
2.7566000000 2.6956000000 2.1198000000
2.7563000000 0.6824000000 0.5672000000
2.7562000000 6.9795000000 0.2919000000
2.7559000000 1.0631000000 0.8700000000
2.7552000000 4.3999000000 2.2089000000
2.7550000000 4.1081000000 2.3313000000
2.7548000000 7.1709000000 0.1433000000
2.7547000000 3.4107000000 2.4016000000
2.7545000000 3.9752000000 2.3790000000
2.7543000000 6.2245000000 0.9038000000
2.7542000000 1.9972000000 1.6193000000
2.7540000000 1.4676000000 1.1953000000
2.7539000000 1.7341000000 1.4107000000
2.7538000000 3.4685000000 2.4347000000
2.7538000000 3.5891000000 2.4775000000
2.7537000000 1.9452000000 1.5760000000
2.7535000000 3.0309000000 2.2598000000
2.7534000000 1.6043000000 1.3077000000
2.7532000000 0.8150000000 0.6703000000
2.7531000000 0.8270000000 0.6897000000
2.7528000000 3.5976000000 2.4879000000
2.7527000000 3.5535000000 2.4660000000
2.7525000000 7.0558000000 0.2369000000
2.7523000000 6.0712000000 1.0230000000
2.7522000000 1.1820000000 0.9623000000
2.7518000000 0.7230000000 0.6031000000
2.7519000000 2.2039000000 1.7897000000
2.7516000000 1.4786000000 1.1990000000
2.7515000000 1.8221000000 1.4773000000
2.7514000000 0.8641000000 0.7176000000
2.7512000000 1.3456000000 1.0977000000
2.7508000000 4.0256000000 2.3697000000
2.7505000000 2.3446000000 1.8941000000
2.7501000000 1.3017000000 1.0637000000
2.7500000000 5.9585000000 1.1135000000
2.7496000000 1.6992000000 1.3834000000
2.7490000000 3.7951000000 2.4573000000
2.7485000000 1.5076000000 1.2302000000
2.7478000000 0.3298000000 0.2883000000
2.7472000000 0.3587000000 0.3095000000
2.5130000000 6.4748000000 0.6991000000
2.5115000000 3.9417000000 2.5655000000
2.5113000000 6.0236000000 1.0629000000
2.5105000000 6.5748000000 0.6200000000
2.5099000000 2.9011000000 2.3295000000
2.5097000000 3.3429000000 2.5567000000
2.5096000000 0.1002000000 0.1043000000
2.5088000000 6.8093000000 0.4339000000
2.5085000000 6.3583000000 0.7951000000
2.5080000000 2.2506000000 1.8225000000
2.5075000000 3.5304000000 2.6230000000
2.5071000000 5.2769000000 1.6629000000
2.5070000000 3.9172000000 2.5738000000
2.5069000000 2.7934000000 2.2527000000
2.5068000000 1.0983000000 0.8982000000
2.5064000000 5.5152000000 1.4667000000
2.5063000000 7.0712000000 0.2220000000
2.5062000000 5.6086000000 1.3952000000
2.5058000000 4.4252000000 2.3245000000
2.5055000000 1.9473000000 1.5778000000
2.5054000000 3.4605000000 2.5968000000
2.5052000000 6.3812000000 0.7749000000
2.5050000000 3.2019000000 2.4916000000
2.5047000000 7.2841000000 0.0533000000
2.5047000000 3.8276000000 2.6102000000
2.5044000000 3.1253000000 2.4651000000
2.5043000000 5.7957000000 1.2404000000
2.5042000000 3.1840000000 2.4910000000
2.5040000000 4.4097000000 2.3368000000
2.5036000000 4.9712000000 1.9023000000
2.5034000000 5.5112000000 1.4719000000
2.5033000000 1.0854000000 0.8881000000
2.5032000000 2.4408000000 1.9696000000
2.5029000000 2.7955000000 2.2600000000
2.5028000000 1.7242000000 1.3967000000
2.5025000000 0.2670000000 0.2330000000
2.5022000000 1.2963000000 1.0539000000
2.5033000000 6.0048000000 1.0789000000
2.5020000000 0.3774000000 0.3202000000
2.5017000000 5.6143000000 1.3871000000
2.5016000000 1.2033000000 0.9851000000
2.5015000000 5.5712000000 1.4197000000
2.5014000000 1.4091000000 1.1460000000
2.5011000000 1.6897000000 1.3700000000
2.5010000000 5.4967000000 1.4866000000
2.5008000000 6.2428000000 0.8904000000
2.5007000000 2.9026000000 2.3311000000
2.5005000000 5.7385000000 1.2916000000
2.5002000000 6.1158000000 0.9822000000
2.4993000000 5.9308000000 1.1353000000
2.4990000000 0.4298000000 0.3646000000
2.4979000000 1.4485000000 1.1788000000
2.4971000000 2.7276000000 2.2036000000
2.4963000000 2.7855000000 2.2474000000
2.4929000000 0.4935000000 0.4151000000
2.2637000000 4.6045000000 2.1991000000
2.2616000000 4.1424000000 2.5670000000
2.2612000000 3.8264000000 2.7649000000
2.2602000000 6.1576000000 0.9532000000
2.2599000000 4.2395000000 2.4849000000
2.2597000000 0.3779000000 0.3210000000
2.2593000000 5.7019000000 1.3148000000
2.2589000000 3.5633000000 2.8091000000
2.2586000000 7.1373000000 0.1723000000
2.2582000000 6.3143000000 0.8334000000
2.2579000000 3.3960000000 2.7235000000
2.2576000000 2.6883000000 2.1786000000
2.2570000000 4.3732000000 2.3823000000
2.2566000000 0.6330000000 0.5307000000
2.2565000000 2.5530000000 2.0695000000
2.2561000000 2.8334000000 2.2814000000
2.2559000000 5.0624000000 1.8288000000
2.2557000000 4.9856000000 1.8969000000
2.2555000000 3.7744000000 2.8050000000
2.2553000000 5.4053000000 1.5561000000
2.2552000000 5.6475000000 1.3590000000
2.2550000000 5.3676000000 1.5859000000
2.2550000000 0.9618000000 0.7884000000
2.2546000000 5.2061000000 1.7121000000
2.2544000000 0.3624000000 0.3065000000
2.2543000000 0.6603000000 0.5456000000
2.2540000000 1.8140000000 1.4670000000
2.2538000000 1.0698000000 0.8807000000
2.2535000000 6.5351000000 0.6518000000
2.2535000000 6.7868000000 0.4461000000
2.2531000000 5.1097000000 1.7919000000
2.2530000000 3.5600000000 2.8170000000
2.2528000000 5.5730000000 1.4227000000
2.2526000000 2.3990000000 1.9393000000
2.2524000000 2.7682000000 2.2348000000
2.2521000000 4.6559000000 2.1556000000
2.2519000000 0.1470000000 0.1386000000
2.2518000000 6.0521000000 1.0419000000
2.2514000000 5.9148000000 1.1442000000
2.2512000000 5.5934000000 1.4079000000
2.2510000000 3.0562000000 2.4684000000
2.2507000000 1.5748000000 1.2827000000
2.2505000000 6.6331000000 0.5687000000
2.2504000000 5.4468000000 1.5234000000
2.2498000000 5.1346000000 1.7689000000
2.2495000000 0.5072000000 0.4251000000
2.2491000000 3.9745000000 2.6866000000
2.2483000000 3.4342000000 2.7573000000
2.2483000000 2.2658000000 1.8326000000
2.2472000000 7.3249000000 0.0963000000
2.0128000000 6.4335000000 0.7328000000
2.0120000000 6.7330000000 0.4873000000
2.0111000000 3.3364000000 2.6933000000
2.0104000000 4.9867000000 1.8942000000
2.0095000000 6.8823000000 0.3736000000
2.0093000000 4.7767000000 2.0579000000
2.0083000000 4.9118000000 1.9505000000
2.0079000000 2.5809000000 2.0905000000
2.0077000000 2.3686000000 1.9179000000
2.0073000000 5.8835000000 1.1720000000
2.0070000000 3.1931000000 2.5798000000
2.0068000000 1.2366000000 1.0069000000
2.0065000000 4.7897000000 2.0474000000
2.0063000000 7.0489000000 0.2442000000
2.0062000000 5.8587000000 1.1936000000
2.0060000000 2.2731000000 1.8355000000
2.0058000000 3.9833000000 2.6904000000
2.0055000000 7.3139000000 0.0249000000
2.0055000000 7.1512000000 0.1623000000
2.0052000000 5.6456000000 1.3631000000
2.0050000000 6.7887000000 0.4490000000
2.0048000000 1.8102000000 1.4700000000
2.0045000000 5.5728000000 1.4242000000
2.0044000000 2.7133000000 2.1932000000
2.0041000000 5.3344000000 1.6187000000
2.0038000000 0.4479000000 0.3797000000
2.0038000000 4.4682000000 2.3117000000
2.0036000000 1.4929000000 1.2178000000
2.0035000000 7.1288000000 0.1798000000
2.0032000000 6.5184000000 0.6673000000
2.0030000000 0.6059000000 0.5031000000
2.0028000000 5.2608000000 1.6688000000
2.0024000000 4.1361000000 2.5754000000
2.0022000000 0.4831000000 0.4029000000
2.0022000000 5.2397000000 1.6840000000
2.0018000000 2.1129000000 1.7122000000
2.0016000000 1.2527000000 1.0218000000
2.0015000000 6.3675000000 0.7819000000
2.0013000000 2.5070000000 2.0281000000
2.0011000000 2.0557000000 1.6683000000
2.0010000000 2.6885000000 2.1762000000
2.0008000000 0.0461000000 0.0514000000
2.0006000000 5.2399000000 1.6916000000
2.0005000000 5.1696000000 1.7479000000
2.0002000000 5.3633000000 1.5884000000
1.9998000000 1.9393000000 1.5728000000
1.9995000000 3.9544000000 2.7105000000
1.9993000000 1.4980000000 1.2171000000
1.9989000000 2.0362000000 1.6541000000
1.9981000000 3.7058000000 2.8391000000
1.9968000000 2.1307000000 1.7202000000
1.9958000000 1.8832000000 1.5302000000
1.7640000000 5.6126000000 1.3887000000
1.7630000000 6.8491000000 0.3986000000
1.7607000000 7.2957000000 0.0496000000
1.7600000000 5.3099000000 1.6336000000
1.7597000000 4.6831000000 2.1342000000
1.7595000000 4.7722000000 2.0603000000
1.7588000000 1.7585000000 1.4286000000
1.7581000000 6.0823000000 1.0111000000
1.7578000000 5.7663000000 1.2681000000
1.7575000000 7.0935000000 0.2054000000
1.7573000000 7.3156000000 0.0300000000
1.7570000000 1.1532000000 0.9399000000
1.7568000000 6.2830000000 0.8554000000
1.7565000000 2.7174000000 2.1960000000
1.7563000000 5.9577000000 1.1119000000
1.7560000000 2.3959000000 1.9346000000
1.7562000000 6.5366000000 0.6519000000
1.7560000000 3.1612000000 2.4980000000
1.7557000000 0.0263000000 0.0482000000
1.7557000000 1.3665000000 1.1163000000
1.7555000000 3.4897000000 2.6373000000
1.7554000000 5.9943000000 1.0872000000
1.7550000000 4.3427000000 2.3936000000
1.7550000000 4.6842000000 2.1300000000
1.7549000000 7.2400000000 0.0941000000
1.7547000000 1.9491000000 1.5800000000
1.7545000000 1.2187000000 1.0037000000
1.7544000000 2.2008000000 1.7829000000
1.7543000000 4.5474000000 2.2423000000
1.7542000000 5.9308000000 1.1400000000
1.7541000000 1.8806000000 1.5219000000
1.7540000000 0.8477000000 0.6980000000
1.7538000000 5.4929000000 1.4858000000
1.7536000000 2.8447000000 2.3006000000
1.7533000000 1.7026000000 1.3785000000
1.7531000000 5.9191000000 1.1478000000
1.7530000000 3.6281000000 2.6701000000
1.7529000000 7.0171000000 0.2673000000
1.7527000000 0.9047000000 0.7455000000
1.7525000000 1.2834000000 1.0452000000
1.7523000000 2.2454000000 1.8131000000
1.7522000000 6.1341000000 0.9697000000
1.7518000000 2.8317000000 2.2836000000
1.7513000000 1.4277000000 1.1650000000
1.7512000000 6.1404000000 0.9677000000
1.7508000000 3.3127000000 2.5604000000
1.7507000000 0.8919000000 0.7303000000
1.7505000000 3.2317000000 2.5288000000
1.7503000000 3.5527000000 2.6558000000
1.7503000000 2.7733000000 2.2407000000
1.7500000000 6.0640000000 1.0303000000
1.7493000000 2.5640000000 2.0758000000
1.7489000000 0.1673000000 0.1571000000
1.7487000000 4.2468000000 2.4439000000
1.7484000000 2.9084000000 2.3462000000
1.7478000000 0.0423000000 0.0538000000
1.7467000000 0.1936000000 0.1780000000
1.7460000000 1.8185000000 1.4718000000
1.7450000000 2.0265000000 1.6403000000
1.5124000000 6.5490000000 0.6398000000
1.5113000000 5.5841000000 1.4157000000
1.5097000000 6.4663000000 0.7101000000
1.5090000000 4.8939000000 1.9686000000
1.5085000000 1.7277000000 1.3968000000
1.5083000000 3.1899000000 2.3469000000
1.5081000000 4.0488000000 2.3741000000
1.5079000000 6.8543000000 0.3919000000
1.5075000000 4.6291000000 2.1293000000
1.5074000000 5.3248000000 1.6209000000
1.5071000000 2.6290000000 2.1068000000
1.5071000000 7.2681000000 0.0627000000
1.5067000000 0.3056000000 0.2652000000
1.5065000000 7.0613000000 0.2310000000
1.5064000000 5.1999000000 1.7225000000
1.5063000000 4.6000000000 2.1549000000
1.5060000000 0.6283000000 0.5176000000
1.5058000000 5.2930000000 1.6401000000
1.5051000000 3.2417000000 2.3582000000
1.5049000000 0.5992000000 0.5054000000
1.5047000000 0.2401000000 0.2140000000
1.5045000000 0.4263000000 0.3662000000
1.5043000000 5.2769000000 1.6607000000
1.5039000000 2.0436000000 1.6595000000
1.5038000000 5.6047000000 1.3956000000
1.5037000000 3.8893000000 2.4379000000
1.5033000000 5.7004000000 1.3218000000
1.5034000000 6.5241000000 0.6595000000
1.5030000000 3.7121000000 2.4974000000
1.5028000000 6.2367000000 0.8901000000
1.5028000000 6.6234000000 0.5822000000
1.5026000000 2.0146000000 1.6301000000
1.5025000000 4.4652000000 2.2066000000
1.5023000000 4.7828000000 2.0473000000
1.5021000000 0.1179000000 0.1163000000
1.5021000000 2.5834000000 2.0739000000
1.5019000000 2.0832000000 1.6852000000
1.5015000000 0.0579000000 0.0683000000
1.5015000000 1.3274000000 1.0816000000
1.5014000000 4.0838000000 2.3623000000
1.5013000000 2.5962000000 2.0840000000
1.5012000000 0.7261000000 0.6038000000
1.5009000000 2.5703000000 2.0638000000
1.5007000000 2.9166000000 2.2252000000
1.5005000000 4.5336000000 2.1772000000
1.5003000000 0.7597000000 0.6280000000
1.4997000000 4.7431000000 2.0760000000
1.4995000000 6.1119000000 0.9949000000
1.4991000000 0.4985000000 0.4173000000
1.4988000000 0.1212000000 0.1179000000
1.4983000000 0.0250000000 0.0371000000
1.4980000000 2.4412000000 1.9796000000
1.4967000000 4.4814000000 2.1930000000
1.4944000000 2.7393000000 2.1575000000
1.4914000000 3.8862000000 2.4256000000
1.2605000000 4.4673000000 2.0397000000
1.2600000000 2.4063000000 1.8562000000
1.2588000000 6.7988000000 0.4437000000
1.2587000000 3.0425000000 2.1097000000
1.2586000000 2.0822000000 1.6818000000
1.2578000000 2.1464000000 1.7228000000
1.2577000000 3.2504000000 2.1925000000
1.2572000000 1.3216000000 1.0808000000
1.2570000000 1.5270000000 1.2445000000
1.2569000000 2.8066000000 2.0111000000
1.2565000000 7.2780000000 0.0601000000
1.2563000000 4.3478000000 2.0843000000
1.2562000000 5.9926000000 1.0827000000
1.2560000000 4.4902000000 2.0221000000
1.2560000000 0.1744000000 0.1647000000
1.2555000000 4.1855000000 2.1454000000
1.2556000000 6.1022000000 1.0009000000
1.2554000000 5.1777000000 1.7260000000
1.2551000000 2.0101000000 1.6249000000
1.2549000000 2.3719000000 1.8388000000
1.2547000000 2.4247000000 1.8579000000
1.2545000000 0.4779000000 0.4001000000
1.2543000000 3.5843000000 2.3264000000
1.2542000000 5.9323000000 1.1320000000
1.2540000000 2.6417000000 1.9455000000
1.2538000000 4.6048000000 1.9805000000
1.2535000000 4.9909000000 1.8257000000
1.2534000000 6.3342000000 0.8152000000
1.2532000000 7.1583000000 0.1566000000
1.2530000000 3.9569000000 2.2367000000
1.2529000000 1.0105000000 0.8356000000
1.2527000000 4.3526000000 2.0810000000
1.2526000000 4.0509000000 2.1973000000
1.2525000000 2.1443000000 1.7263000000
1.2523000000 6.6995000000 0.5160000000
1.2522000000 5.3531000000 1.5952000000
1.2520000000 3.9219000000 2.2456000000
1.2518000000 2.4965000000 1.8877000000
1.2518000000 6.7872000000 0.4506000000
1.2516000000 1.9360000000 1.5736000000
1.2515000000 0.6587000000 0.5480000000
1.2513000000 2.2020000000 1.7521000000
1.2512000000 2.5352000000 1.9026000000
1.2509000000 3.1747000000 2.1522000000
1.2507000000 4.7074000000 1.9364000000
1.2504000000 0.9667000000 0.7902000000
1.2501000000 3.6492000000 2.3337000000
1.2498000000 5.8580000000 1.1928000000
1.2493000000 4.7795000000 1.9040000000
1.2492000000 0.1352000000 0.1330000000
1.2490000000 1.2235000000 1.0009000000
1.2488000000 2.2095000000 1.7549000000
1.2482000000 0.3258000000 0.2799000000
1.2469000000 2.3471000000 1.8204000000
1.2456000000 0.0043000000 0.0241000000
1.0110000000 0.6021000000 0.4962000000
1.0104000000 3.3100000000 2.0429000000
1.0102000000 4.3511000000 1.9068000000
1.0095000000 3.7974000000 2.1403000000
1.0092000000 5.5410000000 1.4247000000
1.0088000000 1.4082000000 1.1531000000
1.0084000000 6.7513000000 0.4818000000
1.0080000000 2.8808000000 1.8702000000
1.0079000000 6.3424000000 0.8068000000
1.0075000000 4.6119000000 1.8017000000
1.0074000000 3.4581000000 2.1089000000
1.0069000000 5.7303000000 1.2967000000
1.0065000000 2.0705000000 1.5485000000
1.0061000000 6.7275000000 0.4994000000
1.0060000000 2.8289000000 1.8516000000
1.0057000000 5.9479000000 1.1180000000
1.0055000000 5.3193000000 1.5242000000
1.0054000000 4.6732000000 1.7755000000
1.0053000000 3.7722000000 2.1401000000
1.0052000000 5.7864000000 1.2503000000
1.0051000000 3.4667000000 2.1068000000
1.0049000000 7.2572000000 0.0736000000
1.0048000000 4.2927000000 1.9305000000
1.0047000000 4.8286000000 1.7127000000
1.0046000000 1.8656000000 1.4625000000
1.0044000000 6.2262000000 0.9005000000
1.0043000000 4.8450000000 1.7144000000
1.0038000000 4.4428000000 1.8688000000
1.0038000000 2.6919000000 1.7991000000
1.0034000000 6.1538000000 0.9602000000
1.0033000000 4.4028000000 1.8851000000
1.0032000000 2.5583000000 1.7348000000
1.0031000000 3.6945000000 2.1542000000
1.0030000000 2.4286000000 1.6847000000
1.0026000000 0.6127000000 0.5089000000
1.0025000000 4.0508000000 2.0276000000
1.0024000000 6.5041000000 0.6784000000
1.0021000000 0.4213000000 0.3658000000
1.0020000000 2.1776000000 1.5876000000
1.0019000000 1.5157000000 1.2369000000
1.0016000000 4.6580000000 1.7784000000
1.0016000000 6.9924000000 0.2870000000
1.0015000000 5.5764000000 1.4046000000
1.0010000000 4.4571000000 1.8631000000
1.0008000000 0.4811000000 0.4062000000
1.0005000000 5.1650000000 1.5760000000
1.0004000000 2.0614000000 1.5398000000
1.0001000000 4.0373000000 2.0239000000
0.9999000000 4.1631000000 1.9809000000
0.9997000000 1.6862000000 1.3584000000
0.9994000000 6.5329000000 0.6540000000
0.9993000000 2.8233000000 1.8443000000
0.9988000000 0.3050000000 0.2621000000
0.9973000000 2.5235000000 1.7270000000
0.9953000000 1.9581000000 1.4966000000
0.7650000000 6.8680000000 0.3858000000
0.7610000000 2.9804000000 1.7425000000
0.7604000000 6.4867000000 0.6914000000
0.7600000000 5.1916000000 1.3975000000
0.7594000000 6.0279000000 1.0456000000
0.7590000000 4.5390000000 1.6635000000
0.7589000000 4.0577000000 1.8575000000
0.7583000000 7.1895000000 0.1300000000
0.7579000000 4.4218000000 1.7082000000
0.7576000000 6.3997000000 0.7590000000
0.7573000000 5.4068000000 1.3156000000
0.7569000000 2.0419000000 1.3633000000
0.7568000000 2.0849000000 1.3772000000
0.7567000000 1.3333000000 1.0645000000
0.7566000000 0.7286000000 0.6075000000
0.7564000000 5.7129000000 1.1879000000
0.7563000000 1.9569000000 1.3331000000
0.7561000000 0.1848000000 0.1712000000
0.7559000000 1.6266000000 1.1972000000
0.7557000000 2.4281000000 1.5191000000
0.7555000000 3.2981000000 1.8635000000
0.7553000000 7.2011000000 0.1220000000
0.7551000000 1.0586000000 0.8663000000
0.7549000000 6.6962000000 0.5194000000
0.7547000000 6.0936000000 0.9917000000
0.7546000000 1.2976000000 1.0436000000
0.7545000000 1.9667000000 1.3299000000
0.7543000000 6.6117000000 0.5946000000
0.7540000000 6.4690000000 0.7032000000
0.7538000000 0.0218000000 0.0377000000
0.7537000000 1.2856000000 1.0403000000
0.7533000000 4.7880000000 1.5556000000
0.7533000000 6.4181000000 0.7463000000
0.7530000000 2.5974000000 1.5808000000
0.7528000000 3.3663000000 1.8896000000
0.7525000000 0.0199000000 0.0343000000
0.7524000000 3.0276000000 1.7509000000
0.7522000000 1.9709000000 1.3330000000
0.7520000000 5.4673000000 1.2865000000
0.7520000000 0.6669000000 0.5525000000
0.7519000000 2.9845000000 1.7354000000
0.7515000000 3.9576000000 1.8872000000
0.7513000000 0.8481000000 0.6978000000
0.7512000000 2.6407000000 1.6016000000
0.7511000000 2.7813000000 1.6555000000
0.7506000000 6.9410000000 0.3280000000
0.7505000000 6.9176000000 0.3466000000
0.7504000000 3.0191000000 1.7480000000
0.7500000000 6.3904000000 0.7665000000
0.7498000000 3.0375000000 1.7604000000
0.7491000000 0.1559000000 0.1453000000
0.7478000000 4.8626000000 1.5265000000
0.7465000000 1.3080000000 1.0455000000
0.5121000000 6.8127000000 0.4318000000
0.5109000000 6.1210000000 0.8630000000
0.5107000000 5.3050000000 1.1800000000
0.5099000000 6.5710000000 0.6252000000
0.5083000000 5.8139000000 0.9791000000
0.5078000000 4.5951000000 1.4630000000
0.5073000000 2.9824000000 1.5646000000
0.5070000000 6.0121000000 0.9026000000
0.5068000000 4.9902000000 1.3091000000
0.5067000000 5.4167000000 1.1361000000
0.5063000000 3.3135000000 1.6934000000
0.5063000000 6.5165000000 0.6520000000
0.5060000000 6.6171000000 0.5822000000
0.5059000000 4.6996000000 1.4227000000
0.5058000000 6.4132000000 0.7203000000
0.5055000000 4.5634000000 1.4749000000
0.5053000000 0.8328000000 0.6717000000
0.5051000000 1.2783000000 0.8873000000
0.5050000000 3.2857000000 1.6890000000
0.5049000000 1.3783000000 0.9249000000
0.5048000000 2.8255000000 1.5030000000
0.5047000000 6.6670000000 0.5430000000
0.5045000000 5.5226000000 1.0874000000
0.5045000000 7.0754000000 0.2260000000
0.5043000000 0.2846000000 0.2481000000
0.5041000000 6.9733000000 0.3033000000
0.5040000000 3.1564000000 1.6390000000
0.5040000000 4.4643000000 1.5128000000
0.5038000000 0.8577000000 0.6952000000
0.5037000000 0.6734000000 0.5588000000
0.5035000000 1.8957000000 1.1301000000
0.5033000000 3.6926000000 1.8055000000
0.5032000000 3.8821000000 1.7420000000
0.5030000000 2.2885000000 1.2850000000
0.5028000000 2.8756000000 1.5194000000
0.5027000000 2.7572000000 1.4750000000
0.5027000000 7.2278000000 0.0944000000
0.5025000000 4.9153000000 1.3340000000
0.5024000000 0.1079000000 0.1111000000
0.5022000000 6.7890000000 0.4520000000
0.5020000000 5.1960000000 1.2207000000
0.5018000000 2.7748000000 1.4782000000
0.5018000000 0.0545000000 0.0703000000
0.5015000000 6.6082000000 0.5969000000
0.5013000000 3.1413000000 1.6233000000
0.5009000000 3.6015000000 1.8086000000
0.5004000000 0.8755000000 0.7021000000
0.5001000000 0.6999000000 0.5809000000
0.5000000000 2.5871000000 1.4003000000
0.4994000000 1.5277000000 0.9803000000
0.4995000000 2.7299000000 1.4602000000
0.4988000000 4.0846000000 1.6650000000
0.4987000000 0.4083000000 0.3514000000
0.4983000000 1.9398000000 1.1448000000
0.4971000000 2.2573000000 1.2659000000
0.4968000000 2.6619000000 1.4346000000
0.2638000000 5.3742000000 0.9786000000
0.2632000000 3.3288000000 1.5329000000
0.2616000000 6.6753000000 0.4636000000
0.2605000000 6.8529000000 0.3768000000
0.2597000000 2.2248000000 1.0917000000
0.2594000000 6.7310000000 0.4403000000
0.2588000000 3.4601000000 1.5869000000
0.2587000000 6.7973000000 0.3942000000
0.2581000000 6.5732000000 0.4990000000
0.2579000000 5.8462000000 0.7945000000
0.2578000000 5.7898000000 0.8153000000
0.2575000000 4.7704000000 1.2193000000
0.2572000000 1.3028000000 0.7173000000
0.2569000000 4.1530000000 1.4665000000
0.2568000000 1.8468000000 0.9411000000
0.2564000000 6.0550000000 0.6994000000
0.2563000000 5.6440000000 0.8704000000
0.2562000000 4.0036000000 1.5305000000
0.2560000000 5.3014000000 1.0041000000
0.2558000000 1.8731000000 0.9469000000
0.2556000000 6.8349000000 0.3846000000
0.2555000000 1.6728000000 0.8714000000
0.2555000000 5.4568000000 0.9504000000
0.2553000000 7.2231000000 0.1061000000
0.2552000000 7.1035000000 0.1933000000
0.2550000000 5.9920000000 0.7288000000
0.2548000000 5.1707000000 1.0612000000
0.2547000000 1.1205000000 0.6484000000
0.2545000000 6.1654000000 0.6594000000
0.2545000000 3.6467000000 1.6367000000
0.2541000000 5.5507000000 0.9023000000
0.2540000000 4.3061000000 1.4042000000
0.2540000000 5.2531000000 1.0218000000
0.2538000000 0.3788000000 0.3079000000
0.2535000000 3.2782000000 1.5052000000
0.2535000000 1.1081000000 0.6410000000
0.2533000000 0.2589000000 0.2225000000
0.2531000000 2.4719000000 1.1857000000
0.2530000000 2.4965000000 1.1957000000
0.2529000000 6.2940000000 0.6059000000
0.2527000000 1.4853000000 0.7944000000
0.2526000000 5.3653000000 0.9836000000
0.2525000000 2.6451000000 1.2509000000
0.2523000000 3.1786000000 1.4652000000
0.2521000000 6.6127000000 0.4856000000
0.2518000000 6.1798000000 0.6485000000
0.2518000000 1.2180000000 0.6812000000
0.2516000000 2.7080000000 1.2782000000
0.2513000000 0.4665000000 0.3709000000
0.2510000000 1.4681000000 0.7745000000
0.2508000000 5.7846000000 0.8098000000
0.2507000000 7.0469000000 0.2408000000
0.2504000000 0.5979000000 0.4332000000
0.2502000000 1.8554000000 0.9395000000
0.2497000000 1.5266000000 0.8016000000
0.2492000000 1.7680000000 0.8999000000
0.2488000000 3.2453000000 1.4910000000
0.2485000000 0.4838000000 0.3710000000
0.2479000000 6.2606000000 0.6203000000
0.0130000000 3.6450000000 1.4823000000
0.0106000000 6.9749000000 0.1733000000
0.0101000000 2.9048000000 1.1850000000
0.0092000000 6.2832000000 0.4427000000
0.0087000000 2.9610000000 1.2070000000
0.0081000000 4.3132000000 1.2311000000
0.0077000000 0.2345000000 0.1236000000
0.0074000000 3.1991000000 1.3123000000
0.0072000000 5.7125000000 0.6758000000
0.0068000000 5.2857000000 0.8427000000
0.0065000000 6.7070000000 0.2703000000
0.0062000000 3.0345000000 1.2409000000
0.0059000000 3.9328000000 1.3863000000
0.0058000000 3.9206000000 1.3821000000
0.0057000000 6.8858000000 0.2023000000
0.0054000000 2.1801000000 0.8999000000
0.0052000000 7.0083000000 0.1484000000
0.0051000000 3.2904000000 1.3449000000
0.0049000000 5.4990000000 0.7549000000
0.0045000000 0.5569000000 0.2455000000
0.0045000000 1.7222000000 0.7130000000
0.0041000000 1.2095000000 0.5093000000
0.0040000000 5.7684000000 0.6502000000
0.0038000000 1.4692000000 0.6149000000
0.0037000000 3.2590000000 1.3250000000
0.0035000000 1.5845000000 0.6579000000
0.0033000000 3.8434000000 1.4130000000
0.0031000000 2.6551000000 1.0863000000
0.0029000000 3.3851000000 1.3743000000
0.0028000000 0.8117000000 0.3459000000
0.0026000000 6.2389000000 0.4627000000
0.0023000000 0.6834000000 0.2959000000
0.0022000000 5.5327000000 0.7378000000
0.0017000000 1.1189000000 0.4731000000
0.0015000000 0.3228000000 0.1399000000
0.0010000000 7.0458000000 0.1366000000
0.0009000000 3.2084000000 1.3034000000
0.0007000000 1.3290000000 0.5546000000
0.0005000000 4.9317000000 0.9778000000
0.0004000000 6.5626000000 0.3272000000
0.0000000000 0.6931000000 0.3013000000
-0.0001000000 4.1591000000 1.2853000000
-0.0002000000 4.7358000000 1.0569000000
-0.0006000000 2.6210000000 1.0790000000
-0.0010000000 1.5837000000 0.6522000000
-0.0015000000 3.9175000000 1.3793000000
-0.0017000000 1.6716000000 0.6909000000
-0.0017000000 0.0716000000 0.0323000000
-0.0029000000 0.8025000000 0.3411000000
-0.0063000000 0.2797000000 0.1288000000
-0.2381000000 2.8235000000 0.9879000000
-0.2402000000 0.3728000000 0.0806000000
-0.2408000000 3.1342000000 1.1036000000
-0.2412000000 5.5902000000 0.5521000000
-0.2416000000 4.5081000000 0.9787000000
-0.2419000000 5.3254000000 0.6561000000
-0.2422000000 1.8505000000 0.5947000000
-0.2425000000 0.4549000000 0.0325000000
-0.2427000000 4.0196000000 1.1743000000
-0.2431000000 4.4983000000 0.9810000000
-0.2432000000 5.5684000000 0.5578000000
-0.2433000000 6.1180000000 0.3366000000
-0.2436000000 1.6307000000 0.5024000000
-0.2439000000 6.8846000000 0.0279000000
-0.2440000000 0.6090000000 0.0965000000
-0.2442000000 4.3627000000 1.0309000000
-0.2444000000 5.2089000000 0.6969000000
-0.2445000000 5.5046000000 0.5802000000
-0.2447000000 4.1426000000 1.1228000000
-0.2450000000 5.1500000000 0.7202000000
-0.2450000000 0.5654000000 0.0786000000
-0.2455000000 6.6981000000 0.1026000000
-0.2457000000 6.1514000000 0.3216000000
-0.2459000000 1.6092000000 0.4957000000
-0.2462000000 6.5865000000 0.1453000000
-0.2463000000 6.6034000000 0.1407000000
-0.2464000000 5.1243000000 0.7267000000
-0.2467000000 1.1222000000 0.3004000000
-0.2467000000 6.1496000000 0.3221000000
-0.2470000000 5.6648000000 0.5148000000
-0.2470000000 1.7001000000 0.5237000000
-0.2472000000 5.8026000000 0.4556000000
-0.2476000000 5.4052000000 0.6154000000
-0.2477000000 6.5906000000 0.1471000000
-0.2480000000 5.4184000000 0.6063000000
-0.2481000000 2.2601000000 0.7533000000
-0.2484000000 3.7233000000 1.2872000000
-0.2486000000 0.9621000000 0.2386000000
-0.2487000000 5.5391000000 0.5661000000
-0.2491000000 4.3555000000 1.0308000000
-0.2494000000 4.6653000000 0.9098000000
-0.2500000000 4.2794000000 1.0675000000
-0.2500000000 4.2734000000 1.0655000000
-0.2502000000 6.3999000000 0.2192000000
-0.2503000000 5.9081000000 0.4119000000
-0.2507000000 5.1229000000 0.7292000000
-0.2509000000 3.2306000000 1.1425000000
-0.2517000000 1.0980000000 0.2814000000
-0.2518000000 1.5734000000 0.4738000000
-0.2524000000 4.0702000000 1.1444000000
-0.2538000000 3.7374000000 1.2806000000
-0.2543000000 0.2084000000 0.0035000000
-0.2552000000 3.8060000000 1.2538000000
-0.4891000000 4.0022000000 1.0117000000
-0.4904000000 3.8026000000 1.0883000000
-0.4905000000 4.5423000000 0.7962000000
-0.4915000000 6.2753000000 0.0973000000
-0.4920000000 6.6357000000 0.0267000000
-0.4922000000 2.2019000000 0.5592000000
-0.4929000000 2.7288000000 0.7692000000
-0.4937000000 2.2919000000 0.5949000000
-0.4940000000 6.0291000000 0.1970000000
-0.4942000000 6.5505000000 0.0642000000
-0.4943000000 4.4351000000 0.8358000000
-0.4945000000 5.7966000000 0.2927000000
-0.4947000000 5.9322000000 0.2358000000
-0.4949000000 3.2603000000 0.9808000000
-0.4951000000 3.0565000000 0.8940000000
-0.4954000000 2.6318000000 0.7291000000
-0.4959000000 3.7510000000 1.1077000000
-0.4961000000 2.5894000000 0.7135000000
-0.4963000000 5.7282000000 0.3129000000
-0.4964000000 4.1521000000 0.9471000000
-0.4966000000 0.9806000000 0.0665000000
-0.4967000000 3.3759000000 1.0252000000
-0.4969000000 2.8199000000 0.8031000000
-0.4973000000 6.5973000000 0.0456000000
-0.4976000000 3.8367000000 1.0716000000
-0.4977000000 1.7238000000 0.3650000000
-0.4978000000 2.8886000000 0.8351000000
-0.4981000000 2.2766000000 0.5889000000
-0.4985000000 6.0494000000 0.1871000000
-0.4987000000 4.2633000000 0.9001000000
-0.4990000000 2.6568000000 0.7394000000
-0.4992000000 1.5366000000 0.2917000000
-0.4996000000 6.1348000000 0.1512000000
-0.5002000000 5.7732000000 0.2913000000
-0.5004000000 2.5355000000 0.6924000000
-0.5007000000 5.0236000000 0.5968000000
-0.5012000000 2.2635000000 0.5805000000
-0.5018000000 3.8031000000 1.0756000000
-0.5021000000 2.7420000000 0.7703000000
-0.5028000000 6.0841000000 0.1633000000
-0.7370000000 5.8228000000 0.1080000000
-0.7372000000 1.1923000000 0.0592000000
-0.7392000000 4.3739000000 0.6861000000
-0.7398000000 5.3523000000 0.2959000000
-0.7404000000 3.7318000000 0.9446000000
-0.7420000000 5.4152000000 0.2703000000
-0.7421000000 5.1721000000 0.3696000000
-0.7430000000 5.8696000000 0.0877000000
-0.7432000000 4.1060000000 0.7921000000
-0.7432000000 4.5167000000 0.6296000000
-0.7436000000 4.8122000000 0.5129000000
-0.7441000000 3.7257000000 0.9454000000
-0.7444000000 2.9046000000 0.6652000000
-0.7446000000 5.5182000000 0.2266000000
-0.7447000000 1.7174000000 0.1887000000
-0.7449000000 1.3440000000 0.0450000000
-0.7450000000 1.7204000000 0.1942000000
-0.7452000000 3.9671000000 0.8514000000
-0.7460000000 3.1008000000 0.7440000000
-0.7462000000 4.4348000000 0.6603000000
-0.7465000000 2.7677000000 0.6086000000
-0.7469000000 2.7488000000 0.6013000000
-0.7475000000 3.2399000000 0.8066000000
-0.7477000000 4.5739000000 0.6074000000
-0.7478000000 2.5843000000 0.5372000000
-0.7480000000 4.6566000000 0.5647000000
-0.7485000000 2.0373000000 0.3183000000
-0.7486000000 3.5222000000 0.9112000000
-0.7490000000 6.2509000000 0.0091000000
-0.7491000000 2.5025000000 0.5012000000
-0.7492000000 3.0824000000 0.7311000000
-0.7495000000 1.8290000000 0.2279000000
-0.7502000000 2.7787000000 0.6131000000
-0.7506000000 3.9254000000 0.8667000000
-0.7511000000 1.4967000000 0.0996000000
-0.7515000000 4.8262000000 0.4986000000
-0.7524000000 1.8032000000 0.2178000000
-0.7533000000 3.8886000000 0.8739000000
-0.7562000000 2.2633000000 0.4005000000
-0.9915000000 3.2720000000 0.6474000000
-0.9915000000 2.8673000000 0.4833000000
-0.9920000000 3.9603000000 0.6783000000
-0.9923000000 2.1738000000 0.2030000000
-0.9926000000 4.9628000000 0.2781000000
-0.9930000000 2.3119000000 0.2581000000
-0.9931000000 3.2343000000 0.6253000000
