6.7604000000 3.7304000000 0.0334000000
6.7553000000 3.7277000000 0.0371000000
6.5150000000 3.4148000000 0.0203000000
6.5066000000 3.4000000000 0.0194000000
6.5058000000 4.4834000000 0.0681000000
6.5046000000 3.6423000000 0.0686000000
6.5035000000 4.1102000000 0.1064000000
6.5019000000 3.2088000000 0.0005000000
6.2610000000 4.0531000000 0.3469000000
6.2590000000 4.1348000000 0.3101000000
6.2567000000 5.0222000000 0.0078000000
6.2559000000 3.9206000000 0.4032000000
6.2554000000 3.4851000000 0.2091000000
6.2545000000 3.3181000000 0.1293000000
6.2539000000 4.4825000000 0.1381000000
6.2534000000 4.0509000000 0.3569000000
6.2525000000 3.1789000000 0.0539000000
6.2511000000 3.1471000000 0.0440000000
6.2491000000 4.1072000000 0.3314000000
6.0138000000 3.6422000000 0.5063000000
6.0101000000 4.3224000000 0.4327000000
6.0090000000 3.4667000000 0.4240000000
6.0075000000 5.2326000000 0.0495000000
6.0071000000 2.3795000000 0.0140000000
6.0070000000 4.0417000000 0.5802000000
6.0066000000 3.8407000000 0.6143000000
6.0055000000 4.9613000000 0.1130000000
6.0046000000 4.1220000000 0.5484000000
6.0040000000 5.3891000000 0.0431000000
6.0032000000 2.9286000000 0.1505000000
6.0026000000 5.3928000000 0.0475000000
6.0018000000 2.5248000000 0.0189000000
6.0015000000 3.7766000000 0.5844000000
5.9989000000 4.2490000000 0.4836000000
5.9976000000 3.0331000000 0.2124000000
5.7639000000 3.9150000000 0.8408000000
5.7608000000 5.7312000000 0.0799000000
5.7596000000 5.3419000000 0.1341000000
5.7589000000 4.8890000000 0.3668000000
5.7571000000 4.2806000000 0.6750000000
5.7568000000 3.1436000000 0.4703000000
5.7563000000 2.1163000000 0.0271000000
5.7556000000 2.2803000000 0.0371000000
5.7548000000 4.0442000000 0.7968000000
5.7546000000 5.1105000000 0.2525000000
5.7540000000 5.7347000000 0.0897000000
5.7534000000 2.8539000000 0.3277000000
5.7531000000 3.8574000000 0.8317000000
5.7518000000 3.4390000000 0.6363000000
5.7514000000 4.4643000000 0.5909000000
5.7507000000 4.7166000000 0.4643000000
5.7481000000 3.5465000000 0.6866000000
5.5135000000 6.0036000000 0.0909000000
5.5115000000 5.0357000000 0.5135000000
5.5104000000 2.3879000000 0.3109000000
5.5099000000 5.4934000000 0.2817000000
5.5083000000 3.3967000000 0.8235000000
5.5080000000 2.9794000000 0.6103000000
5.5078000000 2.0993000000 0.1676000000
5.5070000000 4.8454000000 0.6135000000
5.5063000000 4.6667000000 0.7014000000
5.5062000000 1.5851000000 0.0581000000
5.5060000000 2.4166000000 0.3293000000
5.5056000000 4.4970000000 0.7886000000
5.5054000000 4.0039000000 1.0418000000
5.5048000000 4.9093000000 0.5860000000
5.5045000000 2.5739000000 0.4057000000
5.5042000000 4.3112000000 0.8871000000
5.5038000000 5.9230000000 0.0682000000
5.5027000000 2.7608000000 0.5103000000
5.5024000000 3.9580000000 1.0567000000
5.5022000000 5.7925000000 0.1339000000
5.5010000000 1.9418000000 0.0889000000
5.5003000000 2.4570000000 0.3526000000
5.5000000000 4.5559000000 0.7627000000
5.4966000000 1.5275000000 0.0311000000
5.2620000000 5.7632000000 0.3616000000
5.2615000000 6.6156000000 0.0808000000
5.2607000000 5.2466000000 0.6245000000
5.2590000000 5.0958000000 0.7041000000
5.2588000000 2.4204000000 0.5445000000
5.2584000000 3.1342000000 0.9153000000
5.2581000000 3.7810000000 1.2444000000
5.2575000000 6.5267000000 0.0499000000
5.2572000000 5.4019000000 0.5449000000
5.2568000000 1.2489000000 0.0232000000
5.2564000000 2.0635000000 0.3686000000
5.2561000000 1.9572000000 0.3112000000
5.2555000000 2.1711000000 0.4234000000
5.2550000000 1.2812000000 0.0558000000
5.2548000000 6.4288000000 0.1037000000
5.2545000000 4.4366000000 1.0414000000
5.2540000000 6.4883000000 0.0723000000
5.2539000000 6.1818000000 0.1548000000
5.2533000000 2.7186000000 0.7011000000
5.2523000000 4.6230000000 0.9514000000
5.2518000000 6.2875000000 0.1011000000
5.2514000000 4.3476000000 1.1012000000
5.2509000000 1.7313000000 0.1991000000
5.2506000000 6.1123000000 0.1899000000
5.2496000000 1.1247000000 0.0513000000
5.2475000000 3.5208000000 1.1085000000
5.0145000000 6.8277000000 0.0327000000
5.0110000000 3.4084000000 1.2697000000
5.0100000000 5.1224000000 0.9096000000
5.0095000000 6.2460000000 0.3425000000
5.0091000000 6.1884000000 0.3721000000
5.0084000000 2.6842000000 0.9032000000
5.0081000000 5.6091000000 0.6625000000
5.0078000000 1.7541000000 0.4301000000
5.0074000000 2.7965000000 0.9688000000
5.0071000000 6.1668000000 0.3787000000
5.0068000000 0.9341000000 0.0883000000
5.0065000000 7.1853000000 0.0136000000
5.0059000000 5.1627000000 0.8864000000
5.0057000000 0.7626000000 0.0786000000
5.0053000000 5.1349000000 0.9088000000
5.0051000000 4.3046000000 1.3259000000
5.0049000000 5.9617000000 0.4873000000
5.0042000000 6.3565000000 0.2837000000
5.0039000000 2.1402000000 0.6296000000
5.0037000000 6.7329000000 0.0949000000
5.0034000000 5.1886000000 0.8807000000
5.0030000000 1.5127000000 0.3066000000
5.0028000000 2.8837000000 1.0112000000
5.0024000000 1.5908000000 0.3529000000
5.0019000000 5.5008000000 0.7201000000
5.0017000000 6.1827000000 0.3806000000
5.0016000000 4.2387000000 1.3637000000
5.0009000000 4.5394000000 1.2128000000
5.0004000000 4.1792000000 1.4000000000
5.0000000000 4.4447000000 1.2665000000
4.9993000000 1.0265000000 0.0708000000
4.9982000000 3.3448000000 1.2517000000
4.9976000000 2.6361000000 0.8904000000
4.7640000000 5.4350000000 0.9695000000
4.7620000000 6.1795000000 0.5891000000
4.7613000000 7.1910000000 0.0717000000
4.7610000000 6.5042000000 0.4324000000
4.7599000000 7.5792000000 0.0229000000
4.7593000000 7.5260000000 0.0542000000
4.7589000000 0.2404000000 0.0306000000
4.7588000000 5.1095000000 1.1349000000
4.7580000000 5.2741000000 1.0566000000
4.7576000000 4.8693000000 1.2624000000
4.7571000000 7.2553000000 0.0425000000
4.7568000000 3.0660000000 1.3181000000
4.7563000000 5.4099000000 0.9871000000
4.7560000000 6.1498000000 0.6104000000
4.7556000000 6.0181000000 0.6815000000
4.7553000000 4.7662000000 1.3134000000
4.7551000000 3.2258000000 1.4026000000
4.7549000000 3.0865000000 1.3299000000
4.7542000000 3.6388000000 1.6105000000
4.7539000000 7.4201000000 0.0396000000
4.7538000000 6.4679000000 0.4498000000
4.7535000000 4.9915000000 1.2054000000
4.7533000000 1.1699000000 0.3587000000
4.7531000000 5.6152000000 0.8881000000
4.7527000000 1.3273000000 0.4372000000
4.7521000000 7.6300000000 0.0088000000
4.7519000000 0.5899000000 0.0639000000
4.7512000000 0.9938000000 0.2695000000
4.7506000000 4.0549000000 1.6776000000
4.7501000000 1.4786000000 0.5160000000
4.7498000000 4.1705000000 1.6231000000
4.7496000000 1.7856000000 0.6754000000
4.7490000000 1.3758000000 0.4610000000
4.7477000000 4.7267000000 1.3449000000
4.5114000000 7.4596000000 0.1605000000
4.5112000000 7.1753000000 0.3007000000
4.5104000000 4.1669000000 1.8414000000
4.5092000000 2.8431000000 1.4218000000
4.5086000000 7.0163000000 0.3854000000
4.5082000000 5.4452000000 1.1887000000
4.5078000000 4.1799000000 1.8300000000
4.5074000000 3.9372000000 1.9409000000
4.5072000000 5.7787000000 1.0199000000
4.5071000000 2.4895000000 1.2578000000
4.5069000000 4.7624000000 1.5353000000
4.5065000000 5.3110000000 1.2555000000
4.5061000000 3.9343000000 1.9456000000
4.5061000000 2.2532000000 1.1251000000
4.5058000000 4.7094000000 1.5633000000
4.5056000000 0.7441000000 0.3607000000
4.5053000000 2.6690000000 1.3402000000
4.5050000000 1.2322000000 0.6033000000
4.5047000000 4.3801000000 1.7310000000
4.5045000000 6.7601000000 0.5254000000
4.5041000000 6.3213000000 0.7408000000
4.5040000000 1.4420000000 0.7156000000
4.5038000000 6.0658000000 0.8743000000
4.5034000000 6.0719000000 0.8712000000
4.5028000000 1.5681000000 0.7795000000
4.5026000000 3.1949000000 1.6143000000
4.5023000000 0.5158000000 0.2426000000
4.5020000000 5.3865000000 1.2306000000
4.5018000000 7.3294000000 0.2387000000
4.5012000000 1.1314000000 0.5614000000
4.5009000000 1.3317000000 0.6638000000
4.5005000000 2.7602000000 1.3924000000
4.5001000000 2.8013000000 1.4111000000
4.4998000000 1.0998000000 0.5439000000
4.4995000000 0.3951000000 0.1875000000
4.4990000000 1.7899000000 0.8997000000
4.4988000000 3.3727000000 1.7041000000
4.4972000000 0.2263000000 0.1037000000
4.2680000000 5.9643000000 1.1311000000
4.2628000000 7.7667000000 0.1001000000
4.2615000000 6.2881000000 0.9735000000
4.2605000000 6.8988000000 0.6657000000
4.2602000000 4.5320000000 1.8692000000
4.2598000000 4.9680000000 1.6501000000
4.2592000000 3.9927000000 2.1458000000
4.2589000000 5.3624000000 1.4471000000
4.2582000000 7.3491000000 0.4222000000
4.2576000000 3.5437000000 2.0055000000
4.2572000000 1.0689000000 0.7464000000
4.2565000000 2.3671000000 1.4066000000
4.2562000000 4.4042000000 1.9392000000
4.2559000000 5.2350000000 1.5225000000
4.2558000000 2.6695000000 1.5600000000
4.2556000000 3.2807000000 1.8719000000
4.2554000000 1.3174000000 0.8693000000
4.2553000000 1.5139000000 0.9678000000
4.2551000000 4.7968000000 1.7401000000
4.2549000000 5.4724000000 1.3939000000
4.2546000000 1.3815000000 0.8995000000
4.2543000000 4.0537000000 2.1204000000
4.2540000000 3.8017000000 2.1385000000
4.2538000000 3.0884000000 1.7712000000
4.2537000000 3.2612000000 1.8665000000
4.2531000000 5.9149000000 1.1758000000
4.2528000000 5.4008000000 1.4312000000
4.2524000000 5.5766000000 1.3497000000
4.2521000000 6.5253000000 0.8614000000
4.2519000000 0.5146000000 0.4473000000
4.2516000000 2.1319000000 1.2901000000
4.2513000000 7.8185000000 0.0476000000
4.2511000000 4.2052000000 2.0430000000
4.2505000000 2.9361000000 1.6993000000
4.2500000000 5.2206000000 1.5335000000
4.2493000000 1.9184000000 1.1874000000
4.2488000000 2.0339000000 1.2360000000
4.2460000000 0.0677000000 0.0367000000
4.0148000000 7.0549000000 0.7435000000
4.0127000000 3.8428000000 2.3725000000
4.0109000000 5.2239000000 1.7389000000
4.0098000000 2.4780000000 1.6787000000
4.0089000000 7.1425000000 0.6646000000
4.0087000000 2.7734000000 1.8273000000
4.0076000000 6.8074000000 0.9366000000
4.0074000000 4.6664000000 2.0255000000
4.0072000000 1.6066000000 1.2375000000
4.0071000000 7.6528000000 0.1464000000
4.0069000000 7.5810000000 0.2149000000
4.0065000000 1.4769000000 1.1725000000
4.0065000000 4.3229000000 2.2007000000
4.0063000000 3.1831000000 2.0456000000
4.0061000000 5.0296000000 1.8400000000
4.0059000000 7.5748000000 0.2231000000
4.0058000000 2.6591000000 1.7745000000
4.0055000000 0.6630000000 0.6491000000
4.0051000000 7.0134000000 0.7750000000
4.0049000000 6.1625000000 1.2685000000
4.0047000000 1.8507000000 1.3614000000
4.0043000000 0.7923000000 0.7724000000
4.0038000000 0.8541000000 0.8308000000
4.0036000000 6.6244000000 1.0292000000
4.0035000000 4.2811000000 2.2271000000
4.0033000000 0.9322000000 0.8850000000
4.0031000000 3.5107000000 2.2124000000
4.0027000000 2.5811000000 1.7320000000
4.0025000000 1.8052000000 1.3447000000
4.0024000000 3.8852000000 2.3874000000
4.0022000000 3.8392000000 2.3840000000
4.0019000000 4.3307000000 2.2008000000
4.0018000000 1.7234000000 1.3060000000
4.0015000000 2.0490000000 1.4691000000
4.0008000000 0.0186000000 0.0612000000
4.0005000000 0.5389000000 0.5251000000
4.0003000000 1.4114000000 1.1475000000
3.9992000000 1.3400000000 1.1122000000
3.9988000000 1.5088000000 1.1986000000
3.9883000000 2.4094000000 1.6622000000
3.7629000000 7.3352000000 0.4686000000
3.7618000000 5.9650000000 1.5759000000
3.7598000000 5.4921000000 1.8224000000
3.7594000000 4.3771000000 2.3880000000
3.7591000000 3.9033000000 2.6095000000
3.7586000000 6.6605000000 1.1563000000
3.7584000000 4.0934000000 2.5351000000
3.7579000000 0.2918000000 0.2708000000
3.7574000000 5.1649000000 1.9937000000
3.7572000000 0.5309000000 0.5127000000
3.7569000000 7.5740000000 0.2235000000
3.7567000000 1.9103000000 1.6089000000
3.7566000000 7.2055000000 0.5963000000
3.7562000000 7.1088000000 0.6981000000
3.7560000000 1.9423000000 1.6278000000
3.7557000000 1.7299000000 1.5228000000
3.7554000000 0.4418000000 0.4271000000
3.7553000000 5.3625000000 1.8946000000
3.7549000000 6.6492000000 1.1652000000
3.7543000000 4.3952000000 2.3843000000
3.7540000000 3.4141000000 2.3811000000
3.7538000000 1.2426000000 1.2207000000
3.7535000000 3.8516000000 2.6042000000
3.7528000000 4.7456000000 2.2059000000
3.7527000000 2.4655000000 1.8969000000
3.7525000000 0.7244000000 0.7072000000
3.7520000000 0.3859000000 0.3675000000
3.7517000000 4.2887000000 2.4422000000
3.7515000000 1.4085000000 1.3517000000
3.7510000000 2.4718000000 1.9051000000
3.7508000000 0.1680000000 0.1461000000
3.7502000000 1.2574000000 1.2379000000
3.7493000000 7.4066000000 0.3957000000
3.7485000000 3.1753000000 2.2625000000
3.7477000000 5.5440000000 1.8060000000
3.7444000000 2.7889000000 2.0756000000
3.5117000000 7.4748000000 0.3267000000
3.5108000000 3.5844000000 2.6827000000
3.5100000000 5.8493000000 1.8635000000
3.5093000000 3.9998000000 2.8084000000
3.5088000000 3.0888000000 2.4348000000
3.5085000000 0.7255000000 0.7169000000
3.5082000000 4.2519000000 2.6820000000
3.5076000000 5.6243000000 1.9833000000
3.5073000000 5.1620000000 2.2139000000
3.5071000000 7.4407000000 0.3608000000
3.5070000000 1.8339000000 1.7833000000
3.5068000000 3.3827000000 2.5809000000
3.5065000000 2.1905000000 1.9731000000
3.5064000000 0.5799000000 0.5673000000
3.5061000000 6.6093000000 1.2049000000
3.5058000000 4.8464000000 2.3751000000
3.5057000000 3.5749000000 2.6913000000
3.5055000000 2.5640000000 2.1705000000
3.5053000000 3.0163000000 2.3953000000
3.5051000000 6.0420000000 1.7512000000
3.5046000000 4.4548000000 2.5796000000
3.5044000000 0.6993000000 0.6860000000
3.5042000000 2.0207000000 1.8873000000
3.5039000000 4.7600000000 2.4186000000
3.5038000000 6.1007000000 1.7075000000
3.5036000000 7.1907000000 0.6188000000
3.5030000000 6.0802000000 1.7286000000
3.5028000000 4.9105000000 2.3476000000
3.5024000000 1.6197000000 1.6188000000
3.5020000000 7.1749000000 0.6298000000
3.5010000000 4.0726000000 2.7719000000
3.5005000000 3.3975000000 2.5971000000
3.5002000000 3.3185000000 2.5557000000
3.4998000000 2.7155000000 2.2500000000
3.4982000000 0.6055000000 0.5871000000
3.4954000000 2.5644000000 2.1773000000
3.2630000000 5.3253000000 2.3481000000
3.2613000000 6.4257000000 1.3930000000
3.2603000000 5.5581000000 2.2141000000
3.2593000000 7.5098000000 0.2925000000
3.2587000000 7.2270000000 0.5795000000
3.2583000000 1.1611000000 1.1561000000
3.2581000000 5.5205000000 2.2529000000
3.2576000000 6.3504000000 1.4731000000
3.2568000000 5.0090000000 2.5090000000
3.2565000000 4.8047000000 2.6191000000
3.2562000000 5.7435000000 2.0821000000
3.2561000000 5.6990000000 2.1147000000
3.2559000000 6.0428000000 1.7781000000
3.2558000000 3.5167000000 2.8713000000
3.2555000000 5.6392000000 2.1791000000
3.2553000000 0.9607000000 0.9521000000
3.2550000000 1.0378000000 1.0317000000
3.2549000000 7.6953000000 0.1021000000
3.2546000000 0.4504000000 0.4300000000
3.2544000000 1.6580000000 1.6613000000
3.2543000000 3.9152000000 3.0492000000
3.2541000000 4.8777000000 2.5786000000
3.2538000000 1.7440000000 1.7474000000
3.2535000000 1.9282000000 1.9321000000
3.2532000000 7.8095000000 0.0624000000
3.2529000000 4.8433000000 2.6032000000
3.2526000000 4.0860000000 2.9825000000
3.2525000000 3.8476000000 3.0488000000
3.2523000000 2.4369000000 2.3290000000
3.2520000000 0.3582000000 0.3409000000
3.2518000000 6.6411000000 1.1725000000
3.2514000000 2.5995000000 2.4115000000
3.2509000000 0.4257000000 0.4023000000
3.2507000000 1.2471000000 1.2418000000
3.2503000000 2.0722000000 2.0761000000
3.2496000000 5.6806000000 2.1338000000
3.2492000000 0.6439000000 0.6308000000
3.2485000000 4.0378000000 3.0141000000
3.2469000000 5.3299000000 2.3614000000
3.2460000000 5.0394000000 2.5059000000
3.0185000000 5.0140000000 2.7248000000
3.0123000000 6.5602000000 1.2625000000
3.0106000000 4.3755000000 3.0513000000
3.0098000000 5.8726000000 1.9592000000
3.0095000000 6.9016000000 0.9050000000
3.0089000000 3.3051000000 2.9849000000
3.0087000000 6.0884000000 1.7351000000
3.0082000000 4.1938000000 3.1471000000
3.0079000000 4.9974000000 2.7409000000
3.0073000000 0.1825000000 0.1624000000
3.0071000000 6.5972000000 1.2203000000
3.0067000000 6.7620000000 1.0535000000
3.0063000000 4.1185000000 3.1959000000
3.0061000000 4.1559000000 3.1668000000
3.0058000000 1.1462000000 1.1394000000
3.0066000000 2.2991000000 2.3206000000
3.0054000000 2.9109000000 2.7868000000
3.0053000000 5.8107000000 2.0195000000
3.0051000000 0.9973000000 0.9835000000
3.0049000000 4.2468000000 3.1228000000
3.0047000000 6.8104000000 0.9984000000
3.0043000000 7.0339000000 0.7720000000
3.0038000000 4.4271000000 3.0361000000
3.0035000000 6.2885000000 1.5351000000
3.0034000000 0.2723000000 0.2521000000
3.0030000000 5.6966000000 2.1346000000
3.0023000000 1.2832000000 1.2765000000
3.0021000000 6.9773000000 0.8278000000
3.0019000000 6.7583000000 1.0548000000
3.0016000000 3.2163000000 2.9503000000
3.0010000000 7.8481000000 0.0913000000
3.0005000000 2.7540000000 2.7080000000
3.0000000000 0.8255000000 0.8175000000
2.9990000000 3.4119000000 3.0426000000
2.9977000000 2.7903000000 2.7341000000
2.9946000000 2.8949000000 2.7892000000
2.7623000000 5.3107000000 2.5265000000
2.7615000000 6.3338000000 1.4905000000
2.7606000000 5.0289000000 2.8188000000
2.7595000000 5.9267000000 1.9078000000
2.7593000000 6.2524000000 1.5648000000
2.7588000000 1.1115000000 1.1058000000
2.7583000000 5.9747000000 1.8561000000
2.7580000000 4.5245000000 3.1988000000
2.7575000000 5.0332000000 2.8136000000
2.7570000000 7.6229000000 0.1745000000
2.7570000000 3.1932000000 3.1502000000
2.7567000000 2.2389000000 2.2548000000
2.7565000000 1.6217000000 1.6268000000
2.7560000000 6.0795000000 1.7478000000
2.7558000000 1.4586000000 1.4613000000
2.7556000000 3.1028000000 3.0871000000
2.7555000000 5.4977000000 2.3433000000
2.7553000000 4.6922000000 3.1066000000
2.7549000000 6.7029000000 1.1107000000
2.7547000000 3.9789000000 3.4885000000
2.7545000000 4.0060000000 3.4720000000
2.7542000000 1.2370000000 1.2305000000
2.7540000000 2.0841000000 2.0965000000
2.7536000000 4.4884000000 3.2261000000
2.7533000000 6.0782000000 1.7499000000
2.7528000000 4.4397000000 3.2488000000
2.7526000000 3.4556000000 3.2875000000
2.7522000000 3.1796000000 3.1461000000
2.7517000000 1.0414000000 1.0317000000
2.7515000000 7.8513000000 0.0930000000
2.7513000000 5.0433000000 2.7966000000
2.7508000000 2.6869000000 2.7109000000
2.7507000000 2.4355000000 2.4524000000
2.7498000000 1.6432000000 1.6440000000
2.7484000000 3.3203000000 3.2194000000
2.5118000000 7.6718000000 0.1252000000
2.5103000000 5.5713000000 2.2605000000
2.5093000000 1.4900000000 1.4880000000
2.5089000000 1.0110000000 1.0013000000
2.5084000000 2.2223000000 2.2391000000
2.5081000000 3.4144000000 3.4269000000
2.5079000000 4.9688000000 2.8806000000
2.5077000000 5.8826000000 1.9470000000
2.5073000000 1.8523000000 1.8585000000
2.5070000000 5.4566000000 2.3806000000
2.5063000000 6.2640000000 1.5575000000
2.5060000000 1.2936000000 1.2861000000
2.5057000000 4.6370000000 3.2171000000
2.5054000000 2.3088000000 2.3245000000
2.5053000000 6.4301000000 1.3890000000
2.5051000000 7.4847000000 0.3133000000
2.5047000000 1.2846000000 1.2860000000
2.5045000000 0.8337000000 0.8223000000
2.5042000000 1.9705000000 1.9837000000
2.5040000000 7.7552000000 0.0418000000
2.5038000000 7.1647000000 0.6458000000
2.5034000000 1.8143000000 1.8201000000
2.5031000000 0.8007000000 0.7945000000
2.5028000000 4.6867000000 3.1642000000
2.5025000000 2.2792000000 2.3002000000
2.5023000000 5.0381000000 2.8088000000
2.5021000000 5.0562000000 2.7900000000
2.5020000000 1.6848000000 1.6934000000
2.5017000000 5.1766000000 2.6659000000
2.5012000000 0.0126000000 0.0637000000
2.5011000000 1.0870000000 1.0795000000
2.5008000000 0.0406000000 0.0836000000
2.5005000000 0.6084000000 0.5899000000
2.5000000000 1.4881000000 1.4894000000
2.4997000000 1.1102000000 1.1041000000
2.4990000000 5.0335000000 2.8163000000
2.4983000000 2.1618000000 2.1740000000
2.4978000000 1.0231000000 1.0224000000
2.4961000000 0.4856000000 0.4637000000
2.2618000000 5.4617000000 2.3751000000
2.2606000000 5.5134000000 2.3254000000
2.2599000000 3.4083000000 3.4456000000
2.2591000000 6.7697000000 1.0451000000
2.2590000000 7.7703000000 0.0936000000
2.2586000000 5.0239000000 2.8198000000
2.2583000000 4.9594000000 2.8866000000
2.2572000000 2.5618000000 2.5848000000
2.2569000000 5.9862000000 1.8390000000
2.2566000000 6.2581000000 1.5650000000
2.2565000000 7.1674000000 0.6352000000
2.2558000000 6.2713000000 1.5527000000
2.2554000000 5.7182000000 2.1157000000
2.2553000000 5.2770000000 2.5640000000
2.2549000000 7.4191000000 0.3826000000
2.2545000000 6.9610000000 0.8488000000
2.2544000000 7.1722000000 0.6348000000
2.2542000000 3.8300000000 3.8883000000
2.2540000000 7.3164000000 0.4870000000
2.2539000000 5.3018000000 2.5317000000
2.2538000000 6.5350000000 1.2780000000
2.2536000000 4.6368000000 3.2138000000
2.2533000000 6.2514000000 1.5743000000
2.2531000000 7.8065000000 0.0592000000
2.2528000000 0.3303000000 0.3072000000
2.2526000000 2.1545000000 2.1717000000
2.2524000000 5.0966000000 2.7455000000
2.2521000000 5.9361000000 1.8920000000
2.2519000000 1.0227000000 1.0127000000
2.2518000000 6.7057000000 1.1125000000
2.2515000000 0.5052000000 0.4874000000
2.2513000000 5.9445000000 1.8794000000
2.2507000000 0.6796000000 0.6651000000
2.2502000000 6.6505000000 1.1642000000
2.2495000000 6.6644000000 1.1479000000
2.2488000000 3.5345000000 3.5714000000
2.2477000000 4.8051000000 3.0444000000
2.2446000000 4.6485000000 3.2009000000
2.0124000000 7.1058000000 0.6984000000
2.0112000000 5.6748000000 2.1568000000
2.0103000000 5.7661000000 2.0708000000
2.0091000000 7.6314000000 0.1680000000
2.0088000000 3.3785000000 3.4079000000
2.0086000000 2.6643000000 2.6805000000
2.0080000000 4.9830000000 2.8607000000
2.0078000000 0.5596000000 0.5451000000
2.0076000000 2.5741000000 2.5930000000
2.0071000000 3.7895000000 3.6724000000
2.0069000000 7.6749000000 0.1254000000
2.0068000000 5.7400000000 2.0931000000
2.0065000000 6.8711000000 0.9409000000
2.0062000000 4.6166000000 3.2389000000
2.0060000000 4.8675000000 2.9817000000
2.0059000000 6.2126000000 1.6062000000
2.0058000000 5.7936000000 2.0419000000
2.0055000000 4.8576000000 2.9877000000
2.0053000000 3.9417000000 3.7014000000
2.0052000000 2.6881000000 2.7103000000
2.0046000000 0.2388000000 0.2136000000
2.0045000000 1.7754000000 1.7842000000
2.0041000000 2.6842000000 2.7048000000
2.0039000000 5.9563000000 1.8701000000
2.0038000000 4.9131000000 2.9372000000
2.0037000000 1.6711000000 1.6794000000
2.0033000000 7.6999000000 0.0944000000
2.0030000000 3.9854000000 3.6966000000
2.0028000000 3.1832000000 3.2123000000
2.0024000000 1.9047000000 1.9086000000
2.0022000000 3.3860000000 3.4063000000
2.0020000000 0.6308000000 0.6130000000
2.0015000000 2.9969000000 3.0246000000
2.0010000000 4.5348000000 3.3181000000
2.0007000000 5.5527000000 2.2851000000
2.0004000000 3.8029000000 3.6709000000
1.9997000000 1.5234000000 1.5194000000
1.9983000000 1.4015000000 1.3997000000
1.9978000000 4.2233000000 3.5663000000
1.9965000000 7.7324000000 0.0663000000
1.7622000000 5.2950000000 2.5486000000
1.7606000000 7.5373000000 0.2643000000
1.7598000000 3.8436000000 3.4853000000
1.7593000000 0.0709000000 0.0487000000
1.7584000000 0.7114000000 0.6950000000
1.7570000000 7.8623000000 0.0842000000
1.7568000000 3.3020000000 3.2012000000
1.7566000000 5.1720000000 2.6698000000
1.7562000000 3.4808000000 3.2949000000
1.7557000000 2.4566000000 2.4818000000
1.7554000000 2.9372000000 2.9532000000
1.7551000000 4.2979000000 3.3188000000
1.7548000000 6.2335000000 1.5905000000
1.7547000000 2.3054000000 2.3180000000
1.7540000000 0.7167000000 0.7020000000
1.7536000000 5.4225000000 2.4100000000
1.7533000000 3.5744000000 3.3416000000
1.7530000000 4.7768000000 3.0539000000
1.7528000000 3.6930000000 3.3995000000
1.7526000000 6.1473000000 1.6736000000
1.7523000000 7.2733000000 0.5271000000
1.7519000000 1.1147000000 1.1107000000
1.7514000000 2.3721000000 2.3941000000
1.7511000000 2.2844000000 2.2993000000
1.7509000000 5.8936000000 1.9355000000
1.7502000000 4.7733000000 3.0478000000
1.7496000000 4.5497000000 3.1869000000
1.7489000000 1.8775000000 1.8805000000
1.7482000000 3.2930000000 3.1910000000
1.7460000000 0.9481000000 0.9368000000
1.5131000000 7.5513000000 0.2499000000
1.5114000000 5.3886000000 2.4501000000
1.5102000000 3.3374000000 2.9996000000
1.5099000000 6.7818000000 1.0315000000
1.5091000000 4.4500000000 3.0224000000
1.5085000000 2.0743000000 2.0851000000
1.5076000000 5.7703000000 2.0619000000
1.5069000000 2.6017000000 2.6089000000
1.5066000000 5.3205000000 2.5128000000
1.5061000000 4.0262000000 3.2348000000
1.5059000000 4.3831000000 3.0604000000
1.5052000000 3.2748000000 2.9732000000
1.5050000000 4.7046000000 2.8893000000
1.5048000000 1.0893000000 1.0835000000
1.5044000000 7.3165000000 0.4879000000
1.5042000000 2.0104000000 2.0212000000
1.5039000000 2.9961000000 2.8296000000
1.5035000000 4.9596000000 2.7547000000
1.5033000000 6.7062000000 1.1077000000
1.5029000000 2.7989000000 2.7267000000
1.5025000000 5.5859000000 2.2553000000
1.5023000000 3.9906000000 3.2513000000
1.5021000000 5.3992000000 2.4417000000
1.5020000000 4.1225000000 3.1800000000
1.5018000000 3.6331000000 3.1508000000
1.5016000000 1.5827000000 1.5868000000
1.5014000000 7.4330000000 0.3663000000
1.5013000000 5.8738000000 1.9573000000
1.5010000000 4.3113000000 3.0855000000
1.5008000000 4.0667000000 3.2128000000
1.5006000000 6.4541000000 1.3670000000
1.5002000000 4.0031000000 3.2421000000
1.4998000000 2.6950000000 2.6599000000
1.4995000000 2.3503000000 2.3702000000
1.4989000000 0.1932000000 0.1680000000
1.4978000000 1.1973000000 1.1939000000
1.4974000000 2.2593000000 2.2738000000
1.4955000000 0.2849000000 0.2635000000
1.2637000000 7.3487000000 0.4547000000
1.2613000000 7.7839000000 0.0882000000
1.2610000000 7.7831000000 0.0802000000
1.2590000000 4.6746000000 2.6872000000
1.2587000000 3.1456000000 2.6835000000
1.2583000000 3.4084000000 2.8155000000
1.2580000000 1.1219000000 1.1142000000
1.2578000000 0.9098000000 0.9020000000
1.2572000000 4.9541000000 2.5395000000
1.2570000000 0.2431000000 0.2151000000
1.2565000000 6.0718000000 1.7619000000
1.2564000000 6.9040000000 0.9045000000
1.2561000000 2.7801000000 2.4967000000
1.2559000000 1.9085000000 1.9211000000
1.2557000000 0.3343000000 0.3083000000
1.2555000000 0.6053000000 0.5848000000
1.2553000000 1.3986000000 1.3968000000
1.2550000000 3.1300000000 2.6777000000
1.2548000000 6.3360000000 1.4873000000
1.2545000000 2.8856000000 2.5450000000
1.2544000000 7.6694000000 0.1252000000
1.2542000000 6.8346000000 0.9727000000
1.2540000000 2.9074000000 2.5588000000
1.2538000000 2.0289000000 2.0371000000
1.2536000000 5.4581000000 2.2787000000
1.2533000000 3.1280000000 2.6750000000
1.2531000000 1.7194000000 1.7291000000
1.2529000000 2.0325000000 2.0372000000
1.2526000000 0.9601000000 0.9498000000
1.2523000000 5.6227000000 2.1798000000
1.2522000000 5.9095000000 1.9198000000
1.2520000000 0.7620000000 0.7466000000
1.2518000000 0.2387000000 0.2200000000
1.2513000000 7.2825000000 0.5198000000
1.2510000000 2.4094000000 2.3025000000
1.2505000000 0.4684000000 0.4508000000
1.2501000000 3.2172000000 2.7133000000
1.2497000000 0.0267000000 0.0774000000
1.2494000000 2.6057000000 2.3965000000
1.2490000000 6.6016000000 1.2106000000
1.2485000000 0.3527000000 0.3295000000
1.2475000000 0.0415000000 0.0899000000
1.2445000000 2.0242000000 2.0371000000
1.0106000000 6.9712000000 0.8361000000
1.0095000000 5.8770000000 1.8572000000
1.0090000000 7.3112000000 0.4925000000
1.0082000000 7.4063000000 0.3922000000
1.0076000000 7.0247000000 0.7830000000
1.0072000000 6.0781000000 1.7337000000
1.0068000000 3.3460000000 2.5658000000
1.0066000000 3.6919000000 2.7389000000
1.0063000000 3.7013000000 2.7464000000
1.0060000000 2.4371000000 2.1060000000
1.0058000000 5.7257000000 1.9294000000
1.0055000000 6.5769000000 1.2433000000
1.0053000000 5.8153000000 1.8827000000
1.0051000000 5.6378000000 1.9744000000
1.0048000000 5.1951000000 2.1962000000
1.0045000000 5.3492000000 2.1139000000
1.0044000000 4.5939000000 2.5049000000
1.0040000000 7.8090000000 0.0569000000
1.0038000000 0.6219000000 0.6040000000
1.0036000000 2.1728000000 1.9695000000
1.0032000000 2.9580000000 2.3624000000
1.0029000000 6.0215000000 1.7641000000
1.0026000000 1.1370000000 1.1295000000
1.0024000000 7.2549000000 0.5491000000
1.0022000000 0.3014000000 0.2824000000
1.0019000000 4.1500000000 2.7337000000
1.0017000000 6.2384000000 1.5807000000
1.0013000000 5.8882000000 1.8362000000
1.0009000000 5.9532000000 1.8098000000
1.0005000000 6.2518000000 1.5681000000
0.9990000000 1.6843000000 1.6694000000
0.9983000000 2.7987000000 2.2792000000
0.9976000000 0.5396000000 0.5207000000
0.9950000000 0.1354000000 0.1090000000
0.7627000000 3.8866000000 2.6046000000
0.7602000000 3.2240000000 2.2842000000
0.7591000000 6.0284000000 1.5573000000
0.7587000000 7.3957000000 0.4029000000
0.7583000000 7.6236000000 0.1766000000
0.7580000000 4.4533000000 2.3608000000
0.7575000000 5.1629000000 1.9957000000
0.7571000000 3.6796000000 2.5093000000
0.7566000000 1.0595000000 1.0514000000
0.7565000000 4.5339000000 2.3129000000
0.7558000000 5.8317000000 1.6513000000
0.7553000000 7.2293000000 0.5744000000
0.7551000000 7.6491000000 0.1419000000
0.7548000000 1.7800000000 1.5450000000
0.7545000000 0.8120000000 0.8011000000
0.7543000000 3.4534000000 2.3975000000
0.7539000000 0.1291000000 0.1034000000
0.7537000000 1.4468000000 1.3743000000
0.7534000000 7.0532000000 0.7558000000
0.7533000000 1.4470000000 1.3752000000
0.7530000000 0.4154000000 0.3945000000
0.7527000000 4.8107000000 2.1687000000
0.7525000000 5.3917000000 1.8684000000
0.7521000000 3.8183000000 2.5826000000
0.7518000000 1.3902000000 1.3275000000
0.7515000000 3.8431000000 2.5940000000
0.7512000000 6.6893000000 1.1277000000
0.7508000000 6.5471000000 1.2520000000
0.7500000000 2.1190000000 1.7104000000
0.7490000000 4.5235000000 2.3108000000
0.7487000000 4.5288000000 2.3064000000
0.7485000000 0.8447000000 0.8261000000
0.7480000000 1.0912000000 1.0857000000
0.7471000000 7.1490000000 0.6511000000
0.7459000000 0.7437000000 0.7333000000
0.5124000000 7.2579000000 0.5523000000
0.5105000000 0.7828000000 0.7631000000
0.5095000000 1.8289000000 1.3535000000
0.5093000000 7.6554000000 0.1459000000
0.5088000000 3.9874000000 2.3707000000
0.5083000000 2.1406000000 1.5119000000
0.5079000000 6.6971000000 0.9969000000
0.5078000000 6.2552000000 1.2177000000
0.5076000000 6.5301000000 1.0773000000
0.5071000000 3.4258000000 2.1663000000
0.5067000000 4.0744000000 2.3263000000
0.5063000000 5.5151000000 1.5955000000
0.5056000000 7.7438000000 0.0492000000
0.5054000000 4.6082000000 2.0550000000
0.5052000000 0.1487000000 0.1249000000
0.5050000000 4.3225000000 2.1986000000
0.5048000000 3.0361000000 1.9700000000
0.5043000000 0.0728000000 0.0441000000
0.5040000000 6.5867000000 1.0420000000
0.5038000000 2.5858000000 1.7297000000
0.5037000000 0.6733000000 0.6597000000
0.5033000000 3.5488000000 2.2309000000
0.5030000000 2.8479000000 1.8664000000
0.5029000000 5.0018000000 1.8522000000
0.5028000000 1.8412000000 1.3537000000
0.5026000000 4.4346000000 2.1367000000
0.5024000000 1.6309000000 1.2467000000
0.5023000000 5.1813000000 1.7601000000
0.5020000000 2.0164000000 1.4498000000
0.5020000000 1.0695000000 0.9686000000
0.5017000000 1.3763000000 1.1166000000
0.5015000000 4.7481000000 1.9772000000
0.5013000000 0.3617000000 0.3391000000
0.5012000000 2.7524000000 1.8133000000
0.5005000000 0.5402000000 0.5242000000
0.5001000000 4.7850000000 1.9578000000
0.4997000000 4.0375000000 2.3410000000
0.4988000000 2.5768000000 1.7231000000
0.4978000000 0.8322000000 0.8040000000
0.4938000000 0.0098000000 0.0552000000
0.2620000000 6.6779000000 0.7835000000
0.2608000000 6.0841000000 1.0845000000
0.2601000000 5.7064000000 1.2805000000
0.2593000000 6.3988000000 0.9239000000
0.2588000000 2.5987000000 1.5245000000
0.2584000000 6.1290000000 1.0625000000
0.2576000000 1.7244000000 1.0784000000
0.2572000000 6.2108000000 1.0221000000
0.2567000000 6.2746000000 0.9872000000
0.2565000000 0.0370000000 0.0861000000
0.2562000000 6.1651000000 1.0408000000
0.2559000000 3.9345000000 2.1661000000
0.2558000000 7.1935000000 0.5141000000
0.2553000000 7.1122000000 0.5575000000
0.2550000000 4.8640000000 1.6995000000
0.2549000000 4.8769000000 1.6932000000
0.2547000000 7.4316000000 0.3484000000
0.2544000000 6.2176000000 1.0146000000
0.2541000000 2.1871000000 1.3087000000
0.2540000000 0.6178000000 0.5136000000
0.2537000000 1.1500000000 0.7843000000
0.2534000000 5.1402000000 1.5550000000
0.2532000000 0.6473000000 0.5276000000
0.2526000000 4.4810000000 1.8953000000
0.2523000000 5.0270000000 1.6214000000
0.2520000000 3.0658000000 1.7560000000
0.2517000000 3.6555000000 2.0557000000
0.2513000000 2.6668000000 1.5538000000
0.2511000000 4.0851000000 2.0989000000
0.2510000000 1.3641000000 0.8888000000
0.2505000000 2.2026000000 1.3165000000
0.2504000000 4.2835000000 1.9981000000
0.2496000000 6.6320000000 0.7967000000
0.2492000000 4.7362000000 1.7668000000
0.2486000000 4.9298000000 1.6643000000
0.2472000000 0.8120000000 0.6037000000
0.2464000000 2.1615000000 1.2911000000
0.0130000000 6.2396000000 0.7865000000
0.0107000000 7.5113000000 0.1422000000
0.0100000000 5.9351000000 0.9392000000
0.0094000000 5.1661000000 1.3361000000
0.0090000000 3.6364000000 1.8358000000
0.0081000000 5.8410000000 0.9852000000
0.0078000000 4.9495000000 1.4443000000
0.0073000000 6.8779000000 0.4577000000
0.0071000000 4.6096000000 1.6138000000
0.0069000000 0.0009000000 0.0337000000
0.0067000000 4.2590000000 1.7916000000
0.0064000000 7.8143000000 0.0313000000
0.0060000000 6.8260000000 0.4833000000
0.0058000000 5.4289000000 1.2017000000
0.0055000000 4.7474000000 1.5438000000
0.0055000000 6.4853000000 0.6532000000
0.0052000000 4.6554000000 1.5821000000
0.0050000000 6.7989000000 0.4943000000
0.0048000000 5.6156000000 1.1000000000
0.0044000000 2.5710000000 1.2839000000
0.0042000000 6.7124000000 0.5406000000
0.0041000000 3.0344000000 1.5214000000
0.0037000000 5.5656000000 1.1297000000
0.0036000000 3.1944000000 1.6064000000
0.0033000000 0.6778000000 0.3251000000
0.0031000000 2.1655000000 1.0776000000
0.0030000000 7.1381000000 0.3234000000
0.0028000000 1.6618000000 0.8182000000
0.0022000000 3.8322000000 1.9261000000
0.0021000000 5.1527000000 1.3337000000
0.0019000000 0.2560000000 0.1074000000
0.0015000000 2.7490000000 1.3751000000
0.0010000000 0.0444000000 0.0580000000
0.0010000000 2.4493000000 1.2184000000
0.0007000000 7.6167000000 0.0814000000
0.0005000000 0.5635000000 0.2591000000
0.0000000000 3.0089000000 1.5057000000
-0.0002000000 0.8651000000 0.4130000000
-0.0006000000 6.0389000000 0.8797000000
-0.0008000000 6.7348000000 0.5295000000
-0.0017000000 0.6376000000 0.2956000000
-0.0037000000 3.8939000000 1.9274000000
-0.0045000000 2.1746000000 1.0754000000
-0.2385000000 3.2478000000 1.4129000000
-0.2397000000 2.0478000000 0.8077000000
-0.2408000000 2.1236000000 0.8413000000
-0.2412000000 6.5246000000 0.4211000000
-0.2422000000 6.1883000000 0.5908000000
-0.2426000000 2.7237000000 1.1472000000
-0.2431000000 3.0862000000 1.3287000000
-0.2436000000 5.6370000000 0.8622000000
-0.2439000000 4.9957000000 1.1956000000
-0.2443000000 3.4302000000 1.5071000000
-0.2444000000 2.4001000000 0.9812000000
-0.2449000000 3.2022000000 1.3924000000
-0.2452000000 0.5111000000 0.0901000000
-0.2455000000 4.4327000000 1.4814000000
-0.2459000000 5.2669000000 1.0597000000
-0.2460000000 0.4961000000 0.0809000000
-0.2463000000 3.4818000000 1.5287000000
-0.2466000000 5.7938000000 0.7887000000
-0.2469000000 0.2280000000 0.0239000000
-0.2470000000 3.5629000000 1.5671000000
-0.2474000000 4.3552000000 1.5231000000
-0.2476000000 2.1029000000 0.8266000000
-0.2479000000 5.7277000000 0.8185000000
-0.2484000000 2.5811000000 1.0721000000
-0.2487000000 4.7806000000 1.3016000000
-0.2489000000 1.4026000000 0.4661000000
-0.2495000000 5.0460000000 1.1663000000
-0.2504000000 3.9262000000 1.7160000000
-0.2510000000 0.2601000000 0.0314000000
-0.2518000000 7.2733000000 0.1014000000
-0.2521000000 7.1092000000 0.1150000000
-0.2538000000 1.4840000000 0.5036000000
-0.4906000000 6.5851000000 0.1617000000
-0.4912000000 4.6609000000 1.1513000000
-0.4920000000 7.0350000000 0.0898000000
-0.4927000000 5.5988000000 0.6660000000
-0.4933000000 1.5176000000 0.3133000000
-0.4940000000 5.3410000000 0.7993000000
-0.4945000000 6.0888000000 0.4173000000
-0.4949000000 0.7260000000 0.0488000000
-0.4951000000 6.2192000000 0.3533000000
-0.4953000000 2.1308000000 0.6137000000
-0.4954000000 4.4181000000 1.2661000000
-0.4960000000 2.6791000000 0.9010000000
-0.4960000000 4.1955000000 1.3855000000
-0.4964000000 5.2669000000 0.8340000000
-0.4968000000 6.1610000000 0.3728000000
-0.4971000000 2.4193000000 0.7688000000
-0.4973000000 1.2413000000 0.1649000000
-0.4975000000 2.4683000000 0.7901000000
-0.4977000000 2.3644000000 0.7360000000
-0.4979000000 2.2123000000 0.6579000000
-0.4985000000 4.1517000000 1.4045000000
-0.4988000000 2.2654000000 0.6886000000
-0.4992000000 6.4666000000 0.2282000000
-0.4999000000 2.2709000000 0.6864000000
-0.5004000000 2.1289000000 0.6124000000
-0.5010000000 1.8931000000 0.4949000000
-0.5015000000 1.5681000000 0.3330000000
-0.5019000000 4.0196000000 1.4728000000
-0.5023000000 5.9145000000 0.4998000000
-0.5029000000 4.7063000000 1.1148000000
-0.7396000000 2.9954000000 0.8462000000
-0.7405000000 3.5244000000 1.1107000000
-0.7412000000 3.8379000000 1.2748000000
-0.7417000000 4.6184000000 0.9521000000
-0.7421000000 6.0942000000 0.1995000000
-0.7425000000 5.9578000000 0.2719000000
-0.7431000000 4.1020000000 1.2153000000
-0.7436000000 6.5752000000 0.0284000000
-0.7438000000 1.5845000000 0.1206000000
-0.7443000000 2.4566000000 0.5643000000
-0.7446000000 2.9149000000 0.7977000000
-0.7448000000 6.3491000000 0.0714000000
-0.7450000000 2.2357000000 0.4587000000
-0.7455000000 4.6718000000 0.9184000000
-0.7460000000 5.3432000000 0.5727000000
-0.7463000000 5.7303000000 0.3766000000
-0.7465000000 6.5080000000 0.0613000000
-0.7467000000 5.3842000000 0.5584000000
-0.7470000000 4.9289000000 0.7891000000
-0.7474000000 5.9969000000 0.2435000000
-0.7476000000 2.8782000000 0.7767000000
-0.7480000000 1.2465000000 0.0246000000
-0.7483000000 3.6232000000 1.1599000000
-0.7491000000 4.3577000000 1.0725000000
-0.7499000000 5.2891000000 0.5993000000
-0.7502000000 1.6169000000 0.1319000000
-0.7509000000 1.3200000000 0.0565000000
-0.7517000000 3.2181000000 0.9494000000
-0.7528000000 1.1738000000 0.0580000000
-0.9870000000 2.3218000000 0.2860000000
-0.9913000000 4.4799000000 0.8055000000
-0.9928000000 3.6971000000 0.9771000000
-0.9934000000 3.1127000000 0.6782000000
-0.9938000000 6.0784000000 0.0605000000
-0.9946000000 5.7228000000 0.1620000000
-0.9947000000 4.3999000000 0.8411000000
-0.9951000000 3.1467000000 0.6968000000
-0.9956000000 3.1674000000 0.7120000000
-0.9960000000 4.2636000000 0.9063000000
-0.9962000000 5.0321000000 0.5137000000
-0.9964000000 2.8347000000 0.5415000000
-0.9967000000 2.5169000000 0.3753000000
-0.9975000000 3.8097000000 1.0284000000
-0.9977000000 3.4279000000 0.8399000000
-0.9981000000 6.2280000000 0.0551000000
-0.9986000000 3.9834000000 1.0467000000
-0.9992000000 1.8187000000 0.0887000000
-0.9996000000 4.1504000000 0.9625000000
-1.0004000000 2.2469000000 0.2379000000
-1.0005000000 1.9511000000 0.0834000000
-1.0008000000 2.6675000000 0.4517000000
-1.0012000000 1.9244000000 0.0695000000
-1.0019000000 4.1914000000 0.9398000000
-1.0023000000 2.6975000000 0.4587000000
-1.0028000000 1.7423000000 0.0473000000
-1.2405000000 5.7875000000 0.0591000000
-1.2415000000 5.4218000000 0.1018000000
-1.2423000000 1.9526000000 0.0221000000
-1.2424000000 2.9815000000 0.3989000000
-1.2437000000 3.8265000000 0.8276000000
-1.2441000000 4.0892000000 0.7722000000
-1.2451000000 5.8629000000 0.0149000000
-1.2457000000 3.3053000000 0.5575000000
-1.2460000000 3.4167000000 0.6162000000
-1.2463000000 2.1771000000 0.0558000000
-1.2470000000 5.6672000000 0.0423000000
-1.2474000000 1.9656000000 0.0248000000
-1.2478000000 2.4536000000 0.1126000000
-1.2482000000 3.4581000000 0.6354000000
-1.2488000000 3.5978000000 0.7064000000
-1.2491000000 4.0475000000 0.7908000000
-1.2498000000 2.2770000000 0.1067000000
-1.2505000000 1.9615000000 0.0158000000
-1.2511000000 2.2406000000 0.0833000000
-1.4880000000 3.5323000000 0.4545000000
-1.4916000000 5.4194000000 0.0340000000
-1.4926000000 4.5908000000 0.2989000000
-1.4941000000 3.6597000000 0.5162000000
-1.4945000000 2.8009000000 0.0790000000
-1.4949000000 4.1409000000 0.5235000000
-1.4952000000 2.7679000000 0.0616000000
-1.4957000000 5.3454000000 0.0694000000
-1.4962000000 2.8966000000 0.1276000000
-1.4967000000 3.3926000000 0.3776000000
-1.4976000000 4.4572000000 0.3634000000
-1.4980000000 4.3193000000 0.4338000000
-1.4982000000 2.7389000000 0.0461000000
-1.4989000000 3.8624000000 0.6105000000
-1.5017000000 5.0275000000 0.0686000000
-1.5024000000 3.0147000000 0.1840000000
-1.5052000000 5.4249000000 0.0135000000
-1.7409000000 3.6596000000 0.3058000000
-1.7426000000 4.7534000000 0.0701000000
-1.7434000000 4.1884000000 0.2812000000
-1.7447000000 3.3692000000 0.1512000000
-1.7451000000 4.3113000000 0.2215000000
-1.7455000000 3.2315000000 0.0757000000
-1.7462000000 3.4552000000 0.1899000000
-1.7471000000 4.1591000000 0.2917000000
-1.7480000000 3.9941000000 0.3785000000
-1.7495000000 4.3363000000 0.2039000000
-1.7504000000 4.9668000000 0.0347000000
-1.9867000000 4.3882000000 0.0453000000
-1.9920000000 4.3305000000 0.0684000000
-1.9929000000 4.5369000000 0.0324000000
-1.9947000000 4.3238000000 0.0683000000
-1.9951000000 3.6058000000 0.0432000000
-1.9976000000 3.5600000000 0.1012000000
-1.9998000000 4.5037000000 0.0385000000
