7.0104000000 4.2016000000 0.0562000000
7.0064000000 3.7938000000 0.0035000000
7.0030000000 4.0358000000 0.0330000000
6.9993000000 3.8052000000 0.0140000000
6.7608000000 4.1280000000 0.1407000000
6.7582000000 4.2412000000 0.0848000000
6.7573000000 4.6907000000 0.0346000000
6.7563000000 4.1897000000 0.1152000000
6.7554000000 3.7308000000 0.0979000000
6.7533000000 3.7559000000 0.1177000000
6.7519000000 4.5038000000 0.0478000000
6.7504000000 4.2769000000 0.0755000000
6.7464000000 4.5401000000 0.0325000000
6.5087000000 4.8212000000 0.0957000000
6.5072000000 4.0297000000 0.3439000000
6.5063000000 5.0118000000 0.0101000000
6.5057000000 4.7038000000 0.0782000000
6.5046000000 4.9222000000 0.0609000000
6.5035000000 5.1895000000 0.0036000000
6.5023000000 2.9741000000 0.0280000000
6.5016000000 3.6267000000 0.1814000000
6.5011000000 4.0087000000 0.3415000000
6.4984000000 3.4804000000 0.1134000000
6.2611000000 4.5497000000 0.3440000000
6.2590000000 4.7778000000 0.2395000000
6.2578000000 2.7294000000 0.0345000000
6.2571000000 3.1175000000 0.1392000000
6.2563000000 2.8937000000 0.1099000000
6.2561000000 3.6854000000 0.4027000000
6.2555000000 2.5128000000 0.0128000000
6.2551000000 3.6402000000 0.3827000000
6.2547000000 3.0996000000 0.1350000000
6.2539000000 2.6897000000 0.0195000000
6.2531000000 4.4414000000 0.3984000000
6.2526000000 3.9032000000 0.5067000000
6.2523000000 4.1773000000 0.5211000000
6.2517000000 4.6470000000 0.3065000000
6.2511000000 4.1991000000 0.5119000000
6.2491000000 5.3622000000 0.0535000000
6.0106000000 4.1558000000 0.7280000000
6.0095000000 4.6588000000 0.4941000000
6.0090000000 4.3620000000 0.6314000000
6.0088000000 2.6759000000 0.1390000000
6.0085000000 5.8283000000 0.0329000000
6.0078000000 4.0181000000 0.7410000000
6.0076000000 2.1818000000 0.0599000000
6.0073000000 4.5094000000 0.5629000000
6.0059000000 4.0284000000 0.7467000000
6.0053000000 4.3887000000 0.6210000000
6.0049000000 5.3248000000 0.1954000000
6.0045000000 4.1546000000 0.7266000000
6.0042000000 4.3977000000 0.6182000000
6.0038000000 4.2532000000 0.6890000000
6.0034000000 5.7893000000 0.0497000000
6.0030000000 5.6748000000 0.1062000000
6.0021000000 2.4019000000 0.0874000000
6.0015000000 5.6847000000 0.1032000000
6.0008000000 2.4348000000 0.1072000000
5.9998000000 3.4459000000 0.4960000000
5.9988000000 3.0074000000 0.2969000000
5.7682000000 6.1858000000 0.0594000000
5.7623000000 5.4847000000 0.3144000000
5.7614000000 5.6998000000 0.2142000000
5.7598000000 5.9005000000 0.1238000000
5.7593000000 3.6370000000 0.7807000000
5.7587000000 6.0961000000 0.1054000000
5.7583000000 4.6363000000 0.7059000000
5.7575000000 5.6353000000 0.2485000000
5.7571000000 4.0850000000 0.9453000000
5.7565000000 4.0746000000 0.9461000000
5.7561000000 2.0145000000 0.1038000000
5.7555000000 2.4584000000 0.2377000000
5.7550000000 4.3799000000 0.8278000000
5.7546000000 2.3141000000 0.1740000000
5.7545000000 5.6475000000 0.2433000000
5.7542000000 2.8150000000 0.4036000000
5.7540000000 5.3196000000 0.3952000000
5.7537000000 5.0971000000 0.4960000000
5.7535000000 4.6224000000 0.7199000000
5.7529000000 4.4218000000 0.8083000000
5.7524000000 6.4866000000 0.0019000000
5.7522000000 4.6078000000 0.7199000000
5.7516000000 3.7410000000 0.8282000000
5.7510000000 6.4754000000 0.0106000000
5.7500000000 4.1523000000 0.9351000000
5.7495000000 4.6640000000 0.7005000000
5.5123000000 5.7061000000 0.4055000000
5.5110000000 5.6473000000 0.4330000000
5.5095000000 4.2343000000 1.0838000000
5.5082000000 6.3562000000 0.1087000000
5.5078000000 5.9858000000 0.2811000000
5.5075000000 5.2315000000 0.6303000000
5.5073000000 3.5513000000 0.9368000000
5.5071000000 5.2929000000 0.6070000000
5.5068000000 5.3605000000 0.5739000000
5.5063000000 3.2381000000 0.7968000000
5.5059000000 1.7205000000 0.0978000000
5.5054000000 1.7186000000 0.0980000000
5.5052000000 2.8002000000 0.5931000000
5.5050000000 6.0146000000 0.2718000000
5.5046000000 6.2535000000 0.1643000000
5.5040000000 5.4758000000 0.5212000000
5.5039000000 4.3589000000 1.0363000000
5.5037000000 3.4999000000 0.9196000000
5.5035000000 1.9481000000 0.2053000000
5.5026000000 2.1013000000 0.2734000000
5.5024000000 3.3699000000 0.8615000000
5.5020000000 2.0029000000 0.2333000000
5.5015000000 5.0542000000 0.7159000000
5.5010000000 1.8834000000 0.1725000000
5.5001000000 1.2008000000 0.0102000000
5.4997000000 2.3756000000 0.3999000000
5.4993000000 4.6692000000 0.8956000000
5.4987000000 2.7124000000 0.5599000000
5.2639000000 7.1140000000 0.0347000000
5.2618000000 5.6315000000 0.6427000000
5.2612000000 7.2992000000 0.0210000000
5.2607000000 3.3343000000 1.0369000000
5.2603000000 7.1523000000 0.0199000000
5.2594000000 2.6036000000 0.6983000000
5.2590000000 4.7477000000 1.0525000000
5.2584000000 7.1943000000 0.0766000000
5.2578000000 6.7246000000 0.1491000000
5.2574000000 4.2175000000 1.3028000000
5.2570000000 3.2664000000 1.0045000000
5.2565000000 3.0136000000 0.8941000000
5.2562000000 5.6514000000 0.6327000000
5.2558000000 4.1059000000 1.3449000000
5.2555000000 4.7869000000 1.0378000000
5.2554000000 1.6102000000 0.2464000000
5.2550000000 5.6719000000 0.6332000000
5.2547000000 2.0395000000 0.4413000000
5.2542000000 1.9760000000 0.4100000000
5.2535000000 7.3231000000 0.0169000000
5.2532000000 5.4824000000 0.7209000000
5.2525000000 0.7915000000 0.0208000000
5.2518000000 5.5921000000 0.6676000000
5.2510000000 2.9642000000 0.8708000000
5.2507000000 1.4995000000 0.1983000000
5.2501000000 3.6034000000 1.1636000000
5.2483000000 1.9992000000 0.4312000000
5.2463000000 3.3246000000 1.0386000000
5.0151000000 5.3655000000 0.9594000000
5.0125000000 5.2220000000 1.0346000000
5.0104000000 5.6998000000 0.8117000000
5.0100000000 5.4810000000 0.9134000000
5.0094000000 4.8311000000 1.2085000000
5.0091000000 4.8645000000 1.1992000000
5.0085000000 7.6707000000 0.0583000000
5.0082000000 3.0035000000 1.0824000000
5.0076000000 4.2965000000 1.4578000000
5.0075000000 2.5778000000 0.8880000000
5.0071000000 5.2942000000 1.0015000000
5.0067000000 5.3870000000 0.9585000000
5.0064000000 6.4787000000 0.4557000000
5.0062000000 5.3422000000 0.9780000000
5.0060000000 5.2266000000 1.0284000000
5.0058000000 6.7108000000 0.3477000000
5.0054000000 2.9708000000 1.0713000000
5.0052000000 3.3282000000 1.2430000000
5.0048000000 2.8831000000 1.0273000000
5.0043000000 2.0126000000 0.6317000000
5.0042000000 2.2499000000 0.7407000000
5.0040000000 3.4069000000 1.2730000000
5.0036000000 5.9512000000 0.6965000000
5.0034000000 1.7147000000 0.4997000000
5.0031000000 6.4941000000 0.4519000000
5.0030000000 1.0740000000 0.1983000000
5.0026000000 7.1453000000 0.1520000000
5.0025000000 2.7689000000 0.9804000000
5.0018000000 2.0612000000 0.6543000000
5.0013000000 0.6429000000 0.0816000000
5.0009000000 0.7056000000 0.1066000000
5.0005000000 1.2369000000 0.2762000000
5.0001000000 7.0132000000 0.2185000000
4.9990000000 6.7721000000 0.3345000000
4.9979000000 0.6413000000 0.0798000000
4.9963000000 1.9515000000 0.6088000000
4.7636000000 4.2401000000 1.6850000000
4.7618000000 1.0654000000 0.3966000000
4.7608000000 6.7146000000 0.5493000000
4.7603000000 2.1710000000 0.8920000000
4.7598000000 0.4037000000 0.0833000000
4.7590000000 6.2970000000 0.7333000000
4.7588000000 5.9444000000 0.8975000000
4.7584000000 7.1536000000 0.3455000000
4.7582000000 7.5324000000 0.1716000000
4.7579000000 4.0125000000 1.7327000000
4.7574000000 5.1074000000 1.2920000000
4.7570000000 4.4513000000 1.5883000000
4.7566000000 4.0740000000 1.7450000000
4.7563000000 0.9652000000 0.3464000000
4.7560000000 4.4236000000 1.5996000000
4.7555000000 0.7531000000 0.2487000000
4.7553000000 5.0747000000 1.3043000000
4.7551000000 8.0564000000 0.0752000000
4.7548000000 7.2012000000 0.3215000000
4.7545000000 4.3905000000 1.6217000000
4.7541000000 1.9294000000 0.7944000000
4.7539000000 3.8474000000 1.6795000000
4.7536000000 2.0879000000 0.8780000000
4.7531000000 1.5945000000 0.6348000000
4.7528000000 4.7425000000 1.4595000000
4.7525000000 4.0949000000 1.7397000000
4.7523000000 3.3324000000 1.4360000000
4.7520000000 4.1189000000 1.7469000000
4.7515000000 1.8801000000 0.7721000000
4.7511000000 1.1476000000 0.4320000000
4.7507000000 0.1854000000 0.0692000000
4.7498000000 0.4864000000 0.1327000000
4.7494000000 2.3025000000 0.9671000000
4.7488000000 3.2715000000 1.4132000000
4.7481000000 3.0971000000 1.3374000000
4.7467000000 0.0085000000 0.0607000000
4.5133000000 2.9335000000 1.4510000000
4.5118000000 7.7374000000 0.2536000000
4.5110000000 3.2094000000 1.5766000000
4.5099000000 4.2829000000 1.8591000000
4.5088000000 4.1733000000 1.9089000000
4.5086000000 7.6531000000 0.3158000000
4.5084000000 6.7876000000 0.7147000000
4.5080000000 2.5150000000 1.2575000000
4.5073000000 7.3730000000 0.4440000000
4.5072000000 7.5309000000 0.3661000000
4.5067000000 6.8376000000 0.6900000000
4.5062000000 3.1499000000 1.5518000000
4.5060000000 7.1921000000 0.5224000000
4.5058000000 4.4145000000 1.8041000000
4.5055000000 5.0754000000 1.5034000000
4.5054000000 2.1595000000 1.0924000000
4.5053000000 3.9691000000 1.9331000000
4.5048000000 5.2304000000 1.4320000000
4.5046000000 5.4967000000 1.3139000000
4.5043000000 6.2319000000 0.9688000000
4.5041000000 0.2488000000 0.1719000000
4.5039000000 1.8894000000 0.9770000000
4.5037000000 6.0372000000 1.0611000000
4.5035000000 2.1081000000 1.0771000000
4.5032000000 3.4062000000 1.6768000000
4.5030000000 6.9269000000 0.6546000000
4.5027000000 2.8950000000 1.4406000000
4.5026000000 4.9512000000 1.5606000000
4.5020000000 7.0316000000 0.6063000000
4.5020000000 5.4364000000 1.3385000000
4.5016000000 3.6604000000 1.7887000000
4.5013000000 4.1222000000 1.9439000000
4.5005000000 1.7150000000 0.8907000000
4.5000000000 6.8109000000 0.7106000000
4.4997000000 4.7506000000 1.6587000000
4.4994000000 3.5936000000 1.7597000000
4.4987000000 0.6417000000 0.4055000000
4.4969000000 5.6946000000 1.2244000000
4.4965000000 4.2257000000 1.9022000000
4.2631000000 5.1713000000 1.6536000000
4.2613000000 2.5696000000 1.4808000000
4.2603000000 2.2828000000 1.3469000000
4.2598000000 1.4293000000 0.9524000000
4.2588000000 3.8563000000 2.0761000000
4.2583000000 5.4874000000 1.5097000000
4.2580000000 5.2411000000 1.6240000000
4.2578000000 6.9709000000 0.8287000000
4.2574000000 2.9546000000 1.6656000000
4.2570000000 6.4585000000 1.0641000000
4.2568000000 7.1021000000 0.7615000000
4.2565000000 6.9484000000 0.8414000000
4.2564000000 6.5615000000 1.0172000000
4.2560000000 2.4139000000 1.4135000000
4.2557000000 2.8926000000 1.6334000000
4.2553000000 6.0333000000 1.2553000000
4.2551000000 1.5187000000 0.9990000000
4.2548000000 6.1325000000 1.2102000000
4.2546000000 4.6737000000 1.8866000000
4.2544000000 6.6872000000 0.9615000000
4.2540000000 0.5838000000 0.5052000000
4.2538000000 1.3397000000 0.9188000000
4.2535000000 6.7143000000 0.9465000000
4.2534000000 7.7100000000 0.3367000000
4.2533000000 0.3926000000 0.3205000000
4.2530000000 5.0614000000 1.7071000000
4.2528000000 6.0306000000 1.2692000000
4.2522000000 1.6323000000 1.0601000000
4.2520000000 7.3777000000 0.6252000000
4.2518000000 4.5370000000 1.9563000000
4.2514000000 2.3743000000 1.3976000000
4.2513000000 3.4548000000 1.8958000000
4.2508000000 0.0563000000 0.0870000000
4.2505000000 2.5040000000 1.4604000000
4.2501000000 1.1569000000 0.8382000000
4.2498000000 3.2111000000 1.7837000000
4.2490000000 1.8194000000 1.1484000000
4.2488000000 6.3035000000 1.1453000000
4.2477000000 0.5286000000 0.4512000000
4.2463000000 3.9583000000 2.1306000000
4.0145000000 7.8363000000 0.2185000000
4.0120000000 6.2603000000 1.3531000000
4.0095000000 5.0944000000 1.8855000000
4.0092000000 3.9423000000 2.3107000000
4.0087000000 7.6527000000 0.3896000000
4.0085000000 0.5348000000 0.4479000000
4.0080000000 0.8937000000 0.7881000000
4.0077000000 0.1295000000 0.0787000000
4.0075000000 6.2818000000 1.3470000000
4.0072000000 6.1232000000 1.4190000000
4.0067000000 1.9920000000 1.4170000000
4.0065000000 0.3391000000 0.2726000000
4.0063000000 5.8483000000 1.5443000000
4.0061000000 6.8637000000 1.0639000000
4.0059000000 0.9092000000 0.7982000000
4.0055000000 0.2669000000 0.2090000000
4.0053000000 3.3362000000 2.0368000000
4.0051000000 1.3376000000 1.1189000000
4.0048000000 2.3264000000 1.5738000000
4.0045000000 1.5785000000 1.2227000000
4.0042000000 4.4280000000 2.2010000000
4.0041000000 3.8497000000 2.2713000000
4.0039000000 5.5836000000 1.6694000000
4.0038000000 6.9269000000 1.0339000000
4.0037000000 5.5505000000 1.6850000000
4.0034000000 4.8963000000 1.9880000000
4.0032000000 2.6266000000 1.7146000000
4.0029000000 5.6901000000 1.6208000000
4.0027000000 4.4456000000 2.1914000000
4.0025000000 4.0874000000 2.3397000000
4.0023000000 1.2877000000 1.0857000000
4.0018000000 0.9746000000 0.8585000000
4.0015000000 1.1796000000 1.0327000000
4.0011000000 3.3017000000 2.0288000000
4.0005000000 1.3553000000 1.1281000000
3.9997000000 0.6260000000 0.5389000000
3.9994000000 4.5279000000 2.1575000000
3.9984000000 6.3069000000 1.3383000000
3.9980000000 0.2752000000 0.2155000000
3.9974000000 1.2170000000 1.0570000000
3.9968000000 0.3134000000 0.2474000000
3.9948000000 0.3852000000 0.3109000000
3.7636000000 5.9201000000 1.7105000000
3.7617000000 4.5646000000 2.3310000000
3.7610000000 2.4086000000 1.8073000000
3.7604000000 8.0013000000 0.1366000000
3.7600000000 5.1068000000 2.0851000000
3.7597000000 1.8634000000 1.5578000000
3.7590000000 6.7926000000 1.1817000000
3.7586000000 5.7081000000 1.8055000000
3.7582000000 2.8061000000 1.9919000000
3.7580000000 8.0224000000 0.1261000000
3.7576000000 2.8091000000 1.9947000000
3.7573000000 3.8122000000 2.4551000000
3.7572000000 3.6425000000 2.3740000000
3.7568000000 4.4852000000 2.3708000000
3.7565000000 1.6644000000 1.5234000000
3.7564000000 0.1113000000 0.1387000000
3.7561000000 6.1621000000 1.5968000000
3.7559000000 5.8574000000 1.7391000000
3.7554000000 6.7971000000 1.1753000000
3.7551000000 7.9108000000 0.1562000000
3.7548000000 0.3653000000 0.2975000000
3.7546000000 5.9360000000 1.7046000000
3.7543000000 5.3457000000 1.9776000000
3.7541000000 4.3687000000 2.4304000000
3.7540000000 0.3487000000 0.2838000000
3.7538000000 5.1115000000 2.0866000000
3.7535000000 0.0254000000 0.0560000000
3.7533000000 3.3623000000 2.2525000000
3.7531000000 1.5084000000 1.3356000000
3.7529000000 2.0283000000 1.6377000000
3.7524000000 4.7848000000 2.2382000000
3.7520000000 1.3217000000 1.1776000000
3.7518000000 5.9198000000 1.7171000000
3.7515000000 4.5332000000 2.3533000000
3.7511000000 4.4495000000 2.3886000000
3.7505000000 3.1997000000 2.1812000000
3.7503000000 4.0229000000 2.5403000000
3.7499000000 2.8169000000 2.0023000000
3.7494000000 4.9318000000 2.1727000000
3.7485000000 2.4135000000 1.8203000000
3.7457000000 0.1773000000 0.1235000000
3.5156000000 3.3557000000 2.4345000000
3.5118000000 5.7524000000 1.9821000000
3.5099000000 5.4152000000 2.1394000000
3.5096000000 6.4237000000 1.5175000000
3.5091000000 4.8512000000 2.3997000000
3.5088000000 4.8110000000 2.4218000000
3.5084000000 1.5122000000 1.3556000000
3.5079000000 0.2228000000 0.1636000000
3.5077000000 7.4513000000 0.5668000000
3.5072000000 5.5945000000 2.0602000000
3.5068000000 3.8945000000 2.6978000000
3.5066000000 4.7940000000 2.4278000000
3.5065000000 7.1520000000 0.8491000000
3.5061000000 3.6711000000 2.5909000000
3.5059000000 0.6736000000 0.5828000000
3.5055000000 0.5635000000 0.4742000000
3.5053000000 4.6404000000 2.5036000000
3.5051000000 7.6825000000 0.3631000000
3.5047000000 2.9195000000 2.2436000000
3.5043000000 2.7615000000 2.1699000000
3.5042000000 6.4038000000 1.5332000000
3.5037000000 4.8804000000 2.3927000000
3.5035000000 6.8434000000 1.1357000000
3.5033000000 5.7807000000 1.9776000000
3.5032000000 7.3481000000 0.6684000000
3.5026000000 3.2666000000 2.4060000000
3.5023000000 0.5983000000 0.5105000000
3.5018000000 5.1278000000 2.2812000000
3.5015000000 0.0187000000 0.0526000000
3.5012000000 7.4390000000 0.5842000000
3.5008000000 1.6634000000 1.4927000000
3.5003000000 3.8884000000 2.6977000000
3.5000000000 4.8275000000 2.4151000000
3.4998000000 0.9401000000 0.8311000000
3.4995000000 1.7447000000 1.5635000000
3.4989000000 0.8174000000 0.7121000000
3.4979000000 0.1931000000 0.1357000000
3.2654000000 7.4200000000 0.5964000000
3.2616000000 4.8484000000 2.6008000000
3.2606000000 5.9336000000 1.9682000000
3.2595000000 4.5450000000 2.7405000000
3.2592000000 3.2053000000 2.5733000000
3.2587000000 7.7620000000 0.2856000000
3.2583000000 4.5162000000 2.7581000000
3.2578000000 7.8525000000 0.2039000000
3.2575000000 3.9101000000 2.9011000000
3.2572000000 1.9947000000 1.7994000000
3.2569000000 3.7660000000 2.8341000000
3.2566000000 4.6983000000 2.6767000000
3.2565000000 6.9384000000 1.0496000000
3.2564000000 0.8690000000 0.7635000000
3.2559000000 1.2607000000 1.1238000000
3.2555000000 1.8388000000 1.6550000000
3.2553000000 8.0371000000 0.1109000000
3.2551000000 1.7075000000 1.5294000000
3.2550000000 3.9954000000 2.9393000000
3.2545000000 4.3493000000 2.8344000000
3.2543000000 1.8092000000 1.6311000000
3.2542000000 3.5566000000 2.7358000000
3.2539000000 7.7409000000 0.3071000000
3.2537000000 4.3183000000 2.8470000000
3.2535000000 5.0225000000 2.5247000000
3.2533000000 1.5464000000 1.3836000000
3.2531000000 1.9939000000 1.7976000000
3.2528000000 1.8454000000 1.6627000000
3.2525000000 0.1380000000 0.0948000000
3.2524000000 4.4940000000 2.7732000000
3.2521000000 1.9739000000 1.7838000000
3.2519000000 7.3434000000 0.6760000000
3.2516000000 1.6866000000 1.5128000000
3.2512000000 4.1162000000 2.9443000000
3.2505000000 1.9789000000 1.7872000000
3.2502000000 6.4050000000 1.5356000000
3.2497000000 1.5030000000 1.3455000000
3.2483000000 1.3838000000 1.2427000000
3.2474000000 2.6787000000 2.3398000000
3.2460000000 0.8884000000 0.7785000000
3.2443000000 3.7829000000 2.8506000000
3.0126000000 4.9985000000 2.7269000000
3.0110000000 6.1311000000 1.7850000000
3.0101000000 3.7705000000 3.0326000000
3.0095000000 5.9433000000 1.9574000000
3.0087000000 7.9805000000 0.0828000000
3.0083000000 0.9069000000 0.7910000000
3.0080000000 5.3290000000 2.5161000000
3.0075000000 4.3490000000 3.0310000000
3.0071000000 5.2856000000 2.5516000000
3.0068000000 0.9037000000 0.7915000000
3.0065000000 6.3770000000 1.5640000000
3.0063000000 2.0813000000 1.8737000000
3.0060000000 4.7427000000 2.8509000000
3.0056000000 5.7992000000 2.0853000000
3.0054000000 5.6226000000 2.2576000000
3.0053000000 2.2352000000 2.0204000000
3.0051000000 4.9007000000 2.7833000000
3.0049000000 4.5092000000 2.9615000000
3.0046000000 4.9081000000 2.7720000000
3.0044000000 7.0522000000 0.9387000000
3.0043000000 2.3248000000 2.1015000000
3.0040000000 1.6786000000 1.5061000000
3.0039000000 2.0917000000 1.8871000000
3.0036000000 3.2879000000 2.8133000000
3.0033000000 0.2583000000 0.2017000000
3.0031000000 4.2472000000 3.0819000000
3.0029000000 4.8948000000 2.7817000000
3.0027000000 6.8540000000 1.1172000000
3.0022000000 0.7362000000 0.6426000000
3.0019000000 2.0847000000 1.8754000000
3.0015000000 6.9381000000 1.0482000000
3.0015000000 2.9716000000 2.7320000000
3.0007000000 0.0688000000 0.0988000000
3.0001000000 1.3166000000 1.1832000000
2.9995000000 1.3005000000 1.1586000000
2.9986000000 4.4979000000 2.9725000000
2.9983000000 5.5366000000 2.3349000000
2.9967000000 2.6836000000 2.4327000000
2.7620000000 6.0698000000 1.8405000000
2.7613000000 6.7822000000 1.1876000000
2.7603000000 8.1310000000 0.0201000000
2.7596000000 7.0984000000 0.8986000000
2.7589000000 0.6806000000 0.5868000000
2.7587000000 7.5663000000 0.4658000000
2.7579000000 5.9183000000 1.9855000000
2.7576000000 0.0232000000 0.0638000000
2.7573000000 1.8621000000 1.6733000000
2.7571000000 5.0330000000 2.8026000000
2.7569000000 1.7892000000 1.6122000000
2.7568000000 6.8450000000 1.1318000000
2.7565000000 5.1747000000 2.6692000000
2.7561000000 4.5109000000 3.1520000000
2.7558000000 4.7964000000 3.0057000000
2.7556000000 0.6961000000 0.6005000000
2.7554000000 6.7323000000 1.2330000000
2.7551000000 2.8537000000 2.5834000000
2.7549000000 4.2812000000 3.2657000000
2.7548000000 1.2260000000 1.0927000000
2.7545000000 7.2763000000 0.7320000000
2.7543000000 6.2374000000 1.6898000000
2.7542000000 3.8633000000 3.2783000000
2.7540000000 0.7174000000 0.6183000000
2.7538000000 0.1315000000 0.0849000000
2.7536000000 2.7345000000 2.4781000000
2.7535000000 8.1032000000 0.0440000000
2.7533000000 6.6491000000 1.3119000000
2.7531000000 4.5705000000 3.1348000000
2.7529000000 1.6449000000 1.4717000000
2.7525000000 3.1879000000 2.8945000000
2.7521000000 3.9814000000 3.3395000000
2.7518000000 4.3534000000 3.2343000000
2.7515000000 4.9752000000 2.8530000000
2.7513000000 3.2397000000 2.9384000000
2.7511000000 2.1819000000 1.9687000000
2.7508000000 0.9739000000 0.8565000000
2.7505000000 4.0351000000 3.3536000000
2.7503000000 6.0392000000 1.8750000000
2.7494000000 4.0223000000 3.3411000000
2.7490000000 6.6074000000 1.3471000000
2.7471000000 3.8475000000 3.2753000000
2.5146000000 8.0139000000 0.1231000000
2.5114000000 7.4867000000 0.5395000000
2.5101000000 8.1528000000 0.0731000000
2.5099000000 0.8584000000 0.7527000000
2.5090000000 8.1558000000 0.0756000000
2.5086000000 0.3257000000 0.2588000000
2.5081000000 5.8672000000 2.0300000000
2.5076000000 0.0794000000 0.1146000000
2.5073000000 7.8637000000 0.1953000000
2.5070000000 8.0053000000 0.1388000000
2.5066000000 4.9709000000 2.8561000000
2.5063000000 6.3125000000 1.6227000000
2.5065000000 4.9633000000 2.8612000000
2.5060000000 1.8980000000 1.7036000000
2.5058000000 4.6993000000 3.1118000000
2.5053000000 7.2804000000 0.7242000000
2.5047000000 3.8713000000 3.4715000000
2.5046000000 1.8033000000 1.6205000000
2.5041000000 3.7621000000 3.4858000000
2.5038000000 3.1167000000 2.8359000000
2.5037000000 5.1537000000 2.6865000000
2.5033000000 0.1771000000 0.1219000000
2.5030000000 2.7056000000 2.4546000000
2.5028000000 3.6056000000 3.2842000000
2.5025000000 1.6726000000 1.5025000000
2.5023000000 6.9200000000 1.0618000000
2.5021000000 0.0215000000 0.0574000000
2.5018000000 1.8047000000 1.6215000000
2.5017000000 7.1291000000 0.8668000000
2.5015000000 6.6376000000 1.3178000000
2.5012000000 4.3253000000 3.4308000000
2.5009000000 7.9391000000 0.1249000000
2.5006000000 0.2490000000 0.1900000000
2.5001000000 3.8248000000 3.5250000000
2.4995000000 2.2688000000 2.0502000000
2.4989000000 3.1683000000 2.8773000000
2.4979000000 3.1516000000 2.8642000000
2.4969000000 1.6292000000 1.4626000000
2.2631000000 7.1335000000 0.8660000000
2.2621000000 7.4030000000 0.6187000000
2.2611000000 1.9999000000 1.7986000000
2.2605000000 4.8017000000 3.0144000000
2.2599000000 5.8341000000 2.0615000000
2.2594000000 5.5083000000 2.3613000000
2.2589000000 6.2256000000 1.7024000000
2.2587000000 4.1207000000 3.6409000000
2.2585000000 6.7699000000 1.2002000000
2.2580000000 6.9735000000 1.0143000000
2.2579000000 4.8390000000 2.9786000000
2.2575000000 6.9983000000 0.9904000000
2.2570000000 5.3467000000 2.5036000000
2.2569000000 5.1008000000 2.7417000000
2.2566000000 4.2939000000 3.4686000000
2.2564000000 6.2886000000 1.6447000000
2.2560000000 6.6137000000 1.3358000000
2.2558000000 2.3636000000 2.1426000000
2.2553000000 2.0349000000 1.8303000000
2.2551000000 4.5897000000 3.2094000000
2.2548000000 4.9180000000 2.9037000000
2.2546000000 1.4056000000 1.2542000000
2.2545000000 8.0198000000 0.1252000000
2.2542000000 3.9950000000 3.6474000000
2.2540000000 3.6150000000 3.2869000000
2.2537000000 1.3354000000 1.1944000000
2.2535000000 2.2885000000 2.0669000000
2.2531000000 6.2418000000 1.6835000000
2.2529000000 5.2000000000 2.6482000000
2.2526000000 2.4859000000 2.2516000000
2.2525000000 1.8046000000 1.6185000000
2.2523000000 4.1885000000 3.5512000000
2.2517000000 6.8962000000 1.0839000000
2.2516000000 3.2564000000 2.9542000000
2.2513000000 1.5003000000 1.3415000000
2.2508000000 1.5107000000 1.3492000000
2.2505000000 5.0085000000 2.8202000000
2.2499000000 2.2686000000 2.0456000000
2.2495000000 6.2776000000 1.6544000000
2.2491000000 6.9159000000 1.0632000000
2.2490000000 6.6289000000 1.3305000000
2.2485000000 5.8423000000 2.0556000000
2.2478000000 3.4575000000 3.1416000000
2.2469000000 1.7128000000 1.5387000000
2.2456000000 2.9930000000 2.7183000000
2.0139000000 7.8245000000 0.2294000000
2.0123000000 6.8228000000 1.1529000000
2.0109000000 1.0202000000 0.9027000000
2.0104000000 5.8560000000 2.0387000000
2.0099000000 2.7532000000 2.4972000000
2.0097000000 1.9287000000 1.7384000000
2.0093000000 7.9323000000 0.1299000000
2.0086000000 1.5589000000 1.4013000000
2.0082000000 3.0041000000 2.7252000000
2.0076000000 5.9324000000 1.9773000000
2.0074000000 4.4960000000 3.2321000000
2.0071000000 7.6614000000 0.3823000000
2.0069000000 7.3233000000 0.6884000000
2.0066000000 5.7559000000 2.1342000000
2.0063000000 5.1581000000 2.6828000000
2.0061000000 6.5295000000 1.4225000000
2.0058000000 2.8590000000 2.5942000000
2.0055000000 6.8412000000 1.1349000000
2.0054000000 3.4709000000 3.2165000000
2.0051000000 0.6834000000 0.5898000000
2.0050000000 7.0626000000 0.9330000000
2.0048000000 3.1652000000 2.8738000000
2.0047000000 2.6917000000 2.4392000000
2.0044000000 5.3897000000 2.4696000000
2.0042000000 4.0024000000 3.3967000000
2.0041000000 4.8119000000 3.0049000000
2.0036000000 0.9495000000 0.8338000000
2.0035000000 0.5599000000 0.4687000000
2.0030000000 5.5646000000 2.3134000000
2.0028000000 4.1504000000 3.3832000000
2.0026000000 3.4736000000 3.2198000000
2.0024000000 4.4687000000 3.2398000000
2.0019000000 2.1188000000 1.9181000000
2.0017000000 2.1864000000 1.9738000000
2.0015000000 2.8758000000 2.6124000000
2.0010000000 8.0531000000 0.0835000000
2.0008000000 3.4166000000 3.1661000000
2.0003000000 5.2714000000 2.5810000000
1.9999000000 0.7175000000 0.6203000000
1.9991000000 2.9632000000 2.6943000000
1.9985000000 2.2527000000 2.0346000000
1.9968000000 2.6952000000 2.4382000000
1.7623000000 8.0902000000 0.0629000000
1.7616000000 7.8691000000 0.1905000000
1.7609000000 2.1897000000 1.9814000000
1.7603000000 4.0200000000 3.2000000000
1.7597000000 6.4684000000 1.4806000000
1.7593000000 2.3096000000 2.0843000000
1.7590000000 3.9737000000 3.1963000000
1.7587000000 5.3621000000 2.4955000000
1.7584000000 7.2547000000 0.7521000000
1.7577000000 7.7824000000 0.2688000000
1.7574000000 4.8927000000 2.8466000000
1.7572000000 5.8212000000 2.0803000000
1.7567000000 5.3346000000 2.5264000000
1.7566000000 3.0890000000 2.7748000000
1.7560000000 4.3303000000 3.1073000000
1.7557000000 0.1659000000 0.1128000000
1.7555000000 7.7449000000 0.3014000000
1.7552000000 6.4612000000 1.4757000000
1.7548000000 2.3237000000 2.1046000000
1.7545000000 3.3098000000 2.8867000000
1.7544000000 0.3258000000 0.2549000000
1.7539000000 4.6341000000 2.9653000000
1.7538000000 5.7239000000 2.1617000000
1.7534000000 3.4265000000 2.9348000000
1.7533000000 2.4208000000 2.1908000000
1.7530000000 5.8353000000 2.0591000000
1.7529000000 1.9274000000 1.7385000000
1.7528000000 0.7493000000 0.6542000000
1.7522000000 1.7585000000 1.5804000000
1.7519000000 6.0100000000 1.9023000000
1.7515000000 0.5139000000 0.4365000000
1.7509000000 0.4685000000 0.3923000000
1.7507000000 4.4740000000 3.0254000000
1.7503000000 0.6430000000 0.5520000000
1.7500000000 0.9825000000 0.8655000000
1.7497000000 3.5454000000 2.9916000000
1.7495000000 2.3089000000 2.0882000000
1.7485000000 2.0885000000 1.8871000000
1.7478000000 1.8234000000 1.6433000000
1.7462000000 1.6252000000 1.4583000000
1.5126000000 5.1154000000 2.5474000000
1.5116000000 6.8258000000 1.1502000000
1.5108000000 7.6967000000 0.3491000000
1.5100000000 6.9704000000 1.0134000000
1.5094000000 6.8884000000 1.0848000000
1.5090000000 4.8068000000 2.6881000000
1.5084000000 2.9888000000 2.5399000000
1.5075000000 1.0090000000 0.8866000000
1.5069000000 5.8978000000 1.9992000000
1.5068000000 1.5474000000 1.3872000000
1.5064000000 1.8673000000 1.6783000000
1.5062000000 2.6949000000 2.4664000000
1.5059000000 7.3290000000 0.6851000000
1.5058000000 1.5442000000 1.3787000000
1.5055000000 3.2793000000 2.6674000000
1.5053000000 3.7891000000 2.9024000000
1.5051000000 3.0424000000 2.5631000000
1.5049000000 4.5134000000 2.8168000000
1.5047000000 1.1000000000 0.9723000000
1.5044000000 1.1055000000 0.9792000000
1.5043000000 7.5675000000 0.4656000000
1.5041000000 3.8455000000 2.9299000000
1.5038000000 2.8833000000 2.4860000000
1.5035000000 4.7327000000 2.7196000000
1.5033000000 2.4748000000 2.2350000000
1.5027000000 0.0500000000 0.0785000000
1.5025000000 2.8314000000 2.4619000000
1.5022000000 1.8253000000 1.6438000000
1.5020000000 0.8724000000 0.7634000000
1.5017000000 5.5896000000 2.2646000000
1.5010000000 1.2501000000 1.1060000000
1.5007000000 3.3148000000 2.6861000000
1.5001000000 3.0185000000 2.5462000000
1.4995000000 1.7897000000 1.6105000000
1.4991000000 0.8822000000 0.7752000000
1.4979000000 3.6935000000 2.8590000000
1.4973000000 1.4195000000 1.2680000000
1.4965000000 1.0360000000 0.9148000000
1.4943000000 0.9846000000 0.8739000000
1.2634000000 7.8771000000 0.1799000000
1.2623000000 7.0459000000 0.9445000000
1.2615000000 3.7097000000 2.6822000000
1.2599000000 3.9653000000 2.7956000000
1.2596000000 2.7874000000 2.2475000000
1.2594000000 0.4021000000 0.3312000000
1.2590000000 2.5826000000 2.1553000000
1.2580000000 8.0340000000 0.1126000000
1.2577000000 4.7279000000 2.5261000000
1.2575000000 5.5159000000 2.1639000000
1.2573000000 2.9910000000 2.3440000000
1.2567000000 4.8470000000 2.4681000000
1.2564000000 3.8558000000 2.7378000000
1.2560000000 1.7307000000 1.5583000000
1.2558000000 2.1236000000 1.9746000000
1.2555000000 1.1409000000 1.0135000000
1.2553000000 1.0447000000 0.9268000000
1.2552000000 6.6286000000 1.3282000000
1.2549000000 6.4909000000 1.4556000000
1.2545000000 6.6916000000 1.2694000000
1.2543000000 4.4499000000 2.6497000000
1.2539000000 4.6404000000 2.5593000000
1.2536000000 1.7813000000 1.5957000000
1.2535000000 0.1546000000 0.1035000000
1.2533000000 2.4298000000 2.0805000000
1.2531000000 1.5779000000 1.4130000000
1.2529000000 4.8930000000 2.4481000000
1.2527000000 2.7390000000 2.2241000000
1.2525000000 3.8031000000 2.7108000000
1.2521000000 4.3940000000 2.6726000000
1.2519000000 2.6092000000 2.1600000000
1.2516000000 2.5182000000 2.1160000000
1.2515000000 6.0733000000 1.8434000000
1.2513000000 5.0164000000 2.3894000000
1.2510000000 2.7149000000 2.2162000000
1.2506000000 2.5179000000 2.1145000000
1.2502000000 1.1627000000 1.0270000000
1.2498000000 6.1755000000 1.7450000000
1.2493000000 6.5538000000 1.4011000000
1.2489000000 5.3954000000 2.2093000000
1.2484000000 1.3816000000 1.2373000000
1.2482000000 4.1573000000 2.7810000000
1.2478000000 2.2202000000 1.9657000000
1.2461000000 0.8546000000 0.7486000000
1.0139000000 6.6055000000 1.3531000000
1.0120000000 5.4202000000 2.0100000000
1.0113000000 5.8498000000 1.8168000000
1.0103000000 2.0494000000 1.7159000000
1.0093000000 1.3260000000 1.1835000000
1.0090000000 5.3815000000 2.0276000000
1.0080000000 4.6709000000 2.3549000000
1.0077000000 5.5722000000 1.9375000000
1.0073000000 6.2271000000 1.6325000000
1.0067000000 4.9514000000 2.2233000000
1.0061000000 5.4628000000 1.9839000000
1.0059000000 7.0677000000 0.9307000000
1.0058000000 0.0797000000 0.1084000000
1.0055000000 4.5439000000 2.4068000000
1.0053000000 0.4077000000 0.3332000000
1.0051000000 0.0615000000 0.0908000000
1.0050000000 3.6635000000 2.4493000000
1.0048000000 2.9484000000 2.1231000000
1.0046000000 1.3973000000 1.2488000000
1.0043000000 0.0140000000 0.0493000000
1.0040000000 4.7131000000 2.3287000000
1.0038000000 7.3272000000 0.6916000000
1.0035000000 2.5981000000 1.9590000000
1.0033000000 1.9198000000 1.6471000000
1.0030000000 2.4025000000 1.8612000000
1.0028000000 5.0270000000 2.1818000000
1.0026000000 3.2413000000 2.2525000000
1.0023000000 5.0063000000 2.1925000000
1.0021000000 2.0685000000 1.7053000000
1.0016000000 1.1801000000 1.0478000000
1.0014000000 7.3046000000 0.7114000000
1.0011000000 4.9783000000 2.2036000000
1.0008000000 4.2283000000 2.5484000000
1.0001000000 0.6375000000 0.5443000000
1.0000000000 2.6645000000 1.9856000000
0.9995000000 0.2698000000 0.2094000000
0.9990000000 0.3709000000 0.2999000000
0.9985000000 7.4419000000 0.5809000000
0.9978000000 2.2092000000 1.7737000000
0.9934000000 2.2143000000 1.7761000000
0.7609000000 8.0265000000 0.1166000000
0.7598000000 4.0084000000 2.3997000000
0.7593000000 6.4592000000 1.3277000000
0.7589000000 3.5632000000 2.2067000000
0.7584000000 7.7948000000 0.2584000000
0.7580000000 5.7216000000 1.6686000000
0.7575000000 1.8649000000 1.4216000000
0.7569000000 3.9238000000 2.3690000000
0.7568000000 3.9146000000 2.3706000000
0.7564000000 6.7020000000 1.2057000000
0.7561000000 5.9550000000 1.5613000000
0.7560000000 6.3185000000 1.3950000000
0.7558000000 7.6765000000 0.3637000000
0.7555000000 4.5688000000 2.1980000000
0.7554000000 4.8907000000 2.0468000000
0.7551000000 6.6038000000 1.2590000000
0.7549000000 0.4940000000 0.4178000000
0.7548000000 0.0847000000 0.1120000000
0.7546000000 7.7968000000 0.2514000000
0.7543000000 4.5160000000 2.2170000000
0.7541000000 0.4406000000 0.3657000000
0.7539000000 6.4405000000 1.3342000000
0.7534000000 5.0016000000 1.9968000000
0.7532000000 3.7590000000 2.2938000000
0.7530000000 4.5186000000 2.2206000000
0.7528000000 1.7920000000 1.3879000000
0.7525000000 5.1156000000 1.9447000000
0.7519000000 3.6548000000 2.2420000000
0.7514000000 0.7457000000 0.6435000000
0.7509000000 4.7678000000 2.1062000000
0.7504000000 5.0061000000 1.9912000000
0.7497000000 7.8488000000 0.2077000000
0.7487000000 4.2250000000 2.3459000000
0.7459000000 4.4792000000 2.2313000000
0.7455000000 0.2053000000 0.1510000000
0.5120000000 7.7972000000 0.2497000000
0.5110000000 8.0058000000 0.1347000000
0.5103000000 2.5171000000 1.5239000000
0.5094000000 2.1637000000 1.3660000000
0.5082000000 3.4932000000 1.9734000000
0.5079000000 3.2361000000 1.8509000000
0.5074000000 4.0797000000 2.2086000000
0.5070000000 8.0280000000 0.1092000000
0.5069000000 1.0173000000 0.8409000000
0.5068000000 3.4233000000 1.9443000000
0.5065000000 8.0859000000 0.0633000000
0.5063000000 3.9126000000 2.1666000000
0.5061000000 8.0039000000 0.1389000000
0.5059000000 3.4196000000 1.9406000000
0.5056000000 1.1889000000 0.9120000000
0.5054000000 7.0129000000 0.8721000000
0.5051000000 1.4620000000 1.0434000000
0.5048000000 4.9263000000 1.8330000000
0.5044000000 2.1167000000 1.3406000000
0.5041000000 4.4709000000 2.0441000000
0.5040000000 8.1600000000 0.0663000000
0.5037000000 0.2851000000 0.2243000000
0.5036000000 6.8253000000 0.9491000000
0.5034000000 1.2616000000 0.9489000000
0.5031000000 3.6678000000 2.0529000000
0.5029000000 7.8563000000 0.2053000000
0.5026000000 0.3160000000 0.2517000000
0.5022000000 4.3146000000 2.1118000000
0.5020000000 2.7223000000 1.6145000000
0.5016000000 7.3266000000 0.6751000000
0.5013000000 0.5723000000 0.4840000000
0.5009000000 7.0399000000 0.8531000000
0.4999000000 0.6526000000 0.5651000000
0.4995000000 7.2863000000 0.7125000000
0.4991000000 3.8979000000 2.1537000000
0.4989000000 0.7173000000 0.6238000000
0.4980000000 1.3127000000 0.9627000000
0.4972000000 2.0781000000 1.3055000000
0.4943000000 0.4807000000 0.4067000000
0.2622000000 8.1186000000 0.0357000000
0.2610000000 7.1913000000 0.5990000000
0.2598000000 6.8979000000 0.7233000000
0.2595000000 5.5156000000 1.3688000000
0.2592000000 7.1364000000 0.6169000000
0.2587000000 7.8095000000 0.2444000000
0.2581000000 0.5362000000 0.3995000000
0.2575000000 2.8530000000 1.4819000000
0.2570000000 0.0852000000 0.1148000000
0.2569000000 5.9796000000 1.1491000000
0.2567000000 4.6856000000 1.7470000000
0.2561000000 6.1933000000 1.0536000000
0.2558000000 7.5605000000 0.4162000000
0.2555000000 1.9365000000 1.0596000000
0.2553000000 3.5476000000 1.7974000000
0.2552000000 1.1855000000 0.7104000000
0.2549000000 0.0539000000 0.0879000000
0.2548000000 0.4311000000 0.3446000000
0.2546000000 1.5019000000 0.8607000000
0.2544000000 4.9086000000 1.6424000000
0.2541000000 2.2151000000 1.1790000000
0.2538000000 7.1489000000 0.6058000000
0.2534000000 5.0356000000 1.5821000000
0.2532000000 6.6851000000 0.8225000000
0.2530000000 3.0668000000 1.5739000000
0.2527000000 0.4958000000 0.3758000000
0.2525000000 3.0753000000 1.5785000000
0.2520000000 5.5767000000 1.3330000000
0.2518000000 0.4683000000 0.3643000000
0.2516000000 5.4006000000 1.4079000000
0.2515000000 0.2756000000 0.2144000000
0.2513000000 7.8377000000 0.2147000000
0.2510000000 5.3654000000 1.4271000000
0.2506000000 1.6706000000 0.9298000000
0.2503000000 4.2483000000 1.9420000000
0.2497000000 3.5514000000 1.7927000000
0.2490000000 0.2388000000 0.1807000000
0.2486000000 6.0511000000 1.1123000000
0.2474000000 4.0001000000 1.9948000000
0.2458000000 2.7084000000 1.4026000000
0.0158000000 6.4831000000 0.7283000000
0.0102000000 4.5964000000 1.5923000000
0.0093000000 6.4416000000 0.7476000000
0.0087000000 5.8051000000 1.0342000000
0.0080000000 7.1124000000 0.4275000000
0.0071000000 6.6208000000 0.6588000000
0.0068000000 4.8327000000 1.4732000000
0.0065000000 7.3115000000 0.3318000000
0.0062000000 5.1454000000 1.3364000000
0.0060000000 3.7260000000 1.6849000000
0.0058000000 8.0873000000 0.0380000000
0.0056000000 7.7653000000 0.1240000000
0.0053000000 6.3304000000 0.7874000000
0.0049000000 0.7203000000 0.2961000000
0.0048000000 2.3103000000 1.0288000000
0.0045000000 6.0785000000 0.9083000000
0.0043000000 4.4778000000 1.6393000000
0.0040000000 1.6818000000 0.7388000000
0.0038000000 4.5106000000 1.6230000000
0.0036000000 7.2619000000 0.3532000000
0.0033000000 3.4141000000 1.5291000000
0.0029000000 0.3378000000 0.1175000000
0.0024000000 1.5420000000 0.6698000000
0.0022000000 6.2176000000 0.8320000000
0.0020000000 5.5855000000 1.1307000000
0.0017000000 1.4040000000 0.6068000000
0.0014000000 5.8203000000 1.0259000000
0.0009000000 0.9137000000 0.3846000000
0.0007000000 2.5516000000 1.1353000000
0.0005000000 7.1317000000 0.4156000000
0.0003000000 2.0598000000 0.9079000000
-0.0001000000 2.7860000000 1.2457000000
-0.0006000000 0.2423000000 0.0724000000
-0.0018000000 1.1904000000 0.5073000000
-0.0032000000 1.5085000000 0.6534000000
-0.2382000000 4.2689000000 1.5428000000
-0.2397000000 6.1330000000 0.6862000000
-0.2407000000 1.7369000000 0.5698000000
-0.2409000000 7.1720000000 0.1977000000
-0.2416000000 7.6919000000 0.0392000000
-0.2420000000 3.6276000000 1.4351000000
-0.2425000000 7.1744000000 0.2048000000
-0.2431000000 2.9812000000 1.1405000000
-0.2434000000 5.9735000000 0.7573000000
-0.2440000000 3.5715000000 1.4077000000
-0.2442000000 7.3243000000 0.1290000000
-0.2445000000 5.7625000000 0.8464000000
-0.2448000000 2.3631000000 0.8507000000
-0.2450000000 3.0205000000 1.1564000000
-0.2452000000 7.0322000000 0.2664000000
-0.2454000000 3.0657000000 1.1766000000
-0.2457000000 7.7603000000 0.0745000000
-0.2457000000 3.0254000000 1.1598000000
-0.2462000000 1.0737000000 0.2594000000
-0.2465000000 5.8352000000 0.8122000000
-0.2466000000 1.0704000000 0.2582000000
-0.2468000000 6.1599000000 0.6658000000
-0.2470000000 4.9112000000 1.2328000000
-0.2471000000 7.6724000000 0.0415000000
-0.2475000000 3.6412000000 1.4436000000
-0.2477000000 0.7616000000 0.1091000000
-0.2480000000 0.7770000000 0.1218000000
-0.2482000000 6.8853000000 0.3278000000
-0.2487000000 4.4467000000 1.4578000000
-0.2489000000 7.7395000000 0.0107000000
-0.2495000000 4.7922000000 1.2918000000
-0.2496000000 1.8454000000 0.6111000000
-0.2500000000 2.1946000000 0.7740000000
-0.2505000000 0.7774000000 0.1160000000
-0.2512000000 3.2585000000 1.2691000000
-0.2524000000 5.3835000000 1.0173000000
-0.2535000000 6.2717000000 0.6117000000
-0.4839000000 6.1124000000 0.4992000000
-0.4900000000 6.4314000000 0.3509000000
-0.4904000000 4.0956000000 1.4118000000
-0.4913000000 5.5206000000 0.7600000000
-0.4915000000 7.3942000000 0.0552000000
-0.4919000000 2.6565000000 0.7933000000
-0.4924000000 4.0578000000 1.4216000000
-0.4930000000 3.8274000000 1.3307000000
-0.4933000000 4.8658000000 1.0668000000
-0.4937000000 1.8840000000 0.4309000000
-0.4940000000 2.3809000000 0.6591000000
-0.4945000000 3.3360000000 1.1029000000
-0.4947000000 1.1149000000 0.0782000000
-0.4949000000 1.4929000000 0.2518000000
-0.4950000000 2.5748000000 0.7582000000
-0.4952000000 2.4916000000 0.7140000000
-0.4953000000 6.3333000000 0.3900000000
-0.4955000000 4.0351000000 1.4857000000
-0.4957000000 6.7904000000 0.1710000000
-0.4960000000 3.1345000000 1.0111000000
-0.4963000000 6.3325000000 0.3858000000
-0.4969000000 0.7905000000 0.0799000000
-0.4974000000 4.7622000000 1.1137000000
-0.4976000000 5.5874000000 0.7277000000
-0.4980000000 5.6243000000 0.7186000000
-0.4981000000 3.6618000000 1.2502000000
-0.4984000000 4.9358000000 1.0312000000
-0.4986000000 2.3735000000 0.6552000000
-0.4992000000 2.0831000000 0.5261000000
-0.5000000000 0.9306000000 0.0679000000
-0.5005000000 7.0496000000 0.1225000000
-0.5008000000 2.7007000000 0.8066000000
-0.5017000000 4.4850000000 1.2314000000
-0.5033000000 2.8776000000 0.8813000000
-0.7373000000 6.1054000000 0.2985000000
-0.7403000000 7.0543000000 0.0105000000
-0.7410000000 4.9830000000 0.8158000000
-0.7414000000 6.2781000000 0.2173000000
-0.7417000000 2.4061000000 0.4777000000
-0.7420000000 3.6964000000 1.0696000000
-0.7424000000 3.9007000000 1.1601000000
-0.7429000000 5.7683000000 0.4528000000
-0.7433000000 3.0776000000 0.7884000000
-0.7436000000 5.7907000000 0.4394000000
-0.7438000000 2.6010000000 0.5598000000
-0.7441000000 6.0592000000 0.3148000000
-0.7445000000 5.4391000000 0.5988000000
-0.7447000000 2.0890000000 0.3281000000
-0.7449000000 5.6296000000 0.5118000000
-0.7452000000 4.3982000000 1.0795000000
-0.7455000000 3.3493000000 0.9116000000
-0.7458000000 3.6385000000 1.0410000000
-0.7460000000 3.5355000000 0.9894000000
-0.7466000000 2.5468000000 0.5441000000
-0.7470000000 7.0011000000 0.0289000000
-0.7476000000 2.7521000000 0.6319000000
-0.7479000000 1.2742000000 0.0288000000
-0.7482000000 1.1642000000 0.0495000000
-0.7487000000 4.2242000000 1.1576000000
-0.7491000000 4.6467000000 0.9623000000
-0.7493000000 2.5434000000 0.5325000000
-0.7499000000 3.3155000000 0.8922000000
-0.7506000000 4.4992000000 1.0324000000
-0.7512000000 3.3640000000 0.9178000000
-0.7515000000 2.5278000000 0.5240000000
-0.7554000000 4.0770000000 1.2088000000
-0.9915000000 6.4170000000 0.0257000000
-0.9922000000 3.9184000000 0.9723000000
-0.9931000000 4.1822000000 0.9813000000
-0.9934000000 3.3446000000 0.7049000000
-0.9937000000 4.3223000000 0.9174000000
-0.9944000000 3.3188000000 0.6927000000
-0.9950000000 3.0080000000 0.5526000000
-0.9955000000 4.1234000000 1.0059000000
-0.9958000000 3.7167000000 0.8830000000
-0.9960000000 2.3435000000 0.2447000000
-0.9964000000 3.2356000000 0.6575000000
-0.9968000000 3.0657000000 0.5772000000
-0.9972000000 6.3781000000 0.0315000000
-0.9975000000 3.0684000000 0.5735000000
-0.9982000000 4.8903000000 0.6442000000
-0.9984000000 5.0689000000 0.5706000000
-0.9987000000 3.6587000000 0.8467000000
-0.9990000000 3.6662000000 0.8536000000
-0.9995000000 3.8602000000 0.9405000000
-1.0008000000 4.0499000000 1.0106000000
-1.0027000000 1.9962000000 0.0768000000
-1.2416000000 2.4786000000 0.1122000000
-1.2419000000 6.1093000000 0.0433000000
-1.2429000000 4.9587000000 0.4257000000
-1.2437000000 4.4182000000 0.6733000000
-1.2443000000 4.1155000000 0.8073000000
-1.2446000000 3.6267000000 0.6412000000
-1.2450000000 3.2877000000 0.4787000000
-1.2456000000 2.7868000000 0.2531000000
-1.2462000000 3.1405000000 0.4161000000
-1.2467000000 2.5746000000 0.1521000000
-1.2472000000 2.2518000000 0.0704000000
-1.2477000000 6.1537000000 0.0179000000
-1.2484000000 2.7912000000 0.2508000000
-1.2490000000 3.8958000000 0.7592000000
-1.2497000000 3.0273000000 0.3566000000
-1.2507000000 3.5018000000 0.5719000000
-1.2524000000 3.1513000000 0.4170000000
-1.4906000000 3.0471000000 0.1779000000
-1.4922000000 2.6507000000 0.0689000000
-1.4937000000 3.6792000000 0.4691000000
-1.4943000000 3.8328000000 0.5334000000
-1.4947000000 2.7567000000 0.1125000000
-1.4952000000 3.0147000000 0.1552000000
-1.4957000000 3.8021000000 0.5204000000
-1.4964000000 4.4312000000 0.4691000000
-1.4967000000 5.1144000000 0.1466000000
-1.4980000000 4.5190000000 0.4165000000
-1.4990000000 3.5662000000 0.4070000000
-1.5005000000 2.5753000000 0.0235000000
-1.5018000000 5.5538000000 0.0176000000
-1.5049000000 3.9441000000 0.5779000000
-1.7413000000 3.4067000000 0.1433000000
-1.7436000000 4.0417000000 0.4914000000
-1.7444000000 3.3875000000 0.1328000000
-1.7451000000 3.2153000000 0.1232000000
-1.7454000000 4.8727000000 0.1345000000
-1.7461000000 3.4965000000 0.1756000000
-1.7470000000 4.6116000000 0.1789000000
-1.7477000000 4.8527000000 0.1478000000
-1.7482000000 5.0814000000 0.0342000000
-1.7489000000 4.5025000000 0.2303000000
-1.7496000000 4.6999000000 0.1377000000
-1.7505000000 4.4944000000 0.2270000000
-1.7510000000 3.2576000000 0.1436000000
-1.9905000000 4.4360000000 0.1406000000
-1.9926000000 4.3124000000 0.1236000000
-1.9951000000 4.5638000000 0.0806000000
-1.9962000000 4.7689000000 0.0566000000
-1.9969000000 3.4077000000 0.0108000000
-1.9975000000 3.2210000000 -0.0050000000
-1.9997000000 4.5225000000 0.0944000000
