7.2514000000 4.2512000000 0.0913000000
7.0094000000 4.2074000000 0.3494000000
7.0081000000 4.6724000000 0.1148000000
7.0068000000 3.8247000000 0.1268000000
7.0054000000 4.0673000000 0.2826000000
7.0045000000 4.6256000000 0.1524000000
7.0036000000 4.1319000000 0.3290000000
7.0017000000 4.2610000000 0.3682000000
7.0001000000 4.4774000000 0.1826000000
6.7623000000 4.8778000000 0.1835000000
6.7587000000 5.2813000000 0.0757000000
6.7581000000 4.5107000000 0.4352000000
6.7577000000 4.8232000000 0.2310000000
6.7569000000 4.2186000000 0.6491000000
6.7559000000 4.5673000000 0.4020000000
6.7556000000 4.9264000000 0.1687000000
6.7547000000 4.3563000000 0.5412000000
6.7540000000 3.0859000000 0.0718000000
6.7534000000 3.5061000000 0.2045000000
6.7525000000 4.8780000000 0.1961000000
6.7519000000 5.3047000000 0.0682000000
6.7508000000 4.9399000000 0.1567000000
6.7500000000 3.3068000000 0.0715000000
6.7466000000 3.3934000000 0.1376000000
6.5129000000 3.4740000000 0.4585000000
6.5101000000 3.4054000000 0.4160000000
6.5090000000 3.9382000000 0.7718000000
6.5082000000 3.5571000000 0.5188000000
6.5080000000 3.7649000000 0.6523000000
6.5076000000 3.3417000000 0.3740000000
6.5073000000 4.7697000000 0.5521000000
6.5069000000 5.0684000000 0.3562000000
6.5062000000 5.6451000000 0.0496000000
6.5057000000 4.1046000000 0.8875000000
6.5047000000 2.6350000000 0.0606000000
6.5043000000 4.9931000000 0.4089000000
6.5042000000 3.7911000000 0.6809000000
6.5038000000 4.8987000000 0.4722000000
6.5031000000 3.1857000000 0.2806000000
6.5022000000 5.2809000000 0.2168000000
6.5011000000 3.0052000000 0.1598000000
6.5005000000 5.7672000000 0.0486000000
6.4991000000 3.1297000000 0.2413000000
6.4968000000 4.6031000000 0.6784000000
6.2625000000 5.5454000000 0.3229000000
6.2601000000 4.2373000000 1.2326000000
6.2595000000 6.1774000000 0.0563000000
6.2588000000 3.9887000000 1.0894000000
6.2584000000 4.1228000000 1.1821000000
6.2573000000 3.6439000000 0.8657000000
6.2570000000 3.8969000000 1.0278000000
6.2567000000 2.5038000000 0.1096000000
6.2562000000 3.5510000000 0.8042000000
6.2550000000 3.9576000000 1.0780000000
6.2545000000 4.8328000000 0.8000000000
6.2542000000 3.5258000000 0.7925000000
6.2533000000 4.0134000000 1.1149000000
6.2519000000 4.7719000000 0.9190000000
6.2510000000 3.0536000000 0.4797000000
6.2495000000 3.1210000000 0.5322000000
6.2485000000 3.5228000000 0.7968000000
6.2466000000 4.0685000000 1.1571000000
6.0113000000 6.5680000000 0.0784000000
6.0095000000 5.8596000000 0.4026000000
6.0093000000 3.4432000000 1.0166000000
6.0085000000 2.2453000000 0.2270000000
6.0082000000 2.1516000000 0.1627000000
6.0077000000 6.3381000000 0.1627000000
6.0074000000 5.7103000000 0.5068000000
6.0070000000 2.9972000000 0.7236000000
6.0068000000 4.0073000000 1.3931000000
6.0061000000 5.4164000000 0.6959000000
6.0059000000 5.5764000000 0.5961000000
6.0056000000 4.6528000000 1.2059000000
6.0047000000 5.6709000000 0.5319000000
6.0040000000 2.3303000000 0.2845000000
6.0036000000 4.1588000000 1.4990000000
6.0031000000 2.5778000000 0.4502000000
6.0027000000 6.7159000000 0.0595000000
6.0025000000 3.7641000000 1.2375000000
6.0023000000 2.5330000000 0.4214000000
6.0017000000 3.0865000000 0.7890000000
6.0006000000 1.9266000000 0.0267000000
5.9998000000 4.3291000000 1.4271000000
5.9995000000 4.9161000000 1.0363000000
5.9990000000 4.7427000000 1.1520000000
5.9978000000 6.1312000000 0.2321000000
5.9964000000 1.7564000000 0.0622000000
5.7624000000 4.1380000000 1.7636000000
5.7608000000 6.0171000000 0.5838000000
5.7600000000 5.4895000000 0.9350000000
5.7587000000 4.8590000000 1.4265000000
5.7580000000 5.8233000000 0.7124000000
5.7575000000 5.4521000000 0.9640000000
5.7573000000 1.9541000000 0.3228000000
5.7568000000 3.9982000000 1.6728000000
5.7565000000 7.1285000000 0.0700000000
5.7563000000 4.6628000000 1.4901000000
5.7561000000 6.3811000000 0.3420000000
5.7558000000 1.7420000000 0.1797000000
5.7553000000 5.2396000000 1.1071000000
5.7551000000 5.0400000000 1.2346000000
5.7546000000 3.9605000000 1.6525000000
5.7543000000 3.7411000000 1.5079000000
5.7538000000 2.1514000000 0.4529000000
5.7534000000 1.8404000000 0.2509000000
5.7531000000 1.7422000000 0.1890000000
5.7528000000 1.4690000000 0.0788000000
5.7526000000 3.8558000000 1.5861000000
5.7524000000 6.1754000000 0.4910000000
5.7522000000 3.1931000000 1.1525000000
5.7515000000 6.4277000000 0.3224000000
5.7509000000 4.5708000000 1.5532000000
5.7495000000 1.5186000000 0.0402000000
5.7487000000 1.6884000000 0.1543000000
5.7470000000 1.7997000000 0.2274000000
5.5134000000 7.4122000000 0.0201000000
5.5112000000 4.0333000000 1.9754000000
5.5103000000 5.2420000000 1.3826000000
5.5101000000 3.2014000000 1.4313000000
5.5092000000 4.0940000000 2.0286000000
5.5089000000 1.8704000000 0.5508000000
5.5085000000 6.8125000000 0.3442000000
5.5080000000 2.2413000000 0.7993000000
5.5073000000 5.4616000000 1.2463000000
5.5071000000 6.3938000000 0.6233000000
5.5067000000 2.8359000000 1.1964000000
5.5060000000 0.9194000000 0.0713000000
5.5058000000 5.1555000000 1.5229000000
5.5054000000 3.6699000000 1.7407000000
5.5052000000 7.2542000000 0.1276000000
5.5050000000 3.1596000000 1.4045000000
5.5048000000 5.3207000000 1.3400000000
5.5045000000 3.0160000000 1.3119000000
5.5041000000 1.1040000000 0.0465000000
5.5038000000 1.2025000000 0.1077000000
5.5036000000 5.6910000000 1.0962000000
5.5035000000 6.6194000000 0.4764000000
5.5032000000 7.0656000000 0.1809000000
5.5030000000 3.7269000000 1.7858000000
5.5027000000 3.7182000000 1.7833000000
5.5024000000 1.3818000000 0.2322000000
5.5018000000 7.2517000000 0.1366000000
5.5006000000 6.9457000000 0.2679000000
5.5003000000 3.8780000000 1.8945000000
5.5002000000 2.0329000000 0.6702000000
5.4995000000 1.5015000000 0.3173000000
5.4979000000 2.7975000000 1.1802000000
5.4968000000 1.5060000000 0.3184000000
5.2632000000 2.0208000000 0.9274000000
5.2626000000 4.2483000000 2.3849000000
5.2610000000 8.0359000000 0.0478000000
5.2597000000 4.5574000000 2.1293000000
5.2590000000 4.4113000000 2.3007000000
5.2588000000 7.3124000000 0.2993000000
5.2585000000 7.8199000000 0.0370000000
5.2584000000 6.5572000000 0.8039000000
5.2581000000 3.9176000000 2.1974000000
5.2578000000 6.4480000000 0.8783000000
5.2570000000 6.0168000000 1.1583000000
5.2582000000 4.9895000000 1.8400000000
5.2563000000 2.5819000000 1.3100000000
5.2561000000 3.6684000000 2.0305000000
5.2559000000 5.9818000000 1.1857000000
5.2556000000 0.8994000000 0.1911000000
5.2553000000 3.2661000000 1.7640000000
5.2550000000 6.7979000000 0.6489000000
5.2547000000 0.7043000000 0.0739000000
5.2544000000 6.4965000000 0.8478000000
5.2541000000 4.6186000000 2.0990000000
5.2538000000 7.4017000000 0.2463000000
5.2535000000 6.1910000000 1.0484000000
5.2534000000 6.7608000000 0.6712000000
5.2531000000 6.0356000000 1.1579000000
5.2529000000 1.6419000000 0.6878000000
5.2527000000 3.9533000000 2.2312000000
5.2524000000 3.2702000000 1.7719000000
5.2520000000 1.8831000000 0.8482000000
5.2518000000 1.8576000000 0.8358000000
5.2516000000 5.1262000000 1.7625000000
5.2514000000 3.8930000000 2.1864000000
5.2509000000 2.2855000000 1.1236000000
5.2507000000 6.0488000000 1.1525000000
5.2503000000 1.3896000000 0.5276000000
5.2497000000 1.5936000000 0.6612000000
5.2485000000 1.4076000000 0.5461000000
5.2469000000 0.7698000000 0.1201000000
5.0132000000 5.2106000000 1.9782000000
5.0122000000 7.4483000000 0.4919000000
5.0106000000 5.3163000000 1.9112000000
5.0094000000 6.7245000000 0.9787000000
5.0084000000 4.7440000000 2.2925000000
5.0080000000 6.6923000000 1.0018000000
5.0077000000 3.3815000000 2.1331000000
5.0074000000 7.2494000000 0.6366000000
5.0070000000 8.0115000000 0.1250000000
5.0067000000 4.9190000000 2.2481000000
5.0064000000 5.4756000000 1.8863000000
5.0056000000 6.9313000000 0.8435000000
5.0055000000 3.3357000000 2.1026000000
5.0051000000 6.2738000000 1.2785000000
5.0049000000 3.6548000000 2.3110000000
5.0045000000 1.3450000000 0.7834000000
5.0044000000 5.3034000000 1.9329000000
5.0043000000 3.5235000000 2.2231000000
5.0041000000 0.2085000000 0.0242000000
5.0038000000 0.4216000000 0.1745000000
5.0036000000 8.0310000000 0.1218000000
5.0034000000 3.0637000000 1.9248000000
5.0029000000 6.6537000000 1.0350000000
5.0025000000 1.8372000000 1.1076000000
5.0024000000 1.2417000000 0.7129000000
5.0023000000 4.4547000000 2.4958000000
5.0020000000 0.1860000000 0.0167000000
5.0018000000 4.7806000000 2.2743000000
5.0013000000 0.3544000000 0.1236000000
5.0012000000 1.2386000000 0.7136000000
5.0008000000 0.5837000000 0.2829000000
5.0005000000 0.4110000000 0.1644000000
5.0001000000 7.0407000000 0.7837000000
4.9992000000 3.3595000000 2.1169000000
4.9982000000 2.0020000000 1.2251000000
4.9973000000 1.0138000000 0.5725000000
4.9952000000 0.8067000000 0.4369000000
4.7629000000 2.1268000000 1.5757000000
4.7617000000 8.3251000000 0.1996000000
4.7614000000 6.5200000000 1.3983000000
4.7606000000 5.3661000000 2.1642000000
4.7604000000 8.4405000000 0.0770000000
4.7600000000 8.5051000000 0.0596000000
4.7593000000 1.8027000000 1.3704000000
4.7584000000 5.0209000000 2.4025000000
4.7583000000 4.7310000000 2.6662000000
4.7581000000 4.1007000000 2.8906000000
4.7581000000 4.0074000000 2.8288000000
4.7574000000 5.6812000000 1.9601000000
4.7573000000 5.4954000000 2.1590000000
4.7569000000 2.0955000000 1.5628000000
4.7565000000 5.9159000000 1.8079000000
4.7564000000 4.6996000000 2.6862000000
4.7559000000 8.3395000000 0.1889000000
4.7556000000 4.1077000000 2.9014000000
4.7554000000 5.5038000000 2.0757000000
4.7553000000 5.7389000000 1.9256000000
4.7550000000 2.3755000000 1.7481000000
4.7548000000 8.4267000000 0.0901000000
4.7545000000 7.3489000000 0.8549000000
4.7544000000 2.5832000000 1.8895000000
4.7542000000 0.0338000000 0.0522000000
4.7535000000 1.2966000000 1.0296000000
4.7534000000 5.8112000000 1.8781000000
4.7531000000 3.9904000000 2.8212000000
4.7530000000 0.6406000000 0.6015000000
4.7527000000 4.5156000000 2.8084000000
4.7525000000 4.0045000000 2.8348000000
4.7524000000 4.0086000000 2.8354000000
4.7522000000 1.6619000000 1.2787000000
4.7517000000 4.0160000000 2.8427000000
4.7516000000 2.9385000000 2.1263000000
4.7512000000 0.9897000000 0.8382000000
4.7508000000 1.2255000000 0.9995000000
4.7503000000 4.7872000000 2.5558000000
4.7499000000 2.5903000000 1.8968000000
4.7491000000 0.7565000000 0.6875000000
4.7483000000 0.0043000000 0.0151000000
4.7470000000 7.0563000000 1.0630000000
4.5140000000 5.4045000000 2.4984000000
4.5126000000 0.2467000000 0.3334000000
4.5114000000 7.2421000000 1.2032000000
4.5100000000 5.1130000000 2.6187000000
4.5097000000 6.7209000000 1.5531000000
4.5092000000 1.1334000000 1.2074000000
4.5087000000 4.9906000000 2.6988000000
4.5082000000 6.8434000000 1.4758000000
4.5080000000 0.5837000000 0.7618000000
4.5076000000 2.6580000000 2.2223000000
4.5075000000 8.3447000000 0.1287000000
4.5071000000 3.9410000000 3.0743000000
4.5068000000 6.5450000000 1.6751000000
4.5065000000 4.7363000000 2.9499000000
4.5063000000 4.6500000000 2.9357000000
4.5062000000 2.4677000000 2.0968000000
4.5059000000 7.4002000000 1.1096000000
4.5056000000 0.2776000000 0.3816000000
4.5054000000 4.5113000000 3.0302000000
4.5052000000 8.4787000000 0.0210000000
4.5051000000 4.7329000000 2.8815000000
4.5049000000 1.9747000000 1.7681000000
4.5046000000 4.3365000000 3.2161000000
4.5045000000 2.2392000000 1.9502000000
4.5043000000 7.8168000000 0.8775000000
4.5041000000 1.9024000000 1.7253000000
4.5040000000 7.8068000000 0.8902000000
4.5038000000 6.7175000000 1.5639000000
4.5035000000 1.4461000000 1.4274000000
4.5033000000 0.5680000000 0.6890000000
4.5030000000 3.6372000000 2.8726000000
4.5028000000 0.1067000000 0.1545000000
4.5026000000 1.7116000000 1.6003000000
4.5024000000 6.7297000000 1.5564000000
4.5021000000 3.3434000000 2.6765000000
4.5019000000 3.7292000000 2.9354000000
4.5017000000 0.7872000000 0.9749000000
4.5013000000 0.9231000000 1.0756000000
4.5009000000 7.6600000000 0.9448000000
4.5005000000 0.8914000000 1.0555000000
4.5003000000 2.0253000000 1.8140000000
4.5001000000 0.9724000000 1.1109000000
4.4997000000 6.3367000000 1.8195000000
4.4992000000 5.6224000000 2.2964000000
4.4981000000 5.3736000000 2.5271000000
4.4974000000 2.3647000000 2.0338000000
4.4965000000 0.5241000000 0.7003000000
4.2680000000 5.9975000000 2.3139000000
4.2625000000 6.8962000000 1.7252000000
4.2623000000 4.4145000000 3.4428000000
4.2616000000 4.0699000000 3.4351000000
4.2610000000 4.1814000000 3.4408000000
4.2603000000 4.1541000000 3.4946000000
4.2592000000 4.8711000000 3.0740000000
4.2590000000 5.5030000000 2.6519000000
4.2585000000 7.6028000000 1.1073000000
4.2582000000 3.4317000000 3.0148000000
4.2579000000 4.3117000000 3.5136000000
4.2575000000 7.6579000000 1.0322000000
4.2573000000 7.2015000000 1.5231000000
4.2571000000 8.3464000000 0.1250000000
4.2569000000 3.1456000000 2.8355000000
4.2567000000 6.1701000000 2.2132000000
4.2565000000 5.7330000000 2.4981000000
4.2563000000 1.8842000000 2.0007000000
4.2560000000 4.4027000000 3.4556000000
4.2558000000 3.1367000000 2.8243000000
4.2556000000 1.7489000000 1.9092000000
4.2552000000 0.3890000000 0.5276000000
4.2551000000 4.9945000000 3.0686000000
4.2549000000 2.1221000000 2.1532000000
4.2548000000 1.5904000000 1.8101000000
4.2545000000 2.0562000000 2.1108000000
4.2544000000 2.8821000000 2.6639000000
4.2542000000 4.9724000000 3.0066000000
4.2541000000 3.2215000000 2.8902000000
4.2538000000 3.2813000000 2.9270000000
4.2537000000 0.8399000000 1.1227000000
4.2535000000 4.7105000000 3.2565000000
4.2532000000 1.4149000000 1.6859000000
4.2529000000 1.0250000000 1.3553000000
4.2527000000 6.8230000000 1.7795000000
4.2523000000 2.5844000000 2.4679000000
4.2522000000 1.9170000000 2.0217000000
4.2520000000 8.4345000000 0.0813000000
4.2519000000 5.0242000000 2.9786000000
4.2513000000 5.1924000000 2.8587000000
4.2511000000 2.4859000000 2.4032000000
4.2508000000 0.7637000000 1.0227000000
4.2497000000 2.1965000000 2.2080000000
4.2490000000 2.0236000000 2.1012000000
4.2484000000 4.2551000000 3.5382000000
4.2449000000 2.6157000000 2.4876000000
4.0113000000 7.6220000000 1.0832000000
4.0104000000 4.9268000000 3.3157000000
4.0101000000 7.4835000000 1.2686000000
4.0095000000 1.6501000000 2.0457000000
4.0091000000 4.1439000000 3.7840000000
4.0088000000 4.4679000000 3.7041000000
4.0084000000 4.8175000000 3.4667000000
4.0083000000 1.1306000000 1.5076000000
4.0079000000 6.2068000000 2.4728000000
4.0073000000 4.0763000000 3.7394000000
4.0070000000 1.3748000000 1.8323000000
4.0068000000 0.5786000000 0.7814000000
4.0065000000 1.4407000000 1.9151000000
4.0062000000 6.8822000000 2.0811000000
4.0059000000 5.5015000000 3.0189000000
4.0056000000 6.5341000000 2.2566000000
4.0055000000 7.8061000000 0.8428000000
4.0052000000 5.9805000000 2.6300000000
4.0050000000 6.3066000000 2.4126000000
4.0048000000 1.7145000000 2.1780000000
4.0042000000 8.1762000000 0.3506000000
4.0039000000 8.0708000000 0.4898000000
4.0036000000 1.2207000000 1.6268000000
4.0034000000 3.1647000000 3.1355000000
4.0028000000 5.7812000000 2.7597000000
4.0026000000 0.5913000000 0.7908000000
4.0023000000 1.3501000000 1.7974000000
4.0017000000 0.5321000000 0.7143000000
4.0015000000 6.7740000000 2.0989000000
4.0007000000 0.7661000000 1.0245000000
3.9994000000 4.9901000000 3.3637000000
3.9990000000 1.6677000000 2.0689000000
3.9975000000 1.2684000000 1.6965000000
3.9968000000 1.8733000000 2.2861000000
3.9931000000 1.3502000000 1.7978000000
3.7632000000 8.2899000000 0.1978000000
3.7610000000 5.3763000000 3.3076000000
3.7604000000 1.6038000000 2.1348000000
3.7598000000 7.0821000000 1.8039000000
3.7591000000 3.3699000000 3.5520000000
3.7588000000 4.4508000000 3.9969000000
3.7585000000 2.0493000000 2.6587000000
3.7582000000 1.4135000000 1.8812000000
3.7579000000 1.8076000000 2.4134000000
3.7576000000 7.3597000000 1.4292000000
3.7571000000 2.1172000000 2.7287000000
3.7569000000 6.5564000000 2.5537000000
3.7564000000 3.1342000000 3.3990000000
3.7563000000 3.8033000000 3.8435000000
3.7560000000 6.0776000000 2.9213000000
3.7558000000 3.7807000000 3.8333000000
3.7555000000 5.3922000000 3.3060000000
3.7554000000 8.5041000000 0.0647000000
3.7552000000 6.7514000000 2.2399000000
3.7550000000 5.3947000000 3.3761000000
3.7549000000 7.6473000000 1.0464000000
3.7546000000 5.5772000000 3.2623000000
3.7542000000 3.6167000000 3.7211000000
3.7539000000 5.7127000000 3.0933000000
3.7537000000 0.1440000000 0.1973000000
3.7535000000 3.4942000000 3.6393000000
3.7533000000 3.0460000000 3.3453000000
3.7531000000 4.5559000000 3.9344000000
3.7529000000 1.6468000000 2.1868000000
3.7527000000 0.5036000000 0.6780000000
3.7518000000 0.2236000000 0.3019000000
3.7513000000 6.6940000000 2.3189000000
3.7503000000 1.3498000000 1.8011000000
3.7500000000 0.8977000000 1.2018000000
3.7483000000 5.4381000000 3.2779000000
3.7474000000 0.0880000000 0.1250000000
3.7453000000 0.8552000000 1.1414000000
3.5145000000 5.9156000000 3.2324000000
3.5117000000 8.0855000000 0.4722000000
3.5108000000 6.5554000000 2.4966000000
3.5098000000 4.3287000000 4.3649000000
3.5094000000 7.8664000000 0.7605000000
3.5089000000 4.4294000000 4.2231000000
3.5084000000 8.5590000000 0.0631000000
3.5083000000 5.6455000000 3.4179000000
3.5081000000 6.9718000000 1.9418000000
3.5078000000 5.2636000000 3.6676000000
3.5075000000 7.4046000000 1.3730000000
3.5070000000 4.4205000000 4.2291000000
3.5068000000 1.8439000000 2.4551000000
3.5066000000 0.0460000000 0.0718000000
3.5064000000 7.7880000000 0.8652000000
3.5062000000 3.7240000000 4.0792000000
3.5060000000 2.0023000000 2.6652000000
3.5058000000 3.8930000000 4.1933000000
3.5055000000 7.5262000000 1.2133000000
3.5051000000 1.9583000000 2.6045000000
3.5047000000 2.8200000000 3.4830000000
3.5046000000 3.3497000000 3.8348000000
3.5043000000 3.6190000000 4.0117000000
3.5041000000 6.6471000000 2.3767000000
3.5039000000 4.0664000000 4.3035000000
3.5037000000 6.7442000000 2.2546000000
3.5035000000 8.1963000000 0.3218000000
3.5032000000 6.2803000000 2.8672000000
3.5030000000 6.2972000000 2.8412000000
3.5026000000 1.9889000000 2.6437000000
3.5022000000 7.2661000000 1.5596000000
3.5018000000 0.2744000000 0.3697000000
3.5015000000 1.3740000000 1.8316000000
3.5013000000 2.6945000000 3.3897000000
3.5008000000 7.8218000000 0.8150000000
3.5004000000 2.7070000000 3.4148000000
3.4999000000 6.4444000000 2.6498000000
3.4995000000 1.3437000000 1.7913000000
3.4988000000 0.2728000000 0.3678000000
3.4983000000 7.1958000000 1.6459000000
3.4978000000 0.9053000000 1.2181000000
3.4970000000 0.7866000000 1.0489000000
3.4957000000 2.8259000000 3.4975000000
3.2609000000 5.6540000000 3.7550000000
3.2596000000 7.4162000000 1.3581000000
3.2592000000 6.0683000000 3.1447000000
3.2588000000 6.8324000000 2.1357000000
3.2585000000 6.6972000000 2.3139000000
3.2581000000 5.3689000000 3.8876000000
3.2578000000 6.9647000000 1.9564000000
3.2574000000 0.7565000000 1.0093000000
3.2569000000 1.0505000000 1.4029000000
3.2568000000 2.6989000000 3.5875000000
3.2566000000 2.4154000000 3.2082000000
3.2563000000 5.5560000000 3.8208000000
3.2561000000 3.7845000000 4.4051000000
3.2559000000 2.4852000000 3.3097000000
3.2558000000 8.3928000000 0.1389000000
3.2555000000 5.5283000000 3.7827000000
3.2553000000 8.2843000000 0.2090000000
3.2549000000 5.8163000000 3.4803000000
3.2548000000 2.9087000000 3.8035000000
3.2545000000 7.2069000000 1.6352000000
3.2542000000 6.3334000000 2.7909000000
3.2541000000 1.6857000000 2.2516000000
3.2538000000 2.2411000000 2.9842000000
3.2535000000 2.5810000000 3.4281000000
3.2533000000 7.2669000000 1.5555000000
3.2531000000 8.4426000000 0.0754000000
3.2528000000 2.3972000000 3.1954000000
3.2525000000 0.5044000000 0.6782000000
3.2523000000 1.0708000000 1.4359000000
3.2519000000 3.3380000000 4.1121000000
3.2516000000 0.6356000000 0.8513000000
3.2510000000 4.2419000000 4.6965000000
3.2504000000 8.3488000000 0.1218000000
3.2500000000 5.5273000000 3.8514000000
3.2491000000 4.7650000000 4.3729000000
3.2483000000 6.3089000000 2.8227000000
3.2468000000 1.9953000000 2.6553000000
3.2450000000 2.0334000000 2.7041000000
3.0126000000 4.5934000000 4.7566000000
3.0113000000 8.4648000000 0.0430000000
3.0092000000 8.5537000000 0.0689000000
3.0090000000 7.2046000000 1.6350000000
3.0085000000 4.9667000000 4.5236000000
3.0080000000 8.0866000000 0.4702000000
3.0077000000 4.0899000000 4.9001000000
3.0072000000 6.0021000000 3.2337000000
3.0068000000 4.0620000000 4.8742000000
3.0066000000 5.7250000000 3.5971000000
3.0063000000 4.4123000000 4.8876000000
3.0059000000 4.6276000000 4.7434000000
3.0058000000 7.2735000000 1.5538000000
3.0056000000 4.9140000000 4.5572000000
3.0053000000 3.1785000000 4.2112000000
3.0050000000 7.8939000000 0.7247000000
3.0047000000 5.6813000000 3.6526000000
3.0045000000 7.2228000000 1.6151000000
3.0043000000 1.9386000000 2.5846000000
3.0041000000 5.9235000000 3.3377000000
3.0038000000 4.8656000000 4.5906000000
3.0035000000 1.7825000000 2.3798000000
3.0033000000 3.2959000000 4.3554000000
3.0032000000 5.0683000000 4.3840000000
3.0030000000 7.5520000000 1.1856000000
3.0026000000 4.6597000000 4.7259000000
3.0024000000 3.9942000000 4.8373000000
3.0021000000 0.8918000000 1.1965000000
3.0020000000 5.4181000000 4.0102000000
3.0016000000 3.4002000000 4.3668000000
3.0013000000 3.0123000000 4.0078000000
3.0009000000 0.8544000000 1.1423000000
3.0004000000 2.4310000000 3.2365000000
3.0001000000 0.7460000000 0.9992000000
2.9998000000 0.9422000000 1.2640000000
2.9995000000 3.0280000000 4.0252000000
2.9992000000 1.8905000000 2.5179000000
2.9985000000 2.9473000000 3.9151000000
2.9980000000 0.6433000000 0.8661000000
2.9970000000 2.9254000000 3.8858000000
2.7636000000 7.8511000000 0.7796000000
2.7621000000 7.7195000000 0.9542000000
2.7613000000 5.4505000000 3.9622000000
2.7608000000 6.4463000000 2.6425000000
2.7599000000 7.0885000000 1.7969000000
2.7597000000 3.2928000000 4.3809000000
2.7593000000 2.0746000000 2.7685000000
2.7588000000 5.7930000000 3.5132000000
2.7582000000 7.7390000000 0.9309000000
2.7579000000 5.5333000000 3.8517000000
2.7577000000 7.2604000000 1.5610000000
2.7573000000 6.8411000000 2.1212000000
2.7570000000 3.7812000000 4.9616000000
2.7567000000 8.3768000000 0.1583000000
2.7563000000 4.9662000000 4.6015000000
2.7561000000 6.0903000000 3.1159000000
2.7559000000 5.4878000000 3.9165000000
2.7558000000 6.2363000000 2.9198000000
2.7555000000 4.7530000000 4.9305000000
2.7553000000 1.8069000000 2.4048000000
2.7551000000 0.3953000000 0.5261000000
2.7549000000 0.7768000000 1.0384000000
2.7548000000 7.5809000000 1.1379000000
2.7545000000 5.7100000000 3.6155000000
2.7543000000 0.9255000000 1.2368000000
2.7538000000 4.5346000000 5.0923000000
2.7535000000 6.4759000000 2.5996000000
2.7531000000 3.9471000000 5.0935000000
2.7528000000 7.3650000000 1.4269000000
2.7526000000 3.4325000000 4.5572000000
2.7522000000 2.1456000000 2.8540000000
2.7518000000 0.4053000000 0.5502000000
2.7517000000 2.9422000000 3.9128000000
2.7512000000 4.7877000000 4.8978000000
2.7509000000 3.5414000000 4.7079000000
2.7505000000 2.5938000000 3.4522000000
2.7498000000 1.9450000000 2.5888000000
2.7488000000 7.2785000000 1.5409000000
2.7485000000 2.4787000000 3.2884000000
2.7464000000 6.0266000000 3.2044000000
2.7449000000 1.1841000000 1.5790000000
2.5137000000 7.1472000000 1.7161000000
2.5118000000 5.2005000000 4.3028000000
2.5112000000 5.7147000000 3.6148000000
2.5105000000 4.9142000000 4.6735000000
2.5099000000 4.8378000000 4.7751000000
2.5090000000 6.9322000000 1.9958000000
2.5085000000 7.7092000000 0.9617000000
2.5081000000 7.1334000000 1.7351000000
2.5077000000 4.7162000000 4.9385000000
2.5073000000 6.8768000000 2.0746000000
2.5072000000 7.1950000000 1.6504000000
2.5070000000 7.9562000000 0.6388000000
2.5068000000 3.3058000000 4.3963000000
2.5063000000 2.9707000000 3.9514000000
2.5059000000 6.9159000000 2.0202000000
2.5056000000 3.4394000000 4.5687000000
2.5055000000 0.1640000000 0.2324000000
2.5053000000 3.6307000000 4.8254000000
2.5051000000 4.8807000000 4.7210000000
2.5050000000 4.3311000000 5.4669000000
2.5048000000 5.1397000000 4.3738000000
2.5045000000 5.7850000000 3.5234000000
2.5042000000 2.4763000000 3.2897000000
2.5041000000 1.2823000000 1.7094000000
2.5038000000 5.2383000000 4.2494000000
2.5036000000 2.1262000000 2.8293000000
2.5034000000 6.2362000000 2.9215000000
2.5030000000 2.1346000000 2.8372000000
2.5027000000 4.7919000000 4.8459000000
2.5026000000 3.9361000000 5.2354000000
2.5022000000 4.9208000000 4.6666000000
2.5019000000 6.8436000000 2.1216000000
2.5018000000 8.2278000000 0.2809000000
2.5015000000 0.6685000000 0.8959000000
2.5012000000 1.4323000000 1.9106000000
2.5010000000 3.8411000000 5.1011000000
2.5004000000 3.9451000000 5.2428000000
2.5002000000 6.4186000000 2.6804000000
2.4995000000 1.9628000000 2.6112000000
2.4991000000 0.8362000000 1.1158000000
2.4984000000 2.3379000000 3.1123000000
2.4956000000 1.2254000000 1.6352000000
2.2642000000 7.5544000000 1.1751000000
2.2628000000 6.3236000000 2.8036000000
2.2617000000 6.3682000000 2.7467000000
2.2601000000 8.4334000000 0.0831000000
2.2597000000 5.9997000000 3.2332000000
2.2593000000 4.7534000000 4.8926000000
2.2590000000 3.0678000000 4.0755000000
2.2588000000 7.8506000000 0.7811000000
2.2587000000 2.4055000000 3.2077000000
2.2584000000 0.7296000000 0.9774000000
2.2581000000 6.1867000000 2.9841000000
2.2576000000 0.9072000000 1.2111000000
2.2571000000 2.2547000000 3.0027000000
2.2570000000 4.4361000000 5.2860000000
2.2566000000 0.2001000000 0.2759000000
2.2563000000 7.7496000000 0.9166000000
2.2562000000 7.2547000000 1.5756000000
2.2560000000 7.0579000000 1.8349000000
2.2558000000 0.7118000000 0.9544000000
2.2556000000 1.6155000000 2.1492000000
2.2555000000 3.9620000000 5.2060000000
2.2553000000 8.1440000000 0.3898000000
2.2552000000 4.8455000000 4.7700000000
2.2549000000 5.9883000000 3.2575000000
2.2546000000 1.7035000000 2.2672000000
2.2544000000 6.9096000000 2.0303000000
2.2542000000 4.7146000000 4.9405000000
2.2540000000 8.2250000000 0.2804000000
2.2538000000 3.9497000000 5.2005000000
2.2536000000 1.5522000000 2.0635000000
2.2532000000 5.2859000000 4.1831000000
2.2530000000 0.3638000000 0.4946000000
2.2529000000 5.7209000000 3.6065000000
2.2528000000 8.4986000000 0.0670000000
2.2525000000 2.1775000000 2.9023000000
2.2521000000 7.6348000000 1.0708000000
2.2518000000 6.1316000000 3.0635000000
2.2516000000 6.9109000000 2.0291000000
2.2510000000 1.2891000000 1.7215000000
2.2506000000 2.2614000000 3.0068000000
2.2505000000 5.7487000000 3.5612000000
2.2503000000 5.8647000000 3.4192000000
2.2500000000 1.4280000000 1.9007000000
2.2495000000 1.0676000000 1.4165000000
2.2489000000 1.7812000000 2.3684000000
2.2475000000 0.3038000000 0.4100000000
2.2462000000 2.1863000000 2.9147000000
2.0139000000 7.9914000000 0.5930000000
2.0105000000 6.6879000000 2.3251000000
2.0096000000 5.0507000000 4.5482000000
2.0092000000 1.6557000000 2.2072000000
2.0087000000 7.9112000000 0.7010000000
2.0084000000 8.4794000000 0.0217000000
2.0080000000 4.2512000000 5.1063000000
2.0078000000 3.7032000000 4.7724000000
2.0075000000 3.1052000000 4.1281000000
2.0073000000 7.4543000000 1.3078000000
2.0071000000 3.1244000000 4.1566000000
2.0066000000 1.3724000000 1.8310000000
2.0065000000 8.3436000000 0.1242000000
2.0061000000 6.5165000000 2.5528000000
2.0058000000 6.9960000000 1.9126000000
2.0057000000 7.2994000000 1.5124000000
2.0054000000 4.2304000000 5.1019000000
2.0046000000 2.0279000000 2.7018000000
2.0043000000 3.1899000000 4.2416000000
2.0042000000 1.6005000000 2.1327000000
2.0041000000 1.2172000000 1.6247000000
2.0039000000 1.4307000000 1.9056000000
2.0036000000 0.2959000000 0.4049000000
2.0032000000 3.8783000000 4.8787000000
2.0030000000 3.5334000000 4.6300000000
2.0028000000 1.9334000000 2.5728000000
2.0024000000 3.5665000000 4.6589000000
2.0021000000 3.8734000000 4.8734000000
2.0018000000 6.1907000000 2.9898000000
2.0015000000 4.0263000000 4.9795000000
2.0012000000 1.5794000000 2.1047000000
2.0007000000 4.8248000000 4.7356000000
2.0005000000 4.2408000000 5.1028000000
1.9996000000 5.3809000000 4.0593000000
1.9993000000 8.1687000000 0.3650000000
1.9987000000 1.1359000000 1.5145000000
1.9982000000 4.8344000000 4.7348000000
1.9978000000 1.4937000000 1.9960000000
1.9965000000 1.8925000000 2.5224000000
1.7630000000 7.9624000000 0.6304000000
1.7613000000 8.3916000000 0.1395000000
1.7603000000 3.1912000000 4.1492000000
1.7590000000 7.2417000000 1.5830000000
1.7583000000 8.4855000000 0.0851000000
1.7580000000 7.1908000000 1.6530000000
1.7576000000 7.6863000000 0.9992000000
1.7573000000 5.7584000000 3.5543000000
1.7570000000 5.7684000000 3.5412000000
1.7567000000 5.5950000000 3.7777000000
1.7565000000 7.0409000000 1.8531000000
1.7563000000 7.1348000000 1.7302000000
1.7560000000 0.9505000000 1.2709000000
1.7558000000 1.7998000000 2.4012000000
1.7556000000 8.2450000000 0.2598000000
1.7554000000 8.3800000000 0.1502000000
1.7553000000 8.4817000000 0.0139000000
1.7551000000 2.9626000000 3.9195000000
1.7548000000 5.4956000000 3.9590000000
1.7545000000 0.4275000000 0.5748000000
1.7544000000 6.5953000000 2.4507000000
1.7543000000 2.9094000000 3.8705000000
1.7540000000 5.8828000000 3.3925000000
1.7539000000 6.9996000000 1.9118000000
1.7538000000 6.5827000000 2.4682000000
1.7536000000 4.9869000000 4.3410000000
1.7533000000 3.6459000000 4.4410000000
1.7531000000 3.9734000000 4.6632000000
1.7528000000 3.5027000000 4.3486000000
1.7526000000 1.0137000000 1.3572000000
1.7524000000 4.3572000000 4.7621000000
1.7520000000 7.2939000000 1.5197000000
1.7516000000 1.8727000000 2.4956000000
1.7514000000 1.4442000000 1.9245000000
1.7512000000 1.0124000000 1.3530000000
1.7498000000 5.0110000000 4.3232000000
1.7495000000 3.9907000000 4.6610000000
1.7479000000 4.4636000000 4.6905000000
1.7466000000 0.7384000000 0.9938000000
1.5156000000 8.5024000000 0.0662000000
1.5118000000 8.2635000000 0.2356000000
1.5102000000 3.0034000000 3.7362000000
1.5098000000 8.2703000000 0.2264000000
1.5095000000 5.9229000000 3.3924000000
1.5091000000 6.4076000000 2.6927000000
1.5088000000 5.8108000000 3.4982000000
1.5083000000 5.8059000000 3.5042000000
1.5078000000 4.6158000000 4.3129000000
1.5073000000 2.6564000000 3.4772000000
1.5068000000 4.0818000000 4.4527000000
1.5067000000 6.9348000000 1.9982000000
1.5065000000 8.4458000000 0.0645000000
1.5063000000 3.0819000000 3.7849000000
1.5063000000 8.1484000000 0.3907000000
1.5059000000 1.8159000000 2.4185000000
1.5062000000 5.1845000000 3.9328000000
1.5055000000 7.6081000000 1.1055000000
1.5053000000 2.9479000000 3.6950000000
1.5050000000 2.9839000000 3.7154000000
1.5048000000 0.9838000000 1.3106000000
1.5046000000 1.5093000000 2.0098000000
1.5041000000 0.1600000000 0.2257000000
1.5039000000 4.6900000000 4.2536000000
1.5038000000 1.6280000000 2.1598000000
1.5033000000 0.5562000000 0.7463000000
1.5030000000 7.6057000000 1.1066000000
1.5029000000 2.4334000000 3.2345000000
1.5026000000 5.4915000000 3.7231000000
1.5024000000 1.6097000000 2.1400000000
1.5021000000 4.3009000000 4.5144000000
1.5019000000 4.9116000000 4.1113000000
1.5018000000 1.3075000000 1.7503000000
1.5015000000 3.4855000000 4.0468000000
1.5012000000 4.8095000000 4.1751000000
1.5005000000 0.1708000000 0.2351000000
1.5003000000 5.5806000000 3.6647000000
1.5002000000 4.1660000000 4.4977000000
1.4993000000 1.2032000000 1.6044000000
1.4987000000 3.0982000000 3.7830000000
1.4985000000 5.1443000000 3.9517000000
1.4968000000 7.6896000000 1.0008000000
1.2643000000 2.2389000000 2.9221000000
1.2619000000 2.7755000000 3.2936000000
1.2614000000 4.2641000000 4.2394000000
1.2607000000 1.4719000000 1.9586000000
1.2600000000 2.9065000000 3.3845000000
1.2588000000 8.3553000000 0.1126000000
1.2581000000 5.5096000000 3.4344000000
1.2575000000 5.3614000000 3.5301000000
1.2574000000 1.3997000000 1.8640000000
1.2571000000 5.0921000000 3.7051000000
1.2570000000 0.0262000000 0.0406000000
1.2569000000 2.1017000000 2.7733000000
1.2565000000 1.0752000000 1.4345000000
1.2563000000 4.7552000000 3.9336000000
1.2559000000 8.5616000000 0.0603000000
1.2558000000 6.6495000000 2.3813000000
1.2555000000 5.1344000000 3.6810000000
1.2553000000 5.3555000000 3.5294000000
1.2550000000 7.7886000000 0.8629000000
1.2548000000 5.6380000000 3.2660000000
1.2546000000 3.2037000000 3.5785000000
1.2544000000 0.4798000000 0.6482000000
1.2541000000 1.0628000000 1.4220000000
1.2539000000 1.8765000000 2.4984000000
1.2538000000 2.2533000000 2.9239000000
1.2536000000 7.1026000000 1.7710000000
1.2535000000 3.3558000000 3.6731000000
1.2533000000 7.8173000000 0.8254000000
1.2528000000 3.4612000000 3.7446000000
1.2525000000 3.9469000000 4.0642000000
1.2523000000 1.6199000000 2.1564000000
1.2522000000 2.1213000000 2.7985000000
1.2520000000 3.8943000000 4.0303000000
1.2517000000 4.5528000000 4.0555000000
1.2515000000 5.5064000000 3.4271000000
1.2512000000 3.8978000000 4.0357000000
1.2507000000 1.3117000000 1.7492000000
1.2501000000 1.3115000000 1.7510000000
1.2496000000 0.5552000000 0.7497000000
1.2494000000 3.3342000000 3.6528000000
1.2487000000 0.5743000000 0.7721000000
1.2476000000 1.3926000000 1.8572000000
1.2461000000 2.3650000000 3.0105000000
1.2438000000 1.7587000000 2.3424000000
1.0119000000 8.4503000000 0.0592000000
1.0113000000 8.2497000000 0.2531000000
1.0105000000 6.7931000000 2.2371000000
1.0100000000 5.4660000000 3.1813000000
1.0084000000 8.3026000000 0.1884000000
1.0078000000 5.1306000000 3.3958000000
1.0074000000 4.8095000000 3.6043000000
1.0071000000 5.6013000000 3.0837000000
1.0069000000 7.7203000000 0.9523000000
1.0066000000 6.5878000000 2.3534000000
1.0062000000 4.8991000000 3.5474000000
1.0056000000 7.1635000000 1.6906000000
1.0055000000 4.6389000000 3.7186000000
1.0051000000 2.7218000000 2.9725000000
1.0049000000 2.1835000000 2.6139000000
1.0047000000 6.9168000000 2.0209000000
1.0043000000 5.3294000000 3.2653000000
1.0042000000 6.9263000000 2.0128000000
1.0040000000 0.5440000000 0.7324000000
1.0037000000 5.7053000000 3.0099000000
1.0033000000 6.7674000000 2.2705000000
1.0030000000 6.7516000000 2.2914000000
1.0028000000 8.5289000000 0.0251000000
1.0026000000 4.7374000000 3.6543000000
1.0023000000 1.6468000000 2.1754000000
1.0019000000 1.8998000000 2.4163000000
1.0018000000 6.8969000000 2.0474000000
1.0016000000 1.7216000000 2.2711000000
1.0014000000 5.5083000000 3.1388000000
1.0012000000 1.7814000000 2.3209000000
1.0009000000 7.1834000000 1.6658000000
1.0005000000 3.4867000000 3.4724000000
1.0002000000 0.4074000000 0.5539000000
0.9993000000 2.7111000000 2.9572000000
0.9989000000 0.1454000000 0.2010000000
0.9986000000 2.1444000000 2.5752000000
0.9961000000 1.3035000000 1.7352000000
0.7637000000 5.8619000000 2.5569000000
0.7600000000 8.4047000000 0.1195000000
0.7590000000 8.3030000000 0.1812000000
0.7585000000 1.8564000000 2.1105000000
0.7580000000 4.9041000000 3.2529000000
0.7578000000 4.1945000000 3.6507000000
0.7575000000 7.7950000000 0.8547000000
0.7573000000 5.6304000000 2.7759000000
0.7572000000 7.9247000000 0.6869000000
0.7567000000 7.4027000000 1.3777000000
0.7565000000 4.0328000000 3.5572000000
0.7561000000 5.3399000000 2.9670000000
0.7560000000 2.3593000000 2.4468000000
0.7559000000 1.9054000000 2.1427000000
0.7556000000 5.0875000000 3.1318000000
0.7553000000 4.8573000000 3.2116000000
0.7550000000 2.0620000000 2.2407000000
0.7548000000 7.1816000000 1.7235000000
0.7545000000 6.5870000000 2.0646000000
0.7543000000 6.1378000000 2.4441000000
0.7540000000 4.2002000000 3.6426000000
0.7539000000 3.7790000000 3.3763000000
0.7537000000 5.1687000000 3.0745000000
0.7535000000 3.0861000000 2.9167000000
0.7532000000 3.2455000000 3.0312000000
0.7529000000 2.7933000000 2.7266000000
0.7526000000 5.6786000000 2.7359000000
0.7525000000 0.9021000000 1.2041000000
0.7523000000 2.3195000000 2.4112000000
0.7519000000 6.3569000000 2.2143000000
0.7515000000 0.6818000000 0.9153000000
0.7512000000 7.3409000000 1.4558000000
0.7501000000 0.0801000000 0.1143000000
0.7493000000 8.5531000000 0.0686000000
0.7491000000 2.0245000000 2.2134000000
0.7485000000 4.9551000000 3.1402000000
0.7477000000 2.5403000000 2.5549000000
0.7472000000 3.7823000000 3.3735000000
0.7438000000 3.2287000000 3.0026000000
0.5122000000 5.6051000000 2.5121000000
0.5104000000 4.9809000000 2.8523000000
0.5098000000 8.3949000000 0.1381000000
0.5087000000 8.3138000000 0.1656000000
0.5083000000 0.2236000000 0.3039000000
0.5079000000 1.6545000000 1.6959000000
0.5073000000 2.2946000000 2.1116000000
0.5071000000 3.6814000000 3.0343000000
0.5068000000 6.7152000000 1.6904000000
0.5060000000 7.7396000000 0.9271000000
0.5058000000 4.8075000000 3.0309000000
0.5054000000 2.5066000000 2.2533000000
0.5051000000 2.5779000000 2.2982000000
0.5050000000 1.6569000000 1.6895000000
0.5049000000 5.6261000000 2.4147000000
0.5046000000 7.3680000000 1.2572000000
0.5044000000 7.2627000000 1.3288000000
0.5043000000 5.7160000000 2.4281000000
0.5041000000 5.0652000000 2.7835000000
0.5039000000 8.3154000000 0.1619000000
0.5037000000 1.4172000000 1.5302000000
0.5033000000 8.2605000000 0.2401000000
0.5030000000 2.6719000000 2.3597000000
0.5027000000 4.5037000000 3.2302000000
0.5025000000 2.2643000000 2.0874000000
0.5022000000 2.5712000000 2.2847000000
0.5020000000 5.1485000000 2.8011000000
0.5018000000 3.6995000000 3.0364000000
0.5013000000 0.0667000000 0.0944000000
0.5010000000 0.4808000000 0.6444000000
0.5007000000 2.5006000000 2.2454000000
0.5005000000 0.1110000000 0.1576000000
0.5000000000 3.4950000000 2.9009000000
0.4998000000 5.1727000000 2.7046000000
0.4993000000 0.0709000000 0.0986000000
0.4991000000 2.7419000000 2.3990000000
0.4983000000 4.0475000000 3.2680000000
0.4970000000 4.5472000000 3.1952000000
0.4955000000 3.2965000000 2.7648000000
0.2613000000 6.8867000000 1.2974000000
0.2604000000 6.1363000000 1.7977000000
0.2602000000 8.4992000000 0.0699000000
0.2594000000 1.6186000000 1.3862000000
0.2588000000 3.6176000000 2.6986000000
0.2585000000 1.1799000000 1.0923000000
0.2583000000 1.4596000000 1.2748000000
0.2578000000 1.3186000000 1.1843000000
0.2575000000 4.1371000000 3.0540000000
0.2568000000 1.8259000000 1.5095000000
0.2565000000 3.3683000000 2.5426000000
0.2562000000 8.1460000000 0.4530000000
0.2560000000 3.9557000000 2.9285000000
0.2556000000 1.4039000000 1.2350000000
0.2555000000 0.7066000000 0.7744000000
0.2552000000 4.9213000000 2.6652000000
0.2550000000 3.5640000000 2.6731000000
0.2547000000 5.4771000000 2.2295000000
0.2545000000 6.4468000000 1.5852000000
0.2545000000 5.3090000000 2.4080000000
0.2540000000 8.3006000000 0.1879000000
0.2535000000 6.7340000000 1.3925000000
0.2530000000 2.0769000000 1.6800000000
0.2529000000 3.4784000000 2.6037000000
0.2528000000 3.1629000000 2.3965000000
0.2525000000 4.8971000000 2.6797000000
0.2524000000 6.4738000000 1.5583000000
0.2523000000 4.9862000000 2.6174000000
0.2520000000 3.2922000000 2.4810000000
0.2517000000 1.5950000000 1.3549000000
0.2514000000 2.3894000000 1.8803000000
0.2511000000 3.2984000000 2.4842000000
0.2508000000 3.0409000000 2.3126000000
0.2506000000 4.0052000000 2.9507000000
0.2503000000 4.2049000000 3.0588000000
0.2500000000 0.9222000000 0.9068000000
0.2495000000 4.5933000000 2.8781000000
0.2490000000 0.0283000000 0.0446000000
0.2488000000 0.3251000000 0.4392000000
0.2484000000 0.5613000000 0.5931000000
0.2470000000 0.5147000000 0.6127000000
0.2456000000 3.7202000000 2.7619000000
0.0119000000 1.4899000000 1.0072000000
0.0111000000 4.5288000000 2.6466000000
0.0104000000 1.7033000000 1.1517000000
0.0090000000 8.0006000000 0.2752000000
0.0085000000 3.0349000000 2.0306000000
0.0083000000 8.4601000000 0.0923000000
0.0081000000 1.3263000000 0.9028000000
0.0077000000 5.5714000000 1.8761000000
0.0074000000 6.3456000000 1.3697000000
0.0070000000 2.7726000000 1.8556000000
0.0068000000 3.7091000000 2.4758000000
0.0065000000 6.2292000000 1.4418000000
0.0062000000 8.5109000000 0.0355000000
0.0057000000 3.0244000000 2.0170000000
0.0055000000 6.4934000000 1.2627000000
0.0052000000 6.1593000000 1.4820000000
0.0051000000 3.3268000000 2.2220000000
0.0049000000 2.5535000000 1.7106000000
0.0045000000 3.0907000000 2.0692000000
0.0044000000 6.2602000000 1.4232000000
0.0040000000 3.1576000000 2.1093000000
0.0038000000 6.6674000000 1.1493000000
0.0036000000 2.7708000000 1.8542000000
0.0033000000 2.8478000000 1.8985000000
0.0030000000 1.8641000000 1.2473000000
0.0024000000 0.9395000000 0.6319000000
0.0022000000 7.7162000000 0.4492000000
0.0019000000 8.3704000000 0.0888000000
0.0016000000 0.6164000000 0.4174000000
0.0013000000 0.5480000000 0.3754000000
0.0003000000 5.1987000000 2.1145000000
0.0001000000 5.1734000000 2.2118000000
-0.0002000000 4.5147000000 2.6453000000
-0.0010000000 7.4174000000 0.6474000000
-0.0015000000 7.0500000000 0.8868000000
-0.0023000000 1.3057000000 0.8708000000
-0.0035000000 1.4814000000 0.9911000000
-0.2375000000 4.9264000000 2.0996000000
-0.2387000000 8.2138000000 0.0640000000
-0.2402000000 7.4644000000 0.3461000000
-0.2407000000 6.5241000000 0.9705000000
-0.2416000000 4.6641000000 2.2623000000
-0.2425000000 3.2737000000 1.9005000000
-0.2427000000 6.9263000000 0.6933000000
-0.2433000000 4.6581000000 2.2686000000
-0.2436000000 3.7584000000 2.2264000000
-0.2438000000 7.0482000000 0.6151000000
-0.2440000000 5.0428000000 2.0204000000
-0.2445000000 6.2113000000 1.1595000000
-0.2447000000 7.5519000000 0.2703000000
-0.2451000000 0.8189000000 0.2670000000
-0.2452000000 4.9153000000 2.0215000000
-0.2455000000 2.0872000000 1.1145000000
-0.2458000000 5.9504000000 1.3416000000
-0.2461000000 4.2045000000 2.4921000000
-0.2463000000 2.3700000000 1.2997000000
-0.2465000000 2.2756000000 1.2326000000
-0.2469000000 1.6785000000 0.8361000000
-0.2472000000 7.7649000000 0.1294000000
-0.2477000000 3.4575000000 2.0241000000
-0.2482000000 0.5609000000 0.0915000000
-0.2483000000 5.0502000000 2.0054000000
-0.2487000000 4.8680000000 2.1250000000
-0.2491000000 8.1233000000 0.0343000000
-0.2494000000 6.4601000000 0.9942000000
-0.2499000000 0.9814000000 0.3726000000
-0.2504000000 2.5292000000 1.3948000000
-0.2511000000 4.6878000000 2.2414000000
-0.2519000000 8.1399000000 0.0237000000
-0.2537000000 1.1298000000 0.4667000000
-0.4888000000 7.7771000000 0.0711000000
-0.4898000000 7.7278000000 0.0235000000
-0.4905000000 4.4093000000 2.1527000000
-0.4911000000 4.0822000000 2.1498000000
-0.4919000000 6.2546000000 0.8511000000
-0.4922000000 5.6163000000 1.2728000000
-0.4925000000 5.2979000000 1.4911000000
-0.4930000000 7.4669000000 0.1197000000
-0.4933000000 1.6033000000 0.5065000000
-0.4935000000 1.1403000000 0.1988000000
-0.4937000000 6.8241000000 0.4665000000
-0.4940000000 2.1741000000 0.8835000000
-0.4943000000 4.8271000000 1.7936000000
-0.4944000000 6.6929000000 0.5565000000
-0.4947000000 5.6059000000 1.2791000000
-0.4949000000 6.7653000000 0.5075000000
-0.4950000000 0.9619000000 0.0782000000
-0.4952000000 4.3412000000 2.1188000000
-0.4956000000 4.8216000000 1.8042000000
-0.4958000000 5.1609000000 1.5742000000
-0.4960000000 4.6600000000 1.9045000000
-0.4962000000 7.2300000000 0.2009000000
-0.4964000000 6.4838000000 0.6978000000
-0.4966000000 2.8340000000 1.3186000000
-0.4970000000 6.8542000000 0.4495000000
-0.4972000000 2.7182000000 1.2424000000
-0.4977000000 3.7647000000 1.9312000000
-0.4980000000 7.8471000000 0.0114000000
-0.4981000000 1.9764000000 0.7485000000
-0.4985000000 2.7254000000 1.2442000000
-0.4989000000 1.8655000000 0.6731000000
-0.4995000000 2.2278000000 0.9139000000
-0.5000000000 6.7787000000 0.4980000000
-0.5007000000 4.1725000000 2.2036000000
-0.5012000000 4.5852000000 1.9450000000
-0.5028000000 2.3826000000 1.0118000000
-0.7380000000 5.0765000000 1.4221000000
-0.7396000000 5.7716000000 0.8866000000
-0.7410000000 5.8413000000 0.8357000000
-0.7414000000 7.3219000000 0.0810000000
-0.7416000000 7.1355000000 0.0524000000
-0.7424000000 6.8949000000 0.1430000000
-0.7428000000 3.8665000000 1.7222000000
-0.7430000000 7.3103000000 0.0095000000
-0.7435000000 1.9747000000 0.4652000000
-0.7437000000 6.4934000000 0.4045000000
-0.7439000000 4.2498000000 1.9419000000
-0.7444000000 6.3167000000 0.5173000000
-0.7451000000 4.5974000000 1.6590000000
-0.7456000000 4.3290000000 1.9150000000
-0.7457000000 3.6879000000 1.5970000000
-0.7462000000 6.0283000000 0.7075000000
-0.7464000000 6.4654000000 0.4215000000
-0.7468000000 5.1133000000 1.3863000000
-0.7470000000 4.7872000000 1.6071000000
-0.7472000000 3.5522000000 1.5110000000
-0.7482000000 1.9596000000 0.4456000000
-0.7484000000 3.7059000000 1.6088000000
-0.7489000000 2.3269000000 0.6929000000
-0.7491000000 1.1671000000 0.0738000000
-0.7492000000 2.9685000000 1.1174000000
-0.7494000000 2.8956000000 1.0718000000
-0.7498000000 2.7199000000 0.9496000000
-0.7502000000 2.4815000000 0.7939000000
-0.7514000000 1.2274000000 0.0375000000
-0.7518000000 3.2224000000 1.2785000000
-0.7524000000 1.2896000000 0.0805000000
-0.7542000000 2.1975000000 0.6002000000
-0.9890000000 3.2198000000 1.0067000000
-0.9895000000 4.3360000000 1.6274000000
-0.9911000000 4.8002000000 1.2448000000
-0.9917000000 5.9424000000 0.4852000000
-0.9924000000 5.6092000000 0.7062000000
-0.9926000000 2.2625000000 0.3703000000
-0.9929000000 5.6237000000 0.6965000000
-0.9935000000 6.0495000000 0.4091000000
-0.9938000000 2.8870000000 0.7794000000
-0.9944000000 6.9111000000 0.0612000000
-0.9948000000 6.7336000000 0.0319000000
-0.9953000000 4.8583000000 1.2045000000
-0.9956000000 5.1108000000 1.1007000000
-0.9959000000 2.9975000000 0.8501000000
-0.9964000000 4.2028000000 1.6281000000
-0.9970000000 4.4436000000 1.5499000000
-0.9973000000 1.5560000000 0.0430000000
-0.9977000000 5.4433000000 0.8073000000
-0.9982000000 5.6172000000 0.6911000000
-0.9987000000 4.5923000000 1.3721000000
-0.9993000000 4.8189000000 1.2231000000
-0.9996000000 3.5508000000 1.2154000000
-1.0002000000 5.2659000000 0.9244000000
-1.0006000000 6.9181000000 0.0539000000
-1.0012000000 6.2012000000 0.3034000000
-1.0022000000 3.2110000000 0.9913000000
-1.0026000000 2.8692000000 0.7577000000
-1.0043000000 2.9468000000 0.8087000000
-1.2370000000 3.4176000000 0.8529000000
-1.2407000000 5.0504000000 0.7875000000
-1.2422000000 3.2095000000 0.7110000000
-1.2435000000 6.1002000000 0.1679000000
-1.2441000000 5.3184000000 0.6105000000
-1.2444000000 4.6147000000 1.1448000000
-1.2455000000 2.0607000000 0.0211000000
-1.2464000000 3.8293000000 1.1182000000
-1.2466000000 4.1976000000 1.3372000000
-1.2470000000 5.9294000000 0.1961000000
-1.2472000000 2.6715000000 0.3505000000
-1.2481000000 4.5045000000 1.1382000000
-1.2483000000 4.2638000000 1.3595000000
-1.2486000000 3.4018000000 0.8357000000
-1.2488000000 5.0753000000 0.7606000000
-1.2492000000 2.2595000000 0.0726000000
-1.2499000000 2.9075000000 0.4994000000
-1.2513000000 3.4886000000 0.8842000000
-1.2542000000 2.5130000000 0.2365000000
-1.4905000000 2.5589000000 0.0654000000
-1.4921000000 4.4040000000 0.9276000000
-1.4926000000 4.4372000000 0.9091000000
-1.4932000000 3.6824000000 0.7414000000
-1.4935000000 6.0070000000 0.0153000000
-1.4938000000 4.7951000000 0.6690000000
-1.4943000000 6.1360000000 0.0065000000
-1.4953000000 5.6499000000 0.0987000000
-1.4958000000 2.8174000000 0.1574000000
-1.4963000000 2.4283000000 0.0465000000
-1.4971000000 2.5197000000 0.0360000000
-1.4974000000 3.9015000000 0.8753000000
-1.4982000000 5.9969000000 0.0127000000
-1.4997000000 3.9155000000 0.8864000000
-1.5009000000 5.8867000000 0.0835000000
-1.5020000000 3.3977000000 0.5385000000
-1.7377000000 3.9802000000 0.6536000000
-1.7420000000 4.3305000000 0.7646000000
-1.7435000000 3.5237000000 0.3424000000
-1.7439000000 4.6288000000 0.4919000000
-1.7443000000 4.5483000000 0.5463000000
-1.7447000000 4.5724000000 0.5262000000
-1.7452000000 5.3048000000 0.1164000000
-1.7462000000 4.3585000000 0.6665000000
-1.7480000000 4.0535000000 0.6904000000
-1.7491000000 4.3330000000 0.6770000000
-1.7499000000 3.2165000000 0.1316000000
-1.7515000000 5.2841000000 0.1202000000
-1.7547000000 5.3192000000 0.0987000000
-1.9910000000 4.4512000000 0.3187000000
-1.9919000000 4.6193000000 0.2123000000
-1.9940000000 3.5261000000 0.0601000000
-1.9946000000 4.6720000000 0.1710000000
-1.9962000000 4.6584000000 0.1846000000
-1.9972000000 4.2172000000 0.4859000000
-1.9980000000 4.4663000000 0.3118000000
-1.9993000000 3.5632000000 0.0689000000
