5.7610000000 3.6626000000 0.0703000000
5.7588000000 3.7582000000 0.0936000000
5.7572000000 3.8730000000 0.0281000000
5.7553000000 3.5760000000 0.1292000000
5.7541000000 3.4015000000 0.1245000000
5.7518000000 3.5870000000 0.1193000000
5.7494000000 2.9741000000 0.0446000000
5.5110000000 3.0963000000 0.2158000000
5.5087000000 4.1952000000 0.0933000000
5.5084000000 4.1728000000 0.1104000000
5.5078000000 3.8916000000 0.1203000000
5.5071000000 3.1065000000 0.2145000000
5.5055000000 3.7808000000 0.1842000000
5.5046000000 2.5330000000 0.0367000000
5.5033000000 2.7377000000 0.0838000000
5.5023000000 3.1124000000 0.2228000000
5.5017000000 2.5877000000 0.0696000000
5.4992000000 4.0089000000 0.1352000000
5.2620000000 2.9911000000 0.3932000000
5.2591000000 3.9889000000 0.3111000000
5.2583000000 2.7709000000 0.2769000000
5.2575000000 3.9366000000 0.3441000000
5.2569000000 2.8638000000 0.3270000000
5.2563000000 3.2297000000 0.5433000000
5.2561000000 2.5873000000 0.1698000000
5.2555000000 3.4707000000 0.6136000000
5.2534000000 3.2890000000 0.5779000000
5.2533000000 2.5701000000 0.1644000000
5.2526000000 3.1746000000 0.5127000000
5.2521000000 2.2406000000 0.0478000000
5.2518000000 2.0369000000 0.0041000000
5.2514000000 2.4832000000 0.1102000000
5.2500000000 3.3159000000 0.5977000000
5.2495000000 2.7758000000 0.2834000000
5.2438000000 4.4498000000 0.1323000000
5.0125000000 2.2252000000 0.2046000000
5.0092000000 4.6978000000 0.1472000000
5.0083000000 5.1132000000 0.0572000000
5.0076000000 2.4973000000 0.3642000000
5.0067000000 3.4086000000 0.8728000000
5.0065000000 4.2278000000 0.4250000000
5.0061000000 4.4462000000 0.3058000000
5.0049000000 3.1445000000 0.7444000000
5.0047000000 4.2783000000 0.3921000000
5.0046000000 1.8784000000 0.0828000000
5.0043000000 3.2161000000 0.7840000000
5.0040000000 5.1556000000 0.0422000000
5.0032000000 2.5492000000 0.4020000000
5.0029000000 1.6707000000 0.0422000000
5.0027000000 4.9753000000 0.0717000000
5.0019000000 2.3133000000 0.2606000000
5.0014000000 2.3211000000 0.2656000000
5.0008000000 2.7105000000 0.4965000000
5.0004000000 3.0388000000 0.6843000000
5.0002000000 2.7331000000 0.5081000000
4.9985000000 4.4314000000 0.3174000000
4.7627000000 4.4374000000 0.5514000000
4.7610000000 5.1633000000 0.1321000000
4.7602000000 2.8625000000 0.8238000000
4.7597000000 2.3517000000 0.5274000000
4.7590000000 4.4505000000 0.5464000000
4.7587000000 2.2526000000 0.4692000000
4.7580000000 4.9704000000 0.2505000000
4.7578000000 2.4988000000 0.6121000000
4.7576000000 5.4891000000 0.0939000000
4.7575000000 3.4303000000 1.1203000000
4.7571000000 2.6454000000 0.7060000000
4.7569000000 3.6298000000 1.0220000000
4.7567000000 4.6858000000 0.4148000000
4.7563000000 3.4287000000 1.1239000000
4.7560000000 4.9096000000 0.2832000000
4.7558000000 2.9653000000 0.8854000000
4.7556000000 3.0998000000 0.9709000000
4.7552000000 4.1702000000 0.7152000000
4.7551000000 2.8973000000 0.8489000000
4.7550000000 1.7935000000 0.2156000000
4.7547000000 4.8778000000 0.3052000000
4.7545000000 2.0805000000 0.3758000000
4.7542000000 1.6081000000 0.1091000000
4.7541000000 5.0384000000 0.2103000000
4.7538000000 1.3185000000 0.0822000000
4.7534000000 2.9887000000 0.9062000000
4.7529000000 5.6229000000 0.0242000000
4.7526000000 5.1201000000 0.1676000000
4.7524000000 3.9845000000 0.8224000000
4.7518000000 3.8207000000 0.9208000000
4.7511000000 2.3689000000 0.5496000000
4.7508000000 1.6411000000 0.1305000000
4.7500000000 1.6791000000 0.1537000000
4.7486000000 4.3674000000 0.6002000000
4.7475000000 1.4467000000 0.0973000000
4.5106000000 2.6530000000 0.9595000000
4.5096000000 3.7281000000 1.2140000000
4.5088000000 6.0665000000 0.0059000000
4.5084000000 2.8873000000 1.0928000000
4.5079000000 6.0691000000 0.0094000000
4.5076000000 1.8258000000 0.4789000000
4.5073000000 3.6950000000 1.2328000000
4.5067000000 4.6909000000 0.6627000000
4.5065000000 2.3423000000 0.7795000000
4.5062000000 4.8418000000 0.5735000000
4.5060000000 4.0486000000 1.0373000000
4.5057000000 5.0959000000 0.4301000000
4.5055000000 2.4112000000 0.8221000000
4.5052000000 5.0040000000 0.4758000000
4.5050000000 3.2882000000 1.3329000000
4.5046000000 2.3847000000 0.8081000000
4.5043000000 2.2462000000 0.7292000000
4.5040000000 3.2541000000 1.3123000000
4.5037000000 2.1357000000 0.6588000000
4.5036000000 4.3899000000 0.8367000000
4.5035000000 3.3913000000 1.3650000000
4.5033000000 3.9865000000 1.0708000000
4.5032000000 1.9906000000 0.5784000000
4.5030000000 0.9656000000 0.0537000000
4.5028000000 1.2275000000 0.1380000000
4.5026000000 4.1500000000 0.9809000000
4.5024000000 2.5282000000 0.8894000000
4.5019000000 4.9170000000 0.5316000000
4.5013000000 0.8851000000 0.0865000000
4.5008000000 1.6786000000 0.4047000000
4.5005000000 2.3619000000 0.7951000000
4.5000000000 5.9666000000 0.0787000000
4.4998000000 3.8954000000 1.1280000000
4.4990000000 2.4872000000 0.8679000000
4.4987000000 3.1030000000 1.2281000000
4.4983000000 2.8128000000 1.0603000000
4.4975000000 4.1808000000 0.9671000000
4.4971000000 1.5025000000 0.2967000000
4.4955000000 0.9669000000 0.0691000000
4.2628000000 1.4949000000 0.5320000000
4.2612000000 3.8041000000 1.4220000000
4.2604000000 4.9249000000 0.7713000000
4.2597000000 6.3803000000 0.0783000000
4.2590000000 3.6424000000 1.5142000000
4.2588000000 6.3511000000 0.0939000000
4.2587000000 1.1993000000 0.3646000000
4.2585000000 5.7926000000 0.2692000000
4.2583000000 2.0847000000 0.8779000000
4.2580000000 1.3364000000 0.4480000000
4.2575000000 3.3648000000 1.6098000000
4.2573000000 3.1009000000 1.4697000000
4.2570000000 3.7061000000 1.4817000000
4.2565000000 5.8482000000 0.2432000000
4.2565000000 4.1946000000 1.2027000000
4.2560000000 6.0179000000 0.1422000000
4.2555000000 5.1568000000 0.6446000000
4.2554000000 0.8452000000 0.1608000000
4.2551000000 3.3340000000 1.6033000000
4.2550000000 5.1484000000 0.6473000000
4.2548000000 5.4256000000 0.4903000000
4.2547000000 5.8295000000 0.2558000000
4.2545000000 5.5517000000 0.4181000000
4.2543000000 5.5678000000 0.4085000000
4.2538000000 6.2960000000 0.0602000000
4.2534000000 3.5104000000 1.5972000000
4.2533000000 5.1617000000 0.6419000000
4.2531000000 5.8430000000 0.2466000000
4.2530000000 2.9848000000 1.4091000000
4.2529000000 4.3792000000 1.0975000000
4.2528000000 0.5387000000 0.0628000000
4.2526000000 5.6507000000 0.3612000000
4.2525000000 6.4580000000 0.0420000000
4.2522000000 1.6584000000 0.6363000000
4.2518000000 1.2984000000 0.4277000000
4.2518000000 3.9666000000 1.3394000000
4.2517000000 0.3605000000 0.0415000000
4.2516000000 4.5776000000 0.9762000000
4.2515000000 5.3145000000 0.5553000000
4.2511000000 6.2493000000 0.0888000000
4.2508000000 0.9334000000 0.2213000000
4.2507000000 1.0216000000 0.2726000000
4.2505000000 2.5951000000 1.1843000000
4.2503000000 2.7218000000 1.2586000000
4.2499000000 2.3356000000 1.0286000000
4.2496000000 3.7608000000 1.4567000000
4.2494000000 3.4327000000 1.6253000000
4.2491000000 0.9372000000 0.2248000000
4.2482000000 2.4400000000 1.0915000000
4.2464000000 3.4418000000 1.6242000000
4.2456000000 3.8286000000 1.4232000000
4.2447000000 1.2582000000 0.4209000000
4.0134000000 5.1967000000 0.8607000000
4.0107000000 3.8777000000 1.6317000000
4.0101000000 6.7764000000 0.0995000000
4.0095000000 4.2951000000 1.3901000000
4.0089000000 4.2989000000 1.3882000000
4.0084000000 4.9842000000 0.9911000000
4.0079000000 1.3539000000 0.7077000000
4.0074000000 5.6555000000 0.5991000000
4.0073000000 2.9707000000 1.6451000000
4.0070000000 4.4125000000 1.3274000000
4.0068000000 6.0841000000 0.3501000000
4.0065000000 1.7762000000 0.9526000000
4.0064000000 5.6926000000 0.5845000000
4.0061000000 4.8676000000 1.0628000000
4.0058000000 4.4684000000 1.2891000000
4.0057000000 4.4066000000 1.3262000000
4.0055000000 3.8417000000 1.6577000000
4.0051000000 3.9624000000 1.5872000000
4.0049000000 1.2181000000 0.6364000000
4.0048000000 3.7708000000 1.6957000000
4.0046000000 0.5034000000 0.2154000000
4.0045000000 6.7593000000 0.0402000000
4.0043000000 0.1662000000 0.0928000000
4.0041000000 4.5690000000 1.2363000000
4.0040000000 5.8324000000 0.5056000000
4.0037000000 5.1080000000 0.9235000000
4.0032000000 5.9706000000 0.4287000000
4.0031000000 3.1331000000 1.7462000000
4.0030000000 2.0230000000 1.0934000000
4.0025000000 0.2855000000 0.0925000000
4.0023000000 3.7659000000 1.7043000000
4.0021000000 4.6745000000 1.1732000000
4.0018000000 1.0744000000 0.5589000000
4.0014000000 4.2254000000 1.4351000000
4.0010000000 4.7254000000 1.1487000000
4.0008000000 3.8399000000 1.6622000000
4.0006000000 1.4014000000 0.7369000000
4.0004000000 2.7445000000 1.5207000000
4.0000000000 0.4847000000 0.2106000000
3.9998000000 1.2020000000 0.6308000000
3.9997000000 0.0014000000 0.0746000000
3.9994000000 1.1755000000 0.6147000000
3.9990000000 0.7151000000 0.3459000000
3.9983000000 1.8173000000 0.9853000000
3.9960000000 1.9340000000 1.0517000000
3.7653000000 3.7831000000 1.9369000000
3.7623000000 5.3932000000 1.0041000000
3.7621000000 4.9056000000 1.2851000000
3.7601000000 6.5057000000 0.3405000000
3.7594000000 6.1400000000 0.5684000000
3.7587000000 5.2879000000 1.0654000000
3.7585000000 6.3585000000 0.4465000000
3.7581000000 5.3187000000 1.0494000000
3.7576000000 0.0145000000 0.0837000000
3.7575000000 6.1062000000 0.5891000000
3.7573000000 6.4300000000 0.3858000000
3.7571000000 6.2223000000 0.5288000000
3.7568000000 2.3041000000 1.5075000000
3.7564000000 4.2287000000 1.6816000000
3.7560000000 0.3531000000 0.3584000000
3.7559000000 4.2656000000 1.6679000000
3.7557000000 5.1340000000 1.1652000000
3.7556000000 2.4511000000 1.5967000000
3.7554000000 4.7794000000 1.3629000000
3.7550000000 0.8807000000 0.6880000000
3.7548000000 1.4702000000 1.0287000000
3.7545000000 4.5806000000 1.4823000000
3.7543000000 3.6705000000 2.0093000000
3.7542000000 4.2067000000 1.6964000000
3.7539000000 5.8038000000 0.7638000000
3.7535000000 2.7334000000 1.7666000000
3.7535000000 0.6973000000 0.5867000000
3.7531000000 5.9298000000 0.6992000000
3.7528000000 4.1716000000 1.7232000000
3.7527000000 6.7744000000 0.1278000000
3.7525000000 0.7085000000 0.5916000000
3.7521000000 2.7102000000 1.7488000000
3.7519000000 2.2708000000 1.4877000000
3.7517000000 0.3651000000 0.3740000000
3.7512000000 1.3212000000 0.9439000000
3.7508000000 2.1469000000 1.4317000000
3.7506000000 1.2555000000 0.9095000000
3.7505000000 5.7151000000 0.8293000000
3.7502000000 3.8598000000 1.8997000000
3.7498000000 2.1392000000 1.4177000000
3.7489000000 0.1159000000 0.1226000000
3.7486000000 2.0853000000 1.3890000000
3.7478000000 3.0191000000 1.9293000000
3.7471000000 1.3799000000 0.9794000000
3.7463000000 0.3554000000 0.3727000000
3.7445000000 0.7341000000 0.6131000000
3.5115000000 1.5291000000 1.3052000000
3.5107000000 6.0777000000 0.8372000000
3.5094000000 2.4110000000 1.8237000000
3.5092000000 4.9947000000 1.4911000000
3.5088000000 5.0037000000 1.4775000000
3.5080000000 4.1224000000 1.9986000000
3.5076000000 3.8421000000 2.1579000000
3.5073000000 6.7747000000 0.1250000000
3.5072000000 1.6802000000 1.4027000000
3.5070000000 2.7835000000 2.0381000000
3.5067000000 5.3622000000 1.2826000000
3.5065000000 3.6805000000 2.2535000000
3.5063000000 4.2757000000 1.9049000000
3.5061000000 5.8129000000 1.0149000000
3.5057000000 3.7559000000 2.2104000000
3.5056000000 4.7844000000 1.6094000000
3.5055000000 4.9074000000 1.5420000000
3.5054000000 1.9070000000 1.5328000000
3.5052000000 4.4539000000 1.8030000000
3.5049000000 2.4667000000 1.8609000000
3.5048000000 1.4038000000 1.2389000000
3.5047000000 5.3116000000 1.3085000000
3.5045000000 5.8760000000 0.9819000000
3.5042000000 2.3489000000 1.7881000000
3.5041000000 3.5361000000 2.3419000000
3.5040000000 5.7465000000 1.0547000000
3.5034000000 6.1687000000 0.7415000000
3.5032000000 4.5445000000 1.7444000000
3.5030000000 0.8727000000 0.9236000000
3.5028000000 1.1648000000 1.1052000000
3.5028000000 4.3604000000 1.8583000000
3.5026000000 4.2343000000 1.9329000000
3.5021000000 3.3110000000 2.3489000000
3.5018000000 2.5014000000 1.8788000000
3.5016000000 6.1782000000 0.7339000000
3.5010000000 0.6699000000 0.7484000000
3.5005000000 3.7650000000 2.2050000000
3.5003000000 6.6945000000 0.1409000000
3.4999000000 6.5986000000 0.2568000000
3.4993000000 2.8331000000 2.0749000000
3.4991000000 1.8508000000 1.5007000000
3.4983000000 4.0498000000 2.0473000000
3.4972000000 1.9514000000 1.5630000000
3.2636000000 1.1259000000 1.2767000000
3.2620000000 0.2629000000 0.2919000000
3.2613000000 5.7531000000 1.2294000000
3.2605000000 4.7212000000 1.8920000000
3.2600000000 4.1299000000 2.2394000000
3.2599000000 6.0939000000 0.8492000000
3.2593000000 6.4622000000 0.4158000000
3.2583000000 3.9945000000 2.3197000000
3.2580000000 3.0946000000 2.4673000000
3.2577000000 2.9993000000 2.4190000000
3.2574000000 1.9986000000 1.8373000000
3.2570000000 6.6255000000 0.2253000000
3.2569000000 4.3466000000 2.1155000000
3.2565000000 2.4324000000 2.0884000000
3.2561000000 4.1747000000 2.2170000000
3.2559000000 3.4494000000 2.6182000000
3.2556000000 1.7872000000 1.7123000000
3.2555000000 0.2482000000 0.2776000000
3.2552000000 3.6972000000 2.4951000000
3.2551000000 6.3620000000 0.5322000000
3.2550000000 2.0425000000 1.8597000000
3.2548000000 0.0191000000 0.0815000000
3.2547000000 3.5064000000 2.6031000000
3.2546000000 3.6409000000 2.5261000000
3.2545000000 5.7301000000 1.2510000000
3.2545000000 3.0296000000 2.4305000000
3.2543000000 2.6754000000 2.2295000000
3.2541000000 5.3659000000 1.5282000000
3.2540000000 3.8660000000 2.3953000000
3.2539000000 2.9283000000 2.3837000000
3.2538000000 0.7587000000 0.8753000000
3.2536000000 1.4890000000 1.5456000000
3.2533000000 4.1136000000 2.2602000000
3.2532000000 2.7646000000 2.2856000000
3.2531000000 3.0141000000 2.4298000000
3.2530000000 3.3254000000 2.6082000000
3.2528000000 1.0867000000 1.2384000000
3.2525000000 0.3108000000 0.3457000000
3.2523000000 0.6235000000 0.7153000000
3.2520000000 4.7894000000 1.8666000000
3.2519000000 3.6885000000 2.5015000000
3.2515000000 1.3850000000 1.4912000000
3.2514000000 3.5434000000 2.5857000000
3.2511000000 2.7373000000 2.2680000000
3.2507000000 2.1349000000 1.9146000000
3.2499000000 4.5520000000 2.0035000000
3.2497000000 1.7799000000 1.7195000000
3.2494000000 3.1327000000 2.4979000000
3.2490000000 1.7452000000 1.6957000000
3.2488000000 3.0623000000 2.4630000000
3.2480000000 4.6532000000 1.9460000000
3.2477000000 4.6588000000 1.9427000000
3.2473000000 4.0852000000 2.2761000000
3.2463000000 3.2328000000 2.5588000000
3.2448000000 1.7835000000 1.7241000000
3.2441000000 0.8351000000 0.9588000000
3.2424000000 1.3375000000 1.4617000000
3.0140000000 5.1154000000 1.9081000000
3.0119000000 3.3857000000 2.8695000000
3.0102000000 4.1207000000 2.4955000000
3.0099000000 6.6261000000 0.2259000000
3.0094000000 5.1517000000 1.8791000000
3.0085000000 6.0918000000 0.8479000000
3.0080000000 6.3212000000 0.5834000000
3.0077000000 0.2396000000 0.2699000000
3.0073000000 4.8077000000 2.1019000000
3.0073000000 1.0794000000 1.2421000000
3.0071000000 5.3213000000 1.7365000000
3.0070000000 1.5691000000 1.7919000000
3.0068000000 4.3377000000 2.3748000000
3.0068000000 6.0798000000 0.8562000000
3.0063000000 4.0397000000 2.5479000000
3.0060000000 5.5840000000 1.4293000000
3.0058000000 1.9544000000 2.0552000000
3.0055000000 6.3687000000 0.5286000000
3.0054000000 6.0717000000 0.8657000000
3.0053000000 4.1900000000 2.4567000000
3.0052000000 5.5241000000 1.4998000000
3.0050000000 0.6059000000 0.6933000000
3.0049000000 3.2349000000 2.8059000000
3.0048000000 2.7924000000 2.5557000000
3.0046000000 2.2621000000 2.2416000000
3.0045000000 1.9910000000 2.0810000000
3.0043000000 3.5853000000 2.8116000000
3.0041000000 2.7198000000 2.5121000000
3.0039000000 6.4282000000 0.4521000000
3.0037000000 2.2558000000 2.2394000000
3.0035000000 2.2779000000 2.2522000000
3.0033000000 6.5337000000 0.3330000000
3.0031000000 5.6165000000 1.3909000000
3.0030000000 0.8028000000 0.9226000000
3.0028000000 1.3077000000 1.5123000000
3.0027000000 0.6426000000 0.7355000000
3.0025000000 6.5709000000 0.2846000000
3.0021000000 0.0525000000 0.1252000000
3.0020000000 4.1867000000 2.4680000000
3.0015000000 5.0748000000 1.9502000000
3.0011000000 4.8068000000 2.1065000000
3.0005000000 0.0501000000 0.1249000000
3.0003000000 2.0453000000 2.1172000000
2.9998000000 2.8595000000 2.5957000000
2.9997000000 6.1342000000 0.7910000000
2.9995000000 2.6694000000 2.4852000000
2.9987000000 5.4584000000 1.5781000000
2.9963000000 0.4944000000 0.5641000000
2.9962000000 4.2402000000 2.4396000000
2.9930000000 0.2911000000 0.3317000000
2.7613000000 1.5822000000 1.8238000000
2.7592000000 2.5354000000 2.6500000000
2.7589000000 6.4660000000 0.4098000000
2.7585000000 3.2002000000 3.0314000000
2.7584000000 3.1682000000 3.0146000000
2.7583000000 6.0332000000 0.9143000000
2.7580000000 4.7508000000 2.3634000000
2.7578000000 4.1445000000 2.7340000000
2.7575000000 5.8306000000 1.1476000000
2.7573000000 5.7548000000 1.2399000000
2.7572000000 1.2011000000 1.3871000000
2.7571000000 5.9439000000 1.0138000000
2.7570000000 3.1313000000 2.9900000000
2.7568000000 4.8775000000 2.2493000000
2.7568000000 2.0723000000 2.3571000000
2.7563000000 6.3179000000 0.5830000000
2.7563000000 0.6181000000 0.7087000000
2.7560000000 5.4936000000 1.5407000000
2.7554000000 4.7299000000 2.3802000000
2.7553000000 0.7774000000 0.8918000000
2.7550000000 3.1845000000 3.0321000000
2.7550000000 3.3013000000 3.0954000000
2.7548000000 2.4107000000 2.5797000000
2.7548000000 1.5349000000 1.7682000000
2.7547000000 5.3104000000 1.7514000000
2.7543000000 3.1582000000 3.0135000000
2.7541000000 5.9833000000 0.9701000000
2.7540000000 1.1418000000 1.3134000000
2.7537000000 4.0968000000 2.7667000000
2.7535000000 2.8044000000 2.8115000000
2.7534000000 5.6323000000 1.3772000000
2.7531000000 6.4773000000 0.3947000000
2.7530000000 1.4202000000 1.6334000000
2.7529000000 4.4693000000 2.5508000000
2.7525000000 2.2720000000 2.5033000000
2.7523000000 5.0874000000 2.0073000000
2.7522000000 5.6771000000 1.3197000000
2.7520000000 0.2682000000 0.3006000000
2.7518000000 0.2573000000 0.2859000000
2.7515000000 0.8670000000 0.9923000000
2.7514000000 2.7490000000 2.7789000000
2.7508000000 5.0097000000 2.1028000000
2.7505000000 0.7319000000 0.8365000000
2.7502000000 1.1835000000 1.3644000000
2.7499000000 3.5561000000 3.0806000000
2.7493000000 2.2498000000 2.4950000000
2.7486000000 2.5093000000 2.6382000000
2.7482000000 6.8664000000 0.0994000000
2.7476000000 2.8618000000 2.8541000000
2.7470000000 0.6192000000 0.7003000000
2.7442000000 1.6905000000 1.9479000000
2.5126000000 6.5513000000 0.3144000000
2.5122000000 5.2360000000 1.8396000000
2.5098000000 6.5659000000 0.2911000000
2.5093000000 6.7912000000 0.1077000000
2.5090000000 3.9555000000 3.0966000000
2.5087000000 4.3518000000 2.8408000000
2.5082000000 4.1608000000 2.9765000000
2.5078000000 6.8426000000 0.0414000000
2.5076000000 6.0835000000 0.8531000000
2.5073000000 2.4052000000 2.7616000000
2.5069000000 3.0332000000 3.1890000000
2.5065000000 2.6919000000 2.9895000000
2.5061000000 1.8092000000 2.0916000000
2.5058000000 2.2542000000 2.6023000000
2.5057000000 4.2003000000 2.9532000000
2.5055000000 6.5021000000 0.3640000000
2.5053000000 3.1487000000 3.2578000000
2.5051000000 4.6500000000 2.5163000000
2.5048000000 3.2257000000 3.3085000000
2.5047000000 4.3643000000 2.8319000000
2.5045000000 1.6160000000 1.8627000000
2.5044000000 4.0730000000 3.0325000000
2.5043000000 6.1125000000 0.8248000000
2.5040000000 2.1618000000 2.4985000000
2.5037000000 3.6152000000 3.2973000000
2.5036000000 3.8064000000 3.1843000000
2.5034000000 3.3818000000 3.3722000000
2.5032000000 1.3456000000 1.5461000000
2.5031000000 5.7505000000 1.2364000000
2.5029000000 1.5733000000 1.8178000000
2.5028000000 0.0108000000 0.0739000000
2.5026000000 0.9132000000 1.0492000000
2.5025000000 4.8423000000 2.2884000000
2.5023000000 5.1511000000 1.9330000000
2.5018000000 4.2528000000 2.9118000000
2.5015000000 0.1480000000 0.1646000000
2.5013000000 4.6785000000 2.4765000000
2.5012000000 0.2243000000 0.2547000000
2.5009000000 4.2000000000 2.9624000000
2.5005000000 2.1622000000 2.4932000000
2.4999000000 2.8823000000 3.1119000000
2.4997000000 0.3163000000 0.3582000000
2.4995000000 0.7948000000 0.9107000000
2.4989000000 5.8566000000 1.1203000000
2.4984000000 5.3125000000 1.7466000000
2.4979000000 0.5966000000 0.6824000000
2.4977000000 1.2461000000 1.4374000000
2.4974000000 0.7677000000 0.8817000000
2.4971000000 3.5224000000 3.3610000000
2.4953000000 0.8821000000 1.0122000000
2.2628000000 5.9722000000 0.9836000000
2.2619000000 0.1765000000 0.1938000000
2.2612000000 2.4322000000 2.8099000000
2.2606000000 3.8069000000 3.4254000000
2.2597000000 3.7563000000 3.4581000000
2.2586000000 2.8125000000 3.2408000000
2.2583000000 1.9651000000 2.2692000000
2.2580000000 6.5037000000 0.3659000000
2.2576000000 2.1381000000 2.4739000000
2.2575000000 0.7281000000 0.8334000000
2.2573000000 3.7043000000 3.4940000000
2.2567000000 2.6080000000 3.0104000000
2.2566000000 2.1551000000 2.4874000000
2.2563000000 2.2404000000 2.5851000000
2.2559000000 5.2824000000 1.7849000000
2.2557000000 2.1436000000 2.4697000000
2.2555000000 4.8828000000 2.2496000000
2.2554000000 1.7476000000 2.0158000000
2.2552000000 0.8509000000 0.9770000000
2.2548000000 2.9465000000 3.3730000000
2.2547000000 3.0333000000 3.4446000000
2.2544000000 2.4733000000 2.8620000000
2.2542000000 2.9878000000 3.3992000000
2.2540000000 4.4434000000 2.7492000000
2.2539000000 5.3959000000 1.6528000000
2.2537000000 3.4821000000 3.6177000000
2.2535000000 2.4658000000 2.8490000000
2.2534000000 0.2624000000 0.2906000000
2.2533000000 3.3771000000 3.6300000000
2.2529000000 0.1718000000 0.1932000000
2.2528000000 3.6620000000 3.5183000000
2.2526000000 4.5266000000 2.6594000000
2.2524000000 4.5925000000 2.5825000000
2.2522000000 6.4115000000 0.4761000000
2.2520000000 2.0233000000 2.3361000000
2.2518000000 4.0164000000 3.2518000000
2.2516000000 1.1054000000 1.2701000000
2.2514000000 4.7236000000 2.4263000000
2.2513000000 5.1496000000 1.9324000000
2.2511000000 4.8555000000 2.2788000000
2.2510000000 4.1261000000 3.1226000000
2.2508000000 1.7909000000 2.0690000000
2.2501000000 3.1368000000 3.5016000000
2.2500000000 3.8387000000 3.4019000000
2.2498000000 1.0594000000 1.2161000000
2.2493000000 1.2298000000 1.4207000000
2.2484000000 0.3359000000 0.3782000000
2.2468000000 1.5228000000 1.7528000000
2.0134000000 4.1886000000 3.0536000000
2.0117000000 2.7966000000 3.2280000000
2.0110000000 3.8608000000 3.4281000000
2.0100000000 6.3818000000 0.5101000000
2.0097000000 3.4227000000 3.8588000000
2.0093000000 6.8080000000 0.0882000000
2.0091000000 5.3037000000 1.7580000000
2.0083000000 4.6822000000 2.4806000000
2.0077000000 3.9986000000 3.2744000000
2.0074000000 2.1143000000 2.4431000000
2.0073000000 5.1933000000 1.8836000000
2.0070000000 3.2705000000 3.7647000000
2.0070000000 4.9228000000 2.1985000000
2.0067000000 4.4640000000 2.7322000000
2.0065000000 4.1711000000 3.0738000000
2.0062000000 4.2680000000 2.9600000000
2.0060000000 4.1147000000 3.1375000000
2.0059000000 2.2282000000 2.5706000000
2.0058000000 5.2051000000 1.8729000000
2.0055000000 3.7130000000 3.6004000000
2.0053000000 4.7342000000 2.4165000000
2.0050000000 2.4464000000 2.8279000000
2.0049000000 3.7401000000 3.5702000000
2.0047000000 6.0235000000 0.9206000000
2.0046000000 3.4222000000 3.8584000000
2.0044000000 3.9439000000 3.3281000000
2.0040000000 5.1412000000 1.9458000000
2.0039000000 3.6235000000 3.7097000000
2.0036000000 5.0597000000 2.0440000000
2.0032000000 6.4247000000 0.4539000000
2.0030000000 2.7974000000 3.2290000000
2.0028000000 0.8970000000 1.0259000000
2.0026000000 5.4791000000 1.5573000000
2.0025000000 3.6532000000 3.6765000000
2.0023000000 2.6719000000 3.0842000000
2.0022000000 1.3018000000 1.5004000000
2.0020000000 4.4457000000 2.7601000000
2.0016000000 4.3468000000 2.8687000000
2.0012000000 3.9920000000 3.2816000000
2.0011000000 3.7008000000 3.6203000000
2.0010000000 0.6365000000 0.7246000000
2.0008000000 4.0495000000 3.2110000000
2.0006000000 2.2392000000 2.5856000000
2.0005000000 1.9580000000 2.2598000000
2.0002000000 0.4515000000 0.5159000000
1.9998000000 0.3534000000 0.3997000000
1.9994000000 4.0387000000 3.2283000000
1.9991000000 1.3031000000 1.4961000000
1.9979000000 2.7029000000 3.1254000000
1.9972000000 2.7915000000 3.2270000000
1.9970000000 3.0550000000 3.5326000000
1.9939000000 2.4837000000 2.8713000000
1.7602000000 2.6088000000 3.0172000000
1.7596000000 5.8152000000 1.1633000000
1.7592000000 1.8425000000 2.1260000000
1.7590000000 4.0553000000 3.2088000000
1.7586000000 4.1582000000 3.0854000000
1.7582000000 0.6755000000 0.7717000000
1.7580000000 6.3324000000 0.5636000000
1.7577000000 2.8263000000 3.2639000000
1.7575000000 3.3167000000 3.6716000000
1.7570000000 2.5120000000 2.9060000000
1.7568000000 0.4418000000 0.4996000000
1.7568000000 3.4204000000 3.7089000000
1.7565000000 3.6986000000 3.5529000000
1.7562000000 3.7486000000 3.5142000000
1.7561000000 0.7361000000 0.8460000000
1.7560000000 2.2618000000 2.6134000000
1.7558000000 5.5832000000 1.4334000000
1.7557000000 6.3123000000 0.5833000000
1.7556000000 6.7666000000 0.1408000000
1.7555000000 4.1565000000 3.0866000000
1.7552000000 3.6078000000 3.6172000000
1.7550000000 5.1746000000 1.9059000000
1.7550000000 5.4640000000 1.5698000000
1.7547000000 6.5293000000 0.3374000000
1.7545000000 0.4410000000 0.5035000000
1.7542000000 1.0184000000 1.1715000000
1.7538000000 6.6853000000 0.1515000000
1.7536000000 1.9791000000 2.2865000000
1.7535000000 1.4101000000 1.6237000000
1.7534000000 2.3360000000 2.7034000000
1.7532000000 2.0671000000 2.3824000000
1.7529000000 2.2459000000 2.5944000000
1.7528000000 6.1282000000 0.8059000000
1.7525000000 3.2026000000 3.6107000000
1.7524000000 2.5903000000 2.9951000000
1.7523000000 3.2347000000 3.6263000000
1.7520000000 1.5227000000 1.7591000000
1.7518000000 4.1420000000 3.1045000000
1.7516000000 4.7823000000 2.3604000000
1.7512000000 2.0295000000 2.3398000000
1.7509000000 0.4038000000 0.4596000000
1.7507000000 5.2084000000 1.8657000000
1.7504000000 5.4719000000 1.5676000000
1.7501000000 2.2137000000 2.5603000000
1.7499000000 0.3366000000 0.3790000000
1.7495000000 4.9375000000 2.1778000000
1.7490000000 2.2338000000 2.5833000000
1.7486000000 1.6730000000 1.9293000000
1.7485000000 4.0409000000 3.2185000000
1.7473000000 2.7112000000 3.1362000000
1.7453000000 1.4111000000 1.6246000000
1.5152000000 6.4538000000 0.4262000000
1.5129000000 6.5318000000 0.3338000000
1.5112000000 4.9889000000 2.1263000000
1.5103000000 6.7166000000 0.1181000000
1.5096000000 4.9730000000 2.1376000000
1.5094000000 6.4825000000 0.3922000000
1.5088000000 4.8298000000 2.3061000000
1.5083000000 6.2912000000 0.6081000000
1.5075000000 6.4587000000 0.4168000000
1.5072000000 5.4496000000 1.5909000000
1.5068000000 6.4830000000 0.3883000000
1.5067000000 2.2412000000 2.5881000000
1.5065000000 5.6236000000 1.3838000000
1.5064000000 4.9083000000 2.2143000000
1.5062000000 5.8572000000 1.1101000000
1.5056000000 6.1984000000 0.7207000000
1.5053000000 1.4457000000 1.6656000000
1.5051000000 5.3116000000 1.7496000000
1.5048000000 3.2311000000 3.3714000000
1.5044000000 2.8139000000 3.1365000000
1.5043000000 5.0924000000 2.0067000000
1.5042000000 5.1229000000 1.9616000000
1.5040000000 5.2289000000 1.8434000000
1.5036000000 3.4275000000 3.4507000000
1.5035000000 1.7733000000 2.0468000000
1.5033000000 5.2391000000 1.8340000000
1.5030000000 4.1206000000 3.0593000000
1.5028000000 2.4828000000 2.8676000000
1.5028000000 3.7701000000 3.2737000000
1.5026000000 2.7467000000 3.0957000000
1.5025000000 1.0152000000 1.1638000000
1.5024000000 6.0612000000 0.8823000000
1.5023000000 4.2681000000 2.9357000000
1.5021000000 6.1000000000 0.8337000000
1.5020000000 1.9610000000 2.2653000000
1.5018000000 4.0372000000 3.1185000000
1.5015000000 5.8013000000 1.1839000000
1.5012000000 4.7962000000 2.3454000000
1.5008000000 2.3536000000 2.7219000000
1.5006000000 1.9510000000 2.2489000000
1.5002000000 5.2028000000 1.8690000000
1.5000000000 3.8738000000 3.2054000000
1.4996000000 5.9555000000 1.0008000000
1.4981000000 6.7396000000 0.0947000000
1.4967000000 3.6810000000 3.3209000000
1.4948000000 0.0807000000 0.0850000000
1.2650000000 6.7672000000 0.1377000000
1.2620000000 3.1246000000 3.0733000000
1.2603000000 6.5004000000 0.3732000000
1.2588000000 5.7361000000 1.2500000000
1.2585000000 4.6897000000 2.4479000000
1.2583000000 3.8760000000 2.9652000000
1.2576000000 5.8124000000 1.1647000000
1.2575000000 5.0282000000 2.0805000000
1.2573000000 5.3763000000 1.6738000000
1.2572000000 4.7353000000 2.3968000000
1.2570000000 4.2698000000 2.7353000000
1.2565000000 0.8837000000 1.0111000000
1.2563000000 6.5448000000 0.3210000000
1.2559000000 5.4605000000 1.5771000000
1.2558000000 3.0564000000 3.0202000000
1.2556000000 5.2065000000 1.8655000000
1.2551000000 6.8000000000 0.0903000000
1.2548000000 5.7959000000 1.1878000000
1.2544000000 3.3082000000 3.1720000000
1.2542000000 4.0634000000 2.8534000000
1.2541000000 2.6071000000 2.7561000000
1.2539000000 1.2946000000 1.4890000000
1.2538000000 5.0325000000 2.0754000000
1.2536000000 0.2035000000 0.2281000000
1.2533000000 6.6100000000 0.2441000000
1.2531000000 1.4692000000 1.6938000000
1.2530000000 3.1092000000 3.0485000000
1.2529000000 6.7410000000 0.0849000000
1.2528000000 6.6682000000 0.1726000000
1.2522000000 0.0748000000 0.0728000000
1.2520000000 0.6263000000 0.7152000000
1.2518000000 2.9837000000 2.9751000000
1.2517000000 6.6442000000 0.1983000000
1.2513000000 1.1565000000 1.3353000000
1.2511000000 2.2177000000 2.5185000000
1.2509000000 6.2721000000 0.6357000000
1.2507000000 3.4561000000 3.1857000000
1.2506000000 6.0677000000 0.8692000000
1.2504000000 5.2667000000 1.7988000000
1.2500000000 1.5592000000 1.7958000000
1.2498000000 5.4296000000 1.6126000000
1.2497000000 3.6814000000 3.0754000000
1.2493000000 5.4352000000 1.6069000000
1.2490000000 0.7305000000 0.8313000000
1.2481000000 2.8833000000 2.9181000000
1.2476000000 0.5516000000 0.6297000000
1.2464000000 6.0268000000 0.9182000000
1.2414000000 3.4152000000 3.1983000000
1.0138000000 5.6728000000 1.3289000000
1.0112000000 1.8421000000 2.0495000000
1.0102000000 2.9188000000 2.6955000000
1.0098000000 5.3519000000 1.7044000000
1.0085000000 2.7041000000 2.5716000000
1.0081000000 2.3748000000 2.3763000000
1.0079000000 6.6188000000 0.2300000000
1.0078000000 5.7635000000 1.2224000000
1.0074000000 4.1422000000 2.5560000000
1.0070000000 1.1995000000 1.3812000000
1.0069000000 2.5777000000 2.4896000000
1.0068000000 6.2189000000 0.6951000000
1.0067000000 0.8954000000 1.0279000000
1.0064000000 6.6000000000 0.2558000000
1.0063000000 3.0037000000 2.7425000000
1.0057000000 4.1109000000 2.5748000000
1.0055000000 4.7576000000 2.2011000000
1.0052000000 2.6930000000 2.5594000000
1.0050000000 3.1503000000 2.8271000000
1.0049000000 0.5439000000 0.6139000000
1.0047000000 6.5949000000 0.2555000000
1.0044000000 5.1742000000 1.8853000000
1.0043000000 5.3148000000 1.7433000000
1.0038000000 2.3388000000 2.3587000000
1.0035000000 3.9769000000 2.6515000000
1.0034000000 4.6570000000 2.2554000000
1.0033000000 0.4283000000 0.4847000000
1.0030000000 4.4336000000 2.3825000000
1.0029000000 5.5974000000 1.4190000000
1.0028000000 2.3368000000 2.3484000000
1.0023000000 4.4721000000 2.3601000000
1.0020000000 0.1091000000 0.1124000000
1.0017000000 2.4050000000 2.3861000000
1.0014000000 1.5978000000 1.8434000000
1.0012000000 1.6233000000 1.8691000000
1.0007000000 5.9710000000 0.9866000000
1.0003000000 0.3995000000 0.4503000000
1.0002000000 6.0058000000 0.9391000000
1.0000000000 2.7397000000 2.5846000000
0.9996000000 3.6908000000 2.8135000000
0.9994000000 1.5846000000 1.8276000000
0.9990000000 0.7316000000 0.8387000000
0.9987000000 4.2873000000 2.4682000000
0.9975000000 0.5768000000 0.6592000000
0.9959000000 0.1449000000 0.1561000000
0.9933000000 1.4762000000 1.6986000000
0.7620000000 6.0007000000 0.9536000000
0.7613000000 6.1912000000 0.7302000000
0.7604000000 3.6911000000 2.5771000000
0.7599000000 4.5012000000 2.1047000000
0.7592000000 3.9661000000 2.4122000000
0.7587000000 3.0950000000 2.5464000000
0.7583000000 5.8216000000 1.1597000000
0.7581000000 3.9348000000 2.4237000000
0.7578000000 5.6288000000 1.3758000000
0.7573000000 6.7473000000 0.0792000000
0.7573000000 3.0432000000 2.5139000000
0.7569000000 6.8208000000 0.0735000000
0.7568000000 5.0173000000 1.7950000000
0.7564000000 3.3348000000 2.6809000000
0.7563000000 5.2663000000 1.6579000000
0.7559000000 6.7803000000 0.1239000000
0.7558000000 6.2094000000 0.7048000000
0.7555000000 5.2953000000 1.6391000000
0.7552000000 3.2363000000 2.6286000000
0.7548000000 6.8388000000 0.0511000000
0.7546000000 0.5557000000 0.6359000000
0.7543000000 5.8976000000 1.0702000000
0.7542000000 6.8442000000 0.0432000000
0.7542000000 3.0736000000 2.5264000000
0.7539000000 3.0705000000 2.5223000000
0.7535000000 2.8288000000 2.3870000000
0.7535000000 2.2259000000 2.0404000000
0.7533000000 4.7865000000 1.9261000000
0.7531000000 2.2069000000 2.0226000000
0.7526000000 3.3326000000 2.6813000000
0.7523000000 3.9113000000 2.4393000000
0.7520000000 0.7762000000 0.8852000000
0.7519000000 1.2531000000 1.4238000000
0.7518000000 0.9769000000 1.1251000000
0.7514000000 1.3679000000 1.5191000000
0.7509000000 5.0891000000 1.7537000000
0.7507000000 2.9042000000 2.4278000000
0.7503000000 5.3148000000 1.6227000000
0.7498000000 2.9610000000 2.4611000000
0.7497000000 4.8461000000 1.8909000000
0.7495000000 0.5901000000 0.6736000000
0.7491000000 0.8151000000 0.9311000000
0.7487000000 1.2852000000 1.4575000000
0.7486000000 3.2416000000 2.6208000000
0.7481000000 2.4677000000 2.1685000000
0.7475000000 0.4171000000 0.4722000000
0.5116000000 2.2195000000 1.7888000000
0.5105000000 3.9522000000 2.1678000000
0.5099000000 3.0274000000 2.2590000000
0.5097000000 6.7619000000 0.0644000000
0.5087000000 6.3682000000 0.5259000000
0.5085000000 6.3569000000 0.5305000000
0.5083000000 5.3814000000 1.3406000000
0.5076000000 4.7027000000 1.7296000000
0.5069000000 6.8573000000 0.1071000000
0.5068000000 4.0916000000 2.0818000000
0.5066000000 5.1156000000 1.4939000000
0.5064000000 6.4257000000 0.4531000000
0.5063000000 2.9682000000 2.2176000000
0.5058000000 6.4882000000 0.3817000000
0.5057000000 6.0479000000 0.8725000000
0.5056000000 1.4038000000 1.3143000000
0.5053000000 1.2708000000 1.2360000000
0.5052000000 5.3312000000 1.3676000000
0.5050000000 6.5702000000 0.2884000000
0.5048000000 4.4105000000 1.9023000000
0.5045000000 1.8969000000 1.6013000000
0.5042000000 1.1709000000 1.1735000000
0.5038000000 1.1721000000 1.1757000000
0.5038000000 3.9955000000 2.1386000000
0.5036000000 2.7920000000 2.1153000000
0.5034000000 5.7826000000 1.1019000000
0.5031000000 1.7555000000 1.5137000000
0.5028000000 3.9650000000 2.1508000000
0.5027000000 4.2817000000 1.9724000000
0.5025000000 3.1064000000 2.2932000000
0.5024000000 1.2701000000 1.2356000000
0.5022000000 5.2777000000 1.3914000000
0.5017000000 0.9619000000 1.0316000000
0.5015000000 2.7166000000 2.0671000000
0.5013000000 1.1791000000 1.1803000000
0.5007000000 3.0926000000 2.2843000000
0.5005000000 1.4009000000 1.3038000000
0.5003000000 2.0712000000 1.6940000000
0.4996000000 0.7523000000 0.8612000000
0.4994000000 0.8371000000 0.9405000000
0.4992000000 1.3939000000 1.2960000000
0.4986000000 0.6257000000 0.7141000000
0.4976000000 2.7060000000 2.0599000000
0.4938000000 2.5485000000 1.9631000000
0.2603000000 5.7885000000 0.8539000000
0.2595000000 3.6770000000 2.0764000000
0.2588000000 4.6358000000 1.5204000000
0.2587000000 3.1162000000 2.0584000000
0.2581000000 4.6044000000 1.5389000000
0.2578000000 6.3055000000 0.5294000000
0.2573000000 0.6949000000 0.6521000000
0.2570000000 4.1796000000 1.7807000000
0.2569000000 6.6343000000 0.2135000000
0.2568000000 5.8102000000 0.8386000000
0.2563000000 0.0954000000 0.1005000000
0.2560000000 5.5755000000 0.9708000000
0.2559000000 3.3895000000 2.1902000000
0.2557000000 5.2523000000 1.1572000000
0.2555000000 3.9187000000 1.9321000000
0.2554000000 6.3033000000 0.5362000000
0.2550000000 6.0407000000 0.7019000000
0.2548000000 1.6308000000 1.1907000000
0.2546000000 0.3976000000 0.4283000000
0.2545000000 3.3478000000 2.1882000000
0.2545000000 4.8868000000 1.3660000000
0.2544000000 3.1973000000 2.1023000000
0.2540000000 4.8122000000 1.4155000000
0.2537000000 5.5964000000 0.9594000000
0.2533000000 5.6344000000 0.9353000000
0.2534000000 1.3116000000 1.0034000000
0.2531000000 6.1116000000 0.6612000000
0.2527000000 5.8394000000 0.8121000000
0.2525000000 1.1188000000 0.8930000000
0.2521000000 6.4178000000 0.4534000000
0.2516000000 6.0089000000 0.7109000000
0.2515000000 6.4992000000 0.3665000000
0.2513000000 3.0634000000 2.0191000000
0.2511000000 1.0187000000 0.8280000000
0.2510000000 0.6757000000 0.6333000000
0.2508000000 6.2131000000 0.6032000000
0.2507000000 5.2032000000 1.1837000000
0.2506000000 1.3820000000 1.0407000000
0.2499000000 2.3877000000 1.6241000000
0.2496000000 1.6795000000 1.2126000000
0.2495000000 1.4889000000 1.0994000000
0.2493000000 1.1038000000 0.8775000000
0.2488000000 2.6535000000 1.7800000000
0.2485000000 5.0918000000 1.2481000000
0.2480000000 0.3566000000 0.3807000000
0.2465000000 0.9690000000 0.8039000000
0.2460000000 2.8938000000 1.9111000000
0.2435000000 4.3780000000 1.6564000000
0.0123000000 5.6870000000 0.6644000000
0.0091000000 5.2473000000 0.9149000000
0.0090000000 1.3446000000 0.7778000000
0.0087000000 0.5268000000 0.2992000000
0.0083000000 6.6058000000 0.1206000000
0.0080000000 6.4258000000 0.2338000000
0.0073000000 3.0730000000 1.7772000000
0.0072000000 6.2612000000 0.3243000000
0.0071000000 0.4218000000 0.2419000000
0.0068000000 5.0982000000 0.9953000000
0.0062000000 2.0576000000 1.1911000000
0.0057000000 2.6816000000 1.5511000000
0.0056000000 3.1504000000 1.8252000000
0.0053000000 3.7948000000 1.7531000000
0.0052000000 2.5353000000 1.4684000000
0.0045000000 3.3865000000 1.9400000000
0.0044000000 4.8140000000 1.1657000000
0.0040000000 3.7226000000 1.7926000000
0.0039000000 4.8381000000 1.1438000000
0.0036000000 1.6029000000 0.9237000000
0.0033000000 3.0982000000 1.7909000000
0.0031000000 1.4812000000 0.8498000000
0.0027000000 3.0081000000 1.7342000000
0.0025000000 1.5991000000 0.9165000000
0.0022000000 5.2757000000 0.8921000000
0.0018000000 2.2567000000 1.2990000000
0.0017000000 5.1889000000 0.9397000000
0.0014000000 4.6479000000 1.2578000000
0.0016000000 1.6971000000 0.9821000000
0.0010000000 5.2338000000 0.9187000000
0.0008000000 1.9012000000 1.0950000000
0.0003000000 6.5671000000 0.1440000000
-0.0002000000 3.7036000000 1.8057000000
-0.0005000000 0.7426000000 0.4218000000
-0.0010000000 4.0534000000 1.5923000000
-0.0020000000 3.1607000000 1.8247000000
-0.2383000000 5.7467000000 0.3757000000
-0.2389000000 4.8828000000 0.8761000000
-0.2409000000 6.2448000000 0.0836000000
-0.2416000000 6.4787000000 0.0974000000
-0.2419000000 4.6961000000 0.9810000000
-0.2422000000 3.5750000000 1.6339000000
-0.2423000000 5.8081000000 0.3372000000
-0.2425000000 5.5258000000 0.5025000000
-0.2429000000 4.9907000000 0.8103000000
-0.2431000000 1.4962000000 0.6148000000
-0.2434000000 2.1053000000 0.9652000000
-0.2437000000 1.2681000000 0.4818000000
-0.2439000000 2.5750000000 1.2339000000
-0.2440000000 6.0247000000 0.2123000000
-0.2445000000 1.9796000000 0.8917000000
-0.2445000000 2.2519000000 1.0510000000
-0.2450000000 1.4104000000 0.5616000000
-0.2452000000 1.5983000000 0.6778000000
-0.2453000000 3.9139000000 1.4334000000
-0.2455000000 6.2462000000 0.0753000000
-0.2457000000 0.2782000000 0.0499000000
-0.2462000000 4.1404000000 1.3061000000
-0.2466000000 1.2641000000 0.4738000000
-0.2467000000 6.4797000000 0.0928000000
-0.2470000000 0.9721000000 0.3018000000
-0.2472000000 3.8549000000 1.4604000000
-0.2473000000 1.3868000000 0.5446000000
-0.2475000000 2.5788000000 1.2321000000
-0.2475000000 1.9014000000 0.8466000000
-0.2477000000 1.8323000000 0.8023000000
-0.2479000000 2.6584000000 1.2796000000
-0.2480000000 1.1130000000 0.3846000000
-0.2482000000 0.3841000000 0.0422000000
-0.2485000000 1.3132000000 0.4982000000
-0.2486000000 1.7610000000 0.7604000000
-0.2489000000 0.4889000000 0.1011000000
-0.2494000000 3.1891000000 1.5912000000
-0.2497000000 4.0296000000 1.3550000000
-0.2498000000 0.5655000000 0.0663000000
-0.2499000000 1.5411000000 0.6327000000
-0.2502000000 1.9848000000 0.8879000000
-0.2510000000 1.8805000000 0.8312000000
-0.2515000000 5.6830000000 0.4022000000
-0.2527000000 2.0268000000 0.9127000000
-0.2533000000 6.0923000000 0.1626000000
-0.2540000000 1.7354000000 0.7441000000
-0.4869000000 1.2148000000 0.2000000000
-0.4888000000 5.6502000000 0.1821000000
-0.4899000000 4.8225000000 0.6608000000
-0.4904000000 3.2079000000 1.3560000000
-0.4908000000 4.7836000000 0.6825000000
-0.4914000000 1.1708000000 0.1726000000
-0.4917000000 0.7973000000 0.0315000000
-0.4927000000 5.2301000000 0.4253000000
-0.4936000000 1.7164000000 0.4857000000
-0.4939000000 2.2403000000 0.7913000000
-0.4941000000 1.4764000000 0.3508000000
-0.4944000000 6.0929000000 0.0615000000
-0.4946000000 5.9307000000 0.0881000000
-0.4947000000 5.6322000000 0.1852000000
-0.4949000000 3.0938000000 1.2833000000
-0.4954000000 4.0182000000 1.1252000000
-0.4955000000 0.7849000000 0.1005000000
-0.4957000000 4.6190000000 0.7705000000
-0.4960000000 2.2969000000 0.8207000000
-0.4962000000 5.5508000000 0.2297000000
-0.4965000000 4.9098000000 0.6010000000
-0.4967000000 1.7273000000 0.4911000000
-0.4968000000 5.9446000000 0.0810000000
-0.4971000000 0.9107000000 0.0948000000
-0.4975000000 1.4489000000 0.3270000000
-0.4977000000 5.6360000000 0.1788000000
-0.4980000000 1.7102000000 0.4822000000
-0.4982000000 2.4798000000 0.9285000000
-0.4983000000 0.7546000000 0.0704000000
-0.4986000000 2.7709000000 1.0947000000
-0.4989000000 3.6429000000 1.3323000000
-0.4992000000 3.8350000000 1.2232000000
-0.4994000000 2.0575000000 0.6809000000
-0.4997000000 4.9037000000 0.6014000000
-0.5005000000 6.1328000000 0.0425000000
-0.5005000000 1.9244000000 0.6032000000
-0.5009000000 5.0531000000 0.5116000000
-0.5015000000 2.4062000000 0.8794000000
-0.5018000000 2.1865000000 0.7537000000
-0.5020000000 2.6578000000 1.0280000000
-0.5025000000 5.2211000000 0.4185000000
-0.5034000000 2.3724000000 0.8637000000
-0.5039000000 3.4186000000 1.4395000000
-0.5064000000 1.6277000000 0.4215000000
-0.7379000000 4.9920000000 0.3139000000
-0.7402000000 5.4831000000 0.1044000000
-0.7407000000 3.1895000000 1.0942000000
-0.7416000000 5.6552000000 0.0766000000
-0.7420000000 5.5581000000 0.0568000000
-0.7427000000 2.5372000000 0.7166000000
-0.7429000000 2.0780000000 0.4497000000
-0.7434000000 5.6814000000 0.0614000000
-0.7437000000 1.3615000000 0.1091000000
-0.7440000000 4.7992000000 0.4195000000
-0.7442000000 4.4352000000 0.6323000000
-0.7447000000 2.4188000000 0.6370000000
-0.7449000000 4.6063000000 0.5336000000
-0.7450000000 3.4500000000 1.1887000000
-0.7451000000 4.6689000000 0.4928000000
-0.7454000000 5.0164000000 0.2913000000
-0.7457000000 1.8491000000 0.3129000000
-0.7459000000 1.6505000000 0.1983000000
-0.7462000000 1.1114000000 0.0360000000
-0.7465000000 2.8202000000 0.8766000000
-0.7465000000 2.6602000000 0.7864000000
-0.7469000000 5.7243000000 0.0283000000
-0.7470000000 3.2634000000 1.1308000000
-0.7472000000 3.6284000000 1.0959000000
-0.7476000000 1.0640000000 0.0072000000
-0.7480000000 1.3420000000 0.0969000000
-0.7481000000 1.6974000000 0.2258000000
-0.7485000000 3.6660000000 1.0670000000
-0.7485000000 1.4321000000 0.0698000000
-0.7491000000 1.5562000000 0.1375000000
-0.7493000000 4.4619000000 0.6088000000
-0.7497000000 5.0076000000 0.2885000000
-0.7500000000 3.6049000000 1.1061000000
-0.7503000000 1.1016000000 0.0308000000
-0.7506000000 2.3137000000 0.5724000000
-0.7511000000 2.6629000000 0.7749000000
-0.7513000000 2.1902000000 0.5083000000
-0.9854000000 4.3379000000 0.4416000000
-0.9895000000 3.3892000000 0.9441000000
-0.9907000000 3.5784000000 0.8770000000
-0.9918000000 3.9268000000 0.6743000000
-0.9920000000 4.9759000000 0.0691000000
-0.9923000000 2.6935000000 0.5566000000
-0.9932000000 3.9824000000 0.6457000000
-0.9937000000 4.6539000000 0.2508000000
-0.9938000000 1.8598000000 0.0668000000
-0.9944000000 5.2319000000 0.0680000000
-0.9950000000 3.4401000000 0.9323000000
-0.9955000000 4.9505000000 0.0796000000
-0.9958000000 2.9768000000 0.7142000000
-0.9961000000 3.7561000000 0.7696000000
-0.9965000000 1.9180000000 0.0995000000
-0.9970000000 3.1560000000 0.8187000000
-0.9972000000 4.7758000000 0.1769000000
-0.9973000000 5.1367000000 0.0402000000
-0.9977000000 5.3102000000 0.0116000000
-0.9980000000 4.6397000000 0.2580000000
-0.9987000000 4.1053000000 0.5713000000
-0.9988000000 2.3581000000 0.3520000000
-0.9990000000 2.4702000000 0.4223000000
-0.9997000000 3.8426000000 0.7197000000
-1.0001000000 3.3672000000 0.9286000000
-1.0008000000 4.7322000000 0.1956000000
-1.0027000000 2.1591000000 0.2311000000
-1.0039000000 4.0357000000 0.6017000000
-1.0050000000 5.0165000000 0.1082000000
-1.2398000000 4.5065000000 0.0938000000
-1.2408000000 2.6989000000 0.3046000000
-1.2411000000 3.7313000000 0.5369000000
-1.2435000000 3.4741000000 0.6915000000
-1.2439000000 4.8072000000 0.0574000000
-1.2449000000 2.7051000000 0.3078000000
-1.2452000000 3.9617000000 0.3961000000
-1.2456000000 4.0823000000 0.3322000000
-1.2458000000 3.9786000000 0.3896000000
-1.2464000000 3.7622000000 0.5126000000
-1.2465000000 2.3489000000 0.0984000000
-1.2467000000 2.1890000000 0.0819000000
-1.2470000000 3.8655000000 0.4554000000
-1.2472000000 4.3244000000 0.1871000000
-1.2474000000 2.8214000000 0.3753000000
-1.2477000000 3.2777000000 0.6376000000
-1.2481000000 4.1274000000 0.3063000000
-1.2486000000 3.3502000000 0.6789000000
-1.2500000000 2.5742000000 0.2265000000
-1.2505000000 3.1060000000 0.5321000000
-1.2515000000 4.7797000000 0.0661000000
-1.2519000000 4.0774000000 0.3288000000
-1.2526000000 2.8664000000 0.3949000000
-1.2557000000 3.4945000000 0.6633000000
-1.4911000000 3.2419000000 0.3712000000
-1.4923000000 2.7706000000 0.0954000000
-1.4929000000 3.2228000000 0.3547000000
-1.4935000000 4.1457000000 0.1172000000
-1.4948000000 4.1877000000 0.0902000000
-1.4955000000 3.7485000000 0.2714000000
-1.4966000000 3.4542000000 0.4256000000
-1.4975000000 3.1309000000 0.3042000000
-1.4986000000 3.5661000000 0.3763000000
-1.4989000000 3.0012000000 0.2275000000
-1.5015000000 3.2574000000 0.3620000000
-1.5027000000 4.1768000000 0.0952000000
-1.5072000000 2.7151000000 0.1257000000
-1.7400000000 3.7894000000 0.0815000000
-1.7420000000 3.8322000000 0.0545000000
-1.7434000000 3.9713000000 0.0479000000
-1.7438000000 3.4469000000 0.1813000000
-1.7441000000 3.3146000000 0.1596000000
-1.7452000000 3.7953000000 0.0684000000
-1.7454000000 3.5634000000 0.1325000000
-1.7464000000 3.5808000000 0.1166000000
-1.7472000000 2.8607000000 0.0461000000
-1.7488000000 3.2531000000 0.1152000000
-1.7522000000 2.9512000000 0.0905000000
-1.7545000000 3.8288000000 0.0383000000
