5.7616000000 3.1774000000 0.0407000000
5.7592000000 2.9950000000 0.0091000000
5.7582000000 3.4243000000 0.1164000000
5.7557000000 3.1743000000 0.0430000000
5.7534000000 3.6614000000 0.0740000000
5.7513000000 3.0858000000 0.0638000000
5.5095000000 2.8653000000 0.1105000000
5.5068000000 3.5155000000 0.2601000000
5.5063000000 3.0028000000 0.1250000000
5.5059000000 4.0582000000 0.0917000000
5.5053000000 2.8854000000 0.1313000000
5.5048000000 3.3944000000 0.3202000000
5.5036000000 2.7711000000 0.0654000000
5.5024000000 3.1685000000 0.2292000000
5.5005000000 3.3199000000 0.3165000000
5.4997000000 3.4095000000 0.3195000000
5.4978000000 3.3661000000 0.3286000000
5.2615000000 2.4486000000 0.1200000000
5.2583000000 2.2532000000 0.0835000000
5.2580000000 4.5936000000 0.0234000000
5.2574000000 3.3659000000 0.5789000000
5.2568000000 2.8989000000 0.3169000000
5.2566000000 2.3960000000 0.0973000000
5.2562000000 2.7422000000 0.2239000000
5.2553000000 4.0012000000 0.2344000000
5.2549000000 2.9788000000 0.3765000000
5.2542000000 4.0735000000 0.1893000000
5.2540000000 2.6624000000 0.1804000000
5.2536000000 4.6057000000 0.0245000000
5.2532000000 3.9283000000 0.2748000000
5.2529000000 3.6467000000 0.4483000000
5.2514000000 2.8734000000 0.3097000000
5.2508000000 2.6611000000 0.1823000000
5.0110000000 4.9357000000 0.0039000000
5.0095000000 5.0347000000 0.0159000000
5.0087000000 2.7183000000 0.4646000000
5.0084000000 4.1266000000 0.4130000000
5.0082000000 2.1828000000 0.1452000000
5.0077000000 1.7847000000 0.0643000000
5.0070000000 3.9062000000 0.5469000000
5.0068000000 1.9679000000 0.0985000000
5.0062000000 1.7324000000 0.0313000000
5.0054000000 2.9986000000 0.6355000000
5.0044000000 2.0445000000 0.0674000000
5.0042000000 2.7032000000 0.4623000000
5.0040000000 4.1860000000 0.3838000000
5.0037000000 2.2844000000 0.2101000000
5.0035000000 2.2542000000 0.1928000000
5.0031000000 3.0076000000 0.6385000000
5.0030000000 4.4492000000 0.2297000000
5.0017000000 4.1224000000 0.4238000000
5.0008000000 2.3486000000 0.2560000000
5.0003000000 3.2836000000 0.8139000000
5.0001000000 3.4788000000 0.8064000000
4.9997000000 2.3710000000 0.2734000000
4.9990000000 4.4008000000 0.2558000000
4.9971000000 2.3185000000 0.2425000000
4.9943000000 4.1402000000 0.4165000000
4.7615000000 4.9805000000 0.1578000000
4.7611000000 3.7143000000 0.9168000000
4.7600000000 4.0581000000 0.7077000000
4.7585000000 5.2875000000 0.0577000000
4.7581000000 2.8953000000 0.8290000000
4.7577000000 5.1614000000 0.1307000000
4.7572000000 4.9570000000 0.1794000000
4.7566000000 3.0435000000 0.9187000000
4.7559000000 3.0333000000 0.9164000000
4.7555000000 4.8303000000 0.2531000000
4.7552000000 4.1658000000 0.6522000000
4.7549000000 4.5433000000 0.4263000000
4.7547000000 1.3814000000 0.0822000000
4.7545000000 2.0473000000 0.3276000000
4.7542000000 4.5732000000 0.4101000000
4.7540000000 2.4803000000 0.5910000000
4.7537000000 2.9549000000 0.8684000000
4.7533000000 4.2265000000 0.6161000000
4.7528000000 1.6602000000 0.0991000000
4.7527000000 2.8315000000 0.8005000000
4.7525000000 4.2135000000 0.6276000000
4.7521000000 1.5526000000 0.1080000000
4.7519000000 2.5853000000 0.6501000000
4.7516000000 3.2030000000 1.0192000000
4.7515000000 3.8762000000 0.8261000000
4.7508000000 4.1338000000 0.6763000000
4.7496000000 3.0668000000 0.9374000000
4.7490000000 1.6083000000 0.0759000000
4.7469000000 3.1091000000 0.9765000000
4.5133000000 0.9904000000 0.1010000000
4.5122000000 5.3839000000 0.1755000000
4.5101000000 3.9226000000 1.0497000000
4.5099000000 4.9472000000 0.4426000000
4.5092000000 4.8958000000 0.4682000000
4.5088000000 2.4202000000 0.8023000000
4.5078000000 5.6384000000 0.1025000000
4.5075000000 2.8089000000 1.0383000000
4.5073000000 3.1266000000 1.2250000000
4.5072000000 3.5105000000 1.2987000000
4.5069000000 5.6946000000 0.0756000000
4.5067000000 1.5244000000 0.2789000000
4.5063000000 2.1928000000 0.6746000000
4.5058000000 3.1811000000 1.2560000000
4.5053000000 4.3663000000 0.7841000000
4.5050000000 0.8385000000 0.0161000000
4.5048000000 3.6514000000 1.2183000000
4.5045000000 1.3202000000 0.1536000000
4.5042000000 5.3057000000 0.2299000000
4.5040000000 3.9696000000 1.0256000000
4.5039000000 2.2310000000 0.6989000000
4.5035000000 3.5457000000 1.2788000000
4.5031000000 2.6522000000 0.9486000000
4.5029000000 0.8548000000 0.0323000000
4.5025000000 2.8367000000 1.0683000000
4.5018000000 3.4935000000 1.3141000000
4.5013000000 1.2435000000 0.1104000000
4.5012000000 3.3262000000 1.3402000000
4.5009000000 5.1971000000 0.2994000000
4.5008000000 1.4971000000 0.2671000000
4.5002000000 1.6782000000 0.3712000000
4.4989000000 1.9722000000 0.5480000000
4.4984000000 1.4404000000 0.2281000000
4.4982000000 4.5243000000 0.6987000000
4.4963000000 1.4462000000 0.2385000000
4.2625000000 4.8686000000 0.7356000000
4.2618000000 0.7646000000 0.0709000000
4.2610000000 4.0933000000 1.2056000000
4.2607000000 5.9042000000 0.1244000000
4.2596000000 5.1878000000 0.5497000000
4.2593000000 5.6974000000 0.2522000000
4.2591000000 5.6046000000 0.3055000000
4.2585000000 3.2852000000 1.5809000000
4.2583000000 3.7104000000 1.4375000000
4.2580000000 1.5794000000 0.5676000000
4.2575000000 3.5162000000 1.5553000000
4.2573000000 5.0679000000 0.6263000000
4.2570000000 1.7792000000 0.6835000000
4.2563000000 4.1092000000 1.1931000000
4.2561000000 0.4592000000 0.0447000000
4.2560000000 5.8440000000 0.1660000000
4.2559000000 1.2363000000 0.3645000000
4.2558000000 4.5973000000 0.9115000000
4.2555000000 4.0581000000 1.2305000000
4.2554000000 5.2746000000 0.5027000000
4.2553000000 4.3357000000 1.0738000000
4.2553000000 4.5357000000 0.9407000000
4.2551000000 5.4423000000 0.4119000000
4.2548000000 3.6665000000 1.4636000000
4.2547000000 5.9246000000 0.1194000000
4.2544000000 1.0762000000 0.2622000000
4.2542000000 3.3152000000 1.5981000000
4.2540000000 5.0507000000 0.6466000000
4.2535000000 6.0011000000 0.0697000000
4.2533000000 2.4497000000 1.0852000000
4.2530000000 1.7965000000 0.6963000000
4.2528000000 5.3672000000 0.4534000000
4.2525000000 0.9151000000 0.1701000000
4.2521000000 4.5130000000 0.9635000000
4.2518000000 0.6299000000 0.0779000000
4.2516000000 0.5553000000 0.0337000000
4.2513000000 2.4805000000 1.1038000000
4.2511000000 1.0436000000 0.2479000000
4.2509000000 1.0102000000 0.2266000000
4.2504000000 3.2140000000 1.5498000000
4.2495000000 2.3361000000 1.0190000000
4.2492000000 1.3358000000 0.4284000000
4.2489000000 4.2106000000 1.1391000000
4.2480000000 1.7997000000 0.7080000000
4.2464000000 1.6285000000 0.6007000000
4.0136000000 4.2789000000 1.3470000000
4.0132000000 6.5838000000 0.0510000000
4.0113000000 1.8948000000 1.0024000000
4.0112000000 5.2141000000 0.7908000000
4.0110000000 2.7558000000 1.5214000000
4.0106000000 5.4956000000 0.6266000000
4.0099000000 3.9230000000 1.5665000000
4.0087000000 4.2419000000 1.3762000000
4.0081000000 4.9820000000 0.9401000000
4.0078000000 6.2103000000 0.2037000000
4.0077000000 5.0721000000 0.8839000000
4.0073000000 6.0136000000 0.3204000000
4.0071000000 3.9090000000 1.5755000000
4.0070000000 4.9868000000 0.9347000000
4.0069000000 2.1373000000 1.1545000000
4.0065000000 2.8772000000 1.5984000000
4.0063000000 5.2206000000 0.7943000000
4.0061000000 3.1446000000 1.7547000000
4.0060000000 3.0542000000 1.7043000000
4.0058000000 2.4679000000 1.3516000000
4.0055000000 4.1539000000 1.4388000000
4.0054000000 3.6187000000 1.7557000000
4.0052000000 6.7014000000 0.0659000000
4.0051000000 4.0124000000 1.5229000000
4.0050000000 5.2751000000 0.7619000000
4.0049000000 6.2411000000 0.1900000000
4.0048000000 6.4594000000 0.1330000000
4.0046000000 6.2787000000 0.1669000000
4.0045000000 4.8087000000 1.0459000000
4.0044000000 5.1798000000 0.8176000000
4.0043000000 4.1077000000 1.4661000000
4.0042000000 3.8658000000 1.6017000000
4.0038000000 2.5801000000 1.4192000000
4.0037000000 3.3231000000 1.8567000000
4.0035000000 1.6900000000 0.8920000000
4.0033000000 4.2886000000 1.3530000000
4.0030000000 0.9185000000 0.4345000000
4.0027000000 5.2238000000 0.7942000000
4.0025000000 0.5503000000 0.2109000000
4.0023000000 1.1468000000 0.5704000000
4.0022000000 1.1783000000 0.5887000000
4.0021000000 1.7372000000 0.9227000000
4.0018000000 1.0712000000 0.5244000000
4.0017000000 6.0427000000 0.3064000000
4.0015000000 1.0069000000 0.4873000000
4.0012000000 3.7855000000 1.6577000000
4.0005000000 0.9092000000 0.4270000000
4.0003000000 0.5094000000 0.1954000000
3.9998000000 0.7371000000 0.3248000000
3.9995000000 2.4692000000 1.3617000000
3.9992000000 5.0891000000 0.8794000000
3.9988000000 0.9897000000 0.4794000000
3.9982000000 4.7203000000 1.1018000000
3.9979000000 3.3580000000 1.8774000000
3.9976000000 1.5647000000 0.8205000000
3.9955000000 2.0522000000 1.1165000000
3.7650000000 4.7725000000 1.3127000000
3.7621000000 6.4473000000 0.2949000000
3.7613000000 5.7517000000 0.7333000000
3.7609000000 5.3370000000 0.9827000000
3.7605000000 3.1210000000 1.9974000000
3.7594000000 5.3195000000 0.9945000000
3.7587000000 2.8226000000 1.8180000000
3.7583000000 4.5072000000 1.4778000000
3.7579000000 1.3295000000 0.9287000000
3.7578000000 3.1600000000 2.0264000000
3.7576000000 4.4588000000 1.5038000000
3.7575000000 2.9804000000 1.9194000000
3.7572000000 4.1426000000 1.6981000000
3.7569000000 3.6798000000 1.9716000000
3.7568000000 3.0346000000 1.9525000000
3.7566000000 3.3164000000 2.1053000000
3.7564000000 2.0401000000 1.3597000000
3.7563000000 3.5759000000 2.0343000000
3.7562000000 4.3567000000 1.5757000000
3.7559000000 5.7642000000 0.7367000000
3.7558000000 6.5714000000 0.1883000000
3.7555000000 1.2922000000 0.9103000000
3.7553000000 1.9702000000 1.3149000000
3.7552000000 3.0183000000 1.9463000000
3.7550000000 1.2989000000 0.9194000000
3.7547000000 2.9425000000 1.8979000000
3.7546000000 2.9806000000 1.9191000000
3.7544000000 3.3014000000 2.1073000000
3.7541000000 6.2925000000 0.4169000000
3.7540000000 4.1047000000 1.7239000000
3.7536000000 5.0219000000 1.1707000000
3.7535000000 2.4353000000 1.5959000000
3.7534000000 1.3453000000 0.9392000000
3.7532000000 1.0956000000 0.7985000000
3.7530000000 3.0219000000 1.9417000000
3.7529000000 0.2111000000 0.2256000000
3.7528000000 1.3751000000 0.9647000000
3.7526000000 4.6477000000 1.3953000000
3.7526000000 5.1505000000 1.0994000000
3.7525000000 1.8385000000 1.2412000000
3.7521000000 6.6043000000 0.1684000000
3.7516000000 1.4012000000 0.9831000000
3.7514000000 1.3488000000 0.9510000000
3.7510000000 3.6376000000 2.0041000000
3.7510000000 0.2782000000 0.2929000000
3.7508000000 2.1158000000 1.4046000000
3.7505000000 1.9550000000 1.3078000000
3.7498000000 1.7066000000 1.1630000000
3.7491000000 3.7939000000 1.9063000000
3.7487000000 1.3466000000 0.9539000000
3.7484000000 3.1456000000 2.0237000000
3.7481000000 2.2429000000 1.4905000000
3.7470000000 2.5762000000 1.6850000000
3.7426000000 1.6368000000 1.1308000000
3.5127000000 5.0124000000 1.4315000000
3.5106000000 4.9411000000 1.4781000000
3.5094000000 3.5546000000 2.3049000000
3.5093000000 4.8365000000 1.5354000000
3.5087000000 6.3351000000 0.4933000000
3.5083000000 1.2027000000 1.1058000000
3.5080000000 0.0387000000 0.1136000000
3.5076000000 1.0006000000 0.9978000000
3.5071000000 4.4643000000 1.7612000000
3.5070000000 4.3568000000 1.8233000000
3.5068000000 6.7589000000 0.0614000000
3.5065000000 6.4045000000 0.4113000000
3.5064000000 4.1841000000 1.9327000000
3.5062000000 5.8207000000 0.9551000000
3.5061000000 0.5127000000 0.6039000000
3.5060000000 2.3144000000 1.7799000000
3.5058000000 1.5926000000 1.3472000000
3.5055000000 4.6105000000 1.6749000000
3.5051000000 2.8028000000 2.0746000000
3.5050000000 2.8859000000 2.1193000000
3.5047000000 2.8520000000 2.0972000000
3.5046000000 0.1588000000 0.1809000000
3.5045000000 2.9083000000 2.1363000000
3.5044000000 1.0292000000 1.0132000000
3.5043000000 0.6419000000 0.7503000000
3.5038000000 1.4550000000 1.2652000000
3.5038000000 2.5482000000 1.9264000000
3.5034000000 4.5358000000 1.7220000000
3.5032000000 1.8153000000 1.4849000000
3.5029000000 3.3920000000 2.3823000000
3.5026000000 6.2009000000 0.6547000000
3.5022000000 6.4737000000 0.3240000000
3.5020000000 0.8809000000 0.9285000000
3.5017000000 4.7231000000 1.6101000000
3.5015000000 3.1602000000 2.2865000000
3.5011000000 0.7664000000 0.8371000000
3.5005000000 3.4307000000 2.3808000000
3.5002000000 1.4004000000 1.2380000000
3.5001000000 4.9474000000 1.4818000000
3.4995000000 5.4154000000 1.2028000000
3.4992000000 2.7627000000 2.0513000000
3.4986000000 1.1088000000 1.0673000000
3.4983000000 2.9479000000 2.1669000000
3.4980000000 3.7293000000 2.2107000000
3.4975000000 4.6311000000 1.6691000000
3.4973000000 2.8278000000 2.0914000000
3.4935000000 2.4460000000 1.8724000000
3.2646000000 6.3123000000 0.5233000000
3.2625000000 6.6980000000 0.1295000000
3.2607000000 4.1400000000 2.2093000000
3.2600000000 2.2851000000 2.0170000000
3.2597000000 6.0523000000 0.8347000000
3.2590000000 3.9049000000 2.3573000000
3.2587000000 5.2501000000 1.5471000000
3.2582000000 6.6227000000 0.1545000000
3.2578000000 0.4849000000 0.5687000000
3.2575000000 0.0050000000 0.0721000000
3.2574000000 2.4517000000 2.1174000000
3.2572000000 2.1353000000 1.9311000000
3.2569000000 4.7524000000 1.8462000000
3.2565000000 4.6179000000 1.9266000000
3.2563000000 5.4768000000 1.4193000000
3.2561000000 6.5385000000 0.2573000000
3.2559000000 5.8356000000 1.0878000000
3.2558000000 6.1879000000 0.6689000000
3.2555000000 4.1647000000 2.2059000000
3.2553000000 5.3515000000 1.4905000000
3.2552000000 2.6511000000 2.2368000000
3.2549000000 3.3632000000 2.6415000000
3.2547000000 2.3821000000 2.0789000000
3.2543000000 5.2689000000 1.5423000000
3.2540000000 1.1512000000 1.3236000000
3.2538000000 2.0613000000 1.8860000000
3.2535000000 1.7657000000 1.7077000000
3.2534000000 1.0725000000 1.2518000000
3.2532000000 5.0422000000 1.6768000000
3.2531000000 0.6650000000 0.7819000000
3.2529000000 6.5138000000 0.2759000000
3.2528000000 2.9776000000 2.4372000000
3.2524000000 1.9643000000 1.8306000000
3.2521000000 2.0176000000 1.8615000000
3.2520000000 4.5999000000 1.9429000000
3.2518000000 3.1886000000 2.5618000000
3.2518000000 4.2285000000 2.1623000000
3.2515000000 6.6645000000 0.0993000000
3.2511000000 1.5542000000 1.5867000000
3.2508000000 1.0205000000 1.1984000000
3.2505000000 3.4977000000 2.6020000000
3.2502000000 3.9514000000 2.3308000000
3.2501000000 2.7928000000 2.3279000000
3.2495000000 2.4841000000 2.1455000000
3.2490000000 2.3962000000 2.0936000000
3.2485000000 1.7167000000 1.6851000000
3.2469000000 2.3170000000 2.0462000000
3.0128000000 3.8739000000 2.6265000000
3.0104000000 5.9530000000 0.9429000000
3.0097000000 6.4856000000 0.3152000000
3.0081000000 4.5506000000 2.2318000000
3.0075000000 3.9795000000 2.5741000000
3.0070000000 6.4614000000 0.3464000000
3.0065000000 3.3207000000 2.8889000000
3.0064000000 5.3243000000 1.6985000000
3.0063000000 5.6562000000 1.3050000000
3.0061000000 4.6836000000 2.1489000000
3.0058000000 2.8907000000 2.6327000000
3.0057000000 2.6128000000 2.4716000000
3.0055000000 0.3418000000 0.3978000000
3.0053000000 6.6107000000 0.1601000000
3.0050000000 5.9608000000 0.9406000000
3.0049000000 4.9805000000 1.9749000000
3.0047000000 3.1271000000 2.7753000000
3.0044000000 1.2596000000 1.4906000000
3.0040000000 2.0960000000 2.1669000000
3.0040000000 2.8741000000 2.6279000000
3.0037000000 6.5135000000 0.2792000000
3.0035000000 4.5174000000 2.2526000000
3.0035000000 4.0555000000 2.5271000000
3.0033000000 0.7616000000 0.9067000000
3.0032000000 1.5784000000 1.8410000000
3.0031000000 6.3068000000 0.5314000000
3.0030000000 2.2830000000 2.2794000000
3.0026000000 0.2395000000 0.2778000000
3.0025000000 3.7184000000 2.7291000000
3.0023000000 3.6797000000 2.7509000000
3.0020000000 1.0551000000 1.2520000000
3.0019000000 2.4476000000 2.3775000000
3.0017000000 2.7226000000 2.5473000000
3.0013000000 0.0756000000 0.0854000000
3.0012000000 5.2511000000 1.7674000000
3.0010000000 0.1767000000 0.2065000000
3.0010000000 4.0461000000 2.5314000000
3.0007000000 0.7152000000 0.8449000000
3.0005000000 2.0493000000 2.1389000000
3.0001000000 0.3228000000 0.3802000000
2.9998000000 0.0795000000 0.0869000000
2.9993000000 3.5591000000 2.8229000000
2.9991000000 3.9050000000 2.6209000000
2.9988000000 1.8494000000 2.0279000000
2.9985000000 5.2550000000 1.7625000000
2.9968000000 0.1529000000 0.1746000000
2.9963000000 0.5396000000 0.6372000000
2.7619000000 6.7374000000 0.0884000000
2.7613000000 1.0191000000 1.2009000000
2.7596000000 6.2630000000 0.5807000000
2.7593000000 1.6974000000 2.0151000000
2.7586000000 4.1471000000 2.7294000000
2.7582000000 1.8022000000 2.1439000000
2.7579000000 0.6403000000 0.7567000000
2.7577000000 6.2520000000 0.5916000000
2.7574000000 5.8015000000 1.1295000000
2.7572000000 3.1328000000 3.0400000000
2.7570000000 3.0132000000 2.9719000000
2.7568000000 3.5014000000 3.1076000000
2.7564000000 5.3711000000 1.6439000000
2.7562000000 5.0298000000 2.0522000000
2.7560000000 6.0225000000 0.8665000000
2.7559000000 2.5622000000 2.7001000000
2.7558000000 5.5436000000 1.4365000000
2.7556000000 1.3385000000 1.5914000000
2.7554000000 6.3065000000 0.5272000000
2.7548000000 4.4081000000 2.5771000000
2.7550000000 2.0364000000 2.3709000000
2.7545000000 5.3023000000 1.7271000000
2.7543000000 1.2907000000 1.5325000000
2.7542000000 5.9921000000 0.9015000000
2.7541000000 2.3353000000 2.5617000000
2.7539000000 3.1387000000 3.0485000000
2.7538000000 0.6435000000 0.7624000000
2.7537000000 1.6950000000 2.0149000000
2.7534000000 4.4215000000 2.5608000000
2.7532000000 3.3711000000 3.1709000000
2.7528000000 3.0020000000 2.9639000000
2.7527000000 3.3820000000 3.1724000000
2.7526000000 0.2926000000 0.3464000000
2.7523000000 4.4592000000 2.5443000000
2.7522000000 6.7456000000 0.0768000000
2.7521000000 6.2832000000 0.5589000000
2.7519000000 3.5179000000 3.1081000000
2.7516000000 3.6363000000 3.0315000000
2.7515000000 6.0645000000 0.8153000000
2.7513000000 3.1728000000 3.0652000000
2.7511000000 5.7279000000 1.2120000000
2.7508000000 0.3465000000 0.4106000000
2.7506000000 0.8062000000 0.9497000000
2.7505000000 3.9169000000 2.8716000000
2.7504000000 2.8788000000 2.8906000000
2.7498000000 0.8818000000 1.0445000000
2.7492000000 0.6110000000 0.7217000000
2.7487000000 6.3189000000 0.5146000000
2.7486000000 2.3151000000 2.5614000000
2.7480000000 2.5597000000 2.7083000000
2.7476000000 3.3757000000 3.1764000000
2.7462000000 0.8199000000 0.9751000000
2.5113000000 4.4563000000 2.7255000000
2.5112000000 5.5883000000 1.3859000000
2.5105000000 3.7865000000 3.1999000000
2.5103000000 5.5370000000 1.4466000000
2.5098000000 6.7171000000 0.1072000000
2.5090000000 6.5733000000 0.2084000000
2.5088000000 1.5223000000 1.8090000000
2.5086000000 3.4146000000 3.3973000000
2.5080000000 6.2706000000 0.5682000000
2.5076000000 6.3436000000 0.4788000000
2.5075000000 4.5114000000 2.6645000000
2.5072000000 5.3849000000 1.6261000000
2.5069000000 6.7564000000 0.0647000000
2.5068000000 2.0992000000 2.4948000000
2.5062000000 6.2576000000 0.5819000000
2.5059000000 2.7829000000 3.0902000000
2.5057000000 6.2371000000 0.6094000000
2.5053000000 5.9168000000 0.9894000000
2.5052000000 6.2227000000 0.6242000000
2.5050000000 3.7412000000 3.2218000000
2.5047000000 5.1105000000 1.9547000000
2.5043000000 1.6858000000 2.0038000000
2.5041000000 4.7780000000 2.3450000000
2.5040000000 3.5766000000 3.3290000000
2.5038000000 2.9268000000 3.1809000000
2.5037000000 6.0057000000 0.8903000000
2.5035000000 6.2055000000 0.6474000000
2.5033000000 5.0800000000 1.9831000000
2.5033000000 2.7812000000 3.0902000000
2.5028000000 6.2446000000 0.6016000000
2.5025000000 2.6172000000 2.9973000000
2.5021000000 5.9694000000 0.9266000000
2.5016000000 3.6944000000 3.2589000000
2.5013000000 2.5704000000 2.9667000000
2.5012000000 0.2740000000 0.3222000000
2.5010000000 4.1017000000 3.0157000000
2.5007000000 0.5404000000 0.6302000000
2.5005000000 0.5294000000 0.6247000000
2.5002000000 1.5081000000 1.7970000000
2.5000000000 2.4213000000 2.8624000000
2.4988000000 0.3674000000 0.4308000000
2.4977000000 1.4404000000 1.7145000000
2.4973000000 5.8260000000 1.1023000000
2.4971000000 5.7558000000 1.1841000000
2.4966000000 2.5998000000 2.9959000000
2.4939000000 0.3128000000 0.3636000000
2.2627000000 2.7794000000 3.2872000000
2.2601000000 3.0010000000 3.4742000000
2.2596000000 6.0616000000 0.8142000000
2.2587000000 4.0778000000 3.1843000000
2.2586000000 4.8960000000 2.2105000000
2.2581000000 5.4597000000 1.5427000000
2.2574000000 0.4186000000 0.4937000000
2.2570000000 3.5224000000 3.6159000000
2.2569000000 1.6404000000 1.9475000000
2.2566000000 6.1069000000 0.7655000000
2.2562000000 0.8257000000 0.9764000000
2.2560000000 1.7738000000 2.1124000000
2.2557000000 1.2966000000 1.5408000000
2.2554000000 4.2293000000 3.0041000000
2.2553000000 2.9241000000 3.4079000000
2.2552000000 3.1179000000 3.5462000000
2.2550000000 6.7479000000 0.0755000000
2.2548000000 3.5621000000 3.5942000000
2.2546000000 6.6277000000 0.1518000000
2.2545000000 2.9688000000 3.4586000000
2.2543000000 2.6207000000 3.1186000000
2.2541000000 3.5228000000 3.6196000000
2.2538000000 2.2993000000 2.7343000000
2.2536000000 1.7826000000 2.1183000000
2.2535000000 2.6392000000 3.1404000000
2.2534000000 1.0299000000 1.2209000000
2.2532000000 4.4585000000 2.7294000000
2.2529000000 5.7231000000 1.2218000000
2.2528000000 2.7130000000 3.2299000000
2.2527000000 2.9854000000 3.4740000000
2.2525000000 4.0158000000 3.2567000000
2.2521000000 4.2104000000 3.0323000000
2.2520000000 3.5845000000 3.5812000000
2.2517000000 2.4109000000 2.8645000000
2.2511000000 6.5886000000 0.1931000000
2.2506000000 2.1391000000 2.5434000000
2.2500000000 6.5701000000 0.2056000000
2.2497000000 0.7878000000 0.9311000000
2.2492000000 0.7632000000 0.9022000000
2.2487000000 1.5160000000 1.8000000000
2.2481000000 1.0367000000 1.2274000000
2.2480000000 2.6707000000 3.1776000000
2.2470000000 0.9195000000 1.0861000000
2.2424000000 0.1266000000 0.1381000000
2.0115000000 3.5737000000 3.7683000000
2.0112000000 5.9303000000 0.9753000000
2.0103000000 5.4193000000 1.5825000000
2.0097000000 5.0947000000 1.9704000000
2.0092000000 6.6740000000 0.0907000000
2.0078000000 6.5033000000 0.2955000000
2.0071000000 6.5639000000 0.2202000000
2.0063000000 5.3030000000 1.7208000000
2.0060000000 3.0538000000 3.6340000000
2.0053000000 2.8160000000 3.3481000000
2.0052000000 5.3887000000 1.6194000000
2.0051000000 4.7687000000 2.3638000000
2.0050000000 3.6812000000 3.6527000000
2.0047000000 3.7940000000 3.5241000000
2.0046000000 2.4405000000 2.9059000000
2.0043000000 4.1669000000 3.0765000000
2.0043000000 3.5380000000 3.8058000000
2.0040000000 3.6971000000 3.6389000000
2.0039000000 0.4168000000 0.4924000000
2.0038000000 0.1658000000 0.1872000000
2.0036000000 1.3955000000 1.6604000000
2.0035000000 4.5200000000 2.6548000000
2.0033000000 3.7979000000 3.5175000000
2.0030000000 1.0200000000 1.2128000000
2.0028000000 2.0759000000 2.4664000000
2.0024000000 1.5565000000 1.8451000000
2.0022000000 3.1896000000 3.7770000000
2.0021000000 0.3691000000 0.4333000000
2.0020000000 6.3607000000 0.4618000000
2.0018000000 6.3056000000 0.5291000000
2.0017000000 1.1243000000 1.3399000000
2.0015000000 0.3004000000 0.3426000000
2.0011000000 1.7239000000 2.0519000000
2.0010000000 1.0029000000 1.1845000000
2.0008000000 3.1508000000 3.7465000000
2.0000000000 0.8724000000 1.0312000000
1.9993000000 2.6040000000 3.0997000000
1.9970000000 5.0664000000 2.0053000000
1.9963000000 2.5209000000 2.9983000000
1.9929000000 0.2202000000 0.2510000000
1.7625000000 5.5851000000 1.3876000000
1.7613000000 3.5627000000 3.7182000000
1.7611000000 6.6098000000 0.1729000000
1.7609000000 6.7083000000 0.1209000000
1.7598000000 6.4950000000 0.3023000000
1.7596000000 4.1366000000 3.1147000000
1.7591000000 5.6404000000 1.3222000000
1.7590000000 5.0180000000 2.0609000000
1.7582000000 5.8611000000 1.0588000000
1.7577000000 2.5037000000 2.9786000000
1.7574000000 4.0731000000 3.1899000000
1.7573000000 2.8728000000 3.4199000000
1.7570000000 1.6999000000 2.0218000000
1.7567000000 0.2515000000 0.2925000000
1.7563000000 5.1051000000 1.9605000000
1.7562000000 4.1328000000 3.1134000000
1.7561000000 5.2163000000 1.8288000000
1.7558000000 2.8580000000 3.3995000000
1.7557000000 4.1893000000 3.0531000000
1.7554000000 2.8689000000 3.4129000000
1.7552000000 1.4437000000 1.7178000000
1.7549000000 0.8743000000 1.0323000000
1.7548000000 1.6058000000 1.9063000000
1.7546000000 3.2354000000 3.7378000000
1.7543000000 4.1463000000 3.1003000000
1.7540000000 1.3135000000 1.5567000000
1.7539000000 4.2170000000 3.0183000000
1.7538000000 2.6538000000 3.1601000000
1.7536000000 2.4489000000 2.9121000000
1.7535000000 6.4988000000 0.2978000000
1.7534000000 2.9202000000 3.4725000000
1.7531000000 3.1919000000 3.7024000000
1.7530000000 1.4730000000 1.7486000000
1.7527000000 6.2515000000 0.5936000000
1.7525000000 0.5270000000 0.6197000000
1.7524000000 1.0320000000 1.2239000000
1.7523000000 3.7230000000 3.5863000000
1.7520000000 3.3040000000 3.7703000000
1.7520000000 0.0841000000 0.0960000000
1.7517000000 6.1769000000 0.6871000000
1.7516000000 1.4644000000 1.7387000000
1.7512000000 5.8351000000 1.0861000000
1.7510000000 0.0258000000 0.1049000000
1.7508000000 6.0192000000 0.8674000000
1.7506000000 1.1327000000 1.3430000000
1.7500000000 6.3029000000 0.5368000000
1.7498000000 1.8117000000 2.1616000000
1.7495000000 1.1644000000 1.3826000000
1.7488000000 2.7681000000 3.2847000000
1.7485000000 5.5959000000 1.3761000000
1.7484000000 2.0058000000 2.3836000000
1.7478000000 1.7124000000 2.0342000000
1.7431000000 1.5103000000 1.7950000000
1.5110000000 2.1368000000 2.5373000000
1.5103000000 4.1665000000 3.0616000000
1.5092000000 4.6415000000 2.5124000000
1.5084000000 6.4837000000 0.3171000000
1.5082000000 3.7559000000 3.3415000000
1.5079000000 6.1754000000 0.6842000000
1.5073000000 0.9100000000 1.0755000000
1.5070000000 5.8457000000 1.0784000000
1.5067000000 4.3007000000 2.9173000000
1.5066000000 6.7551000000 0.0682000000
1.5063000000 2.9678000000 3.3176000000
1.5061000000 4.8083000000 2.3209000000
1.5053000000 4.9492000000 2.1403000000
1.5052000000 1.4737000000 1.7519000000
1.5050000000 4.1893000000 3.0274000000
1.5049000000 5.0799000000 1.9813000000
1.5048000000 4.3001000000 2.9158000000
1.5043000000 0.1647000000 0.1868000000
1.5043000000 5.6945000000 1.2577000000
1.5040000000 4.6930000000 2.4521000000
1.5039000000 2.8575000000 3.2499000000
1.5035000000 1.3132000000 1.5584000000
1.5033000000 3.0019000000 3.3306000000
1.5033000000 1.3967000000 1.6574000000
1.5031000000 4.1614000000 3.0680000000
1.5030000000 0.4178000000 0.4860000000
1.5030000000 4.5493000000 2.6182000000
1.5027000000 0.3513000000 0.4107000000
1.5025000000 3.7080000000 3.3606000000
1.5025000000 0.9897000000 1.1735000000
1.5023000000 3.2502000000 3.4821000000
1.5022000000 6.4232000000 0.3884000000
1.5020000000 3.3967000000 3.5314000000
1.5018000000 0.1224000000 0.1398000000
1.5018000000 4.9880000000 2.0939000000
1.5016000000 2.2470000000 2.6700000000
1.5015000000 1.5738000000 1.8687000000
1.5013000000 3.0408000000 3.3585000000
1.5011000000 4.3105000000 2.9065000000
1.5008000000 0.4047000000 0.4784000000
1.5006000000 2.0742000000 2.4657000000
1.5004000000 6.2791000000 0.5574000000
1.5002000000 0.8118000000 0.9609000000
1.4992000000 1.0742000000 1.2707000000
1.4988000000 1.7595000000 2.0899000000
1.4984000000 3.6505000000 3.3887000000
1.4971000000 0.8743000000 1.0430000000
1.4965000000 3.7139000000 3.3521000000
1.4957000000 1.3830000000 1.6421000000
1.4949000000 2.2980000000 2.7336000000
1.4933000000 0.1905000000 0.2165000000
1.2626000000 6.1462000000 0.7201000000
1.2615000000 4.6318000000 2.5094000000
1.2606000000 6.0048000000 0.8878000000
1.2590000000 3.2485000000 3.2348000000
1.2585000000 6.5394000000 0.2519000000
1.2574000000 5.3292000000 1.6892000000
1.2571000000 4.5949000000 2.5528000000
1.2568000000 3.3633000000 3.2734000000
1.2567000000 4.2427000000 2.7862000000
1.2566000000 4.9798000000 2.1088000000
1.2564000000 6.5218000000 0.2672000000
1.2560000000 4.2007000000 2.8140000000
1.2559000000 0.4766000000 0.5604000000
1.2558000000 2.4556000000 2.7541000000
1.2556000000 5.8655000000 1.0490000000
1.2555000000 1.5729000000 1.8656000000
1.2554000000 6.0147000000 0.8766000000
1.2553000000 4.4292000000 2.6781000000
1.2552000000 0.7035000000 0.8337000000
1.2549000000 1.8215000000 2.1663000000
1.2547000000 4.4105000000 2.6875000000
1.2545000000 2.6842000000 2.8920000000
1.2544000000 5.1799000000 1.8712000000
1.2543000000 6.6159000000 0.1590000000
1.2538000000 6.7090000000 0.1216000000
1.2537000000 4.7861000000 2.3341000000
1.2535000000 6.6371000000 0.1315000000
1.2534000000 3.2179000000 3.2058000000
1.2532000000 6.0245000000 0.8645000000
1.2532000000 1.6912000000 2.0080000000
1.2528000000 5.3973000000 1.6094000000
1.2528000000 1.4342000000 1.7064000000
1.2526000000 3.0704000000 3.1192000000
1.2525000000 5.6142000000 1.3588000000
1.2524000000 5.5880000000 1.3818000000
1.2524000000 3.9364000000 2.9646000000
1.2519000000 3.8378000000 3.0270000000
1.2519000000 2.1970000000 2.5764000000
1.2517000000 0.5147000000 0.6103000000
1.2514000000 2.2005000000 2.5805000000
1.2512000000 5.0030000000 2.0794000000
1.2510000000 1.7849000000 2.1247000000
1.2505000000 0.2050000000 0.2390000000
1.2502000000 6.2702000000 0.5700000000
1.2498000000 3.8274000000 3.0272000000
1.2494000000 2.0965000000 2.4645000000
1.2493000000 2.1010000000 2.4858000000
1.2490000000 2.5656000000 2.8146000000
1.2485000000 1.9195000000 2.2798000000
1.2478000000 0.3628000000 0.4314000000
1.2476000000 1.3334000000 1.5871000000
1.2468000000 5.8295000000 1.0962000000
1.2456000000 1.8751000000 2.2287000000
1.2452000000 0.6919000000 0.8203000000
1.0131000000 0.0800000000 0.0855000000
1.0105000000 6.3952000000 0.4181000000
1.0097000000 5.9679000000 0.9296000000
1.0091000000 1.2726000000 1.5088000000
1.0089000000 4.4169000000 2.4291000000
1.0082000000 2.1188000000 2.2946000000
1.0079000000 5.4093000000 1.5987000000
1.0077000000 2.4785000000 2.5127000000
1.0070000000 6.6983000000 0.1342000000
1.0069000000 3.4968000000 2.9771000000
1.0068000000 0.9505000000 1.1231000000
1.0067000000 2.0522000000 2.2543000000
1.0065000000 0.9067000000 1.0752000000
1.0063000000 2.1239000000 2.3031000000
1.0063000000 2.9843000000 2.8101000000
1.0060000000 6.0760000000 0.8041000000
1.0056000000 0.1781000000 0.2091000000
1.0054000000 3.0755000000 2.8686000000
1.0053000000 5.5643000000 1.4089000000
1.0051000000 2.5756000000 2.5648000000
1.0050000000 0.1340000000 0.1552000000
1.0049000000 5.3281000000 1.6948000000
1.0046000000 4.7549000000 2.2275000000
1.0045000000 5.2383000000 1.7973000000
1.0043000000 5.6172000000 1.3500000000
1.0041000000 5.9732000000 0.9237000000
1.0039000000 0.3272000000 0.3852000000
1.0039000000 5.9029000000 1.0073000000
1.0036000000 1.2235000000 1.4435000000
1.0035000000 6.5263000000 0.2665000000
1.0034000000 2.1135000000 2.2954000000
1.0032000000 0.5112000000 0.5994000000
1.0028000000 6.7202000000 0.1112000000
1.0026000000 3.5329000000 2.9496000000
1.0025000000 0.0996000000 0.1121000000
1.0025000000 3.6861000000 2.8557000000
1.0021000000 1.7211000000 2.0265000000
1.0019000000 6.0651000000 0.8223000000
1.0018000000 4.7804000000 2.2040000000
1.0017000000 3.2952000000 2.9933000000
1.0016000000 0.7235000000 0.8565000000
1.0013000000 5.0184000000 2.0454000000
1.0007000000 0.4202000000 0.4978000000
1.0005000000 2.0931000000 2.2733000000
0.9999000000 0.1239000000 0.1465000000
0.9997000000 4.4201000000 2.4145000000
0.9996000000 5.7419000000 1.1990000000
0.9993000000 3.5804000000 2.9186000000
0.9982000000 3.8864000000 2.7383000000
0.9941000000 2.3359000000 2.4192000000
0.7621000000 6.6119000000 0.1611000000
0.7616000000 3.2629000000 2.7207000000
0.7607000000 4.4060000000 2.1772000000
0.7605000000 5.7185000000 1.2225000000
0.7599000000 5.8416000000 1.0783000000
0.7598000000 5.9831000000 0.9188000000
0.7594000000 4.4460000000 2.1532000000
0.7587000000 5.5989000000 1.3695000000
0.7579000000 0.8769000000 1.0379000000
0.7570000000 6.2877000000 0.5515000000
0.7567000000 2.0571000000 1.9966000000
0.7564000000 6.3506000000 0.4729000000
0.7563000000 5.8387000000 1.0889000000
0.7562000000 5.4082000000 1.5561000000
0.7559000000 2.2188000000 2.0979000000
0.7559000000 5.5672000000 1.4076000000
0.7558000000 2.6243000000 2.3386000000
0.7557000000 2.4915000000 2.2632000000
0.7555000000 2.1013000000 2.0223000000
0.7552000000 6.1488000000 0.7184000000
0.7550000000 5.2993000000 1.6408000000
0.7548000000 3.8622000000 2.4975000000
0.7547000000 6.0748000000 0.8056000000
0.7546000000 0.5061000000 0.5905000000
0.7545000000 5.5257000000 1.4394000000
0.7544000000 4.1687000000 2.3115000000
0.7543000000 3.7680000000 2.5527000000
0.7540000000 4.2384000000 2.2700000000
0.7537000000 4.7594000000 1.9637000000
0.7534000000 4.7672000000 1.9549000000
0.7533000000 3.3050000000 2.7442000000
0.7531000000 1.8375000000 1.8658000000
0.7527000000 6.2110000000 0.6411000000
0.7526000000 1.9977000000 1.9575000000
0.7523000000 0.2725000000 0.3223000000
0.7522000000 0.9691000000 1.1509000000
0.7519000000 5.8169000000 1.1126000000
0.7516000000 2.5843000000 2.3146000000
0.7515000000 4.1394000000 2.3277000000
0.7513000000 1.4613000000 1.6432000000
0.7510000000 4.2040000000 2.2896000000
0.7509000000 0.3061000000 0.3563000000
0.7505000000 0.9019000000 1.0687000000
0.7501000000 0.3980000000 0.4636000000
0.7497000000 0.8036000000 0.9529000000
0.7495000000 5.4392000000 1.5336000000
0.7494000000 3.9700000000 2.4238000000
0.7490000000 3.3784000000 2.7643000000
0.7488000000 1.3630000000 1.5571000000
0.7487000000 3.2435000000 2.7022000000
0.7478000000 1.1148000000 1.3205000000
0.7466000000 1.0533000000 1.2443000000
0.5117000000 1.9449000000 1.6806000000
0.5105000000 3.5234000000 2.4519000000
0.5094000000 5.0129000000 1.5590000000
0.5093000000 4.0005000000 2.1642000000
0.5085000000 2.4937000000 2.0052000000
0.5075000000 6.0681000000 0.8103000000
0.5070000000 6.6480000000 0.1217000000
0.5066000000 2.0363000000 1.7381000000
0.5065000000 4.3085000000 1.9678000000
0.5064000000 2.7467000000 2.1544000000
0.5063000000 3.1789000000 2.4097000000
0.5061000000 3.5425000000 2.4296000000
0.5057000000 3.9971000000 2.1585000000
0.5055000000 3.9339000000 2.1968000000
0.5054000000 5.9636000000 0.9166000000
0.5051000000 4.4161000000 1.9103000000
0.5050000000 6.2072000000 0.6451000000
0.5049000000 4.9388000000 1.5955000000
0.5047000000 6.4658000000 0.3453000000
0.5045000000 6.4099000000 0.3990000000
0.5041000000 2.6332000000 2.0846000000
0.5038000000 4.2462000000 2.0046000000
0.5036000000 3.7528000000 2.3044000000
0.5035000000 4.5645000000 1.8183000000
0.5033000000 5.5580000000 1.2290000000
0.5032000000 4.9214000000 1.6036000000
0.5031000000 2.6396000000 2.0861000000
0.5031000000 4.3535000000 1.9422000000
0.5028000000 6.2403000000 0.6015000000
0.5027000000 3.8368000000 2.2558000000
0.5025000000 4.1131000000 2.0840000000
0.5024000000 6.2955000000 0.5379000000
0.5020000000 0.2502000000 0.2963000000
0.5019000000 0.6673000000 0.7836000000
0.5018000000 0.0846000000 0.0904000000
0.5014000000 1.3620000000 1.3239000000
0.5010000000 1.6761000000 1.5103000000
0.5007000000 0.3116000000 0.3677000000
0.5005000000 5.1293000000 1.4774000000
0.5001000000 2.2377000000 1.8432000000
0.4996000000 4.4819000000 1.8616000000
0.4995000000 1.5703000000 1.4439000000
0.4994000000 6.6327000000 0.1394000000
0.4993000000 0.7144000000 0.8489000000
0.4993000000 0.4215000000 0.4953000000
0.4975000000 1.1211000000 1.1778000000
0.4974000000 3.0433000000 2.3167000000
0.4967000000 4.7217000000 1.7196000000
0.4898000000 0.2885000000 0.3319000000
0.2617000000 6.0167000000 0.7032000000
0.2608000000 4.0964000000 1.8431000000
0.2595000000 6.4920000000 0.3063000000
0.2590000000 3.1075000000 2.1150000000
0.2588000000 4.0978000000 1.8416000000
0.2585000000 1.8420000000 1.3594000000
0.2581000000 5.6568000000 0.9180000000
0.2578000000 4.5603000000 1.5658000000
0.2574000000 5.5374000000 0.9860000000
0.2572000000 1.9120000000 1.3948000000
0.2568000000 2.3671000000 1.6712000000
0.2565000000 4.4155000000 1.6511000000
0.2564000000 4.6434000000 1.5189000000
0.2560000000 6.2409000000 0.5395000000
0.2558000000 2.6797000000 1.8575000000
0.2556000000 6.3238000000 0.4952000000
0.2554000000 2.6980000000 1.8659000000
0.2550000000 2.2453000000 1.5897000000
0.2549000000 3.4990000000 2.1956000000
0.2548000000 4.3106000000 1.7128000000
0.2545000000 5.9904000000 0.7084000000
0.2544000000 6.1523000000 0.6165000000
0.2541000000 2.7738000000 1.9086000000
0.2540000000 0.3723000000 0.4163000000
0.2538000000 3.4716000000 2.2160000000
0.2534000000 6.0384000000 0.6796000000
0.2532000000 3.9671000000 1.9162000000
0.2529000000 4.8780000000 1.3744000000
0.2528000000 1.9728000000 1.4287000000
0.2527000000 3.2129000000 2.1695000000
0.2526000000 3.0698000000 2.0830000000
0.2525000000 5.5388000000 0.9782000000
0.2524000000 5.3473000000 1.0941000000
0.2523000000 6.3422000000 0.4690000000
0.2522000000 4.6437000000 1.5098000000
0.2520000000 3.3081000000 2.2247000000
0.2518000000 4.9574000000 1.3262000000
0.2516000000 4.6857000000 1.4840000000
0.2515000000 0.6743000000 0.6596000000
0.2514000000 6.2766000000 0.5221000000
0.2513000000 2.7472000000 1.8847000000
0.2510000000 4.7996000000 1.4246000000
0.2509000000 0.2765000000 0.3222000000
0.2506000000 5.6871000000 0.8806000000
0.2503000000 2.7371000000 1.8866000000
0.2501000000 4.0762000000 1.8484000000
0.2499000000 4.5149000000 1.5894000000
0.2496000000 3.7229000000 2.0574000000
0.2494000000 2.7927000000 1.9157000000
0.2490000000 4.5975000000 1.5331000000
0.2488000000 0.6711000000 0.6505000000
0.2472000000 4.3188000000 1.7040000000
0.2467000000 2.0683000000 1.4809000000
0.0140000000 3.4038000000 1.9813000000
0.0126000000 6.5222000000 0.1436000000
0.0123000000 5.3466000000 0.8466000000
0.0114000000 5.6351000000 0.6713000000
0.0108000000 3.5584000000 1.9125000000
0.0103000000 6.2629000000 0.2961000000
0.0098000000 5.2411000000 0.9023000000
0.0094000000 1.1416000000 0.6812000000
0.0090000000 3.5108000000 1.9332000000
0.0089000000 3.8131000000 1.7527000000
0.0078000000 5.6801000000 0.6436000000
0.0076000000 1.7563000000 1.0543000000
0.0075000000 6.7398000000 0.0613000000
0.0073000000 2.8083000000 1.6737000000
0.0071000000 5.9038000000 0.5054000000
0.0069000000 0.4477000000 0.2671000000
0.0064000000 3.6170000000 1.8711000000
0.0059000000 6.4755000000 0.1666000000
0.0058000000 6.2199000000 0.3180000000
0.0058000000 2.6676000000 1.5869000000
0.0056000000 5.3588000000 0.8280000000
0.0054000000 3.2822000000 1.9601000000
0.0052000000 6.2095000000 0.3202000000
0.0051000000 6.3785000000 0.2228000000
0.0050000000 5.8566000000 0.5335000000
0.0048000000 4.7448000000 1.1946000000
0.0048000000 6.4561000000 0.1714000000
0.0046000000 5.5925000000 0.6896000000
0.0044000000 2.2459000000 1.3365000000
0.0040000000 3.4586000000 1.9602000000
0.0038000000 4.3712000000 1.4203000000
0.0036000000 0.0635000000 0.0102000000
0.0035000000 2.2742000000 1.3513000000
0.0033000000 1.5893000000 0.9454000000
0.0030000000 5.6466000000 0.6564000000
0.0027000000 2.1188000000 1.2517000000
0.0024000000 0.4347000000 0.2554000000
0.0021000000 3.6178000000 1.8649000000
0.0020000000 4.8270000000 1.1427000000
0.0019000000 1.8295000000 1.0853000000
0.0018000000 1.1378000000 0.6688000000
0.0016000000 1.7739000000 1.0508000000
0.0015000000 0.6696000000 0.3944000000
0.0014000000 5.4918000000 0.7497000000
0.0011000000 4.7258000000 1.2027000000
0.0008000000 2.2241000000 1.3196000000
0.0007000000 3.0891000000 1.8321000000
0.0005000000 0.7061000000 0.4167000000
0.0004000000 3.7725000000 1.7678000000
-0.0002000000 4.4335000000 1.3769000000
-0.0004000000 0.7934000000 0.4649000000
-0.0006000000 3.3920000000 1.9773000000
-0.0009000000 1.4838000000 0.8781000000
-0.0012000000 2.6570000000 1.5744000000
-0.0013000000 0.2191000000 0.1205000000
-0.0028000000 0.1178000000 0.1338000000
-0.2395000000 2.7838000000 1.4037000000
-0.2411000000 5.9620000000 0.2171000000
-0.2415000000 2.7474000000 1.3871000000
-0.2420000000 4.6578000000 0.9925000000
-0.2424000000 1.0205000000 0.3480000000
-0.2425000000 3.5938000000 1.6261000000
-0.2428000000 5.2082000000 0.6621000000
-0.2430000000 6.1976000000 0.0752000000
-0.2431000000 2.7242000000 1.3706000000
-0.2438000000 4.9606000000 0.8076000000
-0.2440000000 6.0637000000 0.1537000000
-0.2442000000 3.1027000000 1.5876000000
-0.2447000000 5.4268000000 0.5347000000
-0.2454000000 1.1063000000 0.4006000000
-0.2455000000 5.2668000000 0.6262000000
-0.2457000000 3.1872000000 1.6379000000
-0.2457000000 4.8206000000 0.8943000000
-0.2459000000 2.4196000000 1.1771000000
-0.2465000000 3.7313000000 1.5427000000
-0.2467000000 1.0193000000 0.3514000000
-0.2469000000 0.1888000000 0.0018000000
-0.2472000000 2.3062000000 1.1148000000
-0.2472000000 4.8045000000 0.9029000000
-0.2475000000 1.4293000000 0.5927000000
-0.2476000000 4.7617000000 0.9218000000
-0.2477000000 3.2192000000 1.6584000000
-0.2480000000 0.1898000000 0.0022000000
-0.2482000000 5.5176000000 0.4685000000
-0.2485000000 3.0754000000 1.5698000000
-0.2490000000 1.2719000000 0.4940000000
-0.2493000000 1.5678000000 0.6677000000
-0.2497000000 1.1576000000 0.4199000000
-0.2498000000 1.7906000000 0.8043000000
-0.2499000000 2.5784000000 1.2740000000
-0.2504000000 2.4767000000 1.2095000000
-0.2508000000 3.4706000000 1.6935000000
-0.2512000000 6.1314000000 0.1014000000
-0.2518000000 0.5704000000 0.0705000000
-0.2520000000 1.7876000000 0.8002000000
-0.2524000000 2.6826000000 1.3319000000
-0.2529000000 2.5645000000 1.2594000000
-0.4881000000 5.5722000000 0.1943000000
-0.4900000000 3.1681000000 1.3711000000
-0.4903000000 3.0460000000 1.3061000000
-0.4912000000 5.5906000000 0.1789000000
-0.4929000000 4.7567000000 0.6700000000
-0.4932000000 3.7389000000 1.2814000000
-0.4939000000 5.5183000000 0.2129000000
-0.4945000000 5.0116000000 0.5246000000
-0.4947000000 4.8900000000 0.5888000000
-0.4951000000 5.3333000000 0.3318000000
-0.4954000000 0.7716000000 0.0932000000
-0.4957000000 2.8187000000 1.1628000000
-0.4958000000 3.1681000000 1.3687000000
-0.4961000000 5.4783000000 0.2425000000
-0.4963000000 3.7937000000 1.2464000000
-0.4965000000 1.1798000000 0.1825000000
-0.4967000000 4.7582000000 0.6688000000
-0.4967000000 1.0214000000 0.0913000000
-0.4972000000 3.8270000000 1.2256000000
-0.4973000000 1.4912000000 0.3680000000
-0.4974000000 4.3330000000 0.9217000000
-0.4975000000 4.6974000000 0.7032000000
-0.4977000000 2.6132000000 1.0351000000
-0.4979000000 3.9068000000 1.1800000000
-0.4984000000 3.3549000000 1.4561000000
-0.4986000000 1.4082000000 0.3173000000
-0.4987000000 3.9414000000 1.1521000000
-0.4990000000 0.8629000000 0.0678000000
-0.4995000000 3.5684000000 1.3793000000
-0.4999000000 3.2630000000 1.4182000000
-0.5002000000 5.2629000000 0.3655000000
-0.5010000000 1.3889000000 0.3043000000
-0.5013000000 4.2744000000 0.9517000000
-0.5020000000 0.9386000000 0.1049000000
-0.5037000000 0.6790000000 0.0266000000
-0.7373000000 3.0439000000 1.0481000000
-0.7410000000 4.7317000000 0.4306000000
-0.7415000000 2.9062000000 0.9615000000
-0.7424000000 3.9154000000 0.9245000000
-0.7432000000 4.6582000000 0.4772000000
-0.7436000000 3.0642000000 1.0492000000
-0.7438000000 2.3524000000 0.6336000000
-0.7445000000 4.5772000000 0.5281000000
-0.7449000000 1.2239000000 0.1032000000
-0.7452000000 2.9327000000 0.9719000000
-0.7459000000 2.3486000000 0.6214000000
-0.7460000000 2.5081000000 0.7138000000
-0.7463000000 5.2432000000 0.1248000000
-0.7464000000 1.4257000000 0.0762000000
-0.7468000000 2.8297000000 0.9096000000
-0.7475000000 4.3410000000 0.6595000000
-0.7479000000 3.7333000000 1.0180000000
-0.7482000000 4.5978000000 0.5072000000
-0.7460000000 3.7016000000 1.0461000000
-0.7487000000 3.2348000000 1.1470000000
-0.7489000000 5.4695000000 0.0595000000
-0.7490000000 1.5068000000 0.1178000000
-0.7492000000 3.0244000000 1.0221000000
-0.7497000000 5.3396000000 0.1352000000
-0.7499000000 3.3338000000 1.1859000000
-0.7502000000 4.9726000000 0.2790000000
-0.7505000000 5.0551000000 0.2290000000
-0.7512000000 4.9896000000 0.2696000000
-0.7515000000 3.5271000000 1.1422000000
-0.7523000000 2.0103000000 0.4150000000
-0.7523000000 2.6751000000 0.8086000000
-0.7525000000 5.3597000000 0.1253000000
-0.7529000000 2.0408000000 0.4348000000
-0.7553000000 4.9646000000 0.2834000000
-0.9904000000 3.4192000000 0.9382000000
-0.9914000000 2.7822000000 0.6332000000
-0.9925000000 1.6108000000 0.0783000000
-0.9930000000 3.2268000000 0.8945000000
-0.9937000000 4.7263000000 0.1737000000
-0.9935000000 4.2809000000 0.4412000000
-0.9942000000 4.9432000000 0.1157000000
-0.9946000000 2.0281000000 0.1718000000
-0.9947000000 3.1711000000 0.8485000000
-0.9950000000 2.5555000000 0.4833000000
-0.9957000000 3.1187000000 0.8228000000
-0.9961000000 4.4408000000 0.3436000000
-0.9963000000 2.9818000000 0.7391000000
-0.9965000000 1.6630000000 0.1035000000
-0.9973000000 2.5441000000 0.4784000000
-0.9977000000 3.0301000000 0.7699000000
-0.9980000000 3.8048000000 0.7237000000
-0.9985000000 2.9576000000 0.7325000000
-0.9993000000 4.5076000000 0.2990000000
-0.9997000000 2.6124000000 0.5165000000
-1.0006000000 1.5490000000 0.0314000000
-1.0011000000 3.3201000000 0.9400000000
-1.0022000000 1.8840000000 0.0747000000
-1.0024000000 2.4309000000 0.4083000000
-1.2370000000 3.5286000000 0.6379000000
-1.2387000000 2.2654000000 0.0699000000
-1.2412000000 3.1862000000 0.6052000000
-1.2423000000 2.9201000000 0.4495000000
-1.2430000000 3.2624000000 0.6556000000
-1.2432000000 3.5119000000 0.6449000000
-1.2444000000 4.3176000000 0.1649000000
-1.2447000000 4.4689000000 0.0789000000
-1.2452000000 2.4094000000 0.1440000000
-1.2455000000 4.5547000000 0.0900000000
-1.2460000000 2.3382000000 0.0991000000
-1.2465000000 1.9187000000 -0.0002000000
-1.2466000000 4.0637000000 0.3088000000
-1.2470000000 2.1181000000 0.0409000000
-1.2470000000 3.8519000000 0.4348000000
-1.2472000000 2.2964000000 0.0760000000
-1.2473000000 4.3111000000 0.1615000000
-1.2476000000 3.4939000000 0.6510000000
-1.2476000000 2.8445000000 0.3978000000
-1.2480000000 4.7220000000 0.0646000000
-1.2486000000 2.3017000000 0.0722000000
-1.2491000000 2.7864000000 0.3592000000
-1.2492000000 4.1146000000 0.2825000000
-1.2495000000 2.6979000000 0.3091000000
-1.2509000000 3.6575000000 0.5524000000
-1.2515000000 2.7576000000 0.3421000000
-1.2564000000 2.2160000000 0.0882000000
-1.4923000000 3.3936000000 0.4388000000
-1.4935000000 3.7585000000 0.2320000000
-1.4950000000 2.6971000000 0.1348000000
-1.4953000000 4.3254000000 0.0424000000
-1.4955000000 3.8381000000 0.1843000000
-1.4960000000 3.5677000000 0.3496000000
-1.4964000000 3.5987000000 0.3333000000
-1.4967000000 3.0640000000 0.2776000000
-1.4972000000 3.5826000000 0.3392000000
-1.4978000000 2.6468000000 0.0979000000
-1.4980000000 2.9783000000 0.2220000000
-1.4982000000 3.1828000000 0.3417000000
-1.4986000000 3.3374000000 0.4137000000
-1.5012000000 2.5117000000 0.0913000000
-1.5019000000 2.9752000000 0.2202000000
-1.7439000000 3.0810000000 0.1066000000
-1.7446000000 3.4165000000 0.1621000000
-1.7456000000 3.1612000000 0.0775000000
-1.7467000000 3.5219000000 0.1144000000
-1.7474000000 3.8990000000 0.0401000000
-1.7485000000 2.8928000000 0.0613000000
-1.7491000000 2.8399000000 0.0321000000
