7.2541000000 4.1672000000 0.0733000000
7.2535000000 3.9233000000 -0.0005000000
7.2505000000 4.6793000000 0.0329000000
7.0130000000 4.8007000000 0.1363000000
7.0094000000 4.5483000000 0.2156000000
7.0077000000 5.0676000000 0.0540000000
7.0060000000 4.7306000000 0.1092000000
7.0050000000 3.7731000000 0.0950000000
7.0045000000 3.5499000000 0.0365000000
7.0038000000 3.5248000000 0.0213000000
7.0019000000 3.3804000000 0.0048000000
7.0009000000 4.1967000000 0.3560000000
6.7650000000 5.2874000000 0.1059000000
6.7605000000 4.5984000000 0.4435000000
6.7580000000 3.8329000000 0.3909000000
6.7574000000 4.1479000000 0.5819000000
6.7560000000 4.5308000000 0.4937000000
6.7549000000 5.0300000000 0.1966000000
6.7545000000 4.2891000000 0.6192000000
6.7542000000 3.3499000000 0.1078000000
6.7528000000 5.4358000000 0.0226000000
6.7523000000 5.0435000000 0.1864000000
6.7500000000 4.6266000000 0.4401000000
6.5142000000 5.2771000000 0.2930000000
6.5104000000 4.3802000000 0.8424000000
6.5092000000 3.1124000000 0.2162000000
6.5085000000 3.1996000000 0.2701000000
6.5082000000 5.5104000000 0.1570000000
6.5077000000 5.4677000000 0.1839000000
6.5074000000 5.6042000000 0.1045000000
6.5070000000 4.4500000000 0.8067000000
6.5065000000 5.4792000000 0.1804000000
6.5062000000 5.8735000000 0.0119000000
6.5058000000 3.2901000000 0.3283000000
6.5051000000 4.7181000000 0.6445000000
6.5045000000 5.2229000000 0.3382000000
6.5038000000 2.5470000000 0.0304000000
6.5035000000 4.4721000000 0.8014000000
6.5028000000 4.2333000000 0.8914000000
6.5015000000 2.5360000000 0.0237000000
6.5002000000 2.9399000000 0.1175000000
6.4986000000 3.3278000000 0.3660000000
6.2608000000 2.4986000000 0.1072000000
6.2598000000 6.2912000000 0.0944000000
6.2593000000 4.3234000000 1.1434000000
6.2586000000 4.9930000000 0.7377000000
6.2581000000 4.3671000000 1.1203000000
6.2575000000 6.0774000000 0.0821000000
6.2571000000 4.9261000000 0.7854000000
6.2566000000 6.3574000000 0.0599000000
6.2560000000 4.0825000000 1.0732000000
6.2557000000 6.1890000000 0.0903000000
6.2555000000 2.1605000000 0.0577000000
6.2551000000 2.8893000000 0.3515000000
6.2549000000 3.3637000000 0.6384000000
6.2547000000 4.2917000000 1.1509000000
6.2545000000 3.7490000000 0.8702000000
6.2542000000 4.3576000000 1.1313000000
6.2534000000 4.0276000000 1.0468000000
6.2529000000 2.6573000000 0.2067000000
6.2522000000 5.9536000000 0.1596000000
6.2519000000 5.4082000000 0.4973000000
6.2510000000 4.3945000000 1.1107000000
6.2492000000 2.9280000000 0.3862000000
6.0111000000 6.5890000000 0.1062000000
6.0103000000 6.6940000000 0.0391000000
6.0089000000 5.9513000000 0.4129000000
6.0085000000 2.7968000000 0.5529000000
6.0082000000 3.1133000000 0.7455000000
6.0075000000 3.1585000000 0.7722000000
6.0072000000 4.5351000000 1.2816000000
6.0064000000 6.6718000000 0.0594000000
6.0060000000 3.2429000000 0.8261000000
6.0058000000 4.1244000000 1.3590000000
6.0058000000 5.8456000000 0.4864000000
6.0055000000 4.7015000000 1.1864000000
6.0051000000 2.8606000000 0.5937000000
6.0048000000 2.3273000000 0.2707000000
6.0045000000 2.4092000000 0.3195000000
6.0042000000 2.2055000000 0.1949000000
6.0036000000 6.8608000000 0.0229000000
6.0030000000 2.3217000000 0.2685000000
6.0020000000 6.7234000000 0.0338000000
6.0018000000 4.6066000000 1.2402000000
6.0013000000 1.6642000000 0.0145000000
6.0004000000 2.3979000000 0.3146000000
5.9990000000 6.3178000000 0.2057000000
5.9978000000 4.0113000000 1.2983000000
5.7599000000 1.7209000000 0.1632000000
5.7590000000 4.0860000000 1.5957000000
5.7588000000 6.1852000000 0.5423000000
5.7585000000 3.8884000000 1.4757000000
5.7582000000 7.1310000000 0.0351000000
5.7579000000 6.4950000000 0.3523000000
5.7573000000 4.0680000000 1.5876000000
5.7566000000 3.8522000000 1.4614000000
5.7563000000 4.6714000000 1.4557000000
5.7560000000 2.8975000000 0.8775000000
5.7557000000 2.9454000000 0.9059000000
5.7553000000 1.8577000000 0.2501000000
5.7550000000 5.7983000000 0.7808000000
5.7544000000 5.2802000000 1.1005000000
5.7539000000 7.1871000000 0.0079000000
5.7536000000 3.0521000000 0.9726000000
5.7534000000 7.2167000000 0.0664000000
5.7532000000 3.9639000000 1.5358000000
5.7531000000 5.9228000000 0.7096000000
5.7528000000 7.2866000000 0.0261000000
5.7524000000 6.2255000000 0.5127000000
5.7520000000 3.1058000000 1.0106000000
5.7517000000 1.7689000000 0.1950000000
5.7513000000 1.3123000000 0.0668000000
5.7509000000 3.3722000000 1.1716000000
5.7498000000 3.5134000000 1.2604000000
5.7492000000 2.1043000000 0.4043000000
5.7490000000 1.2758000000 0.0521000000
5.7481000000 2.4370000000 0.6115000000
5.5164000000 5.5867000000 1.1591000000
5.5124000000 5.9971000000 0.9141000000
5.5110000000 7.2424000000 0.1570000000
5.5102000000 7.4276000000 0.1187000000
5.5092000000 6.6809000000 0.4996000000
5.5086000000 3.8456000000 1.7142000000
5.5080000000 6.0957000000 0.8580000000
5.5075000000 7.5723000000 0.0341000000
5.5074000000 1.3798000000 0.2221000000
5.5072000000 7.6716000000 0.0510000000
5.5068000000 2.3269000000 0.7960000000
5.5065000000 3.8325000000 1.7114000000
5.5062000000 1.7965000000 0.4690000000
5.5059000000 2.5487000000 0.9301000000
5.5055000000 5.4262000000 1.2661000000
5.5052000000 2.6418000000 0.9883000000
5.5049000000 1.4706000000 0.2722000000
5.5047000000 1.2203000000 0.1220000000
5.5044000000 4.1186000000 1.8952000000
5.5039000000 1.8241000000 0.4911000000
5.5037000000 2.7151000000 1.0308000000
5.5033000000 1.5006000000 0.2982000000
5.5029000000 5.8599000000 1.0060000000
5.5023000000 4.8862000000 1.6030000000
5.5019000000 1.3513000000 0.2080000000
5.5015000000 3.3622000000 1.4321000000
5.5013000000 4.4769000000 1.8503000000
5.5009000000 2.3607000000 0.8223000000
5.4999000000 6.2024000000 0.8045000000
5.4991000000 1.6466000000 0.3925000000
5.4977000000 2.5126000000 0.9207000000
5.2650000000 2.9406000000 1.4267000000
5.2620000000 4.7657000000 1.9227000000
5.2608000000 7.7626000000 0.1055000000
5.2600000000 5.7159000000 1.3503000000
5.2598000000 3.1431000000 1.5539000000
5.2595000000 5.7162000000 1.3520000000
5.2587000000 5.8271000000 1.2834000000
5.2583000000 3.4094000000 1.7110000000
5.2580000000 1.1712000000 0.3596000000
5.2577000000 4.7825000000 1.9194000000
5.2575000000 2.0082000000 0.8632000000
5.2571000000 7.9793000000 0.0523000000
5.2569000000 1.7677000000 0.7183000000
5.2567000000 1.8081000000 0.7437000000
5.2565000000 5.4311000000 1.5263000000
5.2564000000 1.7297000000 0.6971000000
5.2560000000 2.7220000000 1.3020000000
5.2555000000 3.2997000000 1.6527000000
5.2553000000 4.1960000000 2.2011000000
5.2548000000 5.1083000000 1.7229000000
5.2547000000 2.4890000000 1.1601000000
5.2542000000 5.4827000000 1.4994000000
5.2537000000 0.5936000000 0.0822000000
5.2533000000 3.3411000000 1.6806000000
5.2527000000 3.6447000000 1.8608000000
5.2524000000 1.0794000000 0.3069000000
5.2520000000 7.8836000000 0.1197000000
5.2519000000 1.1999000000 0.3759000000
5.2515000000 1.2836000000 0.4274000000
5.2513000000 3.5422000000 1.8042000000
5.2508000000 6.3028000000 1.0013000000
5.2505000000 0.4169000000 0.0496000000
5.2497000000 2.6653000000 1.2753000000
5.2491000000 6.2637000000 1.0337000000
5.2482000000 3.0522000000 1.5077000000
5.2472000000 6.2914000000 1.0150000000
5.0176000000 8.3171000000 0.0995000000
5.0125000000 7.9048000000 0.2832000000
5.0118000000 1.8321000000 1.0174000000
5.0109000000 6.7758000000 0.9737000000
5.0103000000 5.1147000000 1.9836000000
5.0098000000 6.6378000000 1.0551000000
5.0093000000 6.5716000000 1.0874000000
5.0089000000 4.2629000000 2.4725000000
5.0086000000 7.2039000000 0.7121000000
5.0084000000 1.1396000000 0.5985000000
5.0081000000 7.9983000000 0.2295000000
5.0080000000 7.7753000000 0.3667000000
5.0078000000 3.0202000000 1.7422000000
5.0075000000 7.6782000000 0.4277000000
5.0073000000 8.1916000000 0.1052000000
5.0071000000 7.3730000000 0.6068000000
5.0069000000 0.3270000000 0.1099000000
5.0066000000 0.3493000000 0.1210000000
5.0061000000 0.8019000000 0.3942000000
5.0059000000 4.4588000000 2.3845000000
5.0055000000 8.4531000000 0.0289000000
5.0053000000 1.6391000000 0.9076000000
5.0050000000 6.5106000000 1.1389000000
5.0048000000 5.4006000000 1.8065000000
5.0045000000 6.7560000000 0.9895000000
5.0043000000 3.4012000000 1.9745000000
5.0041000000 5.6307000000 1.6705000000
5.0038000000 0.5225000000 0.2259000000
5.0037000000 0.5589000000 0.2526000000
5.0033000000 0.4203000000 0.1656000000
5.0032000000 0.1961000000 0.1060000000
5.0030000000 4.2456000000 2.4698000000
5.0027000000 0.4749000000 0.2015000000
5.0024000000 5.4016000000 1.8131000000
5.0023000000 0.5260000000 0.2337000000
5.0019000000 6.7182000000 1.0156000000
5.0015000000 4.2028000000 2.4657000000
5.0014000000 1.9301000000 1.0876000000
5.0010000000 0.6136000000 0.2917000000
5.0007000000 3.1124000000 1.8020000000
5.0003000000 4.0364000000 2.3721000000
4.9999000000 2.6413000000 1.5173000000
4.9993000000 1.1709000000 0.6246000000
4.9983000000 4.9688000000 2.0838000000
4.9954000000 0.0504000000 0.0987000000
4.7621000000 8.4622000000 0.0817000000
4.7608000000 8.1930000000 0.3500000000
4.7600000000 7.0336000000 1.0783000000
4.7595000000 3.1895000000 2.1058000000
4.7592000000 5.1637000000 2.2149000000
4.7589000000 2.9151000000 1.9395000000
4.7583000000 3.6553000000 2.3936000000
4.7577000000 2.7410000000 1.8371000000
4.7576000000 6.4336000000 1.4467000000
4.7573000000 0.4139000000 0.4168000000
4.7569000000 2.2723000000 1.5502000000
4.7565000000 1.4235000000 1.0396000000
4.7564000000 5.3635000000 2.0980000000
4.7561000000 4.3524000000 2.7130000000
4.7560000000 2.8391000000 1.8956000000
4.7557000000 8.1414000000 0.3905000000
4.7555000000 0.0990000000 0.1171000000
4.7553000000 3.6414000000 2.3852000000
4.7551000000 4.7571000000 2.4655000000
4.7549000000 4.0744000000 2.6535000000
4.7548000000 6.1463000000 1.6198000000
4.7545000000 1.4995000000 1.0841000000
4.7543000000 3.9223000000 2.5594000000
4.7539000000 2.7374000000 1.8382000000
4.7534000000 4.0679000000 2.6472000000
4.7530000000 6.2071000000 1.5892000000
4.7526000000 6.4872000000 1.4191000000
4.7522000000 6.3372000000 1.5127000000
4.7518000000 7.3552000000 0.8901000000
4.7517000000 1.5985000000 1.1433000000
4.7514000000 8.0334000000 0.4798000000
4.7511000000 3.3073000000 2.1864000000
4.7508000000 3.1934000000 2.1121000000
4.7505000000 1.6101000000 1.1577000000
4.7503000000 0.1805000000 0.2154000000
4.7497000000 2.3848000000 1.6276000000
4.7493000000 0.1545000000 0.1850000000
4.7485000000 0.5035000000 0.4829000000
4.7468000000 1.5770000000 1.1486000000
4.7446000000 1.3896000000 1.0220000000
4.5133000000 8.3765000000 0.1849000000
4.5114000000 4.8393000000 2.6763000000
4.5111000000 8.5955000000 0.0633000000
4.5106000000 6.6482000000 1.5733000000
4.5102000000 5.0261000000 2.5636000000
4.5101000000 1.8950000000 1.5873000000
4.5098000000 6.2897000000 1.7999000000
4.5090000000 6.8631000000 1.4434000000
4.5085000000 5.7748000000 2.1073000000
4.5083000000 3.1316000000 2.3330000000
4.5078000000 6.8282000000 1.4625000000
4.5076000000 2.5461000000 1.9819000000
4.5073000000 7.2273000000 1.2255000000
4.5071000000 7.6266000000 0.9804000000
4.5068000000 7.9083000000 0.7432000000
4.5066000000 6.0252000000 1.9583000000
4.5062000000 1.4928000000 1.3408000000
4.5060000000 1.6011000000 1.4102000000
4.5058000000 8.4734000000 0.0631000000
4.5055000000 1.4699000000 1.3280000000
4.5053000000 4.3957000000 2.9539000000
4.5049000000 2.4457000000 1.9232000000
4.5048000000 2.3406000000 1.8576000000
4.5046000000 7.7070000000 0.9194000000
4.5045000000 7.6784000000 0.9554000000
4.5042000000 5.6643000000 2.1792000000
4.5038000000 6.4143000000 1.7242000000
4.5035000000 0.2938000000 0.3516000000
4.5033000000 5.4051000000 2.3337000000
4.5030000000 7.4465000000 1.0963000000
4.5024000000 2.0930000000 1.7146000000
4.5023000000 0.3606000000 0.4373000000
4.5020000000 7.2618000000 1.2128000000
4.5017000000 2.9763000000 2.2538000000
4.5013000000 6.1360000000 1.8954000000
4.5010000000 0.3884000000 0.4673000000
4.5008000000 0.1275000000 0.1498000000
4.4999000000 0.0347000000 0.1091000000
4.4997000000 2.8925000000 2.2066000000
4.4994000000 3.6422000000 2.6527000000
4.4969000000 2.4669000000 1.9483000000
4.2643000000 8.2179000000 0.3732000000
4.2621000000 5.2737000000 2.6740000000
4.2613000000 7.8778000000 0.7867000000
4.2605000000 5.5497000000 2.5032000000
4.2599000000 7.8001000000 0.8831000000
4.2590000000 3.6897000000 2.9362000000
4.2588000000 4.1742000000 3.2345000000
4.2584000000 0.8035000000 0.9752000000
4.2582000000 7.4747000000 1.2652000000
4.2578000000 4.1793000000 3.2403000000
4.2575000000 2.6767000000 2.3263000000
4.2572000000 3.0383000000 2.5439000000
4.2570000000 6.6847000000 1.8150000000
4.2567000000 7.2307000000 1.4933000000
4.2564000000 5.8987000000 2.2984000000
4.2563000000 7.0509000000 1.5958000000
4.2558000000 0.3684000000 0.4464000000
4.2557000000 0.6280000000 0.7624000000
4.2555000000 2.5344000000 2.2389000000
4.2553000000 7.4608000000 1.2751000000
4.2552000000 2.4474000000 2.1874000000
4.2549000000 2.9401000000 2.4842000000
4.2543000000 3.9593000000 3.1029000000
4.2541000000 2.4744000000 2.2039000000
4.2538000000 3.3586000000 2.7487000000
4.2536000000 0.3693000000 0.4481000000
4.2534000000 0.7628000000 0.9256000000
4.2531000000 2.2674000000 2.0784000000
4.2528000000 5.8041000000 2.3588000000
4.2522000000 8.2566000000 0.3263000000
4.2520000000 6.8585000000 1.7175000000
4.2517000000 3.6699000000 2.9308000000
4.2515000000 3.6082000000 2.8978000000
4.2513000000 8.0128000000 0.6258000000
4.2510000000 7.5299000000 1.2103000000
4.2507000000 2.2729000000 2.0864000000
4.2504000000 1.3104000000 1.5026000000
4.2498000000 0.8654000000 1.0486000000
4.2492000000 5.2342000000 2.7080000000
4.2479000000 0.2899000000 0.3514000000
4.2458000000 2.1880000000 2.0394000000
4.0138000000 7.8257000000 0.8535000000
4.0113000000 2.5222000000 2.4955000000
4.0109000000 5.2355000000 2.9569000000
4.0102000000 8.4578000000 0.0812000000
4.0095000000 2.4630000000 2.4546000000
4.0091000000 6.5181000000 2.1815000000
4.0088000000 6.5707000000 2.1494000000
4.0086000000 3.4273000000 3.0428000000
4.0084000000 6.7031000000 2.0670000000
4.0078000000 5.8114000000 2.6158000000
4.0077000000 5.1782000000 2.9966000000
4.0075000000 5.0830000000 3.0597000000
4.0073000000 5.0780000000 3.0583000000
4.0070000000 0.1793000000 0.2135000000
4.0068000000 6.7758000000 2.0306000000
4.0067000000 6.2716000000 2.3310000000
4.0065000000 3.6742000000 3.1975000000
4.0063000000 3.1952000000 2.9086000000
4.0057000000 2.2431000000 2.3230000000
4.0055000000 1.0762000000 1.3052000000
4.0052000000 6.4716000000 2.2136000000
4.0049000000 7.5052000000 1.2451000000
4.0046000000 0.0709000000 0.0867000000
4.0043000000 4.4673000000 3.4316000000
4.0041000000 3.3395000000 2.9924000000
4.0040000000 0.9024000000 1.0914000000
4.0037000000 2.2952000000 2.3510000000
4.0034000000 3.5991000000 3.1510000000
4.0033000000 2.7303000000 2.6257000000
4.0030000000 4.6012000000 3.3537000000
4.0030000000 4.4183000000 3.4635000000
4.0028000000 1.3559000000 1.6489000000
4.0023000000 0.6994000000 0.8431000000
4.0020000000 1.1740000000 1.4187000000
4.0017000000 1.4847000000 1.7885000000
4.0014000000 6.9422000000 1.9077000000
4.0013000000 0.5711000000 0.6891000000
4.0009000000 0.4442000000 0.5374000000
4.0003000000 1.4711000000 1.7917000000
3.9999000000 2.6638000000 2.5831000000
3.9995000000 0.5157000000 0.6242000000
3.9988000000 4.5836000000 3.3689000000
3.9984000000 0.8378000000 1.0115000000
3.9974000000 6.0959000000 2.4522000000
3.9962000000 1.4545000000 1.7640000000
3.7648000000 6.3422000000 2.5461000000
3.7619000000 5.9815000000 2.7661000000
3.7610000000 4.7608000000 3.5046000000
3.7604000000 6.3222000000 2.5593000000
3.7595000000 1.2481000000 1.5148000000
3.7593000000 7.1498000000 1.6706000000
3.7585000000 6.2003000000 2.6343000000
3.7579000000 7.2570000000 1.5416000000
3.7575000000 7.4641000000 1.2960000000
3.7574000000 3.6541000000 3.4457000000
3.7573000000 8.5126000000 0.0845000000
3.7570000000 3.5312000000 3.3698000000
3.7568000000 3.4198000000 3.3031000000
3.7566000000 6.9282000000 1.9400000000
3.7564000000 5.3245000000 3.1699000000
3.7562000000 4.9594000000 3.3946000000
3.7558000000 7.7688000000 0.9253000000
3.7555000000 6.2538000000 2.6087000000
3.7553000000 0.0821000000 0.0983000000
3.7550000000 7.7881000000 0.8993000000
3.7548000000 5.2984000000 3.1931000000
3.7547000000 2.9806000000 3.0364000000
3.7542000000 1.9722000000 2.3754000000
3.7540000000 4.4533000000 3.7054000000
3.7538000000 8.1822000000 0.4132000000
3.7536000000 3.2421000000 3.2000000000
3.7535000000 6.2506000000 2.6158000000
3.7531000000 6.3813000000 2.5353000000
3.7524000000 6.1437000000 2.6738000000
3.7523000000 2.6721000000 2.8535000000
3.7520000000 2.7454000000 2.8937000000
3.7514000000 3.2914000000 3.2325000000
3.7512000000 2.0884000000 2.4784000000
3.7510000000 3.3492000000 3.2712000000
3.7503000000 7.7511000000 0.9419000000
3.7496000000 0.1555000000 0.1852000000
3.7490000000 0.6073000000 0.7362000000
3.7466000000 0.4175000000 0.5050000000
3.5148000000 4.9931000000 3.6283000000
3.5117000000 4.7411000000 3.7821000000
3.5108000000 8.4147000000 0.1287000000
3.5105000000 4.8644000000 3.7132000000
3.5096000000 8.5873000000 0.0757000000
3.5090000000 4.3672000000 4.0172000000
3.5080000000 6.7539000000 2.1599000000
3.5078000000 0.9598000000 1.1661000000
3.5072000000 4.2226000000 4.0354000000
3.5070000000 8.2872000000 0.2880000000
3.5066000000 2.4997000000 2.9859000000
3.5064000000 7.6974000000 1.0058000000
3.5062000000 0.6458000000 0.7770000000
3.5060000000 4.6103000000 3.8719000000
3.5058000000 3.7474000000 3.7701000000
3.5055000000 3.2629000000 3.4733000000
3.5053000000 5.5315000000 3.3140000000
3.5051000000 5.5749000000 3.2860000000
3.5047000000 0.5707000000 0.6972000000
3.5045000000 8.3997000000 0.1559000000
3.5042000000 7.6179000000 1.1061000000
3.5038000000 2.3153000000 2.8086000000
3.5034000000 6.6791000000 2.2397000000
3.5033000000 1.2872000000 1.5634000000
3.5030000000 0.5148000000 0.6204000000
3.5023000000 0.5086000000 0.6123000000
3.5019000000 3.7123000000 3.7503000000
3.5015000000 5.9430000000 3.0663000000
3.5012000000 5.7651000000 3.1710000000
3.5009000000 2.7158000000 3.1448000000
3.5005000000 3.9984000000 3.9224000000
3.5003000000 3.8728000000 3.8475000000
3.5000000000 7.5710000000 1.1622000000
3.4996000000 6.1374000000 2.8803000000
3.4989000000 5.3179000000 3.4503000000
3.4985000000 4.7901000000 3.7673000000
3.4977000000 2.7898000000 3.1997000000
3.2648000000 4.9532000000 3.9128000000
3.2624000000 8.3163000000 0.2558000000
3.2620000000 8.4593000000 0.0834000000
3.2604000000 7.6309000000 1.0901000000
3.2600000000 3.1813000000 3.6797000000
3.2594000000 0.1456000000 0.1790000000
3.2592000000 5.2579000000 3.7372000000
3.2589000000 1.4594000000 1.7719000000
3.2583000000 2.5021000000 3.0390000000
3.2581000000 7.4974000000 1.2518000000
3.2578000000 6.4509000000 2.5210000000
3.2576000000 4.9930000000 3.9004000000
3.2574000000 7.5162000000 1.2312000000
3.2572000000 5.3940000000 3.6538000000
3.2570000000 7.9665000000 0.6781000000
3.2568000000 2.7519000000 3.3373000000
3.2566000000 6.8257000000 2.0639000000
3.2564000000 8.5755000000 0.0164000000
3.2560000000 7.5977000000 1.1308000000
3.2557000000 5.7294000000 3.3856000000
3.2555000000 2.8574000000 3.4541000000
3.2553000000 1.5781000000 1.9143000000
3.2549000000 7.1929000000 1.6199000000
3.2545000000 2.7314000000 3.3200000000
3.2541000000 3.2268000000 3.7149000000
3.2539000000 3.8031000000 4.0661000000
3.2536000000 1.4092000000 1.7060000000
3.2534000000 2.5645000000 3.1167000000
3.2530000000 4.7698000000 4.0418000000
3.2527000000 8.5416000000 0.0575000000
3.2525000000 1.2364000000 1.5018000000
3.2521000000 5.9707000000 3.1082000000
3.2518000000 0.5306000000 0.6408000000
3.2515000000 0.0702000000 0.0835000000
3.2513000000 3.0822000000 3.6299000000
3.2509000000 0.3773000000 0.4532000000
3.2507000000 1.8149000000 2.2037000000
3.2505000000 2.2834000000 2.7747000000
3.2499000000 0.0043000000 0.0754000000
3.2497000000 5.1158000000 3.8339000000
3.2493000000 0.2914000000 0.3538000000
3.2482000000 2.5263000000 3.0696000000
3.2473000000 0.2393000000 0.2878000000
3.2466000000 2.5192000000 3.0582000000
3.2443000000 1.3994000000 1.7017000000
3.0160000000 7.0046000000 1.8482000000
3.0109000000 7.7483000000 0.9506000000
3.0100000000 7.2994000000 1.4879000000
3.0099000000 5.5826000000 3.5783000000
3.0089000000 2.6083000000 3.1702000000
3.0084000000 3.9301000000 4.4048000000
3.0080000000 3.2504000000 3.9260000000
3.0079000000 7.6073000000 1.1164000000
3.0078000000 0.8284000000 1.0098000000
3.0076000000 4.8881000000 4.2324000000
3.0073000000 1.0213000000 1.2354000000
3.0072000000 1.9259000000 2.3370000000
3.0069000000 1.9575000000 2.3796000000
3.0067000000 0.1362000000 0.1698000000
3.0065000000 8.5189000000 0.0839000000
3.0065000000 1.6964000000 2.0576000000
3.0062000000 5.8587000000 3.2471000000
3.0057000000 4.9574000000 4.1854000000
3.0053000000 4.4056000000 4.5179000000
3.0051000000 6.3601000000 2.6364000000
3.0049000000 2.0609000000 2.4995000000
3.0043000000 1.8155000000 2.2000000000
3.0040000000 0.0620000000 0.0722000000
3.0038000000 2.0484000000 2.4879000000
3.0035000000 7.2357000000 1.5682000000
3.0032000000 8.3918000000 0.1697000000
3.0030000000 7.0167000000 1.8296000000
3.0029000000 0.5965000000 0.7125000000
3.0026000000 6.1349000000 2.9081000000
3.0023000000 3.9276000000 4.4025000000
3.0018000000 0.2101000000 0.2559000000
3.0013000000 1.9571000000 2.3748000000
3.0010000000 4.5756000000 4.4247000000
3.0004000000 3.3055000000 3.9994000000
3.0001000000 4.8108000000 4.2807000000
2.9998000000 3.6886000000 4.2633000000
2.9997000000 4.5756000000 4.4267000000
2.9993000000 7.7436000000 0.9527000000
2.9988000000 0.4423000000 0.5335000000
2.9982000000 1.7173000000 2.0860000000
2.9941000000 1.5134000000 1.8374000000
2.7611000000 8.1406000000 0.4706000000
2.7605000000 8.0651000000 0.5647000000
2.7599000000 3.7303000000 4.5114000000
2.7590000000 2.7663000000 3.3603000000
2.7582000000 8.0591000000 0.5664000000
2.7578000000 1.1511000000 1.3980000000
2.7575000000 5.2729000000 3.9581000000
2.7572000000 8.4175000000 0.1290000000
2.7570000000 5.9672000000 3.1104000000
2.7567000000 6.0467000000 3.0137000000
2.7565000000 8.4040000000 0.1466000000
2.7562000000 6.6838000000 2.2406000000
2.7557000000 0.9672000000 1.1776000000
2.7555000000 4.3362000000 4.8248000000
2.7552000000 3.8330000000 4.5888000000
2.7550000000 3.2195000000 3.9086000000
2.7547000000 4.5855000000 4.6740000000
2.7545000000 7.5353000000 1.2026000000
2.7544000000 5.0073000000 4.2762000000
2.7543000000 6.1685000000 2.8659000000
2.7541000000 6.5802000000 2.3681000000
2.7539000000 5.0042000000 4.2770000000
2.7538000000 6.3426000000 2.6566000000
2.7535000000 2.8965000000 3.5199000000
2.7534000000 3.0558000000 3.7039000000
2.7533000000 4.8456000000 4.4561000000
2.7530000000 2.8128000000 3.4181000000
2.7529000000 3.8784000000 4.6438000000
2.7527000000 1.5952000000 1.9362000000
2.7523000000 3.7061000000 4.4817000000
2.7522000000 6.4188000000 2.5596000000
2.7521000000 3.2049000000 3.8926000000
2.7516000000 7.4288000000 1.3364000000
2.7514000000 7.7964000000 0.8864000000
2.7512000000 5.7618000000 3.3619000000
2.7510000000 4.8207000000 4.4871000000
2.7503000000 1.5978000000 1.9418000000
2.7497000000 3.0041000000 3.6489000000
2.7494000000 4.1573000000 4.8129000000
2.7488000000 2.9100000000 3.5373000000
2.7483000000 3.2940000000 4.0007000000
2.7466000000 0.9779000000 1.1855000000
2.7548000000 4.2633000000 4.8542000000
2.5113000000 4.5935000000 4.7834000000
2.5109000000 8.5550000000 0.0400000000
2.5103000000 7.0156000000 1.8447000000
2.5101000000 6.7894000000 2.1137000000
2.5096000000 6.2978000000 2.7041000000
2.5092000000 4.2565000000 5.0860000000
2.5085000000 4.1046000000 4.9714000000
2.5082000000 5.3258000000 3.8915000000
2.5078000000 7.8379000000 0.8312000000
2.5076000000 6.1462000000 2.8958000000
2.5074000000 3.8037000000 4.6235000000
2.5067000000 3.2033000000 3.8928000000
2.5065000000 1.6338000000 1.9743000000
2.5063000000 4.9590000000 4.3364000000
2.5062000000 4.7561000000 4.5849000000
2.5058000000 4.5374000000 4.8491000000
2.5056000000 2.8469000000 3.4545000000
2.5054000000 5.1259000000 4.1333000000
2.5053000000 3.8736000000 4.7078000000
2.5050000000 0.5695000000 0.6939000000
2.5049000000 2.7001000000 3.2725000000
2.5044000000 3.0178000000 3.6688000000
2.5037000000 2.5506000000 3.1016000000
2.5035000000 0.8109000000 0.9843000000
2.5030000000 2.1954000000 2.6698000000
2.5026000000 2.1340000000 2.5943000000
2.5022000000 2.1642000000 2.6250000000
2.5017000000 0.9606000000 1.1666000000
2.5014000000 1.7703000000 2.1440000000
2.5012000000 2.8981000000 3.5249000000
2.5009000000 4.9141000000 4.3930000000
2.5006000000 5.7883000000 3.3302000000
2.4999000000 1.6409000000 1.9912000000
2.4993000000 2.3546000000 2.8585000000
2.4979000000 1.6509000000 2.0048000000
2.4964000000 1.8262000000 2.2178000000
2.2630000000 2.5041000000 3.0423000000
2.2615000000 7.4238000000 1.3404000000
2.2598000000 5.7765000000 3.3437000000
2.2595000000 4.9749000000 4.3165000000
2.2586000000 5.2508000000 3.9836000000
2.2582000000 3.4590000000 4.1962000000
2.2579000000 2.9489000000 3.5840000000
2.2577000000 8.2940000000 0.2843000000
2.2572000000 1.6341000000 1.9843000000
2.2568000000 7.6444000000 1.0750000000
2.2566000000 6.1608000000 2.8767000000
2.2565000000 2.5646000000 3.1124000000
2.2562000000 2.3982000000 2.9150000000
2.2560000000 2.6932000000 3.2719000000
2.2558000000 5.4467000000 3.7447000000
2.2555000000 4.2970000000 4.9229000000
2.2552000000 4.0395000000 4.8234000000
2.2547000000 6.0609000000 2.9959000000
2.2545000000 2.1537000000 2.6147000000
2.2544000000 8.1400000000 0.4723000000
2.2539000000 8.3695000000 0.1896000000
2.2538000000 4.7235000000 4.6092000000
2.2535000000 4.3785000000 4.8946000000
2.2534000000 7.9389000000 0.7127000000
2.2531000000 7.9758000000 0.6684000000
2.2529000000 2.0964000000 2.5415000000
2.2528000000 1.7929000000 2.1720000000
2.2523000000 7.6274000000 1.0884000000
2.2521000000 3.2233000000 3.9146000000
2.2520000000 3.0002000000 3.6472000000
2.2515000000 4.0178000000 4.8074000000
2.2513000000 3.5737000000 4.3450000000
2.2505000000 2.0432000000 2.4772000000
2.2499000000 6.8841000000 1.9983000000
2.2492000000 0.1697000000 0.1983000000
2.2486000000 0.6331000000 0.7598000000
2.2483000000 2.4846000000 3.0166000000
2.2473000000 2.2026000000 2.6723000000
2.2462000000 0.6368000000 0.7686000000
2.2455000000 1.2728000000 1.5429000000
2.2434000000 0.0819000000 0.1010000000
2.0122000000 6.4750000000 2.4938000000
2.0114000000 6.2599000000 2.7560000000
2.0106000000 4.4865000000 4.5715000000
2.0097000000 6.5461000000 2.4062000000
2.0091000000 6.7439000000 2.1658000000
2.0089000000 4.0825000000 4.5925000000
2.0087000000 7.9919000000 0.6504000000
2.0082000000 3.1236000000 3.8016000000
2.0079000000 8.5822000000 0.0020000000
2.0076000000 3.1623000000 3.8389000000
2.0074000000 5.2826000000 3.9429000000
2.0071000000 3.6335000000 4.3144000000
2.0068000000 6.4535000000 2.5168000000
2.0065000000 3.5868000000 4.2762000000
2.0061000000 0.8643000000 1.0501000000
2.0058000000 1.0865000000 1.3161000000
2.0057000000 5.0257000000 4.2216000000
2.0055000000 4.7630000000 4.3960000000
2.0053000000 8.3748000000 0.1878000000
2.0048000000 1.1660000000 1.4186000000
2.0047000000 5.1471000000 4.0955000000
2.0045000000 7.5385000000 1.2052000000
2.0041000000 1.4749000000 1.7837000000
2.0040000000 4.0145000000 4.5441000000
2.0039000000 1.6350000000 1.9859000000
2.0036000000 0.2619000000 0.3174000000
2.0035000000 6.7159000000 2.1995000000
2.0033000000 2.7155000000 3.3010000000
2.0029000000 0.1741000000 0.2102000000
2.0028000000 7.3263000000 1.4587000000
2.0024000000 1.0007000000 1.2137000000
2.0021000000 3.8396000000 4.4424000000
2.0018000000 0.9843000000 1.1937000000
2.0015000000 3.7461000000 4.3879000000
2.0011000000 7.1019000000 1.7311000000
2.0005000000 3.8318000000 4.4382000000
1.9999000000 2.0779000000 2.5288000000
1.9981000000 3.3112000000 4.0235000000
1.9978000000 4.2672000000 4.6723000000
1.9957000000 7.0114000000 1.8415000000
1.7619000000 7.5256000000 1.2160000000
1.7613000000 6.2901000000 2.7205000000
1.7608000000 8.5934000000 0.0686000000
1.7599000000 7.2487000000 1.5566000000
1.7595000000 7.6758000000 1.0333000000
1.7590000000 2.7919000000 3.3891000000
1.7587000000 4.5618000000 4.2605000000
1.7585000000 8.5368000000 0.0609000000
1.7583000000 4.2718000000 4.4181000000
1.7579000000 8.1875000000 0.4125000000
1.7575000000 5.6909000000 3.4431000000
1.7572000000 2.8760000000 3.4883000000
1.7569000000 3.6609000000 4.0726000000
1.7568000000 6.0292000000 3.0369000000
1.7565000000 1.2516000000 1.5193000000
1.7563000000 6.4685000000 2.5005000000
1.7560000000 3.2129000000 3.8003000000
1.7557000000 4.8824000000 4.0610000000
1.7556000000 8.4389000000 0.1068000000
1.7555000000 5.6172000000 3.5348000000
1.7553000000 6.4821000000 2.4896000000
1.7550000000 6.7114000000 2.2042000000
1.7545000000 4.8303000000 4.0908000000
1.7543000000 3.3860000000 3.9063000000
1.7540000000 0.7710000000 0.9332000000
1.7536000000 7.7100000000 0.9977000000
1.7535000000 2.6029000000 3.1655000000
1.7532000000 2.2596000000 2.7357000000
1.7529000000 2.2335000000 2.7099000000
1.7523000000 5.9336000000 3.1549000000
1.7521000000 1.5785000000 1.9153000000
1.7518000000 7.6601000000 1.0474000000
1.7513000000 3.4928000000 3.9711000000
1.7508000000 4.2790000000 4.4031000000
1.7505000000 6.0155000000 3.0504000000
1.7500000000 6.6177000000 2.3189000000
1.7492000000 0.5834000000 0.7064000000
1.7481000000 2.8769000000 3.4907000000
1.5158000000 8.3788000000 0.1722000000
1.5127000000 4.3548000000 4.1278000000
1.5111000000 7.2087000000 1.6052000000
1.5101000000 4.1447000000 4.1112000000
1.5097000000 8.3766000000 0.1817000000
1.5093000000 7.2841000000 1.5150000000
1.5089000000 8.5033000000 0.0948000000
1.5085000000 5.6457000000 3.3424000000
1.5083000000 7.4379000000 1.3213000000
1.5078000000 6.3972000000 2.5930000000
1.5075000000 7.1399000000 1.6862000000
1.5073000000 2.1373000000 2.5996000000
1.5068000000 0.7414000000 0.9032000000
1.5065000000 8.1860000000 0.4121000000
1.5062000000 3.9822000000 4.0059000000
1.5060000000 8.0639000000 0.5573000000
1.5059000000 4.8838000000 3.7938000000
1.5057000000 4.6610000000 3.9316000000
1.5054000000 0.0673000000 0.0799000000
1.5053000000 5.7788000000 3.2577000000
1.5049000000 1.0989000000 1.3342000000
1.5047000000 6.9237000000 1.9524000000
1.5045000000 4.7515000000 3.8797000000
1.5037000000 3.0201000000 3.4150000000
1.5035000000 4.1129000000 4.0839000000
1.5031000000 5.5924000000 3.3680000000
1.5029000000 3.2578000000 3.5615000000
1.5027000000 3.9861000000 3.9953000000
1.5023000000 0.5672000000 0.6843000000
1.5021000000 7.1184000000 1.7068000000
1.5018000000 7.2451000000 1.5546000000
1.5015000000 1.4137000000 1.7125000000
1.5007000000 3.5863000000 3.7560000000
1.4995000000 2.2926000000 2.7777000000
1.4990000000 1.8036000000 2.1901000000
1.4978000000 0.9042000000 1.0978000000
1.2630000000 7.4296000000 1.3313000000
1.2612000000 8.4941000000 0.0359000000
1.2601000000 8.4220000000 0.1263000000
1.2595000000 6.7906000000 2.1049000000
1.2593000000 4.6640000000 3.6719000000
1.2588000000 8.0202000000 0.6168000000
1.2581000000 8.1762000000 0.4224000000
1.2577000000 0.1348000000 0.1578000000
1.2575000000 4.6353000000 3.6844000000
1.2573000000 0.0133000000 0.0854000000
1.2569000000 5.0482000000 3.4379000000
1.2567000000 8.2555000000 0.3329000000
1.2563000000 8.1389000000 0.4707000000
1.2558000000 7.4941000000 1.2545000000
1.2557000000 6.8360000000 2.0596000000
1.2555000000 4.3090000000 3.8684000000
1.2552000000 1.3395000000 1.6265000000
1.2550000000 7.3040000000 1.4843000000
1.2548000000 2.9300000000 3.0983000000
1.2546000000 3.7016000000 3.5636000000
1.2545000000 0.8138000000 0.9877000000
1.2543000000 7.6506000000 1.0623000000
1.2540000000 2.5705000000 2.8764000000
1.2539000000 5.7784000000 2.9906000000
1.2537000000 4.0095000000 3.7553000000
1.2533000000 1.2504000000 1.5154000000
1.2531000000 1.2740000000 1.5396000000
1.2530000000 3.3258000000 3.3426000000
1.2528000000 4.3046000000 3.8706000000
1.2524000000 3.5911000000 3.4997000000
1.2521000000 2.4010000000 2.7767000000
1.2518000000 4.0742000000 3.7936000000
1.2515000000 5.9183000000 2.8989000000
1.2513000000 1.7130000000 2.0803000000
1.2510000000 3.9000000000 3.6837000000
1.2501000000 0.0803000000 0.1022000000
1.2495000000 1.3057000000 1.5870000000
1.2489000000 1.8062000000 2.1978000000
1.2484000000 0.3381000000 0.4084000000
1.2479000000 1.7842000000 2.1660000000
1.2473000000 3.0438000000 3.1664000000
1.2468000000 1.2914000000 1.5688000000
1.0114000000 4.7658000000 3.3490000000
1.0105000000 6.2486000000 2.4470000000
1.0098000000 6.5912000000 2.2369000000
1.0094000000 6.2460000000 2.4468000000
1.0091000000 1.4686000000 1.7799000000
1.0087000000 3.1037000000 2.9463000000
1.0082000000 4.2120000000 3.6095000000
1.0073000000 1.3414000000 1.6291000000
1.0071000000 3.9925000000 3.4821000000
1.0068000000 6.0048000000 2.5925000000
1.0065000000 5.1849000000 3.0898000000
1.0063000000 8.2890000000 0.2879000000
1.0059000000 2.9301000000 2.8376000000
1.0058000000 3.9668000000 3.4640000000
1.0055000000 1.1815000000 1.4330000000
1.0053000000 6.2922000000 2.4199000000
1.0050000000 4.6968000000 3.3866000000
1.0046000000 4.0313000000 3.5084000000
1.0045000000 2.4358000000 2.5372000000
1.0042000000 8.3747000000 0.1843000000
1.0039000000 3.4959000000 3.1845000000
1.0036000000 1.6881000000 2.0307000000
1.0035000000 2.7925000000 2.7468000000
1.0033000000 7.6200000000 1.1021000000
1.0030000000 1.8631000000 2.1858000000
1.0055000000 2.3265000000 2.4694000000
1.0025000000 0.3900000000 0.4654000000
1.0020000000 2.1400000000 2.3551000000
1.0018000000 5.5818000000 2.8450000000
1.0015000000 1.2555000000 1.5244000000
1.0011000000 6.8562000000 2.0104000000
1.0009000000 2.2105000000 2.3918000000
1.0006000000 1.2340000000 1.5007000000
1.0001000000 7.5556000000 1.1742000000
0.9993000000 1.1858000000 1.4341000000
0.9986000000 3.1935000000 2.9934000000
0.9974000000 4.8630000000 3.2784000000
0.7627000000 1.6703000000 1.8171000000
0.7618000000 7.8736000000 0.7946000000
0.7602000000 4.8566000000 3.0301000000
0.7595000000 5.5564000000 2.6097000000
0.7592000000 5.3620000000 2.7231000000
0.7587000000 2.6505000000 2.4075000000
0.7585000000 4.1603000000 3.3307000000
0.7581000000 5.5069000000 2.6306000000
0.7578000000 7.2304000000 1.5555000000
0.7576000000 7.1401000000 1.6189000000
0.7572000000 6.7310000000 1.8810000000
0.7570000000 8.2589000000 0.3224000000
0.7567000000 4.6477000000 3.1576000000
0.7564000000 5.5389000000 2.6089000000
0.7563000000 8.1854000000 0.4142000000
0.7560000000 1.1296000000 1.3740000000
0.7558000000 5.0151000000 2.9302000000
0.7555000000 1.8065000000 1.8892000000
0.7553000000 4.6950000000 3.1255000000
0.7550000000 7.0997000000 1.6599000000
0.7547000000 3.2732000000 2.7813000000
0.7545000000 5.6733000000 2.5250000000
0.7543000000 5.1664000000 2.8349000000
0.7541000000 5.4976000000 2.6324000000
0.7538000000 5.4212000000 2.6816000000
0.7537000000 5.1596000000 2.8431000000
0.7536000000 7.5238000000 1.2187000000
0.7532000000 0.7180000000 0.8736000000
0.7529000000 1.6543000000 1.7952000000
0.7523000000 0.6035000000 0.7274000000
0.7521000000 2.3974000000 2.2458000000
0.7517000000 7.9612000000 0.6855000000
0.7515000000 6.4662000000 2.0417000000
0.7513000000 7.4917000000 1.2586000000
0.7510000000 3.0876000000 2.6676000000
0.7508000000 7.1146000000 1.6463000000
0.7504000000 0.3757000000 0.4553000000
0.7501000000 0.4387000000 0.5323000000
0.7495000000 1.6647000000 1.7977000000
0.7491000000 0.3055000000 0.3657000000
0.7484000000 2.4018000000 2.2463000000
0.7470000000 1.2184000000 1.4558000000
0.7428000000 0.1277000000 0.1491000000
0.5123000000 5.4850000000 2.3882000000
0.5115000000 6.3500000000 1.8647000000
0.5104000000 5.6836000000 2.2617000000
0.5098000000 6.3409000000 1.8670000000
0.5094000000 4.3420000000 3.0851000000
0.5092000000 7.4767000000 1.1684000000
0.5090000000 8.2299000000 0.3585000000
0.5085000000 8.3304000000 0.2417000000
0.5083000000 4.4874000000 2.9857000000
0.5081000000 0.8411000000 0.9997000000
0.5079000000 2.3372000000 1.9505000000
0.5078000000 7.6876000000 1.0032000000
0.5072000000 5.8125000000 2.1835000000
0.5068000000 0.5614000000 0.6804000000
0.5065000000 8.0607000000 0.5642000000
0.5062000000 3.6042000000 2.7247000000
0.5059000000 7.8274000000 0.8479000000
0.5058000000 8.4309000000 0.1167000000
0.5054000000 3.3953000000 2.5968000000
0.5047000000 1.4211000000 1.3947000000
0.5046000000 3.6106000000 2.7215000000
0.5045000000 1.9543000000 1.7181000000
0.5042000000 0.6508000000 0.7910000000
0.5040000000 7.6737000000 1.0215000000
0.5038000000 2.3798000000 1.9679000000
0.5033000000 6.3996000000 1.8220000000
0.5032000000 2.0101000000 1.7479000000
0.5028000000 2.0459000000 1.7673000000
0.5027000000 0.5329000000 0.6428000000
0.5025000000 3.3044000000 2.5418000000
0.5023000000 4.6843000000 2.8638000000
0.5020000000 4.5710000000 2.9299000000
0.5019000000 0.2629000000 0.3141000000
0.5017000000 3.2707000000 2.5138000000
0.5015000000 7.5338000000 1.1285000000
0.5011000000 6.9503000000 1.4833000000
0.5009000000 3.6364000000 2.7334000000
0.5006000000 1.6212000000 1.5118000000
0.5004000000 3.4197000000 2.6080000000
0.4998000000 1.2259000000 1.2697000000
0.4995000000 1.0834000000 1.1834000000
0.4990000000 0.4593000000 0.5516000000
0.4983000000 0.4193000000 0.5042000000
0.4967000000 0.5132000000 0.6139000000
0.4938000000 0.0484000000 0.1301000000
0.2626000000 5.9971000000 1.8134000000
0.2616000000 3.8994000000 2.6389000000
0.2598000000 6.9087000000 1.2514000000
0.2592000000 4.0940000000 2.7552000000
0.2589000000 3.5873000000 2.4516000000
0.2585000000 5.1437000000 2.3238000000
0.2575000000 7.3809000000 0.9687000000
0.2573000000 5.6574000000 2.0140000000
0.2572000000 7.4353000000 0.9352000000
0.2569000000 6.7905000000 1.3231000000
0.2566000000 5.7866000000 1.9318000000
0.2564000000 5.4238000000 2.1536000000
0.2563000000 1.0502000000 0.9051000000
0.2558000000 3.3068000000 2.2795000000
0.2556000000 2.4092000000 1.7294000000
0.2554000000 8.1308000000 0.4643000000
0.2552000000 4.5373000000 2.6919000000
0.2549000000 3.6316000000 2.4745000000
0.2548000000 0.5834000000 0.6186000000
0.2545000000 5.6762000000 1.9997000000
0.2543000000 4.2538000000 2.8317000000
0.2541000000 7.5266000000 0.8731000000
0.2540000000 8.1674000000 0.4184000000
0.2537000000 4.2339000000 2.8172000000
0.2535000000 3.7230000000 2.5286000000
0.2532000000 6.0218000000 1.7852000000
0.2530000000 0.4149000000 0.4775000000
0.2526000000 4.3895000000 2.7794000000
0.2522000000 4.4615000000 2.7358000000
0.2518000000 8.0158000000 0.5552000000
0.2515000000 1.6622000000 1.2683000000
0.2512000000 3.5098000000 2.3937000000
0.2510000000 2.5954000000 1.8409000000
0.2507000000 1.3912000000 1.1080000000
0.2503000000 5.5043000000 2.0947000000
0.2500000000 2.2523000000 1.6385000000
0.2494000000 6.1838000000 1.6851000000
0.2492000000 0.6647000000 0.6611000000
0.2480000000 2.3947000000 1.7128000000
0.2433000000 1.4700000000 1.1474000000
0.0148000000 5.1262000000 2.0848000000
0.0121000000 8.4830000000 0.0160000000
0.0114000000 6.7994000000 1.0629000000
0.0096000000 3.8562000000 2.3491000000
0.0093000000 6.5044000000 1.2345000000
0.0089000000 4.6942000000 2.3347000000
0.0082000000 6.5329000000 1.2167000000
0.0080000000 2.4915000000 1.5194000000
0.0075000000 0.1408000000 0.0888000000
0.0073000000 2.6418000000 1.6088000000
0.0068000000 4.5431000000 2.4245000000
0.0065000000 0.6389000000 0.3932000000
0.0060000000 0.5241000000 0.3227000000
0.0059000000 2.8103000000 1.7132000000
0.0057000000 6.8935000000 0.9957000000
0.0055000000 7.2387000000 0.7835000000
0.0050000000 1.5315000000 0.9329000000
0.0048000000 7.0308000000 0.9132000000
0.0047000000 2.7094000000 1.6482000000
0.0045000000 5.3858000000 1.9089000000
0.0041000000 4.3337000000 2.5463000000
0.0040000000 1.9834000000 1.2040000000
0.0037000000 6.9635000000 0.9477000000
0.0034000000 3.2061000000 1.9484000000
0.0033000000 2.3458000000 1.4261000000
0.0029000000 3.6553000000 2.2204000000
0.0026000000 4.6109000000 2.3814000000
0.0024000000 5.1415000000 2.0591000000
0.0023000000 1.2615000000 0.7647000000
0.0021000000 0.5830000000 0.3513000000
0.0018000000 8.4180000000 0.0568000000
0.0015000000 3.6097000000 2.1955000000
0.0014000000 5.8176000000 1.6446000000
0.0005000000 2.1611000000 1.3082000000
-0.0002000000 7.4734000000 0.6355000000
-0.0004000000 2.4065000000 1.4591000000
-0.0014000000 0.6059000000 0.3612000000
-0.0026000000 1.0246000000 0.6169000000
-0.0044000000 0.0511000000 0.0871000000
-0.2353000000 7.8993000000 0.1340000000
-0.2379000000 7.7436000000 0.2236000000
-0.2393000000 5.3879000000 1.6567000000
-0.2401000000 6.4677000000 0.9970000000
-0.2408000000 5.6154000000 1.5136000000
-0.2411000000 4.0409000000 2.1944000000
-0.2413000000 7.3493000000 0.4617000000
-0.2417000000 7.1682000000 0.5668000000
-0.2422000000 7.1528000000 0.5777000000
-0.2425000000 4.4175000000 2.2428000000
-0.2431000000 3.9369000000 2.1326000000
-0.2434000000 7.2754000000 0.5030000000
-0.2437000000 8.3320000000 0.0147000000
-0.2439000000 2.9178000000 1.5132000000
-0.2441000000 1.8303000000 0.8533000000
-0.2443000000 4.8776000000 1.9616000000
-0.2445000000 6.1223000000 1.2038000000
-0.2447000000 0.9838000000 0.3421000000
-0.2450000000 4.0966000000 2.2325000000
-0.2453000000 7.9597000000 0.0886000000
-0.2454000000 2.6366000000 1.3392000000
-0.2455000000 4.0081000000 2.1706000000
-0.2459000000 1.8262000000 0.8462000000
-0.2461000000 5.9669000000 1.2945000000
-0.2463000000 3.8963000000 2.1069000000
-0.2465000000 6.2177000000 1.1416000000
-0.2466000000 0.7253000000 0.1752000000
-0.2467000000 3.6613000000 1.9608000000
-0.2469000000 8.1756000000 0.0989000000
-0.2472000000 6.7910000000 0.7973000000
-0.2474000000 7.8805000000 0.1302000000
-0.2477000000 7.8366000000 0.1544000000
-0.2480000000 3.5068000000 1.8662000000
-0.2482000000 4.2494000000 2.2966000000
-0.2486000000 5.5082000000 1.5649000000
-0.2488000000 3.2044000000 1.6837000000
-0.2492000000 3.8346000000 2.0709000000
-0.2497000000 5.9393000000 1.3071000000
-0.2500000000 3.3252000000 1.7531000000
-0.2505000000 3.9228000000 2.1181000000
-0.2512000000 5.2270000000 1.7404000000
-0.2519000000 2.4043000000 1.1914000000
-0.2534000000 0.2377000000 0.0247000000
-0.4882000000 5.6174000000 1.2470000000
-0.4894000000 7.6043000000 0.1173000000
-0.4903000000 6.5113000000 0.7124000000
-0.4910000000 7.3809000000 0.1790000000
-0.4922000000 3.2676000000 1.4637000000
-0.4924000000 6.5456000000 0.6860000000
-0.4928000000 3.8159000000 1.7988000000
-0.4931000000 6.5593000000 0.6730000000
-0.4933000000 7.1204000000 0.3353000000
-0.4940000000 5.7202000000 1.1832000000
-0.4942000000 5.1453000000 1.5332000000
-0.4945000000 3.1299000000 1.3761000000
-0.4946000000 7.3880000000 0.1758000000
-0.4951000000 4.2767000000 2.0392000000
-0.4956000000 7.5678000000 0.1358000000
-0.4957000000 6.6529000000 0.6130000000
-0.4960000000 1.7464000000 0.5300000000
-0.4961000000 6.7417000000 0.5614000000
-0.4965000000 5.4907000000 1.3213000000
-0.4966000000 3.5886000000 1.6574000000
-0.4970000000 2.2135000000 0.8168000000
-0.4972000000 6.5431000000 0.6830000000
-0.4975000000 7.1246000000 0.3277000000
-0.4978000000 6.6208000000 0.6305000000
-0.4982000000 6.9722000000 0.4144000000
-0.4983000000 1.2598000000 0.2370000000
-0.4986000000 1.1573000000 0.1784000000
-0.4989000000 3.0184000000 1.3107000000
-0.4992000000 1.1384000000 0.1646000000
-0.4995000000 3.5865000000 1.6486000000
-0.5001000000 0.6746000000 0.0279000000
-0.5007000000 5.0570000000 1.5827000000
-0.5011000000 2.9988000000 1.2942000000
-0.5040000000 5.3502000000 1.3932000000
-0.5081000000 3.3430000000 1.4984000000
-0.7395000000 4.7945000000 1.4889000000
-0.7405000000 6.7247000000 0.3146000000
-0.7412000000 6.0594000000 0.7163000000
-0.7423000000 3.3558000000 1.2484000000
-0.7430000000 2.9780000000 1.0202000000
-0.7434000000 2.7156000000 0.8613000000
-0.7436000000 7.0742000000 0.1070000000
-0.7438000000 5.2859000000 1.1869000000
-0.7445000000 4.6848000000 1.5532000000
-0.7450000000 4.7398000000 1.5118000000
-0.7453000000 6.7529000000 0.2957000000
-0.7458000000 7.3489000000 0.0744000000
-0.7460000000 5.4155000000 1.1035000000
-0.7462000000 1.2083000000 0.0975000000
-0.7466000000 2.7656000000 0.8931000000
-0.7468000000 3.3293000000 1.2353000000
-0.7474000000 5.9465000000 0.7796000000
-0.7476000000 4.0488000000 1.6684000000
-0.7479000000 2.6262000000 0.8024000000
-0.7486000000 2.8315000000 0.9235000000
-0.7492000000 2.0121000000 0.4311000000
-0.7495000000 4.3380000000 1.7579000000
-0.7496000000 1.3620000000 0.1122000000
-0.7502000000 6.1019000000 0.6788000000
-0.7507000000 2.7830000000 0.8987000000
-0.7511000000 6.5970000000 0.3814000000
-0.7550000000 4.7198000000 1.5234000000
-0.9888000000 6.4294000000 0.2285000000
-0.9900000000 2.4320000000 0.4277000000
-0.9910000000 5.6888000000 0.6815000000
-0.9922000000 4.6335000000 1.3208000000
-0.9932000000 5.5044000000 0.7925000000
-0.9939000000 6.3952000000 0.2500000000
-0.9942000000 4.5044000000 1.3997000000
-0.9945000000 4.8416000000 1.1893000000
-0.9948000000 6.3870000000 0.2555000000
-0.9952000000 2.6997000000 0.5890000000
-0.9954000000 3.7930000000 1.2583000000
-0.9955000000 2.1402000000 0.2489000000
-0.9957000000 6.2814000000 0.3116000000
-0.9960000000 5.6922000000 0.6670000000
-0.9963000000 2.2454000000 0.3158000000
-0.9970000000 6.5905000000 0.1240000000
-0.9974000000 6.9986000000 0.0215000000
-0.9979000000 3.3751000000 0.9942000000
-0.9984000000 2.9069000000 0.7057000000
-0.9988000000 3.9227000000 1.3274000000
-0.9992000000 5.5147000000 0.7732000000
-0.9994000000 1.9697000000 0.1377000000
-0.9996000000 5.0880000000 1.0372000000
-0.9998000000 6.8011000000 0.0681000000
-1.0004000000 4.6747000000 1.2797000000
-1.0015000000 6.3743000000 0.2532000000
-1.0049000000 4.6268000000 1.3091000000
-1.2396000000 5.8628000000 0.3101000000
-1.2405000000 2.6806000000 0.3215000000
-1.2412000000 5.9131000000 0.2743000000
-1.2424000000 6.5681000000 0.0304000000
-1.2435000000 4.2883000000 1.2449000000
-1.2439000000 2.3417000000 0.1090000000
-1.2442000000 2.2322000000 0.1175000000
-1.2444000000 2.2757000000 0.0638000000
-1.2449000000 5.9657000000 0.2452000000
-1.2452000000 2.5502000000 0.2354000000
-1.2459000000 3.7902000000 0.9849000000
-1.2466000000 5.5021000000 0.5216000000
-1.2470000000 4.7009000000 1.0080000000
-1.2473000000 2.5321000000 0.2226000000
-1.2477000000 4.6654000000 1.0379000000
-1.2480000000 3.4329000000 0.7697000000
-1.2484000000 6.0762000000 0.1696000000
-1.2489000000 4.4981000000 1.1295000000
-1.2496000000 1.9802000000 0.0308000000
-1.2505000000 2.0838000000 0.0954000000
-1.2508000000 5.1959000000 0.7050000000
-1.2541000000 4.3512000000 1.2147000000
-1.4921000000 2.4173000000 0.0457000000
-1.4928000000 4.4132000000 0.9239000000
-1.4932000000 4.7379000000 0.7304000000
-1.4937000000 6.0689000000 0.0713000000
-1.4940000000 2.3762000000 0.0171000000
-1.4945000000 4.2183000000 0.9645000000
-1.4949000000 6.0313000000 0.0862000000
-1.4953000000 4.6403000000 0.7863000000
-1.4963000000 3.8255000000 0.7438000000
-1.4967000000 5.7250000000 0.1229000000
-1.4978000000 4.6491000000 0.7792000000
-1.4981000000 3.9848000000 0.8444000000
-1.4984000000 4.4573000000 0.8943000000
-1.4987000000 3.8459000000 0.7506000000
-1.4993000000 5.7240000000 0.1159000000
-1.5000000000 3.6599000000 0.6377000000
-1.5020000000 5.2050000000 0.4357000000
-1.5035000000 5.7274000000 0.1214000000
-1.7407000000 5.3032000000 0.1254000000
-1.7420000000 3.3895000000 0.2218000000
-1.7435000000 4.1742000000 0.6931000000
-1.7444000000 4.5803000000 0.5604000000
-1.7450000000 2.9270000000 0.0819000000
-1.7452000000 4.0752000000 0.6369000000
-1.7465000000 3.0637000000 0.0945000000
-1.7470000000 4.6780000000 0.4951000000
-1.7477000000 5.1451000000 0.2112000000
-1.7480000000 5.0330000000 0.2834000000
-1.7484000000 5.0316000000 0.2792000000
-1.7488000000 3.1568000000 0.0742000000
-1.7503000000 4.4237000000 0.6442000000
-1.7544000000 5.4016000000 0.1210000000
-1.9925000000 5.2813000000 0.0173000000
-1.9935000000 5.2465000000 0.0356000000
