3.5019000000 2.3207000000 0.7575000000
3.5018000000 1.4132000000 0.4266000000
3.5015000000 0.5533000000 0.1124000000
3.5013000000 3.3011000000 0.8229000000
3.5011000000 4.2510000000 0.4768000000
3.5010000000 3.1536000000 0.8738000000
3.5009000000 3.7181000000 0.6673000000
3.5007000000 2.2785000000 0.7443000000
3.5007000000 1.0872000000 0.3099000000
3.5006000000 2.4004000000 0.7944000000
3.5002000000 1.7811000000 0.5651000000
3.5002000000 1.8686000000 0.5965000000
3.5001000000 0.5814000000 0.1258000000
3.4998000000 2.0722000000 0.6696000000
3.4996000000 0.6156000000 0.1389000000
3.4993000000 1.1649000000 0.3377000000
3.4990000000 4.1527000000 0.5094000000
3.4988000000 0.2115000000 0.0644000000
3.4987000000 4.4805000000 0.3893000000
3.4985000000 0.1326000000 0.0319000000
3.4973000000 0.2414000000 0.0721000000
3.4973000000 2.5689000000 0.8523000000
3.4969000000 0.6534000000 0.1524000000
3.4968000000 4.5313000000 0.3758000000
3.4937000000 0.9356000000 0.2615000000
3.2609000000 5.6942000000 0.0699000000
3.2598000000 3.8497000000 0.7770000000
3.2593000000 4.6587000000 0.4830000000
3.2593000000 3.1644000000 1.0248000000
3.2589000000 5.3390000000 0.2265000000
3.2588000000 5.7732000000 0.0280000000
3.2587000000 5.0542000000 0.3325000000
3.2585000000 5.6435000000 0.1075000000
3.2583000000 3.3326000000 0.9617000000
3.2581000000 5.5397000000 0.1428000000
3.2576000000 2.9492000000 1.0993000000
3.2575000000 3.3875000000 0.9371000000
3.2575000000 5.5024000000 0.1699000000
3.2573000000 5.0355000000 0.3404000000
3.2572000000 2.0358000000 0.8066000000
3.2571000000 4.8024000000 0.4288000000
3.2568000000 4.9679000000 0.3592000000
3.2567000000 2.6146000000 1.0198000000
3.2566000000 3.9711000000 0.7284000000
3.2566000000 2.7731000000 1.0787000000
3.2565000000 3.0325000000 1.0744000000
3.2565000000 3.0204000000 1.0741000000
3.2564000000 3.8232000000 0.7861000000
3.2563000000 5.5488000000 0.1430000000
3.2563000000 5.5649000000 0.1346000000
3.2562000000 4.0357000000 0.7092000000
3.2560000000 1.3630000000 0.5591000000
3.2557000000 0.1493000000 0.1111000000
3.2556000000 1.8308000000 0.7331000000
3.2555000000 5.5962000000 0.1311000000
3.2554000000 4.0966000000 0.6854000000
3.2553000000 3.6152000000 0.8628000000
3.2553000000 4.0334000000 0.7131000000
3.2551000000 2.7938000000 1.0804000000
3.2550000000 2.2511000000 0.8878000000
3.2549000000 1.7086000000 0.6934000000
3.2549000000 5.7593000000 0.0436000000
3.2550000000 5.4238000000 0.2048000000
3.2548000000 4.9985000000 0.3528000000
3.2547000000 4.7593000000 0.4456000000
3.2546000000 4.0960000000 0.6897000000
3.2546000000 0.6971000000 0.3240000000
3.2545000000 1.4823000000 0.6081000000
3.2545000000 1.4149000000 0.5817000000
3.2544000000 0.5550000000 0.2762000000
3.2543000000 5.7560000000 0.0355000000
3.2542000000 1.8196000000 0.7312000000
3.2543000000 5.2727000000 0.2604000000
3.2541000000 3.1528000000 1.0295000000
3.2538000000 3.1636000000 1.0272000000
3.2538000000 0.9904000000 0.4290000000
3.2535000000 4.0714000000 0.6954000000
3.2534000000 4.3403000000 0.5970000000
3.2535000000 5.2621000000 0.2616000000
3.2533000000 4.7226000000 0.4583000000
3.2532000000 4.7016000000 0.4676000000
3.2532000000 0.3012000000 0.1764000000
3.2530000000 2.3901000000 0.9389000000
3.2530000000 4.4472000000 0.5552000000
3.2530000000 0.5346000000 0.2621000000
3.2529000000 3.1139000000 1.0470000000
3.2528000000 0.3095000000 0.1778000000
3.2527000000 0.7736000000 0.3485000000
3.2527000000 0.6753000000 0.3151000000
3.2526000000 2.7253000000 1.0652000000
3.2525000000 1.2199000000 0.5174000000
3.2525000000 1.5260000000 0.6230000000
3.2524000000 1.9485000000 0.7818000000
3.2523000000 0.8816000000 0.3889000000
3.2523000000 2.9946000000 1.0939000000
3.2522000000 3.8905000000 0.7613000000
3.2521000000 4.3394000000 0.6011000000
3.2520000000 3.0811000000 1.0556000000
3.2520000000 5.1966000000 0.2879000000
3.2519000000 1.1826000000 0.4973000000
3.2518000000 0.7772000000 0.3537000000
3.2517000000 2.0471000000 0.8154000000
3.2516000000 1.3129000000 0.5459000000
3.2515000000 2.8062000000 1.0936000000
3.2513000000 3.7509000000 0.8123000000
3.2512000000 3.7864000000 0.7962000000
3.2510000000 2.5574000000 1.0000000000
3.2509000000 3.1142000000 1.0437000000
3.2508000000 1.6370000000 0.6653000000
3.2507000000 1.0764000000 0.4607000000
3.2506000000 3.2662000000 0.9992000000
3.2500000000 0.2745000000 0.1598000000
3.2498000000 4.1627000000 0.6655000000
3.2496000000 4.0855000000 0.6857000000
3.2493000000 0.8592000000 0.3835000000
3.2491000000 0.5291000000 0.2615000000
3.2490000000 2.8217000000 1.0990000000
3.2488000000 5.0871000000 0.3256000000
3.2487000000 0.5561000000 0.2730000000
3.2486000000 0.4357000000 0.2318000000
3.2486000000 5.3817000000 0.2203000000
3.2484000000 0.8397000000 0.3774000000
3.2482000000 4.8687000000 0.4042000000
3.2481000000 3.4083000000 0.9440000000
3.2478000000 1.3786000000 0.5769000000
3.2464000000 1.7658000000 0.7222000000
3.2461000000 0.7705000000 0.3526000000
3.2456000000 1.3477000000 0.5649000000
3.2455000000 2.5316000000 0.9955000000
3.0114000000 2.9517000000 1.2605000000
3.0114000000 4.8738000000 0.5555000000
3.0098000000 2.3075000000 1.0626000000
3.0096000000 2.1826000000 1.0198000000
3.0095000000 5.0952000000 0.4691000000
3.0091000000 0.6503000000 0.4460000000
3.0090000000 4.7031000000 0.6201000000
3.0088000000 4.3345000000 0.7604000000
3.0081000000 5.6640000000 0.1069000000
3.0080000000 3.1403000000 1.1937000000
3.0079000000 5.7874000000 0.0139000000
3.0076000000 1.0876000000 0.6243000000
3.0075000000 5.7138000000 0.0724000000
3.0075000000 5.5585000000 0.1856000000
3.0072000000 1.5355000000 0.7863000000
3.0071000000 1.1370000000 0.6411000000
3.0070000000 1.9591000000 0.9403000000
3.0067000000 1.9194000000 0.9283000000
3.0066000000 4.6460000000 0.6406000000
3.0066000000 0.0855000000 0.0728000000
3.0065000000 1.0585000000 0.6132000000
3.0063000000 1.7582000000 0.8673000000
3.0061000000 2.4214000000 1.1070000000
3.0060000000 1.5731000000 0.7978000000
3.0060000000 1.7645000000 0.8692000000
3.0059000000 2.7336000000 1.2248000000
3.0058000000 1.7986000000 0.8827000000
3.0055000000 3.2113000000 1.1631000000
3.0054000000 1.0772000000 0.6176000000
3.0053000000 2.1988000000 1.0195000000
3.0052000000 4.6095000000 0.6574000000
3.0051000000 4.0772000000 0.8471000000
3.0049000000 4.8696000000 0.5584000000
3.0048000000 3.6302000000 1.0144000000
3.0046000000 3.2172000000 1.1670000000
3.0045000000 3.1325000000 1.1960000000
3.0043000000 2.5358000000 1.1452000000
3.0041000000 4.7683000000 0.5978000000
3.0040000000 2.5325000000 1.1490000000
3.0040000000 3.0584000000 1.2247000000
3.0038000000 1.2279000000 0.6725000000
3.0037000000 3.3542000000 1.1184000000
3.0036000000 3.7124000000 0.9836000000
3.0035000000 5.0732000000 0.4876000000
3.0035000000 3.7705000000 0.9707000000
3.0034000000 1.6544000000 0.8304000000
3.0034000000 2.5549000000 1.1644000000
3.0033000000 3.0721000000 1.2163000000
3.0032000000 0.8296000000 0.5269000000
3.0028000000 3.0288000000 1.2382000000
3.0028000000 5.3117000000 0.3556000000
3.0028000000 4.3518000000 0.7524000000
3.0023000000 4.6192000000 0.6564000000
3.0023000000 4.2131000000 0.8022000000
3.0022000000 1.3723000000 0.7224000000
3.0022000000 0.6825000000 0.4667000000
3.0020000000 2.4080000000 1.1031000000
3.0019000000 2.7292000000 1.2240000000
3.0013000000 0.9760000000 0.5789000000
3.0012000000 4.5033000000 0.6972000000
3.0006000000 1.1042000000 0.6318000000
3.0005000000 1.8560000000 0.9041000000
3.0004000000 0.8955000000 0.5573000000
3.0003000000 4.0967000000 0.8414000000
2.9998000000 0.3671000000 0.2785000000
2.9997000000 3.2301000000 1.1625000000
2.9996000000 2.5188000000 1.1417000000
2.9993000000 4.8373000000 0.5770000000
2.9990000000 2.4028000000 1.1037000000
2.9986000000 0.2259000000 0.1741000000
2.9979000000 3.3532000000 1.1254000000
2.9977000000 4.2079000000 0.8040000000
2.9967000000 0.1661000000 0.1308000000
2.9963000000 1.1615000000 0.6535000000
2.9960000000 0.0461000000 0.0428000000
2.9898000000 0.3634000000 0.2782000000
2.7601000000 3.3420000000 1.2733000000
2.7589000000 1.5300000000 0.9396000000
2.7586000000 4.2115000000 0.9561000000
2.7585000000 1.4726000000 0.9209000000
2.7585000000 3.6742000000 1.1548000000
2.7583000000 2.8766000000 1.4240000000
2.7582000000 0.9978000000 0.7294000000
2.7579000000 3.6354000000 1.1700000000
2.7576000000 5.2509000000 0.4040000000
2.7575000000 5.1935000000 0.4490000000
2.7574000000 0.0039000000 0.0150000000
2.7574000000 1.9955000000 1.1099000000
2.7571000000 0.0468000000 0.0452000000
2.7571000000 1.5512000000 0.9511000000
2.7570000000 2.8258000000 1.4142000000
2.7566000000 3.0817000000 1.3741000000
2.7566000000 1.2462000000 0.8363000000
2.7565000000 1.2056000000 0.8281000000
2.7565000000 5.6758000000 0.0980000000
2.7563000000 2.5318000000 1.3057000000
2.7560000000 1.9717000000 1.1020000000
2.7560000000 4.1032000000 0.9950000000
2.7560000000 1.1254000000 0.7888000000
2.7559000000 3.1238000000 1.3528000000
2.7557000000 2.5340000000 1.3061000000
2.7556000000 2.8091000000 1.4089000000
2.7554000000 5.7974000000 0.0888000000
2.7553000000 2.8540000000 1.4140000000
2.7553000000 5.5652000000 0.1792000000
2.7552000000 3.3377000000 1.2801000000
2.7551000000 1.5755000000 0.9550000000
2.7551000000 2.4204000000 1.2620000000
2.7550000000 2.2272000000 1.1956000000
2.7548000000 1.8969000000 1.0708000000
2.7547000000 2.6264000000 1.3460000000
2.7546000000 5.4680000000 0.2450000000
2.7545000000 1.2322000000 0.8316000000
2.7544000000 1.6782000000 0.9990000000
2.7544000000 1.0696000000 0.7646000000
2.7543000000 1.5941000000 0.9667000000
2.7542000000 1.6478000000 0.9858000000
2.7542000000 4.4360000000 0.8768000000
2.7541000000 2.7637000000 1.3918000000
2.7540000000 4.7227000000 0.7591000000
2.7539000000 4.0131000000 1.0320000000
2.7538000000 1.7785000000 1.0331000000
2.7538000000 5.7516000000 0.0438000000
2.7537000000 2.1447000000 1.1627000000
2.7536000000 3.3795000000 1.2581000000
2.7535000000 1.8897000000 1.0713000000
2.7533000000 2.9057000000 1.4251000000
2.7533000000 5.5740000000 0.1698000000
2.7533000000 2.2559000000 1.2094000000
2.7532000000 5.7964000000 0.0844000000
2.7528000000 2.5817000000 1.3274000000
2.7525000000 3.5369000000 1.2128000000
2.7525000000 1.0097000000 0.7370000000
2.7524000000 3.6542000000 1.1639000000
2.7524000000 5.3743000000 0.3165000000
2.7523000000 2.0601000000 1.1346000000
2.7522000000 2.5279000000 1.3043000000
2.7520000000 3.4721000000 1.2378000000
2.7518000000 0.2809000000 0.2208000000
2.7518000000 4.3742000000 0.9019000000
2.7517000000 3.9698000000 1.0468000000
2.7515000000 3.7211000000 1.1361000000
2.7514000000 1.7156000000 1.0116000000
2.7513000000 5.4405000000 0.2723000000
2.7512000000 1.8029000000 1.0429000000
2.7511000000 2.6682000000 1.3602000000
2.7509000000 4.0773000000 1.0043000000
2.7508000000 1.9960000000 1.1112000000
2.7507000000 1.3767000000 0.8865000000
2.7506000000 0.4059000000 0.3130000000
2.7505000000 3.1589000000 1.3477000000
2.7501000000 3.7501000000 1.1310000000
2.7498000000 0.3677000000 0.2786000000
2.7497000000 1.8928000000 1.0708000000
2.7492000000 3.6061000000 1.1837000000
2.7491000000 1.6746000000 1.0020000000
2.7489000000 0.7645000000 0.5696000000
2.7481000000 0.1251000000 0.0994000000
2.7474000000 3.0834000000 1.3768000000
2.7453000000 1.1021000000 0.7781000000
2.7435000000 0.1519000000 0.1209000000
2.5120000000 2.5683000000 1.4779000000
2.5109000000 5.3372000000 0.3485000000
2.5108000000 2.0367000000 1.2795000000
2.5105000000 5.5767000000 0.1676000000
2.5099000000 1.5904000000 1.1183000000
2.5092000000 2.2315000000 1.3521000000
2.5090000000 5.7821000000 0.0157000000
2.5089000000 5.5496000000 0.1884000000
2.5085000000 5.4228000000 0.2886000000
2.5085000000 5.2040000000 0.4443000000
2.5083000000 4.7236000000 0.7931000000
2.5082000000 4.6798000000 0.8228000000
2.5080000000 5.0022000000 0.5806000000
2.5078000000 3.6181000000 1.3324000000
2.5078000000 4.8814000000 0.6759000000
2.5070000000 0.8401000000 0.6273000000
2.5068000000 3.0393000000 1.5452000000
2.5065000000 0.8112000000 0.6068000000
2.5065000000 5.2193000000 0.4290000000
2.5063000000 4.2931000000 1.0763000000
2.5062000000 0.0435000000 0.0465000000
2.5063000000 1.2680000000 0.9335000000
2.5061000000 3.7253000000 1.2911000000
2.5060000000 1.0832000000 0.7981000000
2.5059000000 5.7271000000 0.0643000000
2.5060000000 0.1221000000 0.1029000000
2.5058000000 5.0692000000 0.5385000000
2.5057000000 0.9830000000 0.7339000000
2.5056000000 0.4765000000 0.3627000000
2.5055000000 0.3243000000 0.2474000000
2.5055000000 2.8551000000 1.5660000000
2.5054000000 0.9353000000 0.6953000000
2.5054000000 5.7888000000 0.0124000000
2.5053000000 0.7475000000 0.5557000000
2.5052000000 4.8637000000 0.6914000000
2.5051000000 2.1883000000 1.3375000000
2.5050000000 2.2201000000 1.3504000000
2.5049000000 5.0575000000 0.5550000000
2.5048000000 0.3302000000 0.2562000000
2.5047000000 1.9140000000 1.2371000000
2.5046000000 0.2301000000 0.1811000000
2.5045000000 2.0708000000 1.2957000000
2.5043000000 1.5485000000 1.0987000000
2.5043000000 3.4260000000 1.4062000000
2.5042000000 2.6651000000 1.5166000000
2.5039000000 5.5208000000 0.2128000000
2.5037000000 4.6335000000 0.8557000000
2.5036000000 0.9291000000 0.6933000000
2.5035000000 1.4249000000 1.0406000000
2.5035000000 3.4410000000 1.3967000000
2.5035000000 3.3092000000 1.4522000000
2.5034000000 5.7296000000 0.0604000000
2.5033000000 3.7916000000 1.2752000000
2.5033000000 0.7569000000 0.5591000000
2.5031000000 1.2850000000 0.9473000000
2.5030000000 3.9714000000 1.2100000000
2.5030000000 1.9219000000 1.2476000000
2.5028000000 1.0717000000 0.7908000000
2.5028000000 2.4713000000 1.4465000000
2.5028000000 3.3880000000 1.4169000000
2.5027000000 0.7454000000 0.5546000000
2.5026000000 1.8269000000 1.2109000000
2.5024000000 3.0618000000 1.5410000000
2.5023000000 3.9087000000 1.2304000000
2.5023000000 1.3442000000 0.9951000000
2.5023000000 4.5821000000 0.8954000000
2.5022000000 3.4064000000 1.4125000000
2.5020000000 3.1658000000 1.4995000000
2.5018000000 5.4161000000 0.2867000000
2.5014000000 1.0647000000 0.7873000000
2.5013000000 2.1379000000 1.3256000000
2.5013000000 1.4671000000 1.0654000000
2.5012000000 5.6067000000 0.1473000000
2.5011000000 2.4385000000 1.4339000000
2.5010000000 4.7897000000 0.7437000000
2.5010000000 5.5036000000 0.2254000000
2.5008000000 3.1776000000 1.4952000000
2.5005000000 1.3747000000 1.0029000000
2.5005000000 1.8283000000 1.2051000000
2.5004000000 4.0102000000 1.1946000000
2.5004000000 1.6219000000 1.1336000000
2.5003000000 3.8116000000 1.2653000000
2.4998000000 5.7082000000 0.0774000000
2.4998000000 0.8002000000 0.5952000000
2.4993000000 0.2375000000 0.1863000000
2.4989000000 2.6001000000 1.4887000000
2.4984000000 1.2556000000 0.9247000000
2.4983000000 4.1948000000 1.1284000000
2.4980000000 2.4124000000 1.4223000000
2.4975000000 0.2371000000 0.1863000000
2.4970000000 1.4124000000 1.0334000000
2.4968000000 1.9200000000 1.2471000000
2.4966000000 1.1110000000 0.8185000000
2.4957000000 2.6390000000 1.5039000000
2.4953000000 1.6465000000 1.1484000000
2.2649000000 4.8075000000 0.7310000000
2.2641000000 4.5081000000 0.9492000000
2.2611000000 3.3828000000 1.5745000000
2.2587000000 5.7496000000 0.0441000000
2.2584000000 1.9486000000 1.3921000000
2.2580000000 4.3969000000 1.0298000000
2.2576000000 4.3210000000 1.0800000000
2.2576000000 5.0400000000 0.5633000000
2.2575000000 4.8642000000 0.6874000000
2.2574000000 5.3185000000 0.3555000000
2.2573000000 2.5158000000 1.6181000000
2.2572000000 5.3266000000 0.3549000000
2.2571000000 4.5190000000 0.9400000000
2.2570000000 1.7374000000 1.2796000000
2.2569000000 3.0156000000 1.7053000000
2.2568000000 5.3287000000 0.3459000000
2.2567000000 3.7136000000 1.4621000000
2.2564000000 4.9764000000 0.6051000000
2.2563000000 3.3000000000 1.6032000000
2.2558000000 4.2233000000 1.1573000000
2.2555000000 0.2358000000 0.1813000000
2.2554000000 0.1261000000 0.1090000000
2.2553000000 4.3307000000 1.0767000000
2.2550000000 0.7574000000 0.5603000000
2.2549000000 3.5234000000 1.5226000000
2.2549000000 2.3676000000 1.5638000000
2.2548000000 0.5690000000 0.4266000000
2.2548000000 2.8390000000 1.7304000000
2.2547000000 4.9648000000 0.6188000000
2.2546000000 4.3967000000 1.0295000000
2.2545000000 4.3249000000 1.0854000000
2.2543000000 0.2543000000 0.2004000000
2.2542000000 2.4908000000 1.6063000000
2.2541000000 1.5020000000 1.1046000000
2.2540000000 3.8248000000 1.4038000000
2.2538000000 1.9160000000 1.3831000000
2.2537000000 5.1620000000 0.4722000000
2.2536000000 0.3333000000 0.2534000000
2.2535000000 4.0691000000 1.2658000000
2.2533000000 4.3683000000 1.0525000000
2.2530000000 3.7426000000 1.4458000000
2.2530000000 4.1226000000 1.2254000000
2.2526000000 1.3268000000 0.9818000000
2.2525000000 4.5510000000 0.9166000000
2.2525000000 4.7001000000 0.8070000000
2.2523000000 2.2437000000 1.5210000000
2.2520000000 0.8515000000 0.6316000000
2.2520000000 2.8940000000 1.7439000000
2.2519000000 0.2456000000 0.1917000000
2.2519000000 3.7864000000 1.4322000000
2.2517000000 4.3078000000 1.1008000000
2.2515000000 4.6309000000 0.8560000000
2.2515000000 4.4804000000 0.9631000000
2.2515000000 4.9574000000 0.6261000000
2.2513000000 2.5340000000 1.6249000000
2.2507000000 0.1176000000 0.0963000000
2.2503000000 0.2892000000 0.2221000000
2.2503000000 1.7048000000 1.2524000000
2.2497000000 4.5707000000 0.9053000000
2.2497000000 1.0154000000 0.7518000000
2.2496000000 4.5895000000 0.8908000000
2.2496000000 3.3461000000 1.5933000000
2.2495000000 0.0884000000 0.0807000000
2.2483000000 1.6695000000 1.2351000000
2.2479000000 0.3108000000 0.2344000000
2.2475000000 0.6114000000 0.4585000000
2.2473000000 3.5532000000 1.5233000000
2.2473000000 1.2573000000 0.9340000000
2.2472000000 3.7331000000 1.4531000000
2.2470000000 3.8466000000 1.3994000000
2.2470000000 0.7346000000 0.5509000000
2.2463000000 0.3997000000 0.3091000000
2.2459000000 0.3325000000 0.2542000000
2.0119000000 3.3036000000 1.7560000000
2.0110000000 5.6826000000 0.0889000000
2.0105000000 5.4244000000 0.2811000000
2.0100000000 4.8523000000 0.6995000000
2.0087000000 4.0477000000 1.2849000000
2.0086000000 4.9453000000 0.6324000000
2.0082000000 5.0451000000 0.5532000000
2.0079000000 2.2317000000 1.6256000000
2.0078000000 3.2710000000 1.7781000000
2.0079000000 5.2975000000 0.3773000000
2.0077000000 1.5785000000 1.1607000000
2.0076000000 4.5904000000 0.8881000000
2.0075000000 5.6503000000 0.1189000000
2.0074000000 4.9937000000 0.5945000000
2.0073000000 3.0512000000 1.8585000000
2.0073000000 0.1644000000 0.1278000000
2.0072000000 1.9092000000 1.4041000000
2.0072000000 2.2084000000 1.6140000000
2.0071000000 1.3875000000 1.0282000000
2.0068000000 4.5127000000 0.9451000000
2.0065000000 5.1043000000 0.5141000000
2.0064000000 2.1723000000 1.5915000000
2.0063000000 4.5764000000 0.9002000000
2.0063000000 3.9777000000 1.3333000000
2.0061000000 0.8211000000 0.6160000000
2.0059000000 2.3633000000 1.7087000000
2.0057000000 2.3328000000 1.6939000000
2.0056000000 2.7978000000 1.8766000000
2.0055000000 3.9591000000 1.3495000000
2.0054000000 4.2797000000 1.1136000000
2.0053000000 3.9410000000 1.3651000000
2.0053000000 1.1198000000 0.8317000000
2.0053000000 2.3441000000 1.7026000000
2.0052000000 2.1832000000 1.5992000000
2.0051000000 0.5558000000 0.4161000000
2.0050000000 5.6901000000 0.0852000000
2.0052000000 5.1128000000 0.5015000000
2.0050000000 4.5221000000 0.9365000000
2.0049000000 5.1772000000 0.4613000000
2.0047000000 3.5749000000 1.6161000000
2.0046000000 0.7044000000 0.5276000000
2.0044000000 2.0146000000 1.4770000000
2.0043000000 4.4481000000 0.9950000000
2.0042000000 4.8708000000 0.6832000000
2.0041000000 4.9123000000 0.6559000000
2.0037000000 1.6004000000 1.1789000000
2.0038000000 2.0267000000 1.4922000000
2.0036000000 5.4005000000 0.2985000000
2.0035000000 3.5061000000 1.6638000000
2.0033000000 0.5802000000 0.4337000000
2.0032000000 0.5882000000 0.4409000000
2.0032000000 3.2753000000 1.7775000000
2.0030000000 0.9673000000 0.7145000000
2.0025000000 2.2328000000 1.6262000000
2.0025000000 3.9232000000 1.3712000000
2.0024000000 3.2171000000 1.7964000000
2.0023000000 0.0869000000 0.0785000000
2.0022000000 0.9935000000 0.7314000000
2.0021000000 3.7269000000 1.5207000000
2.0020000000 0.3509000000 0.2676000000
2.0020000000 1.0924000000 0.8056000000
2.0016000000 2.5716000000 1.7959000000
2.0015000000 1.6306000000 1.2045000000
2.0014000000 0.2514000000 0.1956000000
2.0013000000 5.4117000000 0.2889000000
2.0013000000 5.1970000000 0.4484000000
2.0011000000 0.3501000000 0.2678000000
2.0010000000 4.2557000000 1.1317000000
2.0009000000 3.9680000000 1.3372000000
2.0008000000 2.4876000000 1.7683000000
2.0008000000 1.6585000000 1.2230000000
2.0003000000 4.3101000000 1.0939000000
2.0003000000 3.3697000000 1.7377000000
2.0002000000 1.3424000000 0.9936000000
2.0000000000 5.3685000000 0.3226000000
1.9998000000 0.3727000000 0.2870000000
1.9997000000 0.4695000000 0.3560000000
1.9996000000 3.1991000000 1.8046000000
1.9994000000 0.8676000000 0.6459000000
1.9989000000 0.9780000000 0.7243000000
1.9988000000 4.1028000000 1.2449000000
1.9988000000 1.2265000000 0.9095000000
1.9985000000 1.4107000000 1.0418000000
1.9984000000 3.0589000000 1.8591000000
1.9983000000 5.2350000000 0.4174000000
1.9982000000 2.1914000000 1.6135000000
1.9979000000 3.0253000000 1.8668000000
1.9975000000 1.0251000000 0.7653000000
1.9968000000 3.6048000000 1.6029000000
1.7635000000 3.6592000000 1.5684000000
1.7625000000 3.6140000000 1.6017000000
1.7606000000 4.6577000000 0.8432000000
1.7600000000 5.2880000000 0.3750000000
1.7595000000 4.2896000000 1.1068000000
1.7591000000 2.4060000000 1.7646000000
1.7585000000 2.5650000000 1.8817000000
1.7582000000 3.5973000000 1.6125000000
1.7579000000 5.6084000000 0.1510000000
1.7578000000 3.0464000000 2.0009000000
1.7577000000 0.3036000000 0.2294000000
1.7576000000 1.1951000000 0.8799000000
1.7575000000 4.9621000000 0.6197000000
1.7571000000 1.7683000000 1.2988000000
1.7571000000 3.1984000000 1.9024000000
1.7565000000 1.9793000000 1.4573000000
1.7563000000 4.3222000000 1.0820000000
1.7562000000 4.2113000000 1.1658000000
1.7561000000 5.4557000000 0.2568000000
1.7559000000 3.6541000000 1.5708000000
1.7559000000 5.1279000000 0.4952000000
1.7558000000 5.3860000000 0.3038000000
1.7555000000 4.3977000000 1.0265000000
1.7553000000 4.6551000000 0.8458000000
1.7552000000 2.7642000000 2.0085000000
1.7551000000 1.0877000000 0.8077000000
1.7550000000 3.9468000000 1.3593000000
1.7550000000 0.6022000000 0.4549000000
1.7549000000 5.5367000000 0.1983000000
1.7547000000 1.5798000000 1.1666000000
1.7547000000 2.4644000000 1.8083000000
1.7546000000 1.8238000000 1.3453000000
1.7545000000 4.2229000000 1.1544000000
1.7542000000 3.7380000000 1.5090000000
1.7541000000 4.9613000000 0.6148000000
1.7540000000 5.7309000000 0.0526000000
1.7539000000 5.4284000000 0.2758000000
1.7538000000 4.6494000000 0.8464000000
1.7537000000 4.3418000000 1.0674000000
1.7536000000 4.7327000000 0.7878000000
1.7536000000 2.1947000000 1.6138000000
1.7535000000 0.3114000000 0.2419000000
1.7534000000 3.7871000000 1.4724000000
1.7533000000 5.4474000000 0.2676000000
1.7533000000 5.1156000000 0.5011000000
1.7529000000 3.3463000000 1.7969000000
1.7529000000 2.8447000000 2.0126000000
1.7528000000 3.5000000000 1.6814000000
1.7527000000 2.3557000000 1.7293000000
1.7525000000 1.9946000000 1.4588000000
1.7525000000 2.4576000000 1.8041000000
1.7525000000 5.2353000000 0.4204000000
1.7524000000 5.2507000000 0.4078000000
1.7523000000 2.2106000000 1.6237000000
1.7521000000 3.5245000000 1.6615000000
1.7518000000 3.2974000000 1.8259000000
1.7517000000 4.4732000000 0.9651000000
1.7515000000 1.2196000000 0.9000000000
1.7515000000 5.5032000000 0.2237000000
1.7514000000 0.2166000000 0.1688000000
1.7512000000 0.4050000000 0.3113000000
1.7511000000 2.7448000000 2.0003000000
1.7508000000 5.4558000000 0.2600000000
1.7507000000 3.1095000000 1.9541000000
1.7506000000 0.4205000000 0.3191000000
1.7504000000 0.5605000000 0.4221000000
1.7500000000 3.5257000000 1.6652000000
1.7499000000 1.7422000000 1.2812000000
1.7497000000 4.3285000000 1.0773000000
1.7496000000 0.7426000000 0.5524000000
1.7495000000 0.8778000000 0.6593000000
1.7493000000 4.5238000000 0.9351000000
1.7492000000 0.6871000000 0.5134000000
1.7488000000 0.5982000000 0.4497000000
1.7487000000 0.6651000000 0.4970000000
1.7484000000 2.6635000000 1.9501000000
1.7482000000 2.1770000000 1.6031000000
1.7480000000 3.5857000000 1.6233000000
1.7478000000 0.0499000000 0.0420000000
1.7478000000 0.2240000000 0.1736000000
1.7471000000 0.0420000000 0.0469000000
1.7413000000 0.9499000000 0.7020000000
1.5132000000 4.8077000000 0.7292000000
1.5130000000 4.8844000000 0.6766000000
1.5120000000 4.3669000000 1.0503000000
1.5118000000 4.9105000000 0.6537000000
1.5116000000 2.5241000000 1.8464000000
1.5110000000 0.6186000000 0.4660000000
1.5108000000 5.3489000000 0.3364000000
1.5107000000 5.3176000000 0.3601000000
1.5098000000 1.3885000000 1.0201000000
1.5094000000 3.1086000000 1.9300000000
1.5088000000 4.0454000000 1.2874000000
1.5086000000 5.0045000000 0.5833000000
1.5084000000 4.6696000000 0.8266000000
1.5081000000 3.1300000000 1.9290000000
1.5079000000 4.7831000000 0.7503000000
1.5075000000 1.9302000000 1.4136000000
1.5073000000 0.6176000000 0.4637000000
1.5073000000 3.2566000000 1.8484000000
1.5072000000 3.7541000000 1.5014000000
1.5071000000 5.0640000000 0.5437000000
1.5068000000 5.7702000000 0.0288000000
1.5064000000 4.8230000000 0.7231000000
1.5064000000 1.1834000000 0.8769000000
1.5062000000 2.3792000000 1.7479000000
1.5060000000 1.8240000000 1.3391000000
1.5059000000 4.4574000000 0.9875000000
1.5058000000 2.6864000000 1.9314000000
1.5057000000 5.4747000000 0.2382000000
1.5055000000 3.9617000000 1.3450000000
1.5052000000 3.4335000000 1.7274000000
1.5051000000 3.8012000000 1.4613000000
1.5050000000 5.3857000000 0.3083000000
1.5050000000 3.3050000000 1.8249000000
1.5048000000 3.4960000000 1.6874000000
1.5047000000 2.8529000000 1.9946000000
1.5046000000 5.5978000000 0.1547000000
1.5045000000 3.6724000000 1.5541000000
1.5045000000 0.9774000000 0.7284000000
1.5044000000 0.2929000000 0.2252000000
1.5041000000 3.6733000000 1.5568000000
1.5040000000 5.1496000000 0.4794000000
1.5038000000 3.7423000000 1.5066000000
1.5038000000 4.1528000000 1.2123000000
1.5037000000 3.1820000000 1.9014000000
1.5035000000 3.2309000000 1.8678000000
1.5034000000 4.9315000000 0.6376000000
1.5032000000 5.1375000000 0.4850000000
1.5031000000 0.8080000000 0.6012000000
1.5031000000 1.9293000000 1.4200000000
1.5030000000 0.7733000000 0.5788000000
1.5029000000 3.4394000000 1.7277000000
1.5029000000 5.7913000000 0.0884000000
1.5028000000 2.6632000000 1.9186000000
1.5028000000 5.1683000000 0.4717000000
1.5028000000 1.8120000000 1.3348000000
1.5027000000 4.6746000000 0.8285000000
1.5026000000 3.6134000000 1.6029000000
1.5025000000 1.7333000000 1.2790000000
1.5022000000 2.0915000000 1.5324000000
1.5022000000 5.7810000000 0.0208000000
1.5020000000 4.5940000000 0.8876000000
1.5020000000 3.6332000000 1.5871000000
1.5018000000 5.1932000000 0.4484000000
1.5016000000 0.0709000000 0.0655000000
1.5015000000 1.1103000000 0.8231000000
1.5015000000 2.7950000000 1.9886000000
1.5015000000 2.2414000000 1.6478000000
1.5013000000 4.5711000000 0.9060000000
1.5013000000 0.0895000000 0.0752000000
1.5012000000 1.0080000000 0.7463000000
1.5012000000 0.9909000000 0.7388000000
1.5011000000 2.0975000000 1.5402000000
1.5011000000 0.1870000000 0.1479000000
1.5010000000 1.0050000000 0.7403000000
1.5009000000 4.8697000000 0.6840000000
1.5005000000 0.8687000000 0.6446000000
1.5004000000 0.1347000000 0.1147000000
1.5001000000 2.6703000000 1.9177000000
1.5001000000 0.1149000000 0.0967000000
1.4999000000 0.0668000000 0.0646000000
1.4998000000 2.6698000000 1.9183000000
1.4992000000 1.7702000000 1.3081000000
1.4984000000 2.8699000000 1.9980000000
1.4983000000 4.4288000000 1.0080000000
1.4980000000 1.8472000000 1.3609000000
1.4964000000 2.1607000000 1.5909000000
1.4961000000 2.4432000000 1.7904000000
1.2615000000 4.1290000000 1.2280000000
1.2602000000 5.1239000000 0.5001000000
1.2601000000 1.3713000000 1.0090000000
1.2600000000 5.4321000000 0.2774000000
1.2596000000 2.9446000000 1.8433000000
1.2586000000 3.3323000000 1.7056000000
1.2585000000 3.1073000000 1.7821000000
1.2577000000 2.3037000000 1.6498000000
1.2573000000 5.3793000000 0.3060000000
1.2571000000 4.9408000000 0.6239000000
1.2568000000 1.4647000000 1.0771000000
1.2567000000 4.2277000000 1.1532000000
1.2567000000 3.3514000000 1.6937000000
1.2563000000 2.8098000000 1.8248000000
1.2562000000 3.2541000000 1.7316000000
1.2562000000 5.6993000000 0.0860000000
1.2561000000 3.7180000000 1.5196000000
1.2560000000 2.9186000000 1.8440000000
1.2558000000 3.3374000000 1.7018000000
1.2557000000 5.0845000000 0.5282000000
1.2555000000 4.5142000000 0.9445000000
1.2555000000 5.0070000000 0.5826000000
1.2553000000 1.2362000000 0.9129000000
1.2552000000 0.7776000000 0.5770000000
1.2552000000 5.0821000000 0.5296000000
1.2550000000 5.2561000000 0.4034000000
1.2549000000 0.7308000000 0.5425000000
1.2549000000 4.0505000000 1.2789000000
1.2547000000 0.7568000000 0.5647000000
1.2546000000 4.7926000000 0.7458000000
1.2544000000 0.7291000000 0.5452000000
1.2543000000 0.9452000000 0.7011000000
1.2543000000 1.7588000000 1.2957000000
1.2542000000 0.9405000000 0.6972000000
1.2540000000 1.7694000000 1.2988000000
1.2539000000 2.4159000000 1.6855000000
1.2538000000 0.3580000000 0.2737000000
1.2537000000 4.0814000000 1.2571000000
1.2537000000 5.3460000000 0.3341000000
1.2536000000 0.7264000000 0.5405000000
1.2533000000 5.7892000000 0.0185000000
1.2531000000 2.8084000000 1.8217000000
1.2529000000 0.1427000000 0.1162000000
1.2528000000 3.3643000000 1.6884000000
1.2526000000 5.6111000000 0.1466000000
1.2523000000 0.8930000000 0.6707000000
1.2521000000 4.6301000000 0.8636000000
1.2519000000 0.1642000000 0.1337000000
1.2519000000 4.0628000000 1.2731000000
1.2518000000 3.5701000000 1.6032000000
1.2516000000 3.2674000000 1.7266000000
1.2516000000 0.6776000000 0.5072000000
1.2514000000 4.2442000000 1.1422000000
1.2513000000 4.8551000000 0.6951000000
1.2513000000 3.5785000000 1.5990000000
1.2510000000 0.1946000000 0.1565000000
1.2508000000 0.1679000000 0.1409000000
1.2507000000 3.7232000000 1.5129000000
1.2507000000 5.1503000000 0.4743000000
1.2505000000 2.1752000000 1.5876000000
1.2505000000 0.6911000000 0.5174000000
1.2504000000 1.0128000000 0.7521000000
1.2503000000 1.3400000000 0.9888000000
1.2503000000 0.3006000000 0.2362000000
1.2502000000 2.1678000000 1.5813000000
1.2501000000 4.9681000000 0.6134000000
1.2499000000 1.2337000000 0.9109000000
1.2494000000 0.4513000000 0.3423000000
1.2490000000 0.1381000000 0.1125000000
1.2488000000 1.6999000000 1.2544000000
1.2482000000 0.4243000000 0.3226000000
1.2481000000 0.2378000000 0.1847000000
1.2477000000 1.2028000000 0.8878000000
1.2473000000 0.0647000000 0.0614000000
1.2472000000 5.7237000000 0.0619000000
1.2471000000 5.3422000000 0.3407000000
1.2470000000 1.5138000000 1.1166000000
1.2463000000 2.7301000000 1.7916000000
1.2462000000 5.7829000000 0.0197000000
1.2458000000 0.8470000000 0.6323000000
1.2413000000 1.5344000000 1.1303000000
1.0109000000 0.9017000000 0.6689000000
1.0105000000 2.2148000000 1.4549000000
1.0105000000 5.6362000000 0.1255000000
1.0100000000 2.0802000000 1.4095000000
1.0095000000 2.2550000000 1.4688000000
1.0090000000 4.4553000000 0.9892000000
1.0090000000 0.2593000000 0.2038000000
1.0089000000 4.6904000000 0.8143000000
1.0083000000 5.5002000000 0.2219000000
1.0073000000 5.7408000000 0.0483000000
1.0071000000 5.2179000000 0.4277000000
1.0071000000 4.7095000000 0.8005000000
1.0070000000 4.7315000000 0.7841000000
1.0068000000 4.0728000000 1.2532000000
1.0068000000 4.5872000000 0.8909000000
1.0065000000 2.4085000000 1.5278000000
1.0061000000 4.8200000000 0.7219000000
1.0058000000 5.2352000000 0.4163000000
1.0058000000 3.3267000000 1.5509000000
1.0056000000 2.9032000000 1.6887000000
1.0055000000 3.0488000000 1.6531000000
1.0053000000 3.0300000000 1.6523000000
1.0053000000 2.9490000000 1.6760000000
1.0051000000 5.2910000000 0.3818000000
1.0050000000 0.5456000000 0.4102000000
1.0050000000 5.4327000000 0.2732000000
1.0047000000 2.2506000000 1.4665000000
1.0046000000 3.8112000000 1.3645000000
1.0044000000 3.7827000000 1.3761000000
1.0043000000 4.0607000000 1.2611000000
1.0040000000 5.4023000000 0.2911000000
1.0040000000 0.5559000000 0.4213000000
1.0039000000 3.8523000000 1.3510000000
1.0038000000 3.7978000000 1.3699000000
1.0037000000 2.3733000000 1.5091000000
1.0036000000 5.2741000000 0.3916000000
1.0036000000 3.1054000000 1.6224000000
1.0035000000 5.5729000000 0.1734000000
1.0030000000 0.6623000000 0.4957000000
1.0030000000 5.0281000000 0.5664000000
1.0028000000 4.9936000000 0.5965000000
1.0025000000 1.3855000000 1.0187000000
1.0023000000 0.7298000000 0.5477000000
1.0021000000 4.1350000000 1.2105000000
1.0020000000 1.5004000000 1.1072000000
1.0018000000 0.1789000000 0.1407000000
1.0018000000 4.4712000000 0.9773000000
1.0016000000 5.6710000000 0.0959000000
1.0015000000 0.5729000000 0.4324000000
1.0015000000 5.7245000000 0.0592000000
1.0014000000 1.2637000000 0.9311000000
1.0011000000 3.8250000000 1.3598000000
1.0010000000 3.6346000000 1.4329000000
1.0009000000 2.5229000000 1.5698000000
1.0008000000 1.9218000000 1.3426000000
1.0007000000 5.2353000000 0.4115000000
1.0004000000 5.3490000000 0.3345000000
1.0003000000 3.3393000000 1.5387000000
1.0000000000 4.8988000000 0.6601000000
0.9999000000 1.1521000000 0.8555000000
0.9995000000 0.0409000000 0.0427000000
0.9995000000 1.6511000000 1.2027000000
0.9992000000 4.8349000000 0.7063000000
0.9990000000 3.5625000000 1.4549000000
0.9989000000 0.6261000000 0.4666000000
0.9988000000 1.3178000000 0.9752000000
0.9985000000 0.3563000000 0.2736000000
0.9976000000 2.5440000000 1.5688000000
0.9975000000 4.9851000000 0.5979000000
0.9971000000 4.7033000000 0.8026000000
0.9970000000 1.3508000000 0.9967000000
0.9967000000 1.7531000000 1.2717000000
0.9949000000 3.8437000000 1.3519000000
0.7625000000 4.7891000000 0.7440000000
0.7612000000 3.6783000000 1.2665000000
0.7608000000 1.3386000000 0.9715000000
0.7606000000 3.0480000000 1.4981000000
0.7604000000 2.6742000000 1.4697000000
0.7600000000 3.8886000000 1.1896000000
0.7598000000 2.9244000000 1.5256000000
0.7596000000 3.6150000000 1.2851000000
0.7594000000 4.6579000000 0.8392000000
0.7593000000 1.0246000000 0.7562000000
0.7579000000 2.5074000000 1.4058000000
0.7576000000 2.6327000000 1.4533000000
0.7575000000 4.5435000000 0.9093000000
0.7573000000 5.7036000000 0.0736000000
0.7570000000 5.4366000000 0.2678000000
0.7561000000 0.4476000000 0.3403000000
0.7560000000 3.6423000000 1.2710000000
0.7559000000 4.3341000000 1.0189000000
0.7558000000 0.9666000000 0.7177000000
0.7558000000 4.0205000000 1.1406000000
0.7556000000 3.8797000000 1.1824000000
0.7556000000 1.1085000000 0.8232000000
0.7555000000 3.2778000000 1.4054000000
0.7553000000 2.1674000000 1.2760000000
0.7552000000 0.7244000000 0.5325000000
0.7551000000 2.6425000000 1.4578000000
0.7550000000 5.1824000000 0.4543000000
0.7548000000 1.5654000000 1.0587000000
0.7547000000 0.3335000000 0.2579000000
0.7546000000 2.4940000000 1.3974000000
0.7545000000 1.4725000000 1.0246000000
0.7544000000 0.0799000000 0.0698000000
0.7542000000 1.0830000000 0.8047000000
0.7541000000 0.6603000000 0.5002000000
0.7539000000 2.3599000000 1.3470000000
0.7539000000 3.0382000000 1.4981000000
0.7538000000 1.0734000000 0.7956000000
0.7537000000 0.7535000000 0.5617000000
0.7536000000 4.5555000000 0.9014000000
0.7535000000 1.1573000000 0.8575000000
0.7533000000 4.1017000000 1.1049000000
0.7534000000 2.5051000000 1.4001000000
0.7533000000 0.6105000000 0.4578000000
0.7531000000 5.4016000000 0.3017000000
0.7531000000 3.8983000000 1.1760000000
0.7530000000 2.1689000000 1.2761000000
0.7528000000 0.1037000000 0.0924000000
0.7527000000 1.9524000000 1.1986000000
0.7527000000 2.2761000000 1.3201000000
0.7526000000 4.9572000000 0.6201000000
0.7523000000 4.3016000000 1.0298000000
0.7522000000 0.6388000000 0.4760000000
0.7520000000 4.4917000000 0.9483000000
0.7519000000 4.1208000000 1.0987000000
0.7518000000 1.5509000000 1.0476000000
0.7516000000 2.0496000000 1.2352000000
0.7515000000 0.2053000000 0.1606000000
0.7515000000 2.5199000000 1.4074000000
0.7513000000 4.2223000000 1.0537000000
0.7512000000 2.1303000000 1.2687000000
0.7511000000 0.4049000000 0.3108000000
0.7510000000 1.1473000000 0.8493000000
0.7510000000 3.7135000000 1.2426000000
0.7507000000 2.0022000000 1.2163000000
0.7507000000 1.0061000000 0.7460000000
0.7504000000 0.7281000000 0.5392000000
0.7503000000 3.9757000000 1.1401000000
0.7503000000 2.5439000000 1.4154000000
0.7500000000 1.4969000000 1.0317000000
0.7500000000 5.0243000000 0.5708000000
0.7499000000 0.5470000000 0.4092000000
0.7498000000 5.6038000000 0.1526000000
0.7497000000 1.1737000000 0.8677000000
0.7495000000 0.6720000000 0.5076000000
0.7491000000 4.0069000000 1.1305000000
0.7489000000 0.3838000000 0.2944000000
0.7488000000 5.6709000000 0.1028000000
0.7486000000 1.7552000000 1.1246000000
0.7484000000 2.6354000000 1.4463000000
0.7481000000 0.5638000000 0.4216000000
0.7471000000 3.7052000000 1.2408000000
0.7467000000 0.3808000000 0.2902000000
0.7466000000 5.1465000000 0.4854000000
0.7460000000 0.4960000000 0.3785000000
0.7452000000 2.3773000000 1.3461000000
0.5113000000 3.5602000000 1.1490000000
0.5103000000 2.4277000000 1.2213000000
0.5095000000 2.8652000000 1.3670000000
0.5091000000 4.5198000000 0.8021000000
0.5089000000 2.8151000000 1.3564000000
0.5089000000 4.9155000000 0.6428000000
0.5088000000 2.0417000000 1.0739000000
0.5087000000 1.5350000000 0.8945000000
0.5083000000 2.6057000000 1.2839000000
0.5079000000 5.2098000000 0.4346000000
0.5073000000 4.9574000000 0.6104000000
0.5072000000 0.9705000000 0.6819000000
0.5071000000 2.6142000000 1.2874000000
0.5070000000 4.0446000000 0.9646000000
0.5069000000 3.2314000000 1.2679000000
0.5068000000 1.5059000000 0.8842000000
0.5067000000 1.7193000000 0.9646000000
0.5066000000 5.6550000000 0.1132000000
0.5065000000 1.4252000000 0.8506000000
0.5065000000 3.0503000000 1.3350000000
0.5062000000 3.3764000000 1.2108000000
0.5059000000 4.0136000000 0.9833000000
0.5058000000 3.1632000000 1.2915000000
0.5053000000 2.3386000000 1.1858000000
0.5052000000 1.2502000000 0.7858000000
0.5051000000 3.5854000000 1.1292000000
0.5050000000 5.1227000000 0.4984000000
0.5049000000 2.8096000000 1.3567000000
0.5048000000 4.9975000000 0.5796000000
0.5042000000 1.2770000000 0.7934000000
0.5041000000 4.2966000000 0.8745000000
0.5040000000 5.7362000000 0.0561000000
0.5040000000 0.7100000000 0.5309000000
0.5039000000 4.0673000000 0.9601000000
0.5037000000 0.5275000000 0.3942000000
0.5035000000 5.1416000000 0.4857000000
0.5034000000 1.9744000000 1.0531000000
0.5033000000 5.2110000000 0.4322000000
0.5030000000 1.8679000000 1.0142000000
0.5030000000 0.8809000000 0.6405000000
0.5028000000 3.2308000000 1.2611000000
0.5028000000 2.8281000000 1.3624000000
0.5027000000 2.2027000000 1.1348000000
0.5026000000 3.3728000000 1.2089000000
0.5025000000 3.3423000000 1.2199000000
0.5025000000 1.7537000000 0.9743000000
0.5024000000 0.6606000000 0.5014000000
0.5024000000 0.6225000000 0.4694000000
0.5023000000 4.3698000000 0.8437000000
0.5022000000 0.0035000000 0.0186000000
0.5020000000 3.0735000000 1.3177000000
0.5015000000 2.1658000000 1.1179000000
0.5014000000 0.0284000000 0.0339000000
0.5014000000 0.3349000000 0.2582000000
0.5013000000 5.1485000000 0.4830000000
0.5008000000 0.6323000000 0.4727000000
0.5007000000 4.3777000000 0.8503000000
0.5005000000 4.1248000000 0.9375000000
0.5003000000 1.3475000000 0.8136000000
0.5003000000 2.1725000000 1.1181000000
0.4997000000 1.5889000000 0.9078000000
0.4992000000 0.4520000000 0.3448000000
0.4990000000 3.4389000000 1.1851000000
0.4988000000 1.9434000000 1.0342000000
0.4985000000 0.9363000000 0.6593000000
0.4979000000 0.9847000000 0.6849000000
0.4976000000 1.1295000000 0.7358000000
0.4975000000 1.7390000000 0.9610000000
0.4975000000 0.9958000000 0.6887000000
0.4973000000 2.3933000000 1.2056000000
0.4961000000 2.3254000000 1.1731000000
0.4934000000 0.5206000000 0.3952000000
0.2638000000 0.8612000000 0.4937000000
0.2628000000 5.1672000000 0.4083000000
0.2598000000 5.7856000000 0.0156000000
0.2596000000 4.1334000000 0.7843000000
0.2592000000 2.3617000000 1.0369000000
0.2590000000 4.6764000000 0.5832000000
0.2587000000 0.9373000000 0.5197000000
0.2585000000 4.7918000000 0.5394000000
0.2580000000 5.3891000000 0.2998000000
0.2578000000 3.3578000000 1.0647000000
0.2575000000 5.4856000000 0.2344000000
0.2573000000 5.1316000000 0.4224000000
0.2570000000 5.1095000000 0.4249000000
0.2570000000 4.0803000000 0.8000000000
0.2568000000 5.5823000000 0.1651000000
0.2565000000 1.2324000000 0.6299000000
0.2564000000 1.5857000000 0.7513000000
0.2561000000 5.5450000000 0.1880000000
0.2561000000 1.8242000000 0.8355000000
0.2560000000 3.7587000000 0.9170000000
0.2560000000 5.1599000000 0.4110000000
0.2559000000 2.0003000000 0.8968000000
0.2557000000 0.3234000000 0.2504000000
0.2555000000 1.4944000000 0.7151000000
0.2554000000 1.5643000000 0.7439000000
0.2555000000 5.1248000000 0.4166000000
0.2554000000 5.5348000000 0.1985000000
0.2553000000 3.9968000000 0.8279000000
0.2552000000 5.0534000000 0.4431000000
0.2551000000 4.2823000000 0.7256000000
0.2549000000 2.7282000000 1.1653000000
0.2549000000 2.8646000000 1.2083000000
0.2548000000 3.6914000000 0.9395000000
0.2548000000 3.4641000000 1.0260000000
0.2546000000 3.4298000000 1.0290000000
0.2545000000 1.2823000000 0.6388000000
0.2543000000 4.8616000000 0.5116000000
0.2543000000 3.2886000000 1.0898000000
0.2540000000 4.3267000000 0.7071000000
0.2539000000 0.6293000000 0.4005000000
0.2538000000 3.3902000000 1.0459000000
0.2537000000 1.3362000000 0.6593000000
0.2537000000 5.5502000000 0.1897000000
0.2533000000 5.5538000000 0.1811000000
0.2529000000 3.1851000000 1.1196000000
0.2528000000 5.5050000000 0.2251000000
0.2526000000 2.5372000000 1.0949000000
0.2524000000 3.4991000000 1.0083000000
0.2521000000 3.3941000000 1.0512000000
0.2518000000 0.8867000000 0.4972000000
0.2517000000 2.5660000000 1.1078000000
0.2515000000 2.0080000000 0.9009000000
0.2515000000 2.1042000000 0.9381000000
0.2514000000 0.3125000000 0.2427000000
0.2513000000 2.7563000000 1.1742000000
0.2512000000 5.1028000000 0.4212000000
0.2510000000 0.4112000000 0.2965000000
0.2510000000 2.8703000000 1.1996000000
0.2507000000 3.4474000000 1.0242000000
0.2506000000 1.5643000000 0.7368000000
0.2505000000 0.4430000000 0.3259000000
0.2503000000 2.8056000000 1.1932000000
0.2496000000 2.7883000000 1.1904000000
0.2493000000 3.4763000000 1.0171000000
0.2493000000 3.8656000000 0.8745000000
0.2491000000 2.3332000000 1.0182000000
0.2486000000 0.6010000000 0.3904000000
0.2484000000 0.7008000000 0.4263000000
0.2481000000 0.0054000000 0.0179000000
0.2480000000 0.9699000000 0.5280000000
0.2476000000 4.3568000000 0.6936000000
0.2472000000 4.1162000000 0.7779000000
0.2472000000 4.7945000000 0.5388000000
0.2440000000 1.4269000000 0.6896000000
0.2420000000 1.5461000000 0.7263000000
0.0129000000 5.4216000000 0.1553000000
0.0106000000 4.8040000000 0.3777000000
0.0092000000 5.5876000000 0.0938000000
0.0090000000 5.7692000000 0.0168000000
0.0089000000 1.3172000000 0.5029000000
0.0085000000 3.4744000000 0.8626000000
0.0083000000 4.8685000000 0.3487000000
0.0083000000 2.2871000000 0.8522000000
0.0083000000 2.8442000000 1.0556000000
0.0080000000 1.8867000000 0.7051000000
0.0079000000 3.0209000000 1.0287000000
0.0077000000 5.5864000000 0.0928000000
0.0072000000 1.9808000000 0.7389000000
0.0068000000 3.1422000000 0.9827000000
0.0065000000 1.4324000000 0.5378000000
0.0064000000 2.0712000000 0.7738000000
0.0063000000 1.2283000000 0.4665000000
0.0062000000 1.6899000000 0.6347000000
0.0061000000 0.8902000000 0.3413000000
0.0060000000 3.6365000000 0.8019000000
0.0060000000 5.6854000000 0.0483000000
0.0058000000 4.0410000000 0.6565000000
0.0057000000 3.3025000000 0.9200000000
0.0055000000 2.7464000000 1.0142000000
0.0055000000 1.1139000000 0.4193000000
0.0054000000 1.3047000000 0.4938000000
0.0049000000 4.9601000000 0.3202000000
0.0048000000 2.8205000000 1.0433000000
0.0047000000 5.0654000000 0.2799000000
0.0046000000 0.6725000000 0.2568000000
0.0044000000 0.8544000000 0.3297000000
0.0043000000 0.2106000000 0.0932000000
0.0042000000 0.4034000000 0.1642000000
0.0041000000 5.6546000000 0.0646000000
0.0040000000 1.1833000000 0.4503000000
0.0040000000 0.6696000000 0.2589000000
0.0039000000 2.3332000000 0.8630000000
0.0038000000 0.3379000000 0.1410000000
0.0038000000 2.5431000000 0.9435000000
0.0037000000 2.6576000000 0.9854000000
0.0034000000 4.7899000000 0.3854000000
0.0033000000 1.5830000000 0.5968000000
0.0033000000 4.6761000000 0.4189000000
0.0029000000 1.2525000000 0.4713000000
0.0025000000 2.2872000000 0.8453000000
0.0024000000 0.4651000000 0.1842000000
0.0023000000 5.5507000000 0.1039000000
0.0022000000 3.1392000000 0.9781000000
0.0020000000 2.3483000000 0.8721000000
0.0019000000 1.0146000000 0.3883000000
0.0018000000 0.8621000000 0.3275000000
0.0016000000 0.5601000000 0.2157000000
0.0010000000 3.8506000000 0.7141000000
0.0009000000 2.0700000000 0.7719000000
0.0008000000 3.8091000000 0.7382000000
0.0006000000 5.4929000000 0.1261000000
0.0005000000 0.4752000000 0.1878000000
0.0003000000 4.0937000000 0.6325000000
0.0003000000 2.9523000000 1.0416000000
0.0002000000 1.9937000000 0.7439000000
0.0000000000 0.7882000000 0.2958000000
-0.0000000000 2.3043000000 0.8507000000
-0.0001000000 1.3857000000 0.5212000000
-0.0002000000 1.7831000000 0.6650000000
-0.0002000000 1.8038000000 0.6684000000
-0.0005000000 1.8545000000 0.6915000000
-0.0009000000 0.2102000000 0.0910000000
-0.0016000000 3.5947000000 0.8131000000
-0.0030000000 3.1581000000 0.9744000000
-0.0030000000 1.5630000000 0.5814000000
-0.0033000000 0.8559000000 0.3214000000
-0.2382000000 4.2083000000 0.4399000000
-0.2405000000 2.6587000000 0.8309000000
-0.2410000000 0.7505000000 0.1383000000
-0.2415000000 2.5383000000 0.7878000000
-0.2419000000 4.6425000000 0.2825000000
-0.2422000000 4.3723000000 0.3744000000
-0.2425000000 3.4831000000 0.7022000000
-0.2428000000 2.1804000000 0.6530000000
-0.2430000000 4.8106000000 0.2176000000
-0.2430000000 1.8327000000 0.5286000000
-0.2433000000 3.3872000000 0.7365000000
-0.2434000000 2.5766000000 0.8014000000
-0.2435000000 3.5938000000 0.6569000000
-0.2437000000 2.3187000000 0.7039000000
-0.2438000000 3.7349000000 0.6080000000
-0.2439000000 0.8327000000 0.1666000000
-0.2440000000 4.1882000000 0.4464000000
-0.2441000000 2.8580000000 0.8807000000
-0.2441000000 0.4897000000 0.0355000000
-0.2444000000 4.1378000000 0.4593000000
-0.2445000000 2.3865000000 0.7275000000
-0.2446000000 3.7594000000 0.6037000000
-0.2447000000 1.4506000000 0.3837000000
-0.2449000000 3.1236000000 0.8259000000
-0.2450000000 5.2095000000 0.0714000000
-0.2452000000 2.7026000000 0.8437000000
-0.2451000000 2.6087000000 0.8074000000
-0.2453000000 5.2663000000 0.0483000000
-0.2453000000 2.7463000000 0.8539000000
-0.2454000000 5.1512000000 0.0929000000
-0.2455000000 2.5544000000 0.7927000000
-0.2454000000 2.4547000000 0.7548000000
-0.2456000000 3.8944000000 0.5460000000
-0.2457000000 4.0086000000 0.5072000000
-0.2457000000 3.1168000000 0.8341000000
-0.2463000000 0.7270000000 0.1214000000
-0.2465000000 3.3827000000 0.7393000000
-0.2466000000 3.5971000000 0.6577000000
-0.2467000000 2.9145000000 0.8977000000
-0.2469000000 4.5061000000 0.3219000000
-0.2471000000 2.7620000000 0.8591000000
-0.2470000000 1.0898000000 0.2513000000
-0.2473000000 2.5515000000 0.7861000000
-0.2474000000 4.3372000000 0.3861000000
-0.2475000000 5.4888000000 0.0399000000
-0.2475000000 2.5039000000 0.7704000000
-0.2476000000 2.1668000000 0.6443000000
-0.2478000000 3.9738000000 0.5193000000
-0.2480000000 1.2986000000 0.3297000000
-0.2481000000 1.0648000000 0.2422000000
-0.2482000000 2.4995000000 0.7675000000
-0.2483000000 2.6137000000 0.8034000000
-0.2484000000 5.3329000000 0.0198000000
-0.2485000000 1.6392000000 0.4568000000
-0.2488000000 3.6235000000 0.6539000000
-0.2490000000 4.4899000000 0.3321000000
