5.2594000000 2.6071000000 0.1768000000
5.2590000000 2.2502000000 0.0915000000
5.2587000000 3.8016000000 0.4354000000
5.2584000000 3.6117000000 0.5227000000
5.2582000000 3.6427000000 0.5076000000
5.2578000000 3.7034000000 0.4780000000
5.2566000000 2.9794000000 0.3488000000
5.2565000000 3.9781000000 0.3586000000
5.2560000000 3.6096000000 0.5283000000
5.2559000000 4.6452000000 0.1302000000
5.2553000000 2.4325000000 0.1002000000
5.2544000000 2.2377000000 0.0890000000
5.2538000000 3.4351000000 0.5518000000
5.2535000000 3.8708000000 0.4090000000
5.2529000000 5.0228000000 0.0409000000
5.2528000000 2.4942000000 0.1243000000
5.2527000000 2.4671000000 0.1179000000
5.2517000000 4.7856000000 0.0711000000
5.2513000000 2.7740000000 0.2597000000
5.2504000000 2.0966000000 0.0265000000
5.2495000000 2.5293000000 0.1482000000
5.2481000000 3.0874000000 0.4067000000
5.0119000000 3.8601000000 0.6053000000
5.0108000000 3.7712000000 0.6489000000
5.0091000000 4.5431000000 0.2959000000
5.0085000000 1.7840000000 0.0737000000
5.0075000000 4.1923000000 0.4592000000
5.0073000000 5.3562000000 0.0803000000
5.0069000000 1.4527000000 0.0057000000
5.0068000000 1.4725000000 0.0087000000
5.0064000000 3.8833000000 0.6004000000
5.0063000000 3.9967000000 0.5468000000
5.0058000000 3.4508000000 0.8217000000
5.0054000000 4.3569000000 0.3839000000
5.0050000000 1.8171000000 0.0897000000
5.0048000000 3.6191000000 0.7211000000
5.0043000000 1.5505000000 0.0398000000
5.0038000000 4.5154000000 0.3171000000
5.0036000000 2.1919000000 0.1868000000
5.0025000000 5.5169000000 0.0091000000
5.0023000000 2.5305000000 0.3411000000
5.0018000000 2.0094000000 0.1052000000
5.0016000000 2.4668000000 0.3196000000
5.0015000000 3.3746000000 0.7278000000
5.0010000000 3.0504000000 0.5740000000
5.0008000000 4.0997000000 0.5030000000
4.9998000000 3.2036000000 0.6467000000
4.9995000000 3.0102000000 0.5634000000
4.9985000000 2.9274000000 0.5280000000
4.9983000000 4.2136000000 0.4574000000
4.9965000000 5.2876000000 0.0422000000
4.7629000000 5.3788000000 0.1086000000
4.7621000000 5.4723000000 0.1444000000
4.7616000000 4.8600000000 0.3502000000
4.7603000000 1.9097000000 0.2531000000
4.7591000000 5.5800000000 0.0945000000
4.7580000000 5.4265000000 0.0919000000
4.7573000000 1.5715000000 0.1011000000
4.7568000000 4.8222000000 0.3631000000
4.7567000000 3.7020000000 0.8777000000
4.7563000000 2.0718000000 0.3279000000
4.7560000000 1.1048000000 0.0404000000
4.7558000000 5.5350000000 0.1240000000
4.7556000000 5.9568000000 0.0088000000
4.7553000000 1.9856000000 0.2898000000
4.7552000000 4.3465000000 0.5878000000
4.7545000000 3.6426000000 0.9082000000
4.7541000000 5.1860000000 0.2081000000
4.7539000000 3.5491000000 0.9464000000
4.7538000000 4.9655000000 0.3049000000
4.7536000000 5.7031000000 0.0492000000
4.7535000000 2.9911000000 0.7443000000
4.7533000000 1.6767000000 0.1526000000
4.7532000000 1.7128000000 0.1654000000
4.7530000000 1.7201000000 0.1688000000
4.7527000000 3.1388000000 0.8128000000
4.7524000000 1.3140000000 0.0612000000
4.7523000000 3.1266000000 0.8133000000
4.7518000000 3.3670000000 0.9219000000
4.7510000000 3.3582000000 0.9235000000
4.7509000000 2.6276000000 0.5877000000
4.7500000000 2.8494000000 0.6855000000
4.7497000000 3.3369000000 0.9082000000
4.7485000000 2.4830000000 0.5222000000
4.7478000000 3.0361000000 0.7729000000
4.7475000000 2.3355000000 0.4526000000
4.5111000000 5.7205000000 0.1514000000
4.5100000000 5.8336000000 0.1002000000
4.5093000000 4.3157000000 0.7928000000
4.5086000000 4.9668000000 0.5071000000
4.5085000000 4.3316000000 0.7826000000
4.5081000000 3.4523000000 1.2118000000
4.5075000000 5.8768000000 0.0829000000
4.5070000000 2.2130000000 0.5871000000
4.5068000000 4.3427000000 0.7870000000
4.5065000000 1.9631000000 0.4771000000
4.5064000000 6.0452000000 0.0835000000
4.5063000000 2.5661000000 0.7488000000
4.5061000000 5.8058000000 0.1195000000
4.5060000000 2.6207000000 0.7728000000
4.5056000000 1.1129000000 0.0927000000
4.5055000000 3.0636000000 0.9848000000
4.5053000000 1.4091000000 0.2239000000
4.5050000000 1.4127000000 0.2236000000
4.5049000000 3.1000000000 0.9870000000
4.5046000000 5.2238000000 0.3854000000
4.5043000000 2.7880000000 0.8475000000
4.5041000000 0.9081000000 0.0801000000
4.5035000000 1.2494000000 0.1558000000
4.5033000000 6.0799000000 0.0753000000
4.5031000000 6.0085000000 0.1069000000
4.5029000000 3.1514000000 1.0155000000
4.5027000000 1.2548000000 0.1630000000
4.5025000000 3.3329000000 1.1018000000
4.5024000000 3.8486000000 1.0095000000
4.5022000000 1.8751000000 0.4416000000
4.5020000000 5.6924000000 0.1728000000
4.5018000000 1.9860000000 0.4937000000
4.5017000000 1.1845000000 0.1293000000
4.5010000000 1.6760000000 0.3520000000
4.5008000000 1.8556000000 0.4330000000
4.5005000000 3.8036000000 1.0346000000
4.5004000000 0.6308000000 0.0304000000
4.5003000000 1.8599000000 0.4338000000
4.5000000000 4.2777000000 0.8146000000
4.4993000000 5.9280000000 0.1450000000
4.4990000000 2.3222000000 0.6419000000
4.4986000000 3.2073000000 1.0523000000
4.4978000000 4.9148000000 0.5317000000
4.2622000000 3.4492000000 1.4002000000
4.2599000000 3.9015000000 1.1737000000
4.2595000000 4.6768000000 0.8246000000
4.2590000000 5.4452000000 0.4799000000
4.2587000000 4.0086000000 1.1259000000
4.2582000000 2.8457000000 1.0766000000
4.2577000000 0.2979000000 0.0647000000
4.2575000000 6.0642000000 0.2000000000
4.2565000000 3.0513000000 1.1660000000
4.2561000000 5.1423000000 0.6135000000
4.2559000000 5.1028000000 0.6387000000
4.2557000000 6.0873000000 0.1819000000
4.2556000000 3.1997000000 1.2354000000
4.2555000000 4.2445000000 1.0240000000
4.2551000000 3.3201000000 1.2877000000
4.2550000000 5.5555000000 0.4297000000
4.2549000000 4.9669000000 0.6956000000
4.2544000000 2.5506000000 0.9416000000
4.2542000000 3.3345000000 1.2943000000
4.2541000000 2.7278000000 1.0198000000
4.2538000000 2.5180000000 0.9241000000
4.2537000000 0.3041000000 0.0688000000
4.2535000000 2.5044000000 0.9203000000
4.2534000000 6.4680000000 0.0927000000
4.2533000000 2.1677000000 0.7626000000
4.2528000000 1.8817000000 0.6378000000
4.2528000000 3.7387000000 1.2508000000
4.2526000000 6.0892000000 0.1907000000
4.2524000000 6.5762000000 0.0456000000
4.2520000000 2.0093000000 0.6975000000
4.2518000000 4.3312000000 0.9924000000
4.2513000000 4.4056000000 0.9585000000
4.2508000000 1.3912000000 0.4160000000
4.2507000000 0.6837000000 0.0978000000
4.2505000000 0.4392000000 0.0589000000
4.2499000000 0.8338000000 0.1686000000
4.2498000000 4.3854000000 0.9653000000
4.2493000000 6.0089000000 0.2279000000
4.2487000000 5.9395000000 0.2633000000
4.2479000000 0.7531000000 0.1296000000
4.2468000000 2.6897000000 1.0105000000
4.2437000000 0.5384000000 0.1089000000
4.0137000000 1.9185000000 0.8408000000
4.0111000000 6.3839000000 0.2455000000
4.0107000000 6.3093000000 0.2829000000
4.0100000000 5.8590000000 0.4887000000
4.0090000000 4.8111000000 0.9669000000
4.0087000000 4.3444000000 1.1763000000
4.0084000000 3.1724000000 1.4221000000
4.0081000000 6.0956000000 0.3789000000
4.0079000000 5.2445000000 0.7659000000
4.0077000000 3.3141000000 1.4827000000
4.0075000000 2.8255000000 1.2578000000
4.0072000000 2.9939000000 1.3327000000
4.0070000000 2.5979000000 1.1553000000
4.0066000000 5.1254000000 0.8228000000
4.0065000000 3.3375000000 1.4965000000
4.0064000000 6.3676000000 0.2636000000
4.0063000000 1.3296000000 0.5821000000
4.0061000000 2.8361000000 1.2578000000
4.0060000000 5.8130000000 0.5066000000
4.0058000000 5.8510000000 0.4903000000
4.0053000000 5.3236000000 0.7302000000
4.0051000000 2.2855000000 1.0138000000
4.0048000000 4.0282000000 1.3211000000
4.0045000000 2.4474000000 1.0915000000
4.0044000000 0.9331000000 0.4033000000
4.0043000000 2.9912000000 1.3347000000
4.0040000000 6.3353000000 0.2770000000
4.0039000000 0.6359000000 0.2609000000
4.0038000000 4.8132000000 0.9584000000
4.0036000000 5.5959000000 0.6113000000
4.0035000000 3.0207000000 1.3501000000
4.0034000000 2.4931000000 1.1144000000
4.0032000000 0.8425000000 0.3658000000
4.0028000000 4.8245000000 0.9617000000
4.0025000000 3.7307000000 1.4567000000
4.0024000000 1.9525000000 0.8718000000
4.0023000000 4.6019000000 1.0623000000
4.0018000000 0.5327000000 0.2208000000
4.0017000000 2.8048000000 1.2516000000
4.0014000000 0.8555000000 0.3730000000
4.0013000000 5.0877000000 0.8431000000
4.0009000000 0.4582000000 0.1895000000
4.0007000000 0.2256000000 0.0888000000
4.0000000000 1.0516000000 0.4597000000
3.9999000000 5.7417000000 0.5472000000
3.9997000000 4.6122000000 1.0587000000
3.9995000000 2.9612000000 1.3258000000
3.9993000000 0.0115000000 0.0291000000
3.9977000000 2.0719000000 0.9287000000
3.9967000000 1.7697000000 0.7888000000
3.9958000000 5.0852000000 0.8474000000
3.7621000000 2.1720000000 1.1573000000
3.7613000000 3.0843000000 1.5729000000
3.7610000000 5.4700000000 0.8557000000
3.7603000000 5.1120000000 1.0208000000
3.7596000000 4.6448000000 1.2309000000
3.7590000000 4.1546000000 1.4578000000
3.7589000000 6.1595000000 0.5440000000
3.7585000000 1.3865000000 0.8018000000
3.7581000000 3.1787000000 1.6143000000
3.7580000000 5.6829000000 0.7566000000
3.7576000000 0.9971000000 0.6273000000
3.7570000000 3.2585000000 1.6512000000
3.7570000000 5.9593000000 0.6349000000
3.7567000000 0.9516000000 0.6112000000
3.7565000000 5.6415000000 0.7813000000
3.7561000000 0.7645000000 0.5243000000
3.7559000000 6.0252000000 0.6153000000
3.7557000000 5.7512000000 0.7344000000
3.7555000000 6.9415000000 0.0771000000
3.7555000000 5.5697000000 0.8172000000
3.7550000000 1.5637000000 0.8841000000
3.7549000000 0.9996000000 0.6331000000
3.7547000000 1.9523000000 1.0659000000
3.7544000000 4.8700000000 1.1419000000
3.7543000000 5.7011000000 0.7643000000
3.7541000000 1.3761000000 0.8008000000
3.7537000000 3.1166000000 1.5944000000
3.7535000000 3.4420000000 1.8014000000
3.7532000000 3.3038000000 1.6830000000
3.7530000000 4.8923000000 1.1273000000
3.7525000000 6.9306000000 0.0855000000
3.7523000000 5.0568000000 1.0487000000
3.7523000000 3.3848000000 1.7192000000
3.7521000000 1.6967000000 0.9548000000
3.7517000000 2.9561000000 1.5195000000
3.7514000000 2.0493000000 1.1104000000
3.7508000000 5.3075000000 0.9416000000
3.7503000000 4.4395000000 1.3304000000
3.7500000000 1.3329000000 0.7866000000
3.7497000000 0.2786000000 0.2115000000
3.7492000000 6.5279000000 0.3606000000
3.7485000000 0.4265000000 0.4039000000
3.7484000000 4.7544000000 1.1913000000
3.7479000000 1.0362000000 0.6499000000
3.7465000000 2.9628000000 1.5301000000
3.7458000000 1.7310000000 0.9690000000
3.7456000000 2.2067000000 1.1866000000
3.5177000000 2.4245000000 1.4641000000
3.5122000000 2.8636000000 1.6650000000
3.5113000000 6.5366000000 0.3645000000
3.5095000000 0.0656000000 0.0948000000
3.5087000000 6.6089000000 0.3023000000
3.5084000000 5.6352000000 0.9801000000
3.5082000000 6.2188000000 0.6523000000
3.5080000000 1.6288000000 1.1090000000
3.5077000000 5.6365000000 0.9779000000
3.5075000000 3.4001000000 1.9127000000
3.5074000000 5.6406000000 0.9780000000
3.5071000000 1.9471000000 1.2481000000
3.5068000000 4.2109000000 1.6331000000
3.5067000000 2.2030000000 1.3696000000
3.5064000000 5.9749000000 0.8232000000
3.5063000000 6.6373000000 0.2722000000
3.5059000000 6.1031000000 0.7433000000
3.5056000000 4.3645000000 1.5584000000
3.5053000000 6.0211000000 0.7974000000
3.5050000000 4.6334000000 1.4338000000
3.5048000000 4.5615000000 1.4679000000
3.5048000000 5.9329000000 0.8515000000
3.5044000000 4.2717000000 1.6004000000
3.5043000000 3.0402000000 1.7528000000
3.5040000000 4.0366000000 1.7078000000
3.5038000000 3.2613000000 1.8596000000
3.5036000000 3.4565000000 2.0023000000
3.5035000000 2.7236000000 1.6055000000
3.5034000000 3.1272000000 1.7877000000
3.5032000000 4.4141000000 1.5321000000
3.5030000000 1.2373000000 0.9296000000
3.5028000000 6.0497000000 0.7886000000
3.5026000000 3.2316000000 1.8428000000
3.5024000000 5.6148000000 0.9983000000
3.5023000000 2.5135000000 1.5180000000
3.5022000000 0.9568000000 0.8737000000
3.5019000000 0.0574000000 0.0841000000
3.5015000000 1.7317000000 1.1637000000
3.5013000000 5.3250000000 1.1250000000
3.5011000000 0.9597000000 0.8719000000
3.5008000000 1.5061000000 1.0553000000
3.5007000000 5.7308000000 0.9421000000
3.5003000000 6.8640000000 0.1449000000
3.5000000000 2.7472000000 1.6257000000
3.4998000000 1.1357000000 0.8920000000
3.4988000000 0.3105000000 0.2411000000
3.4979000000 1.7137000000 1.1526000000
3.4974000000 0.0338000000 0.0725000000
3.2644000000 6.3988000000 0.4949000000
3.2618000000 6.9994000000 0.0208000000
3.2600000000 2.1820000000 1.5542000000
3.2599000000 6.4562000000 0.4385000000
3.2588000000 0.9370000000 0.8067000000
3.2584000000 3.1421000000 1.9911000000
3.2582000000 4.0835000000 1.8862000000
3.2575000000 5.4470000000 1.2657000000
3.2573000000 2.8778000000 1.8745000000
3.2572000000 6.2853000000 0.5962000000
3.2571000000 2.7516000000 1.8121000000
3.2568000000 5.9822000000 0.8709000000
3.2567000000 3.3602000000 2.0905000000
3.2566000000 5.5265000000 1.2306000000
3.2565000000 4.1845000000 1.8389000000
3.2561000000 2.5831000000 1.7416000000
3.2559000000 2.3406000000 1.6323000000
3.2556000000 5.4459000000 1.2691000000
3.2555000000 5.3869000000 1.2931000000
3.2554000000 4.5327000000 1.6882000000
3.2552000000 0.7400000000 0.6339000000
3.2551000000 6.4282000000 0.4653000000
3.2550000000 4.1315000000 1.8620000000
3.2548000000 6.1299000000 0.7330000000
3.2547000000 1.5424000000 1.2672000000
3.2544000000 6.5267000000 0.3738000000
3.2542000000 6.0955000000 0.7664000000
3.2540000000 3.7575000000 2.0289000000
3.2537000000 4.0884000000 1.8892000000
3.2536000000 4.5535000000 1.6705000000
3.2535000000 6.4108000000 0.4798000000
3.2533000000 1.7256000000 1.3533000000
3.2530000000 0.5212000000 0.4277000000
3.2528000000 4.2440000000 1.8157000000
3.2527000000 1.6349000000 1.3137000000
3.2524000000 0.5658000000 0.4744000000
3.2522000000 4.3531000000 1.7630000000
3.2520000000 5.8050000000 1.0277000000
3.2519000000 3.5590000000 2.1259000000
3.2515000000 0.0404000000 0.0743000000
3.2514000000 2.7008000000 1.7993000000
3.2509000000 0.4990000000 0.4067000000
3.2503000000 5.1581000000 1.3964000000
3.2501000000 1.5210000000 1.2640000000
3.2497000000 2.1547000000 1.5482000000
3.2494000000 1.9206000000 1.4439000000
3.2491000000 3.6255000000 2.1037000000
3.2488000000 3.5969000000 2.1107000000
3.2484000000 6.7887000000 0.1370000000
3.2481000000 3.6576000000 2.0842000000
3.2473000000 1.1640000000 1.0137000000
3.2471000000 1.8816000000 1.4289000000
3.2444000000 2.8954000000 1.8946000000
3.0118000000 4.7618000000 1.7678000000
3.0117000000 4.0396000000 2.0965000000
3.0108000000 3.8871000000 2.1745000000
3.0102000000 0.8627000000 0.7388000000
3.0096000000 4.2519000000 2.0025000000
3.0093000000 5.9165000000 0.9206000000
3.0090000000 5.2786000000 1.4914000000
3.0085000000 6.0598000000 0.7986000000
3.0080000000 1.7372000000 1.6008000000
3.0077000000 4.9232000000 1.6940000000
3.0075000000 4.4100000000 1.9256000000
3.0071000000 3.3273000000 2.2700000000
3.0070000000 4.0512000000 2.0897000000
3.0068000000 4.8064000000 1.7495000000
3.0065000000 2.6578000000 1.9717000000
3.0062000000 5.2472000000 1.5153000000
3.0061000000 2.3781000000 1.8443000000
3.0059000000 6.7580000000 0.1621000000
3.0056000000 0.4712000000 0.3867000000
3.0055000000 5.4825000000 1.3221000000
3.0053000000 6.1298000000 0.7370000000
3.0051000000 3.2337000000 2.2300000000
3.0050000000 1.4434000000 1.2687000000
3.0049000000 4.2511000000 2.0040000000
3.0047000000 3.0137000000 2.1328000000
3.0044000000 2.2871000000 1.7992000000
3.0043000000 6.2071000000 0.6669000000
3.0041000000 6.6146000000 0.2912000000
3.0038000000 5.1672000000 1.5765000000
3.0036000000 0.8247000000 0.7030000000
3.0035000000 6.0099000000 0.8442000000
3.0034000000 3.9176000000 2.1621000000
3.0033000000 2.7067000000 1.9951000000
3.0030000000 3.5354000000 2.3204000000
3.0029000000 0.7993000000 0.6765000000
3.0029000000 1.1167000000 0.9691000000
3.0028000000 5.1432000000 1.5905000000
3.0024000000 6.2038000000 0.6631000000
3.0021000000 5.8185000000 1.0197000000
3.0020000000 1.0255000000 0.8892000000
3.0017000000 1.8331000000 1.6616000000
3.0016000000 1.5941000000 1.4020000000
3.0014000000 5.5527000000 1.2546000000
3.0014000000 0.2237000000 0.1654000000
3.0013000000 2.6962000000 1.9951000000
3.0006000000 0.7991000000 0.6815000000
3.0005000000 0.8870000000 0.7640000000
3.0003000000 3.4452000000 2.3940000000
3.0001000000 4.0471000000 2.1009000000
2.9998000000 0.9792000000 0.8503000000
2.9997000000 2.0290000000 1.6912000000
2.9995000000 5.4809000000 1.3232000000
2.9988000000 2.1219000000 1.7288000000
2.9985000000 2.9361000000 2.1078000000
2.9976000000 6.7530000000 0.1693000000
2.9969000000 0.1735000000 0.1201000000
2.7638000000 6.3915000000 0.4974000000
2.7612000000 4.0452000000 2.2922000000
2.7596000000 6.2801000000 0.5955000000
2.7590000000 3.5174000000 2.5923000000
2.7589000000 5.7789000000 1.0525000000
2.7583000000 0.9991000000 0.8649000000
2.7576000000 3.9642000000 2.3336000000
2.7575000000 2.6390000000 2.1564000000
2.7571000000 1.7284000000 1.5286000000
2.7569000000 5.1772000000 1.6005000000
2.7566000000 3.4505000000 2.5874000000
2.7563000000 3.5703000000 2.5184000000
2.7561000000 5.0643000000 1.7053000000
2.7559000000 0.6098000000 0.5103000000
2.7556000000 0.5790000000 0.4919000000
2.7554000000 3.4288000000 2.5124000000
2.7552000000 6.1957000000 0.6670000000
2.7551000000 5.6583000000 1.1628000000
2.7550000000 6.7873000000 0.1390000000
2.7549000000 0.0399000000 0.0713000000
2.7548000000 1.1764000000 1.0270000000
2.7546000000 2.2488000000 2.0445000000
2.7543000000 0.5764000000 0.4777000000
2.7542000000 4.7932000000 1.9356000000
2.7540000000 5.6144000000 1.1963000000
2.7538000000 0.2924000000 0.2208000000
2.7537000000 2.6489000000 2.1666000000
2.7536000000 0.1789000000 0.1227000000
2.7531000000 5.8079000000 1.0216000000
2.7530000000 6.2829000000 0.5899000000
2.7529000000 1.1704000000 1.0248000000
2.7527000000 0.0636000000 0.0963000000
2.7525000000 0.8708000000 0.7481000000
2.7524000000 1.6366000000 1.4441000000
2.7522000000 1.7279000000 1.5316000000
2.7518000000 0.2817000000 0.2098000000
2.7514000000 0.3149000000 0.2397000000
2.7511000000 5.4208000000 1.3783000000
2.7510000000 1.6998000000 1.5015000000
2.7508000000 1.8590000000 1.6478000000
2.7505000000 5.2499000000 1.5329000000
2.7501000000 3.9755000000 2.3271000000
2.7500000000 0.5229000000 0.4300000000
2.7493000000 2.2342000000 2.0406000000
2.7490000000 1.8481000000 1.6378000000
2.7482000000 4.5540000000 2.0667000000
2.7479000000 1.6676000000 1.4740000000
2.7467000000 0.3912000000 0.3140000000
2.7460000000 2.5087000000 2.1083000000
2.5125000000 1.6168000000 1.4229000000
2.5116000000 3.8372000000 2.5832000000
2.5104000000 5.2288000000 1.5537000000
2.5096000000 0.9870000000 0.8534000000
2.5080000000 4.0334000000 2.4949000000
2.5078000000 0.8789000000 0.7536000000
2.5077000000 5.4090000000 1.3870000000
2.5073000000 6.9068000000 0.1070000000
2.5068000000 4.2312000000 2.4062000000
2.5068000000 0.3580000000 0.2844000000
2.5064000000 5.3992000000 1.3971000000
2.5062000000 5.4328000000 1.3649000000
2.5061000000 2.8653000000 2.4592000000
2.5058000000 2.3898000000 2.1302000000
2.5057000000 2.2082000000 1.9617000000
2.5053000000 5.0199000000 1.7425000000
2.5050000000 4.5180000000 2.1989000000
2.5049000000 1.1560000000 1.0111000000
2.5046000000 4.2169000000 2.4154000000
2.5044000000 3.5517000000 2.7173000000
2.5043000000 6.6181000000 0.2889000000
2.5043000000 4.2334000000 2.3983000000
2.5040000000 5.0450000000 1.7214000000
2.5038000000 4.2934000000 2.3643000000
2.5035000000 2.0842000000 1.8517000000
2.5034000000 3.6870000000 2.6567000000
2.5033000000 4.2290000000 2.4084000000
2.5032000000 4.0278000000 2.5047000000
2.5031000000 5.5881000000 1.2313000000
2.5029000000 0.6007000000 0.5086000000
2.5028000000 2.6068000000 2.3876000000
2.5023000000 0.3282000000 0.2529000000
2.5021000000 4.6429000000 2.0837000000
2.5019000000 0.6297000000 0.5307000000
2.5018000000 3.2438000000 2.6337000000
2.5016000000 2.7727000000 2.4249000000
2.5015000000 1.6746000000 1.4795000000
2.5013000000 2.8163000000 2.4405000000
2.5003000000 1.3987000000 1.2303000000
2.5003000000 4.8020000000 1.9343000000
2.5001000000 0.5240000000 0.4328000000
2.4999000000 1.6724000000 1.4769000000
2.4994000000 0.3906000000 0.3138000000
2.4974000000 2.1063000000 1.8761000000
2.4954000000 0.2859000000 0.2174000000
2.2601000000 6.0798000000 0.7792000000
2.2600000000 5.7627000000 1.0683000000
2.2587000000 5.3400000000 1.4518000000
2.2586000000 6.2739000000 0.6043000000
2.2580000000 3.5033000000 2.9917000000
2.2575000000 3.2859000000 2.8479000000
2.2574000000 4.4432000000 2.2738000000
2.2569000000 5.0380000000 1.7256000000
2.2565000000 6.6515000000 0.2567000000
2.2563000000 5.6975000000 1.1268000000
2.2558000000 4.7661000000 1.9710000000
2.2556000000 6.8704000000 0.1378000000
2.2555000000 3.6696000000 2.8590000000
2.2552000000 2.7763000000 2.4815000000
2.2550000000 4.4444000000 2.2656000000
2.2549000000 3.7825000000 2.8104000000
2.2547000000 4.9493000000 1.8010000000
2.2545000000 5.4708000000 1.3314000000
2.2540000000 2.8147000000 2.5146000000
2.2539000000 1.9046000000 1.6886000000
2.2538000000 5.4723000000 1.3303000000
2.2536000000 4.0570000000 2.6173000000
2.2535000000 2.4985000000 2.2262000000
2.2531000000 3.1570000000 2.8498000000
2.2530000000 3.2894000000 2.8490000000
2.2529000000 5.0376000000 1.7298000000
2.2524000000 3.2570000000 2.8364000000
2.2522000000 3.8929000000 2.7492000000
2.2521000000 3.0550000000 2.7943000000
2.2520000000 2.7205000000 2.4286000000
2.2518000000 0.1625000000 0.1000000000
2.2513000000 3.7986000000 2.7905000000
2.2512000000 3.6155000000 2.8856000000
2.2510000000 4.1813000000 2.5050000000
2.2506000000 0.4680000000 0.3799000000
2.2503000000 5.9512000000 0.8880000000
2.2502000000 3.9368000000 2.7867000000
2.2500000000 1.5996000000 1.4095000000
2.2497000000 2.9759000000 2.6590000000
2.2495000000 5.4538000000 1.3457000000
2.2495000000 2.1333000000 1.8995000000
2.2488000000 2.8614000000 2.5526000000
2.2483000000 0.7894000000 0.6715000000
2.2481000000 0.2911000000 0.2254000000
2.2478000000 0.1429000000 0.0855000000
2.2475000000 6.1104000000 0.7540000000
2.2465000000 5.2897000000 1.4978000000
2.2442000000 3.1110000000 2.8367000000
2.0135000000 4.5034000000 2.2151000000
2.0109000000 6.7950000000 0.1262000000
2.0094000000 3.8490000000 2.8051000000
2.0085000000 6.8765000000 0.1285000000
2.0078000000 5.6335000000 1.1861000000
2.0075000000 4.9792000000 1.7842000000
2.0071000000 4.2844000000 2.4126000000
2.0069000000 4.9136000000 1.8430000000
2.0067000000 5.4769000000 1.3275000000
2.0065000000 4.8202000000 1.9235000000
2.0063000000 3.2268000000 2.8912000000
2.0062000000 1.6695000000 1.4705000000
2.0060000000 3.3635000000 3.0114000000
2.0059000000 5.6577000000 1.1645000000
2.0058000000 6.0157000000 0.8368000000
2.0054000000 5.5883000000 1.2278000000
2.0052000000 5.3080000000 1.4825000000
2.0049000000 2.0081000000 1.7833000000
2.0048000000 1.4915000000 1.3072000000
2.0046000000 1.2386000000 1.0847000000
2.0045000000 1.8426000000 1.6278000000
2.0043000000 4.4576000000 2.2562000000
2.0042000000 2.5621000000 2.2873000000
2.0038000000 1.6072000000 1.4151000000
2.0035000000 3.2307000000 2.8926000000
2.0034000000 4.7623000000 1.9732000000
2.0031000000 3.1508000000 2.8172000000
2.0030000000 6.9874000000 0.0278000000
2.0029000000 5.5544000000 1.2581000000
2.0027000000 5.9608000000 0.8888000000
2.0025000000 1.9059000000 1.6959000000
2.0023000000 5.2576000000 1.5230000000
2.0023000000 4.5908000000 2.1275000000
2.0021000000 4.6621000000 2.0714000000
2.0020000000 0.7290000000 0.6214000000
2.0015000000 3.7750000000 2.8736000000
2.0009000000 3.4126000000 3.0730000000
2.0007000000 0.3671000000 0.2956000000
2.0007000000 0.4807000000 0.3929000000
2.0004000000 2.1391000000 1.9051000000
2.0003000000 6.2225000000 0.6496000000
2.0000000000 2.7795000000 2.4804000000
1.9990000000 1.6170000000 1.4243000000
1.9989000000 2.0100000000 1.7775000000
1.9987000000 5.8247000000 1.0163000000
1.9981000000 3.0040000000 2.6837000000
1.9979000000 0.5602000000 0.4724000000
1.9958000000 2.8939000000 2.5813000000
1.7626000000 6.2211000000 0.6547000000
1.7607000000 3.9968000000 2.7335000000
1.7598000000 3.9451000000 2.7057000000
1.7593000000 5.6326000000 1.1873000000
1.7588000000 5.7740000000 1.0586000000
1.7586000000 1.0653000000 0.9341000000
1.7583000000 5.5479000000 1.2639000000
1.7581000000 6.6744000000 0.2418000000
1.7579000000 5.0779000000 1.6913000000
1.7577000000 4.0549000000 2.6155000000
1.7575000000 4.3047000000 2.3919000000
1.7568000000 4.4650000000 2.2459000000
1.7565000000 1.8416000000 1.6266000000
1.7563000000 5.4674000000 1.3339000000
1.7561000000 6.7211000000 0.1960000000
1.7560000000 2.8111000000 2.5127000000
1.7559000000 0.8182000000 0.7035000000
1.7558000000 4.6719000000 2.0538000000
1.7556000000 6.2810000000 0.6010000000
1.7554000000 5.3589000000 1.4388000000
1.7551000000 0.1840000000 0.1214000000
1.7548000000 4.5473000000 2.1727000000
1.7546000000 4.6529000000 2.0749000000
1.7545000000 0.7604000000 0.6489000000
1.7544000000 5.5911000000 1.2235000000
1.7543000000 4.8218000000 1.9209000000
1.7541000000 4.4321000000 2.2784000000
1.7538000000 2.9341000000 2.6204000000
1.7535000000 3.5706000000 2.8866000000
1.7533000000 2.0254000000 1.7951000000
1.7532000000 3.8780000000 2.8103000000
1.7530000000 5.6074000000 1.2092000000
1.7527000000 1.0130000000 0.8751000000
1.7525000000 2.1616000000 1.9242000000
1.7522000000 2.8374000000 2.5376000000
1.7520000000 2.0383000000 1.8067000000
1.7520000000 2.2017000000 1.9579000000
1.7518000000 1.4965000000 1.3200000000
1.7516000000 3.9085000000 2.7970000000
1.7513000000 3.7468000000 2.8077000000
1.7509000000 3.6873000000 2.8276000000
1.7505000000 0.4921000000 0.4054000000
1.7502000000 5.5573000000 1.2528000000
1.7501000000 3.3359000000 2.8496000000
1.7498000000 4.6153000000 2.1102000000
1.7493000000 3.0079000000 2.7495000000
1.7491000000 0.2625000000 0.1975000000
1.7487000000 1.0281000000 0.8877000000
1.7484000000 0.1631000000 0.1074000000
1.7478000000 4.1431000000 2.5394000000
1.7473000000 0.6620000000 0.5582000000
1.7470000000 6.4204000000 0.4724000000
1.7466000000 1.1382000000 0.9944000000
1.5139000000 4.5109000000 2.2071000000
1.5128000000 5.3519000000 1.4394000000
1.5125000000 5.5739000000 1.2438000000
1.5106000000 4.0690000000 2.4741000000
1.5095000000 4.8035000000 1.9383000000
1.5091000000 6.7582000000 0.1676000000
1.5089000000 4.3988000000 2.2918000000
1.5084000000 3.8408000000 2.5723000000
1.5082000000 5.6120000000 1.2051000000
1.5080000000 2.5778000000 2.3626000000
1.5076000000 6.5872000000 0.3137000000
1.5074000000 6.5982000000 0.3080000000
1.5071000000 6.7137000000 0.2073000000
1.5070000000 6.9273000000 0.0878000000
1.5066000000 5.2579000000 1.5313000000
1.5065000000 3.4573000000 2.7735000000
1.5063000000 3.8208000000 2.5805000000
1.5061000000 6.4900000000 0.4080000000
1.5059000000 4.2867000000 2.3561000000
1.5054000000 3.3491000000 2.6654000000
1.5053000000 5.2506000000 1.5314000000
1.5050000000 1.6610000000 1.4684000000
1.5049000000 4.2272000000 2.3921000000
1.5047000000 5.4098000000 1.3854000000
1.5045000000 2.3183000000 2.0630000000
1.5043000000 3.6762000000 2.6454000000
1.5042000000 2.3967000000 2.1266000000
1.5041000000 2.0235000000 1.7910000000
1.5040000000 4.0142000000 2.4872000000
1.5039000000 3.5495000000 2.6993000000
1.5038000000 0.6761000000 0.5745000000
1.5037000000 4.7700000000 1.9713000000
1.5035000000 2.3857000000 2.1297000000
1.5034000000 6.6512000000 0.2600000000
1.5034000000 4.9504000000 1.8020000000
1.5032000000 1.1536000000 1.0051000000
1.5031000000 4.5295000000 2.1863000000
1.5029000000 3.5940000000 2.6786000000
1.5026000000 6.2118000000 0.6595000000
1.5025000000 4.8192000000 1.9291000000
1.5023000000 0.3188000000 0.2483000000
1.5018000000 1.2587000000 1.0954000000
1.5013000000 5.6225000000 1.1920000000
1.5010000000 3.8157000000 2.5774000000
1.5008000000 6.1922000000 0.6754000000
1.5002000000 4.0957000000 2.4494000000
1.4998000000 3.4962000000 2.7803000000
1.4993000000 2.1782000000 1.9374000000
1.4991000000 2.0038000000 1.7788000000
1.4989000000 2.9429000000 2.4742000000
1.4985000000 2.7746000000 2.3986000000
1.4978000000 5.0532000000 1.7113000000
1.4970000000 2.0707000000 1.8412000000
1.4966000000 3.2377000000 2.6046000000
1.2609000000 5.7383000000 1.0907000000
1.2605000000 6.4330000000 0.4673000000
1.2603000000 0.2151000000 0.1546000000
1.2597000000 4.0115000000 2.2938000000
1.2583000000 5.0153000000 1.7461000000
1.2580000000 5.6749000000 1.1445000000
1.2576000000 6.8012000000 0.1234000000
1.2574000000 5.0928000000 1.6799000000
1.2572000000 5.1897000000 1.5858000000
1.2566000000 4.4521000000 2.0953000000
1.2563000000 5.5856000000 1.2305000000
1.2560000000 6.4752000000 0.4266000000
1.2557000000 6.2097000000 0.6613000000
1.2555000000 2.2169000000 2.0187000000
1.2554000000 0.7098000000 0.6057000000
1.2552000000 3.0602000000 2.3358000000
1.2551000000 6.6339000000 0.2774000000
1.2550000000 4.6943000000 1.9863000000
1.2549000000 2.6585000000 2.1529000000
1.2548000000 0.8146000000 0.6987000000
1.2547000000 1.2802000000 1.1187000000
1.2544000000 3.4982000000 2.5860000000
1.2544000000 4.2122000000 2.2036000000
1.2541000000 4.3992000000 2.1182000000
1.2540000000 3.0123000000 2.3124000000
1.2539000000 5.2494000000 1.5344000000
1.2537000000 1.2080000000 1.0561000000
1.2534000000 4.3116000000 2.1628000000
1.2532000000 3.2483000000 2.4213000000
1.2531000000 6.4566000000 0.4392000000
1.2529000000 0.6727000000 0.5746000000
1.2525000000 2.6925000000 2.1664000000
1.2525000000 5.1489000000 1.6299000000
1.2522000000 1.2349000000 1.0759000000
1.2519000000 5.4730000000 1.3274000000
1.2517000000 0.3009000000 0.2339000000
1.2515000000 2.1042000000 1.9320000000
1.2516000000 5.8964000000 0.9454000000
1.2512000000 4.3493000000 2.1376000000
1.2510000000 4.4914000000 2.0789000000
1.2508000000 5.7043000000 1.1210000000
1.2507000000 0.2381000000 0.1768000000
1.2498000000 0.7368000000 0.6281000000
1.2489000000 0.1806000000 0.1184000000
1.2487000000 3.8915000000 2.3435000000
1.2474000000 0.4968000000 0.4104000000
1.2470000000 5.1708000000 1.6056000000
1.2469000000 1.0879000000 0.9484000000
1.2455000000 1.6406000000 1.4505000000
1.0128000000 4.4340000000 1.9094000000
1.0119000000 6.1067000000 0.7569000000
1.0110000000 5.0546000000 1.6278000000
1.0105000000 6.8422000000 0.0864000000
1.0094000000 3.8551000000 2.1772000000
1.0088000000 5.4542000000 1.3467000000
1.0086000000 1.1952000000 1.0476000000
1.0079000000 0.4347000000 0.3566000000
1.0077000000 5.0629000000 1.6265000000
1.0071000000 4.5708000000 1.8483000000
1.0069000000 3.7550000000 2.2184000000
1.0068000000 4.8128000000 1.7345000000
1.0063000000 3.8084000000 2.1935000000
1.0062000000 1.5345000000 1.3519000000
1.0060000000 2.4985000000 1.8886000000
1.0059000000 4.1059000000 2.0565000000
1.0057000000 5.6771000000 1.1444000000
1.0055000000 6.1975000000 0.6761000000
1.0052000000 0.6328000000 0.5364000000
1.0050000000 2.5945000000 1.9270000000
1.0049000000 3.7217000000 2.2326000000
1.0048000000 4.2811000000 1.9715000000
1.0047000000 1.0309000000 0.8945000000
1.0044000000 5.5892000000 1.2297000000
1.0043000000 5.3912000000 1.4028000000
1.0040000000 1.2385000000 1.0847000000
1.0040000000 3.5827000000 2.2853000000
1.0039000000 6.0779000000 0.7807000000
1.0037000000 3.7886000000 2.1954000000
1.0033000000 0.8049000000 0.6887000000
1.0031000000 6.0973000000 0.7570000000
1.0029000000 5.6824000000 1.1423000000
1.0028000000 0.6074000000 0.5154000000
1.0028000000 6.4110000000 0.4833000000
1.0025000000 4.8224000000 1.7318000000
1.0024000000 2.6264000000 1.9417000000
1.0023000000 6.9471000000 0.0664000000
1.0023000000 6.1092000000 0.7547000000
1.0020000000 0.9035000000 0.7810000000
1.0019000000 3.5630000000 2.3019000000
1.0018000000 6.2139000000 0.6553000000
1.0016000000 1.7166000000 1.5777000000
1.0014000000 1.1313000000 0.9863000000
1.0013000000 1.2456000000 1.0911000000
1.0010000000 0.4350000000 0.3583000000
1.0006000000 2.7974000000 2.0112000000
1.0002000000 6.1543000000 0.7124000000
0.9998000000 2.3768000000 1.8264000000
0.9996000000 0.5805000000 0.4860000000
0.9993000000 1.9606000000 1.6373000000
0.9991000000 0.3922000000 0.3152000000
0.9988000000 1.1851000000 1.0325000000
0.9980000000 2.6401000000 1.9446000000
0.9977000000 2.9040000000 2.0610000000
0.9975000000 0.1880000000 0.1260000000
0.9969000000 0.5434000000 0.4543000000
0.9956000000 1.3289000000 1.1678000000
0.7652000000 6.7398000000 0.1779000000
0.7615000000 3.8581000000 1.9773000000
0.7610000000 5.0132000000 1.4544000000
0.7605000000 2.9008000000 1.8743000000
0.7597000000 5.6789000000 1.1266000000
0.7592000000 1.6138000000 1.2862000000
0.7591000000 2.4039000000 1.6426000000
0.7582000000 6.2159000000 0.6584000000
0.7578000000 3.9401000000 1.9371000000
0.7577000000 4.0387000000 1.8952000000
0.7574000000 1.6879000000 1.3190000000
0.7569000000 5.5537000000 1.2034000000
0.7565000000 5.7650000000 1.0530000000
0.7562000000 3.6025000000 2.0874000000
0.7559000000 0.5600000000 0.4684000000
0.7558000000 3.3119000000 2.0603000000
0.7555000000 2.6626000000 1.7691000000
0.7553000000 6.3438000000 0.5348000000
0.7550000000 1.9460000000 1.4333000000
0.7545000000 4.3218000000 1.7615000000
0.7542000000 3.9327000000 1.9355000000
0.7540000000 4.7180000000 1.5820000000
0.7540000000 4.2891000000 1.7821000000
0.7538000000 1.8214000000 1.3795000000
0.7537000000 3.2938000000 2.0511000000
0.7534000000 3.5248000000 2.1839000000
0.7531000000 5.0290000000 1.4373000000
0.7530000000 4.9396000000 1.4791000000
0.7529000000 1.0587000000 0.9186000000
0.7528000000 3.1549000000 1.9817000000
0.7525000000 2.8812000000 1.8561000000
0.7525000000 1.1336000000 0.9869000000
0.7521000000 5.7450000000 1.0699000000
0.7520000000 0.6656000000 0.5625000000
0.7520000000 5.9987000000 0.8557000000
0.7518000000 1.6262000000 1.2897000000
0.7517000000 6.0900000000 0.7695000000
0.7515000000 1.5778000000 1.2708000000
0.7513000000 3.6384000000 2.0638000000
0.7510000000 5.2754000000 1.3268000000
0.7508000000 0.5107000000 0.4220000000
0.7503000000 3.9771000000 1.9154000000
0.7500000000 2.6056000000 1.7287000000
0.7492000000 1.3591000000 1.1536000000
0.7485000000 1.0304000000 0.8983000000
0.7478000000 2.4434000000 1.6574000000
0.7477000000 6.5289000000 0.3785000000
0.7465000000 3.6560000000 2.0590000000
0.7462000000 2.2807000000 1.5773000000
0.5107000000 6.8690000000 0.1399000000
0.5103000000 7.0056000000 0.0101000000
0.5097000000 0.1229000000 0.0743000000
0.5091000000 2.8605000000 1.6551000000
0.5086000000 5.4686000000 1.0506000000
0.5083000000 6.6915000000 0.2232000000
0.5074000000 6.9015000000 0.1052000000
0.5065000000 2.8580000000 1.6552000000
0.5063000000 2.6307000000 1.5442000000
0.5061000000 6.3002000000 0.5836000000
0.5060000000 0.7902000000 0.7339000000
0.5058000000 3.3603000000 1.8821000000
0.5056000000 1.3886000000 0.9836000000
0.5053000000 4.4465000000 1.5070000000
0.5048000000 3.0504000000 1.7413000000
0.5046000000 3.8129000000 1.7951000000
0.5045000000 6.0098000000 0.7912000000
0.5041000000 4.2490000000 1.5882000000
0.5038000000 0.7057000000 0.5997000000
0.5037000000 1.7965000000 1.1673000000
0.5037000000 6.5662000000 0.3434000000
0.5035000000 2.7263000000 1.5940000000
0.5033000000 1.7350000000 1.1421000000
0.5033000000 2.5655000000 1.5136000000
0.5031000000 5.1578000000 1.1841000000
0.5030000000 6.2389000000 0.6357000000
0.5030000000 0.5579000000 0.4638000000
0.5028000000 1.4493000000 1.0086000000
0.5025000000 1.8952000000 1.2171000000
0.5023000000 6.4939000000 0.4044000000
0.5023000000 0.8039000000 0.7498000000
0.5022000000 6.1951000000 0.6633000000
0.5020000000 4.9518000000 1.2793000000
0.5018000000 4.0353000000 1.6912000000
0.5016000000 2.4708000000 1.4767000000
0.5014000000 0.8567000000 0.7920000000
0.5012000000 6.5260000000 0.3759000000
0.5005000000 2.1366000000 1.3231000000
0.5005000000 1.7990000000 1.1654000000
0.5004000000 1.5283000000 1.0422000000
0.5038000000 4.1670000000 1.6330000000
0.4995000000 0.4014000000 0.3225000000
0.4990000000 5.8319000000 0.8738000000
0.4987000000 3.5508000000 1.9037000000
0.4983000000 3.2648000000 1.8312000000
0.4981000000 1.0183000000 0.8170000000
0.4978000000 0.5102000000 0.4203000000
0.4971000000 4.5206000000 1.4667000000
0.4933000000 4.3987000000 1.5259000000
0.2627000000 6.3777000000 0.4419000000
0.2609000000 5.4686000000 0.8512000000
0.2594000000 5.3713000000 0.8926000000
0.2590000000 6.1657000000 0.5393000000
0.2587000000 6.4600000000 0.3888000000
0.2575000000 2.6164000000 1.3487000000
0.2573000000 6.3734000000 0.4446000000
0.2569000000 0.8101000000 0.5336000000
0.2568000000 0.5947000000 0.4272000000
0.2566000000 5.6960000000 0.7437000000
0.2562000000 4.6476000000 1.2142000000
0.2558000000 5.7145000000 0.7370000000
0.2557000000 5.3042000000 0.9185000000
0.2556000000 3.3490000000 1.6870000000
0.2552000000 6.4664000000 0.3797000000
0.2548000000 3.5716000000 1.7023000000
0.2544000000 1.8182000000 0.9814000000
0.2543000000 2.7294000000 1.4017000000
0.2539000000 0.0098000000 0.0422000000
0.2537000000 6.9523000000 0.0673000000
0.2536000000 5.0389000000 1.0356000000
0.2534000000 3.3446000000 1.6745000000
0.2531000000 5.5487000000 0.8107000000
0.2528000000 3.6872000000 1.6559000000
0.2527000000 2.4496000000 1.2720000000
0.2526000000 0.7858000000 0.5100000000
0.2524000000 0.9122000000 0.5770000000
0.2521000000 2.9002000000 1.4733000000
0.2519000000 5.5075000000 0.8255000000
0.2518000000 2.4720000000 1.2789000000
0.2516000000 3.0516000000 1.5428000000
0.2515000000 2.5617000000 1.3254000000
0.2513000000 3.4392000000 1.7131000000
0.2508000000 5.4831000000 0.8382000000
0.2506000000 4.9811000000 1.0622000000
0.2505000000 6.0418000000 0.5787000000
0.2504000000 3.5766000000 1.7017000000
0.2500000000 3.9375000000 1.5432000000
0.2497000000 0.3394000000 0.2529000000
0.2493000000 0.3540000000 0.3361000000
0.2491000000 1.8790000000 1.0070000000
0.2488000000 0.1842000000 0.1248000000
0.2485000000 1.1081000000 0.6580000000
0.2480000000 3.3947000000 1.6981000000
0.2478000000 1.1349000000 0.6672000000
0.2477000000 2.1655000000 1.1349000000
0.2470000000 2.7708000000 1.4069000000
0.2465000000 4.0328000000 1.4884000000
0.2416000000 1.0142000000 0.6130000000
0.0134000000 7.0013000000 0.0783000000
0.0114000000 4.1625000000 1.2487000000
0.0105000000 6.4718000000 0.2024000000
0.0096000000 5.9709000000 0.4268000000
0.0091000000 4.9446000000 0.8933000000
0.0086000000 4.7695000000 0.9724000000
0.0083000000 3.9416000000 1.3451000000
0.0079000000 4.0136000000 1.3107000000
0.0076000000 6.1213000000 0.3604000000
0.0073000000 6.4331000000 0.2145000000
0.0070000000 5.1734000000 0.7892000000
0.0071000000 2.9719000000 1.3124000000
0.0069000000 3.8830000000 1.3688000000
0.0068000000 3.7322000000 1.4432000000
0.0065000000 2.0336000000 0.8873000000
0.0060000000 4.4248000000 1.1331000000
0.0059000000 4.7258000000 0.9932000000
0.0058000000 6.3352000000 0.2609000000
0.0056000000 3.4608000000 1.5958000000
0.0053000000 6.7376000000 0.0688000000
0.0050000000 2.0142000000 0.8748000000
0.0048000000 0.0966000000 0.0656000000
0.0046000000 4.8882000000 0.9166000000
0.0045000000 4.4218000000 1.1240000000
0.0043000000 3.8203000000 1.3941000000
0.0042000000 6.3703000000 0.2412000000
0.0040000000 1.3425000000 0.5696000000
0.0039000000 4.0541000000 1.2920000000
0.0036000000 4.4108000000 1.1314000000
0.0035000000 2.3005000000 1.0065000000
0.0034000000 2.3649000000 1.0344000000
0.0033000000 4.1068000000 1.2684000000
0.0031000000 0.7554000000 0.3068000000
0.0030000000 6.3606000000 0.2506000000
0.0029000000 2.5017000000 1.0953000000
0.0027000000 3.5324000000 1.5861000000
0.0026000000 6.5415000000 0.1640000000
0.0025000000 5.2344000000 0.7536000000
0.0024000000 0.5465000000 0.2079000000
0.0023000000 1.8896000000 0.8218000000
0.0021000000 1.9886000000 0.8697000000
0.0020000000 5.4053000000 0.6766000000
0.0019000000 1.7317000000 0.7445000000
0.0016000000 3.4083000000 1.5075000000
0.0015000000 1.7013000000 0.7385000000
0.0013000000 4.3288000000 1.1639000000
0.0013000000 0.6746000000 0.2643000000
0.0011000000 4.0783000000 1.2772000000
0.0008000000 6.5285000000 0.1667000000
0.0005000000 5.7447000000 0.5148000000
0.0002000000 2.5989000000 1.1387000000
-0.0003000000 0.4690000000 0.1698000000
-0.0004000000 2.0858000000 0.9097000000
-0.0007000000 3.1602000000 1.3891000000
-0.0011000000 1.1194000000 0.4663000000
-0.0012000000 1.3416000000 0.5701000000
-0.0013000000 2.8493000000 1.2511000000
0.0017000000 0.4329000000 0.1577000000
-0.0027000000 0.8093000000 0.3238000000
-0.0037000000 1.4921000000 0.6365000000
-0.0042000000 0.7163000000 0.2837000000
-0.0053000000 1.4585000000 0.6153000000
-0.2357000000 4.5374000000 0.8827000000
-0.2381000000 5.5891000000 0.4018000000
-0.2387000000 4.3985000000 0.9462000000
-0.2394000000 2.1728000000 0.7610000000
-0.2401000000 0.8617000000 0.1598000000
-0.2403000000 2.6421000000 0.9672000000
-0.2408000000 3.5802000000 1.3157000000
-0.2412000000 2.8831000000 1.0750000000
-0.2415000000 2.7634000000 1.0250000000
-0.2420000000 5.5265000000 0.4312000000
-0.2428000000 3.6911000000 1.2673000000
-0.2430000000 3.3522000000 1.2883000000
-0.2435000000 4.6212000000 0.8382000000
-0.2441000000 6.7472000000 0.0256000000
-0.2443000000 1.9019000000 0.6283000000
-0.2445000000 4.8836000000 0.7223000000
-0.2446000000 3.3651000000 1.2902000000
-0.2448000000 2.7881000000 1.0303000000
-0.2452000000 2.7311000000 1.0125000000
-0.2453000000 1.5989000000 0.4899000000
-0.2457000000 5.8026000000 0.3044000000
-0.2458000000 2.3335000000 0.8283000000
-0.2460000000 1.5044000000 0.4511000000
-0.2462000000 0.4021000000 0.0251000000
-0.2465000000 5.7313000000 0.3314000000
-0.2466000000 2.2111000000 0.7665000000
-0.2469000000 5.8091000000 0.2992000000
-0.2472000000 3.3675000000 1.2952000000
-0.2473000000 0.7990000000 0.1233000000
-0.2476000000 5.8729000000 0.2666000000
-0.2478000000 3.1506000000 1.1991000000
-0.2480000000 3.0313000000 1.1407000000
-0.2481000000 0.4050000000 0.0237000000
-0.2485000000 3.7789000000 1.2223000000
-0.2487000000 3.0603000000 1.1510000000
-0.2491000000 1.6104000000 0.4993000000
-0.2492000000 6.7773000000 0.0088000000
-0.2495000000 2.3456000000 0.8263000000
-0.2497000000 3.3383000000 1.2759000000
-0.2500000000 3.7411000000 1.2318000000
-0.2500000000 3.1940000000 1.2104000000
-0.2502000000 2.3003000000 0.8041000000
-0.2507000000 2.6653000000 0.9712000000
-0.2511000000 1.0279000000 0.2260000000
-0.2522000000 0.2025000000 0.0056000000
-0.2540000000 4.9436000000 0.6896000000
-0.2554000000 1.2956000000 0.3425000000
-0.4838000000 6.3426000000 0.0209000000
-0.4898000000 6.0745000000 0.0635000000
-0.4912000000 0.9125000000 0.0617000000
-0.4918000000 5.9860000000 0.1003000000
-0.4922000000 2.8540000000 0.8689000000
-0.4923000000 5.4510000000 0.2686000000
-0.4926000000 5.0440000000 0.4484000000
-0.4928000000 5.7544000000 0.1310000000
-0.4932000000 3.1033000000 0.9799000000
-0.4933000000 4.5936000000 0.6538000000
-0.4934000000 1.1718000000 0.1021000000
-0.4938000000 5.4812000000 0.2501000000
-0.4940000000 5.9086000000 0.1350000000
-0.4945000000 3.3907000000 1.1070000000
-0.4946000000 3.9506000000 0.9442000000
-0.4947000000 3.3261000000 1.0845000000
-0.4950000000 5.0994000000 0.4207000000
-0.4952000000 4.1771000000 0.8420000000
-0.4953000000 5.4152000000 0.2790000000
-0.4956000000 6.1821000000 0.0852000000
-0.4958000000 5.2537000000 0.3554000000
-0.4960000000 0.8473000000 0.0276000000
-0.4960000000 1.7540000000 0.3670000000
-0.4963000000 4.7749000000 0.5716000000
-0.4968000000 6.2127000000 0.0698000000
-0.4970000000 1.1923000000 0.1092000000
-0.4974000000 4.0416000000 0.9032000000
-0.4976000000 5.9505000000 0.1092000000
-0.4978000000 3.9161000000 0.9625000000
-0.4980000000 2.8140000000 0.8434000000
-0.4983000000 4.7929000000 0.5632000000
-0.4983000000 4.3463000000 0.7653000000
-0.4987000000 2.3151000000 0.6196000000
-0.4988000000 6.2759000000 0.0368000000
-0.4990000000 1.2371000000 0.1284000000
-0.4992000000 1.0827000000 0.1420000000
-0.4995000000 4.2313000000 0.8180000000
-0.4997000000 1.0539000000 0.1164000000
-0.5001000000 0.9560000000 0.0760000000
-0.5002000000 5.7951000000 0.1042000000
-0.5006000000 4.2374000000 0.8149000000
-0.5010000000 0.9810000000 0.0874000000
-0.5014000000 4.6716000000 0.6116000000
-0.5016000000 3.6630000000 1.0727000000
-0.5027000000 1.0536000000 0.1111000000
-0.5041000000 3.5452000000 1.1166000000
-0.7384000000 4.3920000000 0.5590000000
-0.7397000000 3.5095000000 1.0148000000
-0.7400000000 5.0863000000 0.2403000000
-0.7407000000 4.4772000000 0.5195000000
-0.7413000000 4.4335000000 0.5354000000
-0.7419000000 2.3680000000 0.4543000000
-0.7424000000 2.8903000000 0.6884000000
-0.7427000000 5.2852000000 0.1463000000
-0.7431000000 5.2628000000 0.1561000000
-0.7432000000 2.6974000000 0.5957000000
-0.7441000000 1.3889000000 0.0792000000
-0.7443000000 3.2957000000 0.8722000000
-0.7446000000 1.9297000000 0.2494000000
-0.7449000000 3.3903000000 0.9155000000
-0.7453000000 2.2975000000 0.4179000000
-0.7455000000 5.5593000000 0.0955000000
-0.7459000000 4.0259000000 0.7198000000
-0.7463000000 1.7013000000 0.1453000000
-0.7466000000 1.0935000000 0.0174000000
-0.7469000000 1.9829000000 0.2714000000
-0.7471000000 3.9685000000 0.7400000000
-0.7475000000 1.3736000000 0.0641000000
-0.7484000000 3.4450000000 1.0031000000
-0.7485000000 2.0071000000 0.2834000000
-0.7487000000 3.3790000000 0.9003000000
-0.7490000000 4.0769000000 0.6846000000
-0.7494000000 4.5560000000 0.4664000000
-0.7500000000 4.3510000000 0.5658000000
-0.7510000000 3.1663000000 0.8045000000
-0.7512000000 2.4493000000 0.4809000000
-0.7513000000 5.1775000000 0.1894000000
-0.7517000000 1.5827000000 0.0817000000
-0.7520000000 1.1452000000 0.0385000000
-0.7525000000 1.1972000000 0.0631000000
-0.7535000000 1.6603000000 0.1231000000
-0.7542000000 3.6516000000 0.8800000000
-0.9882000000 3.2207000000 0.6433000000
-0.9905000000 4.1214000000 0.4763000000
-0.9920000000 2.5478000000 0.3334000000
-0.9922000000 2.9130000000 0.5024000000
-0.9935000000 4.3967000000 0.3540000000
-0.9946000000 3.8004000000 0.6203000000
-0.9950000000 5.1585000000 0.0831000000
-0.9951000000 3.3900000000 0.7129000000
-0.9956000000 3.0457000000 0.5607000000
-0.9959000000 2.2297000000 0.1901000000
-0.9961000000 4.7799000000 0.1830000000
-0.9964000000 4.3445000000 0.3750000000
-0.9968000000 3.2691000000 0.6601000000
-0.9971000000 1.8323000000 0.0821000000
-0.9973000000 5.0049000000 0.0752000000
-0.9975000000 1.6129000000 0.0542000000
-0.9977000000 5.4583000000 0.0171000000
-0.9979000000 5.3235000000 0.0782000000
-0.9980000000 2.0896000000 0.1251000000
-0.9981000000 3.8841000000 0.5814000000
-0.9987000000 2.4029000000 0.2668000000
-0.9989000000 3.7512000000 0.6351000000
-0.9992000000 2.9844000000 0.5278000000
-0.9994000000 2.5092000000 0.3113000000
-0.9997000000 5.3797000000 0.0538000000
-1.0000000000 1.7304000000 0.0320000000
-1.0002000000 5.0048000000 0.0701000000
-1.0005000000 2.1135000000 0.1284000000
-1.0010000000 1.6242000000 0.0599000000
-1.0017000000 1.9221000000 0.1197000000
-1.0033000000 3.7201000000 0.6497000000
-1.2408000000 4.8744000000 0.0144000000
-1.2437000000 4.6773000000 0.1082000000
-1.2443000000 3.7931000000 0.4359000000
-1.2450000000 2.3014000000 0.0990000000
-1.2454000000 2.2193000000 0.0658000000
-1.2457000000 4.2249000000 0.2344000000
-1.2461000000 3.4382000000 0.5349000000
-1.2463000000 3.9135000000 0.3716000000
-1.2468000000 2.6287000000 0.1794000000
-1.2470000000 3.6474000000 0.4923000000
-1.2472000000 4.5004000000 0.1062000000
-1.2479000000 3.2858000000 0.4722000000
-1.2486000000 4.3652000000 0.1611000000
-1.2492000000 4.0537000000 0.3063000000
-1.2497000000 2.8721000000 0.2781000000
-1.2506000000 4.1339000000 0.2641000000
-1.2514000000 3.6110000000 0.5077000000
-1.2517000000 3.8324000000 0.4093000000
-1.2527000000 3.0306000000 0.3530000000
-1.2532000000 2.9483000000 0.3142000000
-1.4888000000 3.5381000000 0.3391000000
-1.4902000000 2.6489000000 0.0617000000
-1.4922000000 2.8691000000 0.0843000000
-1.4936000000 3.2800000000 0.2684000000
-1.4945000000 3.7811000000 0.2427000000
-1.4947000000 3.2648000000 0.2630000000
-1.4949000000 4.4307000000 0.0104000000
