5.5091000000 3.5606000000 0.0102000000
5.5056000000 3.1877000000 0.0624000000
5.5032000000 3.1280000000 0.0525000000
5.5013000000 2.8901000000 0.0134000000
5.5001000000 3.4370000000 0.0771000000
5.4977000000 2.8904000000 0.0234000000
5.2610000000 3.1897000000 0.1901000000
5.2555000000 3.5704000000 0.1310000000
5.2546000000 3.8103000000 0.0199000000
5.2540000000 2.9820000000 0.1188000000
5.2533000000 3.2063000000 0.2098000000
5.2521000000 2.7908000000 0.0992000000
5.2504000000 2.6840000000 0.0549000000
5.2496000000 2.9785000000 0.1196000000
5.2489000000 3.1711000000 0.1953000000
5.2480000000 3.9312000000 0.0475000000
5.2459000000 2.8079000000 0.1173000000
5.0107000000 3.0919000000 0.3707000000
5.0096000000 4.2494000000 0.0123000000
5.0089000000 2.1736000000 0.0041000000
5.0085000000 2.0980000000 0.0459000000
5.0075000000 3.2289000000 0.4075000000
5.0068000000 2.4391000000 0.1359000000
5.0060000000 3.6117000000 0.2468000000
5.0059000000 3.3291000000 0.3735000000
5.0055000000 3.3772000000 0.3509000000
5.0045000000 3.8767000000 0.1202000000
5.0038000000 2.6098000000 0.1388000000
5.0025000000 2.4683000000 0.0815000000
5.0013000000 2.1580000000 0.0833000000
5.0011000000 2.2997000000 0.0682000000
4.9990000000 3.9569000000 0.0875000000
4.9975000000 3.6424000000 0.2382000000
4.7607000000 4.1298000000 0.2068000000
4.7596000000 2.2970000000 0.1978000000
4.7590000000 1.8548000000 0.0625000000
4.7585000000 3.5443000000 0.4761000000
4.7570000000 3.3822000000 0.5521000000
4.7566000000 1.9132000000 0.0928000000
4.7564000000 4.7533000000 0.0643000000
4.7560000000 4.1743000000 0.1835000000
4.7557000000 3.1555000000 0.5956000000
4.7553000000 1.8674000000 0.0689000000
4.7552000000 3.5589000000 0.4733000000
4.7549000000 1.7617000000 0.0226000000
4.7547000000 4.7481000000 0.0632000000
4.7537000000 4.4105000000 0.1450000000
4.7533000000 1.8987000000 0.0836000000
4.7531000000 2.6010000000 0.3451000000
4.7525000000 4.5442000000 0.0911000000
4.7524000000 1.8881000000 0.0822000000
4.7520000000 3.7066000000 0.4097000000
4.7513000000 3.3020000000 0.5954000000
4.7509000000 4.5381000000 0.0960000000
4.7503000000 3.6429000000 0.4347000000
4.7450000000 1.9687000000 0.1288000000
4.5107000000 4.5389000000 0.2093000000
4.5094000000 2.1241000000 0.3192000000
4.5086000000 2.8084000000 0.6353000000
4.5078000000 5.2915000000 0.0093000000
4.5075000000 3.4945000000 0.7051000000
4.5073000000 3.5507000000 0.6755000000
4.5068000000 2.7370000000 0.6081000000
4.5064000000 4.6072000000 0.1843000000
4.5058000000 2.3808000000 0.4395000000
4.5054000000 3.6419000000 0.6387000000
4.5048000000 3.4074000000 0.7494000000
4.5046000000 1.9153000000 0.2214000000
4.5043000000 1.2127000000 0.0437000000
4.5040000000 2.3754000000 0.4361000000
4.5038000000 4.0804000000 0.4363000000
4.5037000000 2.0886000000 0.3074000000
4.5034000000 5.0812000000 0.0385000000
4.5031000000 2.5861000000 0.5412000000
4.5030000000 3.1408000000 0.7987000000
4.5029000000 3.7567000000 0.5830000000
4.5027000000 2.5158000000 0.5037000000
4.5021000000 3.6660000000 0.6277000000
4.5018000000 4.7283000000 0.1323000000
4.5015000000 2.8625000000 0.6649000000
4.5012000000 1.2481000000 0.0637000000
4.5005000000 2.1120000000 0.3246000000
4.5004000000 1.4566000000 0.0846000000
4.4998000000 1.2294000000 0.0499000000
4.4990000000 1.3200000000 0.0250000000
4.4978000000 4.7412000000 0.1283000000
4.2633000000 4.8631000000 0.2677000000
4.2614000000 1.0706000000 0.0957000000
4.2603000000 5.7071000000 0.0150000000
4.2601000000 2.5904000000 0.7387000000
4.2598000000 4.9724000000 0.2111000000
4.2593000000 4.3905000000 0.4839000000
4.2589000000 3.0255000000 0.9447000000
4.2584000000 5.2629000000 0.0801000000
4.2579000000 4.1280000000 0.6107000000
4.2577000000 4.7294000000 0.3318000000
4.2570000000 5.2319000000 0.0932000000
4.2563000000 1.5030000000 0.2322000000
4.2563000000 4.7087000000 0.3437000000
4.2560000000 2.6899000000 0.7907000000
4.2557000000 4.9643000000 0.2226000000
4.2554000000 2.8482000000 0.8679000000
4.2551000000 5.5144000000 0.0371000000
4.2548000000 5.0458000000 0.1844000000
4.2547000000 3.7089000000 0.8126000000
4.2546000000 1.2861000000 0.1356000000
4.2544000000 3.0349000000 0.9466000000
4.2539000000 3.3802000000 0.9672000000
4.2537000000 1.1371000000 0.1396000000
4.2536000000 3.6699000000 0.8330000000
4.2535000000 5.5201000000 0.0312000000
4.2531000000 5.3275000000 0.1277000000
4.2528000000 3.7931000000 0.7712000000
4.2525000000 5.2349000000 0.1044000000
4.2523000000 2.1882000000 0.5591000000
4.2522000000 5.4727000000 0.0594000000
4.2520000000 3.4939000000 0.9153000000
4.2515000000 3.6706000000 0.8298000000
4.2509000000 0.7682000000 0.0388000000
4.2504000000 3.1581000000 1.0093000000
4.2497000000 4.6961000000 0.3523000000
4.2492000000 2.6823000000 0.7911000000
4.2480000000 0.7876000000 0.0481000000
4.2478000000 2.2292000000 0.5810000000
4.2475000000 1.9205000000 0.4356000000
4.2462000000 4.1311000000 0.6173000000
4.2448000000 1.5440000000 0.2580000000
4.0116000000 5.0108000000 0.4023000000
4.0100000000 2.8020000000 1.0398000000
4.0094000000 5.8979000000 0.0561000000
4.0079000000 2.0064000000 0.6690000000
4.0076000000 4.3704000000 0.6995000000
4.0075000000 3.8761000000 0.9356000000
4.0073000000 1.3854000000 0.3760000000
4.0070000000 2.7082000000 1.0015000000
4.0069000000 5.5528000000 0.1487000000
4.0066000000 1.9494000000 0.6425000000
4.0060000000 2.6095000000 0.9550000000
4.0060000000 5.1778000000 0.3261000000
4.0057000000 4.0751000000 0.8462000000
4.0052000000 5.4170000000 0.2125000000
4.0050000000 3.2553000000 1.2114000000
4.0048000000 2.3580000000 0.8413000000
4.0046000000 4.8293000000 0.4897000000
4.0045000000 5.6728000000 0.0886000000
4.0040000000 5.6275000000 0.1092000000
4.0038000000 5.6479000000 0.1029000000
4.0036000000 4.1093000000 0.8291000000
4.0035000000 3.4419000000 1.1397000000
4.0032000000 4.2479000000 0.7654000000
4.0030000000 1.6259000000 0.4929000000
4.0029000000 2.3822000000 0.8517000000
4.0028000000 5.8778000000 0.0698000000
4.0026000000 3.5104000000 1.1096000000
4.0023000000 4.4695000000 0.6649000000
4.0016000000 2.9759000000 1.1331000000
4.0013000000 4.8133000000 0.4982000000
4.0012000000 4.6278000000 0.5886000000
4.0008000000 1.5545000000 0.4624000000
4.0006000000 0.2930000000 0.0156000000
4.0004000000 3.2507000000 1.2107000000
4.0003000000 1.2845000000 0.3418000000
4.0001000000 5.1299000000 0.3520000000
3.9998000000 4.7033000000 0.5556000000
3.9993000000 1.2430000000 0.3170000000
3.9980000000 1.9930000000 0.6705000000
3.9960000000 1.4201000000 0.4014000000
3.7626000000 6.3176000000 0.0591000000
3.7600000000 5.8523000000 0.2066000000
3.7593000000 6.4056000000 0.0155000000
3.7590000000 5.9990000000 0.1372000000
3.7588000000 4.8398000000 0.6810000000
3.7585000000 4.5866000000 0.8077000000
3.7581000000 3.0497000000 1.3651000000
3.7579000000 3.4918000000 1.3234000000
3.7574000000 2.4323000000 1.0720000000
3.7573000000 2.3631000000 1.0423000000
3.7570000000 3.2294000000 1.4258000000
3.7568000000 1.1215000000 0.4565000000
3.7565000000 5.2850000000 0.4817000000
3.7562000000 3.3184000000 1.3989000000
3.7560000000 3.8537000000 1.1502000000
3.7559000000 4.0624000000 1.0494000000
3.7555000000 1.7310000000 0.7468000000
3.7554000000 3.9218000000 1.1190000000
3.7550000000 1.7154000000 0.7357000000
3.7548000000 3.2839000000 1.4138000000
3.7545000000 4.4304000000 0.8769000000
3.7544000000 5.2192000000 0.5079000000
3.7541000000 2.7210000000 1.2144000000
3.7538000000 3.5040000000 1.3130000000
3.7535000000 3.3344000000 1.3932000000
3.7533000000 4.7757000000 0.7171000000
3.7530000000 5.1746000000 0.5333000000
3.7528000000 6.2515000000 0.0993000000
3.7525000000 3.8713000000 1.1451000000
3.7523000000 1.8984000000 0.8291000000
3.7522000000 5.2325000000 0.5048000000
3.7520000000 1.3701000000 0.5787000000
3.7519000000 1.8509000000 0.8088000000
3.7516000000 2.6705000000 1.1904000000
3.7514000000 1.4899000000 0.6355000000
3.7511000000 1.7330000000 0.7456000000
3.7509000000 6.0626000000 0.1136000000
3.7505000000 1.9712000000 0.8603000000
3.7502000000 0.1704000000 0.0878000000
3.7500000000 2.0928000000 0.9213000000
3.7499000000 2.4728000000 1.1000000000
3.7495000000 1.6998000000 0.7366000000
3.7487000000 4.4941000000 0.8488000000
3.7484000000 4.6706000000 0.7697000000
3.7476000000 1.3706000000 0.5864000000
3.7467000000 2.9359000000 1.3163000000
3.7448000000 0.1869000000 0.1068000000
3.5142000000 4.7852000000 0.9058000000
3.5120000000 3.8674000000 1.3444000000
3.5113000000 5.6230000000 0.5175000000
3.5110000000 1.3353000000 0.7610000000
3.5108000000 1.2945000000 0.7375000000
3.5092000000 4.9192000000 0.8454000000
3.5090000000 1.8731000000 1.0073000000
3.5088000000 1.8004000000 0.9773000000
3.5084000000 2.7848000000 1.4466000000
3.5081000000 5.6703000000 0.4958000000
3.5081000000 5.7775000000 0.4450000000
3.5075000000 2.1492000000 1.1452000000
3.5074000000 0.8955000000 0.5525000000
3.5073000000 2.4376000000 1.2774000000
3.5070000000 3.9139000000 1.3193000000
3.5068000000 2.9683000000 1.5293000000
3.5067000000 5.5074000000 0.5718000000
3.5065000000 6.3964000000 0.0785000000
3.5064000000 0.5407000000 0.3980000000
3.5061000000 5.3688000000 0.6422000000
3.5060000000 3.4230000000 1.5602000000
3.5056000000 5.5759000000 0.5443000000
3.5054000000 0.2903000000 0.2202000000
3.5052000000 2.3673000000 1.2475000000
3.5049000000 6.2874000000 0.1075000000
3.5048000000 2.1495000000 1.1474000000
3.5046000000 4.5712000000 1.0185000000
3.5045000000 4.6949000000 0.9585000000
3.5044000000 5.5712000000 0.5504000000
3.5043000000 2.4744000000 1.3045000000
3.5040000000 5.8531000000 0.4166000000
3.5038000000 3.7079000000 1.4233000000
3.5037000000 1.9611000000 1.0592000000
3.5034000000 2.6522000000 1.3828000000
3.5033000000 2.1734000000 1.1620000000
3.5029000000 6.0831000000 0.2872000000
3.5028000000 2.1009000000 1.1254000000
3.5025000000 1.6269000000 0.9036000000
3.5024000000 4.1264000000 1.2294000000
3.5020000000 3.2485000000 1.6213000000
3.5018000000 1.5173000000 0.8514000000
3.5015000000 0.8066000000 0.5177000000
3.5011000000 4.4513000000 1.0744000000
3.5007000000 1.3569000000 0.7734000000
3.4998000000 5.8340000000 0.4232000000
3.4998000000 1.6896000000 0.9392000000
3.4995000000 1.1195000000 0.6679000000
3.4993000000 2.1903000000 1.1706000000
3.4992000000 2.2076000000 1.1753000000
3.4990000000 3.2297000000 1.6400000000
3.4983000000 1.5720000000 0.8792000000
3.4973000000 6.2024000000 0.1859000000
3.4955000000 3.5721000000 1.4945000000
3.2626000000 4.0305000000 1.4625000000
3.2612000000 5.8164000000 0.5479000000
3.2595000000 0.2493000000 0.2003000000
3.2588000000 3.8476000000 1.5563000000
3.2587000000 6.0441000000 0.3377000000
3.2581000000 5.0902000000 0.9717000000
3.2577000000 4.2102000000 1.3888000000
3.2575000000 5.5963000000 0.7227000000
3.2573000000 3.6347000000 1.6570000000
3.2568000000 0.3130000000 0.2592000000
3.2561000000 5.9391000000 0.4401000000
3.2560000000 2.5599000000 1.5444000000
3.2560000000 6.2125000000 0.1837000000
3.2558000000 5.0460000000 0.9931000000
3.2556000000 0.7970000000 0.6971000000
3.2555000000 6.0592000000 0.3261000000
3.2552000000 2.3427000000 1.4423000000
3.2550000000 4.3514000000 1.3256000000
3.2549000000 3.7844000000 1.5959000000
3.2548000000 5.7565000000 0.6097000000
3.2547000000 1.4253000000 1.0098000000
3.2546000000 1.9775000000 1.2720000000
3.2543000000 3.6558000000 1.6501000000
3.2542000000 1.0876000000 0.8522000000
3.2540000000 3.0484000000 1.7767000000
3.2537000000 5.4829000000 0.7914000000
3.2536000000 0.7666000000 0.6695000000
3.2535000000 5.9714000000 0.4066000000
3.2534000000 1.2695000000 0.9344000000
3.2532000000 5.0211000000 1.0083000000
3.2531000000 1.3223000000 0.9587000000
3.2530000000 2.7812000000 1.6444000000
3.2527000000 2.5349000000 1.5314000000
3.2523000000 3.3512000000 1.7955000000
3.2523000000 2.4785000000 1.5085000000
3.2520000000 1.8685000000 1.2233000000
3.2518000000 3.1087000000 1.8038000000
3.2514000000 3.7465000000 1.6148000000
3.2516000000 0.6259000000 0.5506000000
3.2510000000 1.1845000000 0.9008000000
3.2508000000 4.1641000000 1.4096000000
3.2505000000 4.6128000000 1.2013000000
3.2503000000 6.4356000000 0.0461000000
3.2501000000 0.5122000000 0.4454000000
3.2500000000 4.3020000000 1.3565000000
3.2493000000 0.4933000000 0.4253000000
3.2492000000 5.8864000000 0.4902000000
3.2479000000 0.0513000000 0.0844000000
3.0128000000 1.3208000000 1.1509000000
3.0109000000 6.3079000000 0.0936000000
3.0105000000 5.7939000000 0.5700000000
3.0101000000 1.6057000000 1.2931000000
3.0098000000 2.9137000000 1.9095000000
3.0095000000 0.3248000000 0.2708000000
3.0093000000 1.2333000000 1.0988000000
3.0088000000 3.4778000000 1.9293000000
3.0085000000 2.6844000000 1.7989000000
3.0077000000 3.8162000000 1.7746000000
3.0074000000 3.7014000000 1.8271000000
3.0073000000 4.1784000000 1.6039000000
3.0072000000 2.0968000000 1.5254000000
3.0070000000 1.5236000000 1.2554000000
3.0068000000 4.5519000000 1.4304000000
3.0068000000 6.2817000000 0.1116000000
3.0064000000 4.6290000000 1.3926000000
3.0063000000 4.5556000000 1.4250000000
3.0060000000 2.1944000000 1.5760000000
3.0058000000 5.2609000000 1.0552000000
3.0056000000 3.8550000000 1.7555000000
3.0054000000 0.9406000000 0.8469000000
3.0053000000 0.7159000000 0.6374000000
3.0052000000 5.2760000000 1.0395000000
3.0050000000 0.3831000000 0.3248000000
3.0050000000 4.1974000000 1.6003000000
3.0045000000 4.6700000000 1.3782000000
3.0043000000 0.7401000000 0.6565000000
3.0042000000 5.6512000000 0.7067000000
3.0040000000 5.6637000000 0.6927000000
3.0039000000 6.0483000000 0.3343000000
3.0037000000 3.7053000000 1.8318000000
3.0033000000 4.0203000000 1.6866000000
3.0030000000 4.9870000000 1.2267000000
3.0029000000 3.1100000000 2.0059000000
3.0025000000 1.9887000000 1.4834000000
3.0024000000 0.3995000000 0.3371000000
3.0021000000 2.1282000000 1.5444000000
3.0017000000 4.6902000000 1.3726000000
3.0014000000 0.9696000000 0.8752000000
3.0013000000 1.2311000000 1.1031000000
3.0010000000 6.1695000000 0.2213000000
3.0008000000 6.3199000000 0.1505000000
3.0001000000 2.7194000000 1.8247000000
3.0000000000 4.9868000000 1.2355000000
2.9994000000 0.4127000000 0.3508000000
2.9990000000 3.0523000000 1.9805000000
2.9986000000 1.6812000000 1.3420000000
2.9980000000 0.3325000000 0.2717000000
2.9976000000 0.4798000000 0.4186000000
2.9940000000 0.0919000000 0.1260000000
2.7640000000 4.0241000000 1.8755000000
2.7618000000 6.4509000000 0.0278000000
2.7609000000 5.2781000000 1.0555000000
2.7596000000 1.2011000000 1.0929000000
2.7589000000 5.8509000000 0.5234000000
2.7584000000 2.8428000000 2.0778000000
2.7581000000 2.9989000000 2.1578000000
2.7580000000 5.0441000000 1.2754000000
2.7578000000 5.7050000000 0.6567000000
2.7573000000 2.0387000000 1.6988000000
2.7570000000 3.0333000000 2.1714000000
2.7567000000 3.3928000000 2.1734000000
2.7564000000 4.8557000000 1.4396000000
2.7563000000 3.0994000000 2.1979000000
2.7560000000 3.3946000000 2.1801000000
2.7557000000 3.2892000000 2.2317000000
2.7555000000 1.5808000000 1.4343000000
2.7553000000 0.8217000000 0.7351000000
2.7549000000 1.2523000000 1.1421000000
2.7547000000 6.3252000000 0.1479000000
2.7544000000 2.7008000000 2.0140000000
2.7539000000 0.5109000000 0.4423000000
2.7537000000 5.6606000000 0.6989000000
2.7536000000 2.0426000000 1.7052000000
2.7534000000 4.0229000000 1.8832000000
2.7532000000 5.1800000000 1.1499000000
2.7531000000 3.6045000000 2.0795000000
2.7530000000 0.8028000000 0.7217000000
2.7530000000 0.1534000000 0.1035000000
2.7529000000 5.1418000000 1.1798000000
2.7526000000 6.4554000000 0.0234000000
2.7524000000 4.1523000000 1.8265000000
2.7521000000 6.4431000000 0.0374000000
2.7517000000 0.2981000000 0.2444000000
2.7516000000 1.0239000000 0.9211000000
2.7514000000 3.0580000000 2.1912000000
2.7510000000 2.6896000000 2.0125000000
2.7505000000 2.7378000000 2.0407000000
2.7500000000 0.6788000000 0.6018000000
2.7488000000 1.5005000000 1.3762000000
2.7483000000 0.4771000000 0.4136000000
2.7478000000 0.2280000000 0.1787000000
2.7470000000 2.1166000000 1.7495000000
2.7453000000 0.3220000000 0.2697000000
2.5130000000 3.8026000000 2.1831000000
2.5120000000 5.1498000000 1.1752000000
2.5108000000 2.3927000000 2.0740000000
2.5100000000 1.5798000000 1.4457000000
2.5090000000 3.1895000000 2.4268000000
2.5084000000 5.4747000000 0.8748000000
2.5082000000 5.6189000000 0.7362000000
2.5078000000 3.6169000000 2.2758000000
2.5073000000 3.4754000000 2.3444000000
2.5071000000 4.7428000000 1.5566000000
2.5069000000 0.7064000000 0.6260000000
2.5066000000 3.5598000000 2.3059000000
2.5063000000 0.4326000000 0.3686000000
2.5064000000 3.6735000000 2.2504000000
2.5059000000 2.8834000000 2.3036000000
2.5057000000 4.7520000000 1.5499000000
2.5055000000 0.7585000000 0.6752000000
2.5053000000 4.7873000000 1.5219000000
2.5052000000 6.1040000000 0.2768000000
2.5050000000 1.2790000000 1.1660000000
2.5049000000 5.9626000000 0.4197000000
2.5048000000 3.1534000000 2.4350000000
2.5045000000 4.0023000000 2.0946000000
2.5045000000 4.2684000000 1.9603000000
2.5043000000 4.7246000000 1.5798000000
2.5041000000 3.6558000000 2.2595000000
2.5040000000 3.2620000000 2.4288000000
2.5037000000 2.0802000000 1.8994000000
2.5035000000 4.1547000000 2.0304000000
2.5034000000 3.5264000000 2.3233000000
2.5032000000 3.6795000000 2.2479000000
2.5028000000 4.0853000000 2.0618000000
2.5025000000 4.9510000000 1.3639000000
2.5022000000 0.5150000000 0.4526000000
2.5020000000 2.1133000000 1.9270000000
2.5019000000 5.7654000000 0.5996000000
2.5016000000 2.2642000000 2.0139000000
2.5015000000 2.7011000000 2.2186000000
2.5013000000 0.3513000000 0.2897000000
2.5011000000 2.1798000000 1.9652000000
2.5008000000 5.9904000000 0.3918000000
2.5005000000 2.7470000000 2.2466000000
2.5003000000 5.6459000000 0.7070000000
2.5001000000 5.8765000000 0.4905000000
2.4998000000 2.8811000000 2.3117000000
2.4991000000 6.2228000000 0.1656000000
2.4965000000 2.7605000000 2.2543000000
2.4945000000 0.8381000000 0.7488000000
2.4933000000 0.7447000000 0.6607000000
2.2625000000 6.2247000000 0.1687000000
2.2597000000 4.4800000000 1.8131000000
2.2588000000 0.6937000000 0.6130000000
2.2584000000 5.4613000000 0.8892000000
2.2581000000 1.6500000000 1.5171000000
2.2580000000 5.3834000000 0.9620000000
2.2576000000 2.1706000000 2.0004000000
2.2572000000 1.6487000000 1.5119000000
2.2568000000 6.2811000000 0.1185000000
2.2567000000 3.5644000000 2.5014000000
2.2564000000 4.1801000000 2.0947000000
2.2563000000 6.4710000000 0.0862000000
2.2560000000 6.1667000000 0.2224000000
2.2559000000 2.5817000000 2.3468000000
2.2558000000 4.5561000000 1.7366000000
2.2555000000 1.8404000000 1.6916000000
2.2554000000 1.2049000000 1.0935000000
2.2553000000 5.1471000000 1.1833000000
2.2551000000 5.9758000000 0.4030000000
2.2550000000 5.5608000000 0.7871000000
2.2548000000 0.0227000000 0.0555000000
2.2546000000 5.3258000000 1.0141000000
2.2545000000 5.7377000000 0.6239000000
2.2539000000 3.5616000000 2.5040000000
2.2538000000 3.2510000000 2.6385000000
2.2535000000 4.4487000000 1.8380000000
2.2534000000 0.6765000000 0.5979000000
2.2532000000 3.7118000000 2.4414000000
2.2531000000 3.5791000000 2.5048000000
2.2528000000 2.6552000000 2.4040000000
2.2526000000 4.2502000000 2.0185000000
2.2524000000 2.3377000000 2.1563000000
2.2522000000 2.6060000000 2.3667000000
2.2521000000 4.8763000000 1.4385000000
2.2520000000 3.1688000000 2.6402000000
2.2518000000 1.2908000000 1.1743000000
2.2514000000 1.1372000000 1.0315000000
2.2510000000 4.8286000000 1.4822000000
2.2505000000 0.3562000000 0.2990000000
2.2504000000 3.9087000000 2.3231000000
2.2502000000 1.2080000000 1.0994000000
2.2499000000 5.6502000000 0.7043000000
2.2493000000 3.6642000000 2.4660000000
2.2492000000 0.4776000000 0.4125000000
2.2485000000 4.9327000000 1.3786000000
2.2479000000 3.6754000000 2.4602000000
2.2470000000 5.2081000000 1.1273000000
2.2454000000 1.6287000000 1.4899000000
2.0138000000 5.9436000000 0.4359000000
2.0115000000 4.5607000000 1.7322000000
2.0111000000 3.1608000000 2.8343000000
2.0100000000 6.2757000000 0.1184000000
2.0088000000 0.4238000000 0.3573000000
2.0084000000 0.2997000000 0.2467000000
2.0082000000 0.5776000000 0.5049000000
2.0077000000 5.3036000000 1.0374000000
2.0073000000 0.0293000000 0.0663000000
2.0068000000 4.1761000000 2.0911000000
2.0067000000 4.5555000000 1.7370000000
2.0063000000 3.9886000000 2.2645000000
2.0060000000 3.7461000000 2.4988000000
2.0059000000 1.8383000000 1.6890000000
2.0057000000 3.0884000000 2.8084000000
2.0054000000 4.9930000000 1.3241000000
2.0053000000 5.9803000000 0.3997000000
2.0049000000 0.9574000000 0.8669000000
2.0048000000 4.8554000000 1.4582000000
2.0047000000 3.0978000000 2.8155000000
2.0044000000 5.8448000000 0.5264000000
2.0043000000 3.5261000000 2.6845000000
2.0041000000 2.0181000000 1.8571000000
2.0039000000 1.7070000000 1.5678000000
2.0037000000 0.3594000000 0.3020000000
2.0036000000 1.9688000000 1.8059000000
2.0033000000 1.9444000000 1.7907000000
2.0032000000 1.6317000000 1.4953000000
2.0029000000 3.5659000000 2.6596000000
2.0027000000 0.8520000000 0.7653000000
2.0025000000 5.4301000000 0.9155000000
2.0023000000 0.5697000000 0.4993000000
2.0022000000 4.3267000000 1.9575000000
2.0020000000 0.7426000000 0.6589000000
2.0018000000 2.5260000000 2.3378000000
2.0017000000 0.2941000000 0.2388000000
2.0015000000 0.6390000000 0.5677000000
2.0012000000 2.2340000000 2.0660000000
2.0011000000 1.6006000000 1.4667000000
2.0008000000 3.5574000000 2.6576000000
2.0005000000 6.1461000000 0.2398000000
2.0002000000 4.3225000000 1.9540000000
2.0000000000 4.1251000000 2.1380000000
1.9998000000 3.0314000000 2.7726000000
1.9992000000 2.6875000000 2.4826000000
1.9980000000 3.5425000000 2.6734000000
1.9953000000 0.0653000000 0.0966000000
1.9925000000 2.0986000000 1.9368000000
1.7615000000 4.6038000000 1.6873000000
1.7609000000 6.3988000000 0.0814000000
1.7606000000 3.0816000000 2.8297000000
1.7595000000 0.5110000000 0.4405000000
1.7593000000 6.2788000000 0.1177000000
1.7581000000 5.8103000000 0.5559000000
1.7580000000 5.4356000000 0.9138000000
1.7578000000 4.9071000000 1.4003000000
1.7576000000 5.1267000000 1.2050000000
1.7573000000 6.2139000000 0.1758000000
1.7571000000 5.2786000000 1.0578000000
1.7570000000 3.1719000000 2.8643000000
1.7568000000 5.9372000000 0.4427000000
1.7565000000 4.1348000000 2.1274000000
1.7563000000 2.4354000000 2.2463000000
1.7560000000 3.9392000000 2.3136000000
1.7559000000 3.0203000000 2.7790000000
1.7550000000 1.5901000000 1.4572000000
1.7549000000 5.0978000000 1.2248000000
1.7546000000 5.3629000000 0.9786000000
1.7543000000 0.1407000000 0.0948000000
1.7540000000 5.1501000000 1.1812000000
1.7540000000 4.7045000000 1.5983000000
1.7537000000 2.7302000000 2.5252000000
1.7534000000 1.4363000000 1.3119000000
1.7533000000 2.7990000000 2.5890000000
1.7530000000 6.2514000000 0.1412000000
1.7529000000 3.1125000000 2.8425000000
1.7528000000 1.5076000000 1.3764000000
1.7526000000 3.8767000000 2.3734000000
1.7525000000 0.8667000000 0.7798000000
1.7523000000 3.3613000000 2.8249000000
1.7522000000 3.5601000000 2.6712000000
1.7521000000 3.9469000000 2.3126000000
1.7520000000 0.6828000000 0.6003000000
1.7514000000 4.6307000000 1.6657000000
1.7511000000 1.9252000000 1.7668000000
1.7510000000 1.6135000000 1.4765000000
1.7507000000 0.0869000000 0.1162000000
1.7505000000 0.9578000000 0.8672000000
1.7503000000 0.8358000000 0.7436000000
1.7501000000 2.6720000000 2.4725000000
1.7495000000 5.8883000000 0.4851000000
1.7489000000 1.0795000000 0.9769000000
1.7481000000 0.6060000000 0.5294000000
1.7476000000 0.9285000000 0.8382000000
1.7465000000 2.2734000000 2.0990000000
1.5127000000 5.9739000000 0.4023000000
1.5104000000 4.7909000000 1.5159000000
1.5098000000 5.4700000000 0.8816000000
1.5093000000 1.0719000000 0.9718000000
1.5091000000 6.2198000000 0.1732000000
1.5089000000 5.0288000000 1.2905000000
1.5081000000 3.6546000000 2.5004000000
1.5076000000 5.5123000000 0.8328000000
1.5073000000 5.2589000000 1.0772000000
1.5070000000 3.8861000000 2.3499000000
1.5068000000 3.4980000000 2.5760000000
1.5065000000 5.3962000000 0.9480000000
1.5065000000 1.3696000000 1.2447000000
1.5063000000 0.8943000000 0.7995000000
1.5060000000 4.9898000000 1.3307000000
1.5058000000 0.6241000000 0.5531000000
1.5055000000 2.9308000000 2.5679000000
1.5053000000 1.9917000000 1.8331000000
1.5053000000 3.1690000000 2.6668000000
1.5051000000 1.8596000000 1.7120000000
1.5049000000 4.7761000000 1.5267000000
1.5048000000 0.0614000000 0.0953000000
1.5047000000 3.1493000000 2.6646000000
1.5045000000 4.0651000000 2.1964000000
1.5043000000 4.2373000000 2.0392000000
1.5042000000 0.6323000000 0.5593000000
1.5041000000 0.0249000000 0.0584000000
1.5038000000 0.4988000000 0.4326000000
1.5036000000 6.1953000000 0.1987000000
1.5033000000 4.0402000000 2.2218000000
1.5033000000 5.4428000000 0.9053000000
1.5031000000 6.3764000000 0.1009000000
1.5030000000 0.8787000000 0.7903000000
1.5027000000 2.1633000000 1.9922000000
1.5026000000 4.7968000000 1.5065000000
1.5025000000 0.4957000000 0.4274000000
1.5024000000 0.2933000000 0.2396000000
1.5023000000 0.9046000000 0.8102000000
1.5020000000 0.6310000000 0.5523000000
1.5017000000 2.7054000000 2.4414000000
1.5015000000 5.1508000000 1.1796000000
1.5013000000 1.5907000000 1.4533000000
1.5010000000 1.3109000000 1.1918000000
1.5004000000 5.3003000000 1.0361000000
1.5003000000 1.0350000000 0.9386000000
1.5000000000 2.7849000000 2.4930000000
1.4998000000 2.3484000000 2.1718000000
1.4994000000 0.7161000000 0.6373000000
1.4993000000 3.6944000000 2.4759000000
1.4989000000 4.6341000000 1.6629000000
1.4985000000 2.3818000000 2.2023000000
1.4983000000 0.6449000000 0.5646000000
1.4973000000 2.0337000000 1.8720000000
1.4915000000 2.2172000000 2.0453000000
1.2609000000 6.1507000000 0.2382000000
1.2595000000 5.7275000000 0.6350000000
1.2593000000 5.5352000000 0.8113000000
1.2591000000 6.2651000000 0.1321000000
1.2584000000 4.2234000000 2.0115000000
1.2582000000 5.9778000000 0.4013000000
1.2570000000 5.7323000000 0.6272000000
1.2568000000 6.1147000000 0.2703000000
1.2566000000 3.3954000000 2.4193000000
1.2563000000 2.7994000000 2.3016000000
1.2558000000 6.3262000000 0.1506000000
1.2557000000 1.6039000000 1.4711000000
1.2555000000 3.6883000000 2.2811000000
1.2553000000 1.0079000000 0.9122000000
1.2552000000 5.9940000000 0.3806000000
1.2548000000 6.0374000000 0.3391000000
1.2543000000 6.3029000000 0.0938000000
1.2541000000 3.0155000000 2.4027000000
1.2538000000 3.9791000000 2.1422000000
1.2537000000 2.4271000000 2.1221000000
1.2535000000 5.3774000000 0.9663000000
1.2533000000 4.4066000000 1.8703000000
1.2530000000 4.7825000000 1.5220000000
1.2526000000 2.5743000000 2.1936000000
1.2523000000 4.5144000000 1.7766000000
1.2523000000 4.5777000000 1.7171000000
1.2519000000 1.0319000000 0.9316000000
1.2513000000 2.6255000000 2.2173000000
1.2509000000 5.4473000000 0.8992000000
1.2508000000 1.2238000000 1.1135000000
1.2503000000 5.2368000000 1.0946000000
1.2500000000 2.9734000000 2.3741000000
1.2495000000 5.2463000000 1.0940000000
1.2489000000 3.3768000000 2.4229000000
1.2485000000 2.7577000000 2.2738000000
1.2482000000 0.1626000000 0.1208000000
1.2480000000 1.9991000000 1.8429000000
1.2478000000 1.4261000000 1.3037000000
1.2465000000 0.2833000000 0.2236000000
1.2458000000 1.5839000000 1.4509000000
1.0123000000 4.5366000000 1.6826000000
1.0110000000 4.4162000000 1.7350000000
1.0095000000 0.6240000000 0.5522000000
1.0088000000 5.6467000000 0.7130000000
1.0080000000 4.7701000000 1.5270000000
1.0074000000 5.6555000000 0.6977000000
1.0072000000 2.8036000000 2.0995000000
1.0071000000 4.7761000000 1.5189000000
1.0067000000 3.1755000000 2.2599000000
1.0065000000 4.8992000000 1.4180000000
1.0060000000 3.7993000000 2.0240000000
1.0058000000 4.1188000000 1.8740000000
1.0056000000 4.1090000000 1.8800000000
1.0054000000 4.7103000000 1.5822000000
1.0050000000 2.5509000000 1.9800000000
1.0049000000 1.3389000000 1.2219000000
1.0045000000 3.0849000000 2.2299000000
1.0043000000 4.7973000000 1.5001000000
1.0041000000 3.4256000000 2.2007000000
1.0039000000 0.3710000000 0.3083000000
1.0038000000 0.2543000000 0.1981000000
1.0036000000 1.8423000000 1.6354000000
1.0034000000 5.0835000000 1.2421000000
1.0033000000 4.1099000000 1.8782000000
1.0030000000 3.8163000000 2.0158000000
1.0028000000 4.0813000000 1.8882000000
1.0025000000 6.1762000000 0.2148000000
1.0022000000 2.6622000000 2.0300000000
1.0019000000 2.0463000000 1.7407000000
1.0016000000 3.4031000000 2.2046000000
1.0015000000 0.7822000000 0.7049000000
1.0013000000 1.3501000000 1.2286000000
1.0008000000 6.2487000000 0.1439000000
1.0005000000 1.0733000000 0.9709000000
1.0003000000 1.8139000000 1.6181000000
1.0002000000 1.3387000000 1.2161000000
0.9999000000 5.0375000000 1.2852000000
0.9997000000 0.6312000000 0.5537000000
0.9990000000 0.5002000000 0.4338000000
0.9986000000 1.9174000000 1.6753000000
0.9980000000 2.4518000000 1.9277000000
0.9971000000 0.0113000000 0.0523000000
0.9948000000 1.4050000000 1.2833000000
0.7615000000 4.3693000000 1.5576000000
0.7596000000 3.4275000000 1.9937000000
0.7591000000 4.6586000000 1.4184000000
0.7588000000 6.1889000000 0.2045000000
0.7587000000 5.0597000000 1.2095000000
0.7583000000 3.3159000000 2.0504000000
0.7581000000 6.0863000000 0.2975000000
0.7574000000 3.8134000000 1.8127000000
0.7569000000 5.0904000000 1.1988000000
0.7568000000 2.3673000000 1.6937000000
0.7562000000 4.5050000000 1.4891000000
0.7561000000 6.3454000000 0.1269000000
0.7560000000 4.2249000000 1.6210000000
0.7557000000 1.9668000000 1.5020000000
0.7554000000 2.1905000000 1.6091000000
0.7552000000 6.3876000000 0.0918000000
0.7551000000 4.7612000000 1.3673000000
0.7547000000 4.1165000000 1.6735000000
0.7546000000 4.0751000000 1.6957000000
0.7543000000 4.0375000000 1.7092000000
0.7542000000 1.9594000000 1.4998000000
0.7539000000 4.8898000000 1.3070000000
0.7537000000 1.1169000000 1.0122000000
0.7532000000 3.0593000000 2.0135000000
0.7530000000 5.5223000000 0.8273000000
0.7528000000 2.8536000000 1.9169000000
0.7525000000 1.7336000000 1.3903000000
0.7523000000 0.5015000000 0.4388000000
0.7521000000 2.9672000000 1.9718000000
0.7520000000 4.1792000000 1.6391000000
0.7518000000 4.3613000000 1.5535000000
0.7517000000 5.4758000000 0.8739000000
0.7516000000 4.8337000000 1.3293000000
0.7513000000 2.8122000000 1.8971000000
0.7513000000 2.8457000000 1.9067000000
0.7511000000 3.0965000000 2.0310000000
0.7510000000 1.1330000000 1.0256000000
0.7508000000 0.0953000000 0.1228000000
0.7505000000 3.1428000000 2.0479000000
0.7500000000 4.3925000000 1.5349000000
0.7494000000 3.2057000000 2.0650000000
0.7489000000 4.3457000000 1.5537000000
0.7484000000 0.6920000000 0.6168000000
0.7485000000 5.7495000000 0.6139000000
0.7468000000 0.5064000000 0.4346000000
0.7460000000 0.9412000000 0.8476000000
0.7454000000 0.8024000000 0.7155000000
0.5121000000 6.3217000000 0.1492000000
0.5109000000 5.1033000000 1.0047000000
0.5104000000 3.3866000000 1.8130000000
0.5095000000 5.5943000000 0.7459000000
0.5093000000 6.2440000000 0.1515000000
0.5088000000 5.6267000000 0.7129000000
0.5078000000 4.4388000000 1.3174000000
0.5074000000 1.7727000000 1.2076000000
0.5071000000 1.6538000000 1.1524000000
0.5068000000 5.3791000000 0.8723000000
0.5063000000 5.6657000000 0.6815000000
0.5062000000 6.2512000000 0.1388000000
0.5059000000 6.0028000000 0.3758000000
0.5058000000 4.8540000000 1.1225000000
0.5054000000 6.1021000000 0.2803000000
0.5055000000 0.5661000000 0.4960000000
0.5051000000 3.6518000000 1.6822000000
0.5049000000 5.1808000000 0.9669000000
0.5046000000 2.6742000000 1.6332000000
0.5042000000 3.2125000000 1.8713000000
0.5041000000 3.0371000000 1.7995000000
0.5040000000 0.0456000000 0.0850000000
0.5038000000 2.6701000000 1.6264000000
0.5037000000 0.6428000000 0.5662000000
0.5035000000 4.2133000000 1.4178000000
0.5034000000 1.4337000000 1.0439000000
0.5033000000 3.9860000000 1.5292000000
0.5030000000 4.6325000000 1.2240000000
0.5029000000 6.4288000000 0.0510000000
0.5028000000 1.0479000000 0.8682000000
0.5026000000 0.1312000000 0.0889000000
0.5023000000 3.3461000000 1.8265000000
0.5021000000 5.9714000000 0.4052000000
0.5020000000 0.5031000000 0.4319000000
0.5017000000 2.8150000000 1.6946000000
0.5014000000 2.7626000000 1.6696000000
0.5012000000 0.4742000000 0.4070000000
0.5011000000 1.5300000000 1.0945000000
0.5008000000 4.1937000000 1.4265000000
0.5003000000 3.8431000000 1.5920000000
0.5003000000 4.3416000000 1.3575000000
0.4999000000 0.6452000000 0.5711000000
0.4995000000 1.1983000000 0.9309000000
0.4991000000 3.6773000000 1.6652000000
0.4990000000 4.5102000000 1.2743000000
0.4985000000 0.4393000000 0.3720000000
0.4983000000 3.2413000000 1.8524000000
0.4976000000 1.6070000000 1.1240000000
0.4947000000 0.0133000000 0.0507000000
0.4938000000 0.5208000000 0.4500000000
0.4934000000 1.9941000000 1.3037000000
0.2622000000 5.8474000000 0.4602000000
0.2606000000 2.3916000000 1.3035000000
0.2605000000 2.9535000000 1.5630000000
0.2597000000 6.2528000000 0.1409000000
0.2593000000 3.9468000000 1.3487000000
0.2586000000 0.0103000000 0.0485000000
0.2583000000 3.3279000000 1.6333000000
0.2578000000 3.9585000000 1.3390000000
0.2575000000 6.1754000000 0.2089000000
0.2573000000 5.3736000000 0.6779000000
0.2567000000 2.8909000000 1.5326000000
0.2566000000 3.6256000000 1.4989000000
0.2563000000 6.2089000000 0.1832000000
0.2560000000 1.2520000000 0.7578000000
0.2558000000 5.8038000000 0.4741000000
0.2555000000 3.6500000000 1.4839000000
0.2553000000 2.4341000000 1.3175000000
0.2549000000 1.5366000000 0.8894000000
0.2548000000 5.0265000000 0.8388000000
0.2545000000 2.4406000000 1.3187000000
0.2544000000 0.9174000000 0.6036000000
0.2542000000 0.7694000000 0.5306000000
0.2540000000 6.4410000000 0.0366000000
0.2539000000 6.2209000000 0.1685000000
0.2538000000 6.0910000000 0.2807000000
0.2536000000 1.7586000000 0.9929000000
0.2535000000 2.0471000000 1.1260000000
0.2533000000 6.4244000000 0.0538000000
0.2531000000 1.9234000000 1.0726000000
0.2526000000 0.9181000000 0.6041000000
0.2525000000 4.7424000000 0.9677000000
0.2524000000 0.3272000000 0.2662000000
0.2522000000 1.3242000000 0.7916000000
0.2518000000 3.4637000000 1.5710000000
0.2515000000 3.1642000000 1.6562000000
0.2511000000 4.7249000000 0.9750000000
0.2506000000 6.1206000000 0.2617000000
0.2504000000 3.2161000000 1.6658000000
0.2499000000 0.0209000000 0.0515000000
0.2498000000 6.4098000000 0.0726000000
0.2496000000 0.9717000000 0.6233000000
0.2492000000 0.2986000000 0.2464000000
0.2489000000 2.7897000000 1.4744000000
0.2483000000 4.3999000000 1.1249000000
0.2478000000 4.5275000000 1.0580000000
0.2471000000 1.4748000000 0.8509000000
0.2456000000 1.6979000000 0.9563000000
0.0123000000 4.4903000000 0.8937000000
0.0110000000 5.1564000000 0.5760000000
0.0098000000 2.3905000000 1.0976000000
0.0090000000 4.5000000000 0.8815000000
0.0079000000 2.3261000000 1.0635000000
0.0075000000 2.8318000000 1.2976000000
0.0075000000 4.7981000000 0.7379000000
0.0073000000 6.4393000000 0.0271000000
0.0070000000 3.8042000000 1.2096000000
0.0068000000 4.8634000000 0.7112000000
0.0066000000 0.4707000000 0.1872000000
0.0063000000 1.0452000000 0.4592000000
0.0058000000 5.3901000000 0.4600000000
0.0056000000 5.4921000000 0.4125000000
0.0054000000 4.3955000000 0.9208000000
0.0049000000 3.4030000000 1.3935000000
0.0048000000 3.5572000000 1.3274000000
0.0044000000 0.6430000000 0.2681000000
0.0040000000 2.4481000000 1.1114000000
0.0037000000 0.7601000000 0.3281000000
0.0036000000 3.9586000000 1.1335000000
0.0033000000 4.1075000000 1.0590000000
0.0033000000 1.2246000000 0.5420000000
0.0031000000 6.1481000000 0.0955000000
0.0030000000 1.3760000000 0.6134000000
0.0028000000 0.3280000000 0.1212000000
0.0026000000 6.1714000000 0.0958000000
0.0024000000 1.3121000000 0.5833000000
0.0023000000 4.5272000000 0.8693000000
0.0021000000 1.4381000000 0.6368000000
0.0020000000 3.4056000000 1.3915000000
0.0015000000 2.7738000000 1.2683000000
0.0008000000 5.5144000000 0.3988000000
0.0005000000 0.2458000000 0.0792000000
0.0005000000 0.0789000000 0.0647000000
0.0004000000 0.2728000000 0.0948000000
0.0003000000 3.7382000000 1.2368000000
-0.0003000000 2.6348000000 1.2007000000
-0.0005000000 1.9780000000 0.8884000000
-0.0007000000 2.8090000000 1.2808000000
-0.0008000000 0.1566000000 0.1097000000
-0.0010000000 2.3210000000 1.0458000000
-0.0013000000 1.3727000000 0.6045000000
-0.0015000000 4.5357000000 0.8617000000
-0.0017000000 2.0613000000 0.9270000000
-0.0022000000 2.2819000000 1.0289000000
-0.0026000000 1.0201000000 0.4402000000
-0.0028000000 3.9383000000 1.1338000000
-0.0035000000 3.0203000000 1.3799000000
-0.0042000000 1.6814000000 0.7472000000
-0.0074000000 0.2341000000 0.1438000000
-0.2394000000 5.5444000000 0.1905000000
-0.2399000000 5.6201000000 0.1540000000
-0.2402000000 1.1870000000 0.3276000000
-0.2406000000 3.0714000000 1.2111000000
-0.2407000000 3.6885000000 1.0623000000
-0.2415000000 2.2714000000 0.8336000000
-0.2420000000 4.2974000000 0.7701000000
-0.2425000000 5.1379000000 0.3749000000
-0.2430000000 5.9002000000 0.0957000000
-0.2431000000 3.5180000000 1.1383000000
-0.2434000000 5.9091000000 0.0920000000
-0.2436000000 1.7929000000 0.6068000000
-0.2438000000 0.5082000000 0.0788000000
-0.2440000000 1.9180000000 0.6677000000
-0.2442000000 4.3197000000 0.7599000000
-0.2444000000 6.0137000000 0.0378000000
-0.2446000000 5.0597000000 0.4102000000
-0.2447000000 4.0945000000 0.8683000000
-0.2448000000 1.9638000000 0.6818000000
-0.2450000000 3.7042000000 1.0505000000
-0.2451000000 2.0556000000 0.7344000000
-0.2457000000 0.7847000000 0.1350000000
-0.2458000000 4.5470000000 0.6540000000
-0.2463000000 5.1270000000 0.3806000000
-0.2465000000 3.7126000000 1.0451000000
-0.2465000000 2.5195000000 0.9472000000
-0.2469000000 0.3959000000 0.0251000000
-0.2471000000 4.3089000000 0.7630000000
-0.2474000000 3.3627000000 1.2117000000
-0.2475000000 1.3023000000 0.3729000000
-0.2476000000 1.3081000000 0.3734000000
-0.2479000000 0.9688000000 0.2170000000
-0.2480000000 1.6324000000 0.5289000000
-0.2481000000 2.4083000000 0.8889000000
-0.2483000000 2.6732000000 1.0163000000
-0.2487000000 4.1167000000 0.8540000000
-0.2488000000 5.0867000000 0.4001000000
-0.2492000000 0.7164000000 0.1001000000
-0.2494000000 6.2183000000 0.0136000000
-0.2495000000 3.5405000000 1.1245000000
-0.2497000000 0.7263000000 0.0981000000
-0.2498000000 1.9526000000 0.6802000000
-0.2502000000 2.1367000000 0.7646000000
-0.2510000000 3.8494000000 0.9833000000
-0.2517000000 3.7318000000 1.0338000000
-0.2525000000 6.0366000000 0.0221000000
-0.2541000000 1.2197000000 0.3256000000
-0.4877000000 2.8018000000 0.8836000000
-0.4921000000 1.9391000000 0.4766000000
-0.4930000000 5.5948000000 0.0295000000
-0.4935000000 2.3488000000 0.6679000000
-0.4936000000 4.9136000000 0.2805000000
-0.4939000000 3.6241000000 0.8862000000
-0.4941000000 5.3127000000 0.0905000000
-0.4951000000 2.2062000000 0.5989000000
-0.4952000000 2.0268000000 0.5101000000
-0.4957000000 4.9043000000 0.2784000000
-0.4963000000 5.7588000000 0.0262000000
-0.4966000000 5.1765000000 0.1548000000
-0.4967000000 0.7358000000 0.0550000000
-0.4972000000 0.6265000000 -0.0005000000
-0.4976000000 1.0791000000 0.1445000000
-0.4977000000 2.5189000000 0.7416000000
-0.4979000000 4.7453000000 0.3547000000
-0.4982000000 5.4648000000 0.0941000000
-0.4987000000 2.7881000000 0.8600000000
-0.4988000000 5.2188000000 0.1308000000
-0.4989000000 1.1996000000 0.1195000000
-0.4992000000 1.5570000000 0.2901000000
-0.4997000000 1.9392000000 0.4650000000
-0.5001000000 3.0936000000 1.0085000000
-0.5002000000 1.4080000000 0.2158000000
-0.5006000000 1.0536000000 0.1279000000
-0.5012000000 0.8020000000 0.0803000000
-0.5020000000 1.8992000000 0.4483000000
-0.5027000000 1.2833000000 0.1552000000
-0.5039000000 3.0206000000 0.9717000000
-0.5047000000 0.7024000000 0.0312000000
-0.5061000000 2.9510000000 0.9354000000
-0.7385000000 5.2963000000 0.0431000000
-0.7410000000 4.2264000000 0.4001000000
-0.7418000000 1.3765000000 0.0821000000
-0.7419000000 3.5598000000 0.7096000000
-0.7422000000 3.7062000000 0.6449000000
-0.7426000000 4.4375000000 0.3042000000
-0.7431000000 1.7034000000 0.1577000000
-0.7435000000 5.2988000000 0.0423000000
-0.7436000000 4.4390000000 0.3028000000
-0.7440000000 4.4821000000 0.2780000000
-0.7440000000 3.5216000000 0.7336000000
-0.7442000000 4.6828000000 0.1879000000
-0.7447000000 3.2628000000 0.8367000000
-0.7450000000 3.6928000000 0.6477000000
-0.7452000000 4.5964000000 0.2219000000
-0.7455000000 1.5452000000 0.0847000000
-0.7458000000 1.7757000000 0.1934000000
-0.7462000000 2.7614000000 0.6470000000
-0.7463000000 1.3710000000 0.0730000000
-0.7465000000 2.9122000000 0.7280000000
-0.7472000000 1.4551000000 0.1121000000
-0.7479000000 1.1740000000 0.0546000000
-0.7481000000 3.3356000000 0.8145000000
-0.7484000000 3.4661000000 0.7505000000
-0.7487000000 2.6403000000 0.5946000000
-0.7490000000 4.4787000000 0.2754000000
-0.7492000000 2.3054000000 0.4368000000
-0.7495000000 3.1679000000 0.8379000000
-0.7504000000 1.7287000000 0.1609000000
-0.7508000000 3.5500000000 0.7154000000
-0.7517000000 1.0929000000 0.0169000000
-0.7527000000 3.0926000000 0.8050000000
-0.7535000000 3.9025000000 0.5472000000
-0.7544000000 2.3296000000 0.4435000000
-0.9875000000 3.0594000000 0.5962000000
-0.9912000000 3.8513000000 0.3785000000
-0.9917000000 3.8755000000 0.3638000000
-0.9925000000 4.4615000000 0.0819000000
-0.9926000000 1.8413000000 0.0939000000
-0.9931000000 2.5768000000 0.3675000000
-0.9938000000 4.4346000000 0.0965000000
-0.9940000000 3.3010000000 0.6299000000
-0.9947000000 2.1938000000 0.1825000000
-0.9953000000 2.6782000000 0.4183000000
-0.9955000000 4.5708000000 0.1068000000
-0.9956000000 2.7575000000 0.4445000000
-0.9960000000 4.4419000000 0.0950000000
-0.9967000000 2.1610000000 0.1667000000
-0.9969000000 4.1838000000 0.2139000000
-0.9972000000 1.5594000000 0.0334000000
-0.9981000000 4.2981000000 0.1554000000
-0.9985000000 4.2364000000 0.1840000000
-0.9996000000 2.6176000000 0.3794000000
-1.0000000000 3.5713000000 0.5003000000
-1.0002000000 2.1367000000 0.1549000000
-1.0006000000 3.8656000000 0.3560000000
-1.0020000000 4.6569000000 0.0581000000
-1.0035000000 2.0433000000 0.1066000000
-1.0047000000 3.3078000000 0.6174000000
-1.2397000000 2.7973000000 0.2720000000
-1.2415000000 2.4154000000 0.0841000000
-1.2423000000 4.1917000000 0.0779000000
-1.2426000000 4.3887000000 0.0647000000
-1.2436000000 4.1809000000 0.0868000000
-1.2445000000 3.9565000000 0.1164000000
-1.2447000000 3.5481000000 0.3163000000
-1.2453000000 3.9842000000 0.0989000000
-1.2458000000 4.2220000000 0.0689000000
-1.2467000000 2.0983000000 0.0826000000
-1.2471000000 2.1913000000 0.0533000000
-1.2475000000 3.3048000000 0.4218000000
-1.2477000000 4.2630000000 0.0480000000
-1.2478000000 2.6653000000 0.1978000000
-1.2486000000 2.0969000000 0.0807000000
-1.2487000000 2.6886000000 0.2074000000
-1.2493000000 3.0601000000 0.3899000000
-1.2498000000 3.9503000000 0.1198000000
-1.2499000000 2.3790000000 0.1406000000
-1.2511000000 3.9393000000 0.1209000000
-1.4873000000 2.3829000000 0.0206000000
-1.4910000000 2.4885000000 0.0678000000
-1.4933000000 3.7890000000 0.0668000000
-1.4943000000 2.7671000000 0.1178000000
-1.4954000000 3.5364000000 0.1105000000
-1.4960000000 3.5642000000 0.0997000000
-1.4962000000 3.0637000000 0.1827000000
-1.4971000000 2.5835000000 0.0361000000
-1.4984000000 3.2365000000 0.2366000000
-1.4994000000 3.7626000000 0.0785000000
-1.5001000000 3.4013000000 0.1768000000
-1.5011000000 2.7951000000 0.1339000000
-1.7404000000 3.2782000000 0.1083000000
-1.7412000000 3.0064000000 0.0340000000
-1.7428000000 3.2031000000 0.1085000000
-1.7482000000 3.3981000000 0.0413000000
-1.7490000000 3.5181000000 0.0615000000
-1.7502000000 2.9413000000 0.0684000000
-1.7574000000 3.2356000000 0.1046000000
