5.7607000000 4.1348000000 0.4915000000
5.7602000000 4.3397000000 0.3976000000
5.7593000000 5.0711000000 0.1250000000
5.7584000000 3.9555000000 0.5777000000
5.7583000000 4.8089000000 0.1771000000
5.7581000000 3.2505000000 0.3880000000
5.7569000000 2.5075000000 0.1148000000
5.7559000000 4.3469000000 0.3947000000
5.7558000000 3.1672000000 0.3439000000
5.7550000000 5.0638000000 0.1390000000
5.7545000000 5.3201000000 0.0200000000
5.7543000000 4.7559000000 0.2019000000
5.7538000000 3.7024000000 0.5991000000
5.7535000000 2.2468000000 0.0661000000
5.7532000000 5.2335000000 0.0596000000
5.7526000000 4.3015000000 0.4225000000
5.7523000000 5.2269000000 0.0592000000
5.7515000000 5.5127000000 0.0030000000
5.7510000000 2.5555000000 0.1365000000
5.7509000000 4.8474000000 0.1654000000
5.7502000000 4.0705000000 0.5342000000
5.7498000000 3.5428000000 0.5309000000
5.7490000000 4.4294000000 0.3597000000
5.5145000000 5.3059000000 0.1384000000
5.5123000000 1.9482000000 0.0442000000
5.5102000000 3.5980000000 0.7505000000
5.5095000000 5.6415000000 0.0635000000
5.5088000000 3.2332000000 0.5803000000
5.5086000000 4.7656000000 0.4035000000
5.5078000000 4.0661000000 0.7378000000
5.5073000000 4.9129000000 0.3327000000
5.5067000000 3.4470000000 0.6892000000
5.5058000000 4.1710000000 0.6907000000
5.5056000000 3.7464000000 0.8269000000
5.5053000000 3.1357000000 0.5288000000
5.5048000000 3.7280000000 0.8174000000
5.5047000000 3.2967000000 0.6143000000
5.5045000000 4.8849000000 0.3462000000
5.5041000000 1.9119000000 0.0340000000
5.5039000000 2.7971000000 0.3821000000
5.5038000000 2.7964000000 0.3779000000
5.5034000000 4.0357000000 0.7540000000
5.5029000000 4.6176000000 0.4736000000
5.5025000000 2.3122000000 0.1562000000
5.5022000000 5.6230000000 0.0836000000
5.5020000000 3.0767000000 0.5207000000
5.5014000000 2.0670000000 0.1123000000
5.5006000000 2.0907000000 0.1252000000
5.5003000000 5.2625000000 0.1790000000
5.4997000000 2.2904000000 0.1404000000
5.4993000000 4.7059000000 0.4422000000
5.4958000000 1.7839000000 0.0587000000
5.2635000000 2.0123000000 0.2031000000
5.2627000000 2.8575000000 0.6074000000
5.2606000000 3.5980000000 0.9538000000
5.2603000000 5.7202000000 0.1557000000
5.2589000000 4.8236000000 0.5824000000
5.2583000000 5.4553000000 0.2862000000
5.2577000000 4.9951000000 0.5024000000
5.2575000000 4.4158000000 0.7670000000
5.2574000000 2.7685000000 0.5697000000
5.2570000000 2.0372000000 0.2246000000
5.2569000000 3.1375000000 0.7432000000
5.2566000000 3.7397000000 1.0257000000
5.2565000000 2.6547000000 0.5153000000
5.2563000000 3.9716000000 0.9865000000
5.2559000000 3.8494000000 1.0294000000
5.2557000000 4.6971000000 0.6488000000
5.2552000000 3.0247000000 0.6827000000
5.2548000000 2.9139000000 0.6374000000
5.2545000000 2.2144000000 0.3078000000
5.2545000000 4.1276000000 0.9098000000
5.2540000000 1.6471000000 0.1183000000
5.2538000000 3.8257000000 1.0421000000
5.2533000000 3.4392000000 0.8898000000
5.2523000000 3.3277000000 0.8398000000
5.2522000000 4.3503000000 0.8078000000
5.2520000000 2.0223000000 0.2245000000
5.2515000000 2.2431000000 0.3224000000
5.2513000000 4.8797000000 0.5634000000
5.2512000000 3.9641000000 0.9914000000
5.2510000000 2.2222000000 0.3177000000
5.2507000000 2.1877000000 0.2896000000
5.2505000000 1.6781000000 0.1342000000
5.2498000000 1.5404000000 0.0735000000
5.2495000000 3.1853000000 0.7738000000
5.2480000000 2.7996000000 0.5853000000
5.2454000000 2.1742000000 0.2944000000
5.0138000000 6.0052000000 0.2208000000
5.0124000000 5.3187000000 0.5495000000
5.0121000000 5.1365000000 0.6307000000
5.0113000000 4.9119000000 0.7441000000
5.0101000000 3.4061000000 1.0670000000
5.0089000000 3.4823000000 1.1087000000
5.0089000000 1.4747000000 0.1617000000
5.0086000000 1.2241000000 0.1205000000
5.0082000000 0.9455000000 0.0579000000
5.0080000000 3.3571000000 1.0484000000
5.0076000000 6.1967000000 0.1365000000
5.0074000000 5.7865000000 0.3235000000
5.0070000000 5.5471000000 0.4528000000
5.0067000000 3.6555000000 1.1922000000
5.0065000000 4.3094000000 1.0263000000
5.0065000000 3.2166000000 0.9834000000
5.0064000000 1.0486000000 0.0369000000
5.0062000000 3.3237000000 1.0385000000
5.0060000000 4.8199000000 0.7943000000
5.0058000000 6.1511000000 0.1626000000
5.0055000000 2.3578000000 0.5732000000
5.0053000000 4.0947000000 1.1265000000
5.0051000000 4.7588000000 0.8221000000
5.0050000000 6.2792000000 0.0977000000
5.0048000000 1.0791000000 0.0498000000
5.0045000000 6.0854000000 0.1920000000
5.0044000000 2.0103000000 0.4198000000
5.0042000000 3.2396000000 0.9978000000
5.0040000000 3.6523000000 1.1886000000
5.0038000000 5.0425000000 0.6870000000
5.0035000000 6.0235000000 0.2230000000
5.0034000000 3.8439000000 1.2335000000
5.0030000000 4.7677000000 0.8150000000
5.0027000000 5.3441000000 0.5399000000
5.0026000000 0.9047000000 0.0451000000
5.0025000000 4.7698000000 0.8147000000
5.0020000000 2.3955000000 0.6011000000
5.0018000000 4.7066000000 0.8441000000
5.0016000000 1.1224000000 0.0731000000
5.0014000000 6.0507000000 0.2158000000
5.0013000000 3.2797000000 1.0195000000
5.0011000000 5.0986000000 0.6629000000
5.0009000000 1.9898000000 0.4096000000
4.9996000000 4.0001000000 1.1842000000
4.9987000000 5.7516000000 0.3526000000
4.9980000000 5.2435000000 0.5967000000
4.9978000000 4.2017000000 1.0880000000
4.7657000000 6.1624000000 0.3529000000
4.7625000000 4.8379000000 0.9851000000
4.7605000000 6.2704000000 0.3055000000
4.7603000000 5.2052000000 0.8075000000
4.7600000000 4.7306000000 1.0299000000
4.7597000000 3.3039000000 1.2286000000
4.7593000000 6.9941000000 0.0392000000
4.7588000000 6.6467000000 0.1255000000
4.7584000000 5.5033000000 0.6705000000
4.7580000000 5.3285000000 0.7493000000
4.7578000000 4.3812000000 1.1945000000
4.7573000000 5.1322000000 0.8430000000
4.7571000000 3.0582000000 1.1144000000
4.7569000000 7.0480000000 0.0173000000
4.7566000000 1.8646000000 0.5547000000
4.7565000000 0.4888000000 0.0563000000
4.7560000000 4.8683000000 0.9709000000
4.7558000000 1.2853000000 0.2788000000
4.7557000000 0.6687000000 0.0648000000
4.7554000000 2.5588000000 0.8716000000
4.7551000000 4.1665000000 1.3017000000
4.7549000000 6.0216000000 0.4267000000
4.7548000000 3.3560000000 1.2564000000
4.7547000000 5.8037000000 0.5303000000
4.7545000000 2.9584000000 1.0676000000
4.7541000000 6.9478000000 0.0638000000
4.7540000000 0.5609000000 0.0108000000
4.7540000000 3.6154000000 1.3779000000
4.7538000000 0.6018000000 0.0291000000
4.7535000000 1.4157000000 0.3364000000
4.7533000000 1.9726000000 0.5985000000
4.7531000000 4.7597000000 1.0232000000
4.7529000000 0.9207000000 0.1070000000
4.7525000000 6.6082000000 0.1569000000
4.7523000000 5.2549000000 0.7890000000
4.7520000000 1.8453000000 0.5433000000
4.7516000000 1.4375000000 0.3531000000
4.7513000000 1.7944000000 0.5232000000
4.7512000000 2.9870000000 1.0878000000
4.7509000000 1.6800000000 0.4659000000
4.7508000000 2.3789000000 0.7913000000
4.7506000000 2.0948000000 0.6674000000
4.7501000000 5.8703000000 0.5034000000
4.7499000000 4.9770000000 0.9192000000
4.7491000000 5.4198000000 0.7138000000
4.7485000000 4.9686000000 0.9324000000
4.7485000000 1.4676000000 0.3705000000
4.7478000000 6.3130000000 0.2958000000
4.7473000000 5.2751000000 0.7843000000
4.5123000000 5.3646000000 0.9412000000
4.5109000000 3.7203000000 1.6227000000
4.5104000000 4.7927000000 1.2065000000
4.5102000000 6.3485000000 0.4726000000
4.5096000000 2.5446000000 1.0727000000
4.5092000000 2.5681000000 1.0873000000
4.5088000000 4.5737000000 1.3130000000
4.5080000000 7.2048000000 0.1431000000
4.5073000000 6.0378000000 0.6250000000
4.5070000000 0.4531000000 0.0906000000
4.5069000000 0.2584000000 0.0723000000
4.5066000000 4.8965000000 1.1647000000
4.5065000000 0.3136000000 0.1017000000
4.5064000000 1.0944000000 0.3960000000
4.5063000000 7.6382000000 0.0163000000
4.5062000000 2.8500000000 1.2208000000
4.5059000000 6.1254000000 0.5857000000
4.5058000000 5.0449000000 1.0896000000
4.5058000000 5.2996000000 0.9701000000
4.5054000000 5.5413000000 0.8581000000
4.5053000000 5.4403000000 0.9071000000
4.5050000000 5.5448000000 0.8609000000
4.5049000000 0.9389000000 0.3239000000
4.5048000000 4.1959000000 1.4929000000
4.5046000000 3.5727000000 1.5639000000
4.5045000000 5.2602000000 0.9890000000
4.5044000000 2.4756000000 1.0430000000
4.5043000000 3.4187000000 1.4912000000
4.5042000000 3.2652000000 1.4238000000
4.5041000000 5.7510000000 0.7582000000
4.5039000000 6.0373000000 0.6253000000
4.5038000000 3.3300000000 1.4475000000
4.5037000000 4.3410000000 1.4208000000
4.5036000000 1.4309000000 0.5486000000
4.5034000000 1.0815000000 0.3938000000
4.5032000000 2.9018000000 1.2449000000
4.5031000000 3.3462000000 1.4566000000
4.5028000000 4.3733000000 1.4114000000
4.5027000000 5.0204000000 1.1029000000
4.5026000000 6.1679000000 0.5625000000
4.5024000000 5.2944000000 0.9793000000
4.5022000000 3.8950000000 1.6370000000
4.5020000000 2.3739000000 1.0030000000
4.5015000000 4.4281000000 1.3896000000
4.5015000000 4.1634000000 1.5076000000
4.5013000000 1.8286000000 0.7400000000
4.5011000000 1.9512000000 0.7998000000
4.5009000000 1.7169000000 0.6893000000
4.5005000000 2.5159000000 1.0710000000
4.5003000000 3.1479000000 1.3688000000
4.4997000000 1.1179000000 0.4082000000
4.4993000000 2.3263000000 0.9796000000
4.4992000000 1.9404000000 0.7966000000
4.4987000000 4.5584000000 1.3281000000
4.4981000000 3.2313000000 1.4088000000
4.4977000000 1.6867000000 0.6782000000
4.4963000000 1.5879000000 0.6327000000
4.2628000000 4.2150000000 1.6843000000
4.2623000000 1.5577000000 0.8045000000
4.2616000000 4.0079000000 1.7828000000
4.2606000000 7.2015000000 0.2785000000
4.2592000000 5.8943000000 0.8913000000
4.2588000000 6.0478000000 0.8243000000
4.2588000000 4.0546000000 1.7600000000
4.2583000000 4.9896000000 1.3210000000
4.2578000000 0.7745000000 0.4414000000
4.2575000000 4.8187000000 1.4057000000
4.2570000000 1.6648000000 0.8638000000
4.2568000000 6.1889000000 0.7524000000
4.2565000000 5.5388000000 1.0594000000
4.2563000000 0.4567000000 0.2982000000
4.2560000000 1.3282000000 0.7101000000
4.2560000000 2.4635000000 1.2432000000
4.2554000000 3.6692000000 1.8139000000
4.2553000000 5.7341000000 0.9728000000
4.2552000000 2.5602000000 1.2810000000
4.2550000000 4.3089000000 1.6451000000
4.2548000000 3.7976000000 1.8554000000
4.2547000000 7.1655000000 0.2936000000
4.2545000000 5.9912000000 0.8490000000
4.2544000000 7.1588000000 0.3020000000
4.2542000000 0.4568000000 0.2988000000
4.2538000000 4.1948000000 1.6947000000
4.2537000000 0.8556000000 0.4885000000
4.2536000000 1.0902000000 0.5922000000
4.2534000000 2.2815000000 1.1562000000
4.2532000000 1.2857000000 0.6842000000
4.2528000000 3.5417000000 1.7551000000
4.2525000000 2.0949000000 1.0705000000
4.2523000000 5.1642000000 1.2428000000
4.2523000000 7.5679000000 0.0868000000
4.2521000000 4.6755000000 1.4739000000
4.2520000000 5.4592000000 1.1018000000
4.2515000000 1.5903000000 0.8344000000
4.2513000000 0.7826000000 0.4513000000
4.2511000000 2.5956000000 1.3123000000
4.2510000000 1.5252000000 0.8046000000
4.2508000000 3.9608000000 1.8105000000
4.2507000000 2.1639000000 1.1108000000
4.2500000000 0.9820000000 0.5481000000
4.2493000000 2.2984000000 1.1691000000
4.2486000000 2.1641000000 1.1078000000
4.2470000000 0.6664000000 0.4015000000
4.2441000000 0.6262000000 0.3877000000
4.0128000000 7.2785000000 0.2897000000
4.0116000000 4.8495000000 1.5945000000
4.0111000000 4.4742000000 1.7629000000
4.0109000000 7.3860000000 0.1855000000
4.0107000000 7.5222000000 0.1315000000
4.0096000000 5.6651000000 1.2111000000
4.0092000000 3.6394000000 2.0018000000
4.0088000000 0.6346000000 0.5494000000
4.0085000000 7.0310000000 0.5083000000
4.0083000000 6.5495000000 0.7898000000
4.0082000000 4.2730000000 1.8650000000
4.0077000000 3.9177000000 2.0327000000
4.0073000000 6.5275000000 0.8007000000
4.0072000000 1.7848000000 1.1269000000
4.0070000000 4.2788000000 1.8625000000
4.0066000000 1.7330000000 1.0978000000
4.0062000000 0.5521000000 0.4815000000
4.0060000000 6.1182000000 0.9943000000
4.0059000000 4.5470000000 1.7337000000
4.0058000000 3.9525000000 2.0146000000
4.0054000000 2.9172000000 1.6622000000
4.0052000000 3.5011000000 1.9373000000
4.0050000000 7.4266000000 0.1434000000
4.0051000000 2.3518000000 1.3944000000
4.0048000000 3.9775000000 2.0089000000
4.0046000000 6.2688000000 0.9211000000
4.0042000000 3.3390000000 1.8633000000
4.0041000000 5.7540000000 1.1648000000
4.0038000000 1.5927000000 1.0360000000
4.0036000000 3.1579000000 1.7786000000
4.0033000000 0.6919000000 0.5961000000
4.0031000000 1.2553000000 0.8776000000
4.0033000000 5.9062000000 1.0934000000
4.0030000000 7.4286000000 0.1483000000
4.0027000000 3.0901000000 1.7455000000
4.0025000000 7.3809000000 0.1878000000
4.0020000000 6.9664000000 0.5636000000
4.0020000000 1.6329000000 1.0578000000
4.0016000000 7.5952000000 0.0648000000
4.0014000000 0.4345000000 0.3721000000
4.0012000000 5.8771000000 1.1109000000
4.0006000000 1.2639000000 0.8810000000
4.0003000000 2.9642000000 1.6856000000
4.0000000000 0.7492000000 0.6323000000
3.9999000000 3.2082000000 1.8056000000
3.9997000000 0.5601000000 0.4908000000
3.9995000000 0.6888000000 0.5996000000
3.9991000000 4.2426000000 1.8818000000
3.9988000000 5.3125000000 1.3788000000
3.9986000000 6.3141000000 0.9051000000
3.9975000000 1.1432000000 0.8310000000
3.7635000000 5.6951000000 1.3946000000
3.7623000000 6.2976000000 1.1116000000
3.7617000000 2.6386000000 1.7311000000
3.7603000000 6.7781000000 0.7608000000
3.7598000000 3.3310000000 2.0579000000
3.7595000000 4.6391000000 1.8968000000
3.7593000000 2.5306000000 1.6800000000
3.7592000000 5.5348000000 1.4834000000
3.7590000000 6.8931000000 0.6490000000
3.7587000000 1.9860000000 1.4252000000
3.7584000000 1.6619000000 1.2729000000
3.7582000000 4.2820000000 2.0607000000
3.7579000000 6.8042000000 0.7315000000
3.7578000000 5.3355000000 1.5615000000
3.7575000000 2.1382000000 1.4943000000
3.7574000000 7.1185000000 0.4323000000
3.7570000000 4.7945000000 1.8181000000
3.7568000000 3.9639000000 2.2122000000
3.7568000000 4.5798000000 1.9291000000
3.7567000000 5.0333000000 1.7064000000
3.7564000000 3.5581000000 2.1653000000
3.7562000000 1.7510000000 1.3152000000
3.7560000000 4.2400000000 2.0852000000
3.7560000000 5.8335000000 1.3343000000
3.7559000000 7.3411000000 0.2283000000
3.7558000000 5.9011000000 1.3027000000
3.7557000000 1.2892000000 1.1006000000
3.7553000000 0.0021000000 0.0392000000
3.7551000000 7.5007000000 0.1468000000
3.7550000000 7.1809000000 0.3779000000
3.7548000000 2.6798000000 1.7554000000
3.7545000000 4.7576000000 1.8443000000
3.7543000000 6.8113000000 0.7245000000
3.7540000000 4.3655000000 2.0259000000
3.7539000000 3.1588000000 1.9792000000
3.7537000000 6.7302000000 0.8077000000
3.7535000000 3.3432000000 2.0693000000
3.7534000000 6.1065000000 1.2083000000
3.7530000000 0.0202000000 0.0589000000
3.7529000000 2.1078000000 1.4905000000
3.7528000000 1.4265000000 1.1582000000
3.7528000000 4.0513000000 2.1733000000
3.7526000000 6.7374000000 0.7996000000
3.7523000000 0.2666000000 0.2171000000
3.7520000000 2.9155000000 1.8689000000
3.7517000000 1.0099000000 0.9084000000
3.7514000000 4.2506000000 2.0859000000
3.7513000000 0.0229000000 0.0539000000
3.7510000000 6.7976000000 0.7468000000
3.7509000000 4.4566000000 1.9840000000
3.7506000000 5.6125000000 1.4419000000
3.7503000000 3.3144000000 2.0526000000
3.7498000000 1.9489000000 1.4203000000
3.7518000000 6.3858000000 1.0724000000
3.7479000000 2.2932000000 1.5770000000
3.7472000000 0.4840000000 0.4204000000
3.7458000000 1.5524000000 1.2275000000
3.5123000000 0.1280000000 0.0842000000
3.5108000000 3.1722000000 2.1917000000
3.5103000000 2.5757000000 1.9070000000
3.5095000000 5.2040000000 1.8336000000
3.5090000000 1.8245000000 1.5574000000
3.5085000000 7.2314000000 0.3318000000
3.5083000000 2.4500000000 1.8478000000
3.5081000000 4.8678000000 1.9862000000
3.5078000000 5.8570000000 1.5182000000
3.5077000000 4.8210000000 2.0128000000
3.5075000000 1.3347000000 1.2223000000
3.5073000000 3.1149000000 2.1673000000
3.5071000000 4.3136000000 2.2493000000
3.5068000000 7.5294000000 0.1287000000
3.5065000000 7.1801000000 0.3759000000
3.5065000000 0.1164000000 0.1492000000
3.5063000000 4.0489000000 2.3784000000
3.5061000000 1.8986000000 1.5985000000
3.5060000000 7.1245000000 0.4295000000
3.5058000000 0.6204000000 0.5503000000
3.5055000000 5.7745000000 1.5709000000
3.5052000000 5.2936000000 1.7933000000
3.5051000000 7.1981000000 0.3652000000
3.5050000000 4.4506000000 2.1931000000
3.5048000000 6.7159000000 0.8205000000
3.5046000000 6.8188000000 0.7245000000
3.5045000000 4.6459000000 2.0989000000
3.5044000000 5.1941000000 1.8361000000
3.5042000000 0.1781000000 0.1289000000
3.5041000000 0.7673000000 0.6888000000
3.5040000000 1.6705000000 1.4815000000
3.5038000000 7.1673000000 0.3966000000
3.5036000000 5.3075000000 1.7892000000
3.5035000000 6.8969000000 0.6497000000
3.5034000000 0.5538000000 0.4877000000
3.5031000000 5.9049000000 1.5039000000
3.5030000000 4.7497000000 2.0447000000
3.5028000000 6.9692000000 0.5839000000
3.5026000000 4.3071000000 2.2599000000
3.5025000000 4.9387000000 1.9576000000
3.5021000000 0.3742000000 0.3170000000
3.5020000000 4.0714000000 2.3693000000
3.5018000000 3.6429000000 2.4183000000
3.5020000000 0.4389000000 0.3812000000
3.5015000000 1.6446000000 1.4635000000
3.5013000000 3.7526000000 2.4650000000
3.5008000000 0.6164000000 0.5422000000
3.5006000000 2.5977000000 1.9242000000
3.5005000000 4.1177000000 2.3533000000
3.5004000000 0.5742000000 0.5065000000
3.5001000000 0.9840000000 0.8898000000
3.4998000000 6.8449000000 0.6967000000
3.4996000000 7.4077000000 0.1729000000
3.4993000000 0.5130000000 0.4533000000
3.4990000000 1.2674000000 1.1601000000
3.4972000000 3.9314000000 2.4351000000
3.4955000000 1.2383000000 1.1348000000
3.2649000000 6.3212000000 1.1913000000
3.2626000000 7.2168000000 0.3403000000
3.2604000000 7.4090000000 0.1639000000
3.2602000000 2.0221000000 1.8321000000
3.2593000000 3.6323000000 2.6069000000
3.2589000000 5.5422000000 1.8684000000
3.2586000000 1.9716000000 1.8169000000
3.2583000000 5.5907000000 1.8376000000
3.2581000000 5.3707000000 1.9653000000
3.2579000000 1.1102000000 1.0076000000
3.2577000000 7.3320000000 0.2364000000
3.2575000000 3.3875000000 2.4933000000
3.2573000000 2.8240000000 2.2288000000
3.2571000000 5.4032000000 1.9435000000
3.2570000000 1.3024000000 1.1987000000
3.2569000000 7.4506000000 0.1286000000
3.2568000000 5.1361000000 2.0674000000
3.2565000000 3.7327000000 2.6553000000
3.2563000000 3.4162000000 2.5130000000
3.2562000000 1.6840000000 1.5534000000
3.2560000000 2.3412000000 2.0085000000
3.2558000000 1.7379000000 1.6037000000
3.2556000000 7.1593000000 0.4004000000
3.2554000000 2.2164000000 1.9410000000
3.2551000000 1.0351000000 0.9418000000
3.2549000000 3.5223000000 2.5659000000
3.2547000000 0.8671000000 0.7824000000
3.2546000000 1.6728000000 1.5432000000
3.2545000000 5.9206000000 1.5685000000
3.2542000000 4.3261000000 2.4563000000
3.2540000000 5.9619000000 1.5279000000
3.2537000000 1.8807000000 1.7273000000
3.2536000000 2.1404000000 1.9068000000
3.2535000000 6.6971000000 0.8409000000
3.2532000000 1.5620000000 1.4377000000
3.2530000000 1.5087000000 1.3861000000
3.2530000000 3.2947000000 2.4533000000
3.2527000000 0.4456000000 0.3860000000
3.2525000000 1.6576000000 1.5316000000
3.2524000000 6.6924000000 0.8322000000
3.2520000000 3.4999000000 2.5489000000
3.2518000000 0.7340000000 0.6533000000
3.2514000000 0.8591000000 0.7740000000
3.2510000000 1.7827000000 1.6476000000
3.2510000000 0.6877000000 0.6106000000
3.2508000000 1.8502000000 1.7145000000
3.2506000000 1.1803000000 1.0831000000
3.2504000000 0.6866000000 0.6124000000
3.2500000000 5.7800000000 1.6991000000
3.2497000000 5.9726000000 1.5211000000
3.2492000000 1.3117000000 1.2028000000
3.2488000000 3.8040000000 2.6856000000
3.2485000000 5.2991000000 2.0001000000
3.2479000000 0.5762000000 0.5066000000
3.2475000000 2.9403000000 2.2967000000
3.0133000000 2.7730000000 2.4025000000
3.0107000000 6.9714000000 0.5748000000
3.0103000000 7.5082000000 0.1410000000
3.0100000000 5.1030000000 2.2830000000
3.0095000000 2.6504000000 2.3442000000
3.0093000000 2.5155000000 2.2828000000
3.0088000000 3.0907000000 2.5553000000
3.0083000000 1.6758000000 1.5478000000
3.0078000000 5.8713000000 1.6106000000
3.0075000000 3.2758000000 2.6465000000
3.0075000000 7.2345000000 0.3276000000
3.0072000000 1.9491000000 1.8019000000
3.0070000000 7.4753000000 0.1026000000
3.0070000000 6.0414000000 1.4577000000
3.0068000000 4.8636000000 2.4037000000
3.0066000000 0.3116000000 0.2525000000
3.0064000000 6.2958000000 1.2130000000
3.0060000000 4.0647000000 2.7798000000
3.0058000000 5.1590000000 2.2568000000
3.0056000000 0.7443000000 0.6664000000
3.0055000000 3.0423000000 2.5398000000
3.0054000000 2.1943000000 2.0360000000
3.0053000000 5.0445000000 2.3155000000
3.0052000000 4.3801000000 2.6334000000
3.0050000000 3.7891000000 2.8778000000
3.0049000000 2.0795000000 1.9240000000
3.0046000000 6.5911000000 0.9388000000
3.0045000000 6.7329000000 0.8017000000
3.0044000000 5.2939000000 2.1476000000
3.0042000000 3.1354000000 2.5876000000
3.0038000000 5.3963000000 2.0657000000
3.0037000000 2.0289000000 1.8820000000
3.0036000000 1.8890000000 1.7479000000
3.0035000000 7.3636000000 0.2049000000
3.0033000000 0.4856000000 0.4252000000
3.0030000000 0.4391000000 0.3786000000
3.0028000000 5.6842000000 1.7891000000
3.0026000000 7.5279000000 0.1235000000
3.0025000000 1.6111000000 1.4854000000
3.0021000000 2.5062000000 2.2758000000
3.0020000000 0.4454000000 0.3806000000
3.0017000000 3.3874000000 2.7048000000
3.0016000000 0.1614000000 0.1161000000
3.0013000000 2.9103000000 2.4789000000
3.0012000000 5.7191000000 1.7591000000
3.0009000000 1.2921000000 1.1795000000
3.0008000000 1.4594000000 1.3445000000
3.0006000000 1.9979000000 1.8519000000
3.0002000000 5.3562000000 2.1031000000
2.9995000000 3.0957000000 2.5694000000
2.9990000000 0.1682000000 0.1240000000
2.9985000000 1.6153000000 1.4885000000
2.9978000000 3.7630000000 2.8670000000
2.9965000000 2.3493000000 2.1687000000
2.7659000000 7.1210000000 0.4357000000
2.7619000000 1.6037000000 1.4769000000
2.7609000000 6.8910000000 0.6545000000
2.7608000000 5.6996000000 1.7797000000
2.7608000000 6.8915000000 0.6529000000
2.7591000000 5.7346000000 1.7459000000
2.7586000000 3.1126000000 2.7758000000
2.7584000000 7.3469000000 0.2200000000
2.7583000000 6.5327000000 0.9945000000
2.7581000000 6.2824000000 1.2228000000
2.7580000000 6.0230000000 1.4773000000
2.7579000000 3.8800000000 3.0675000000
2.7576000000 4.5141000000 2.7727000000
2.7572000000 6.8424000000 0.6930000000
2.7568000000 5.1368000000 2.3152000000
2.7563000000 5.5783000000 1.8914000000
2.7562000000 4.6778000000 2.6852000000
2.7560000000 6.3524000000 1.1590000000
2.7558000000 2.3783000000 2.2075000000
2.7556000000 4.6548000000 2.7072000000
2.7555000000 3.9415000000 3.0436000000
2.7554000000 5.9647000000 1.5264000000
2.7552000000 4.4495000000 2.8000000000
2.7550000000 7.5805000000 0.0753000000
2.7549000000 3.0389000000 2.7434000000
2.7545000000 2.8318000000 2.6191000000
2.7544000000 0.4515000000 0.3884000000
2.7543000000 5.7895000000 1.6930000000
2.7540000000 3.3555000000 2.8901000000
2.7540000000 4.8647000000 2.5553000000
2.7537000000 3.2404000000 2.8377000000
2.7535000000 6.4758000000 1.0497000000
2.7534000000 4.6404000000 2.7133000000
2.7532000000 3.0763000000 2.7628000000
2.7530000000 4.7358000000 2.6572000000
2.7528000000 2.1934000000 2.0338000000
2.7526000000 3.8336000000 3.0805000000
2.7524000000 7.2113000000 0.3477000000
2.7520000000 5.2935000000 2.1649000000
2.7518000000 2.4068000000 2.2334000000
2.7516000000 2.2329000000 2.0726000000
2.7515000000 0.4390000000 0.3790000000
2.7513000000 1.5505000000 1.4229000000
2.7510000000 0.8995000000 0.8148000000
2.7509000000 1.4523000000 1.3389000000
2.7508000000 1.2108000000 1.1036000000
2.7506000000 1.6778000000 1.5437000000
2.7505000000 2.7960000000 2.5813000000
2.7500000000 4.3995000000 2.8320000000
2.7498000000 1.0994000000 1.0029000000
2.7497000000 7.1863000000 0.3682000000
2.7494000000 3.2189000000 2.8305000000
2.7486000000 3.7965000000 3.0866000000
2.7481000000 7.3314000000 0.2420000000
2.7468000000 0.1465000000 0.1059000000
2.7465000000 0.9480000000 0.8579000000
2.7459000000 0.2526000000 0.2048000000
2.5153000000 1.5462000000 1.4257000000
2.5130000000 2.3233000000 2.1506000000
2.5111000000 2.3800000000 2.2078000000
2.5107000000 6.1770000000 1.3284000000
2.5100000000 5.6522000000 1.8214000000
2.5095000000 0.5229000000 0.4596000000
2.5094000000 4.1067000000 3.1655000000
2.5093000000 6.9010000000 0.6405000000
2.5088000000 7.1992000000 0.3611000000
2.5083000000 0.7863000000 0.7015000000
2.5083000000 4.2104000000 3.1192000000
2.5080000000 5.7855000000 1.6992000000
2.5077000000 7.5500000000 0.1073000000
2.5076000000 7.5519000000 0.1013000000
2.5075000000 5.5869000000 1.8863000000
2.5074000000 1.6581000000 1.5279000000
2.5072000000 1.1147000000 1.0156000000
2.5070000000 2.1430000000 1.9807000000
2.5065000000 4.6882000000 2.7348000000
2.5063000000 4.9447000000 2.4976000000
2.5061000000 7.3305000000 0.2373000000
2.5056000000 5.9476000000 1.5406000000
2.5053000000 0.3053000000 0.2543000000
2.5051000000 7.0770000000 0.4779000000
2.5050000000 0.3652000000 0.3083000000
2.5050000000 0.3211000000 0.2674000000
2.5048000000 0.7710000000 0.6964000000
2.5045000000 4.4709000000 2.9356000000
2.5044000000 2.0237000000 1.8740000000
2.5041000000 4.4977000000 2.9134000000
2.5040000000 2.4457000000 2.2710000000
2.5039000000 1.5647000000 1.4371000000
2.5038000000 4.9124000000 2.5181000000
2.5036000000 3.4871000000 3.1532000000
2.5035000000 4.1219000000 3.1628000000
2.5034000000 0.2126000000 0.1645000000
2.5032000000 5.4777000000 1.9894000000
2.5030000000 4.6061000000 2.8089000000
2.5027000000 2.5921000000 2.4109000000
2.5025000000 5.7659000000 1.7192000000
2.5023000000 3.2074000000 2.9746000000
2.5021000000 5.7754000000 1.7030000000
2.5019000000 1.1882000000 1.0828000000
2.5015000000 5.8865000000 1.6018000000
2.5013000000 1.6624000000 1.5293000000
2.5010000000 3.5266000000 3.1777000000
2.5009000000 0.7384000000 0.6558000000
2.5008000000 1.7812000000 1.6466000000
2.5005000000 3.4333000000 3.1380000000
2.5003000000 2.3507000000 2.1804000000
2.4996000000 1.6227000000 1.4927000000
2.4994000000 2.6391000000 2.4602000000
2.4990000000 3.0022000000 2.7893000000
2.4988000000 0.2100000000 0.1601000000
2.4979000000 3.3531000000 3.0824000000
2.4978000000 2.1683000000 2.0097000000
2.4972000000 1.6127000000 1.4847000000
2.4963000000 0.5364000000 0.4724000000
2.4953000000 1.0052000000 0.9110000000
2.4923000000 0.3139000000 0.2634000000
2.2630000000 6.6726000000 0.8621000000
2.2625000000 4.4038000000 3.0030000000
2.2626000000 3.0805000000 2.8706000000
2.2598000000 2.8984000000 2.6988000000
2.2590000000 7.0676000000 0.4839000000
2.2587000000 7.1187000000 0.4363000000
2.2583000000 0.3334000000 0.2824000000
2.2581000000 4.7835000000 2.6422000000
2.2579000000 5.1448000000 2.3012000000
2.2575000000 3.0816000000 2.8762000000
2.2569000000 2.3653000000 2.1883000000
2.2565000000 2.7701000000 2.5831000000
2.2565000000 5.3467000000 2.1142000000
2.2563000000 5.9430000000 1.5475000000
2.2561000000 2.3986000000 2.2297000000
2.2559000000 6.2294000000 1.2780000000
2.2558000000 6.1932000000 1.3127000000
2.2558000000 6.5447000000 0.9809000000
2.2553000000 0.0476000000 0.0833000000
2.2552000000 6.6386000000 0.8913000000
2.2550000000 4.7930000000 2.6320000000
2.2549000000 4.1723000000 3.2206000000
2.2548000000 1.2479000000 1.1454000000
2.2547000000 0.3955000000 0.3372000000
2.2545000000 7.2331000000 0.3330000000
2.2543000000 0.8809000000 0.7929000000
2.2542000000 0.7329000000 0.6521000000
2.2541000000 2.3192000000 2.1553000000
2.2540000000 1.3082000000 1.1956000000
2.2538000000 7.4444000000 0.1305000000
2.2537000000 1.5318000000 1.4079000000
2.2535000000 4.1302000000 3.2631000000
2.2533000000 1.0629000000 0.9662000000
2.2531000000 2.7175000000 2.5285000000
2.2531000000 2.2128000000 2.0517000000
2.2526000000 3.2630000000 3.0450000000
2.2525000000 4.1261000000 3.2687000000
2.2528000000 2.7054000000 2.5215000000
2.2521000000 6.7910000000 0.7507000000
2.2519000000 0.2963000000 0.2403000000
2.2516000000 5.4727000000 1.9923000000
2.2513000000 1.3541000000 1.2385000000
2.2513000000 3.9724000000 3.3878000000
2.2511000000 4.1813000000 3.2087000000
2.2509000000 0.5518000000 0.4854000000
2.2506000000 0.6918000000 0.6159000000
2.2500000000 0.8128000000 0.7308000000
2.2499000000 6.8601000000 0.6811000000
2.2495000000 6.2421000000 1.2620000000
2.2488000000 2.2149000000 2.0566000000
2.2485000000 3.3331000000 3.1095000000
2.2478000000 0.4683000000 0.4085000000
2.2465000000 0.9761000000 0.8830000000
2.2446000000 0.4115000000 0.3583000000
2.0136000000 6.7545000000 0.7788000000
2.0123000000 4.4117000000 2.9945000000
2.0116000000 7.0265000000 0.5276000000
2.0109000000 4.2841000000 3.1100000000
2.0105000000 5.0038000000 2.4282000000
2.0099000000 3.2324000000 3.0139000000
2.0095000000 2.5107000000 2.3305000000
2.0092000000 5.5426000000 1.9273000000
2.0090000000 3.3030000000 3.0793000000
2.0082000000 0.4108000000 0.3533000000
2.0080000000 7.5609000000 0.0935000000
2.0077000000 4.5774000000 2.8325000000
2.0076000000 7.3785000000 0.1870000000
2.0075000000 3.6894000000 3.3465000000
2.0072000000 4.6689000000 2.7537000000
2.0069000000 6.8411000000 0.6988000000
2.0068000000 5.9815000000 1.5140000000
2.0066000000 4.1099000000 3.2530000000
2.0065000000 4.2702000000 3.1266000000
2.0064000000 3.4195000000 3.1759000000
2.0061000000 6.9639000000 0.5805000000
2.0060000000 4.4840000000 2.9278000000
2.0060000000 6.3268000000 1.1859000000
2.0056000000 1.3764000000 1.2650000000
2.0054000000 7.5362000000 0.1179000000
2.0053000000 1.4658000000 1.3467000000
2.0052000000 6.8232000000 0.7177000000
2.0050000000 4.1873000000 3.1921000000
2.0049000000 6.9924000000 0.5573000000
2.0048000000 5.9064000000 1.5839000000
2.0047000000 2.9060000000 2.7052000000
2.0045000000 3.3707000000 3.1365000000
2.0044000000 4.2922000000 3.1046000000
2.0043000000 6.1837000000 1.3183000000
2.0039000000 1.2072000000 1.1050000000
2.0038000000 4.4613000000 2.9449000000
2.0037000000 4.7278000000 2.6910000000
2.0035000000 5.4596000000 2.0055000000
2.0032000000 7.6106000000 0.0432000000
2.0031000000 6.2149000000 1.2895000000
2.0028000000 7.2751000000 0.2957000000
2.0025000000 6.1289000000 1.3719000000
2.0024000000 0.0199000000 0.0569000000
2.0023000000 3.1806000000 2.9648000000
2.0020000000 6.7272000000 0.8085000000
2.0018000000 1.1867000000 1.0788000000
2.0015000000 5.8654000000 1.6244000000
2.0013000000 3.6480000000 3.3191000000
2.0010000000 5.7861000000 1.6961000000
2.0009000000 0.3386000000 0.2829000000
2.0008000000 1.3830000000 1.2725000000
2.0007000000 2.1267000000 1.9694000000
2.0005000000 1.5024000000 1.3817000000
2.0003000000 4.6574000000 2.7659000000
2.0002000000 3.0640000000 2.8525000000
2.0000000000 5.8472000000 1.6382000000
1.9998000000 5.3105000000 2.1426000000
1.9996000000 3.1069000000 2.8959000000
1.9994000000 2.5198000000 2.3425000000
1.9993000000 2.5769000000 2.3940000000
1.9988000000 2.0887000000 1.9319000000
1.9983000000 0.3276000000 0.2704000000
1.9974000000 1.5025000000 1.3856000000
1.9969000000 4.3561000000 3.0465000000
1.9965000000 1.4734000000 1.3493000000
1.9951000000 3.7412000000 3.3598000000
1.7633000000 6.8572000000 0.6916000000
1.7615000000 6.3065000000 1.2031000000
1.7611000000 6.7575000000 0.7820000000
1.7608000000 7.5186000000 0.1384000000
1.7607000000 6.1467000000 1.3509000000
1.7605000000 1.4896000000 1.3650000000
1.7603000000 3.5323000000 3.0641000000
1.7599000000 2.0385000000 1.8838000000
1.7595000000 6.0972000000 1.3996000000
1.7590000000 6.7173000000 0.8139000000
1.7584000000 5.2015000000 2.2476000000
1.7583000000 5.7560000000 1.7180000000
1.7580000000 5.0727000000 2.3675000000
1.7577000000 5.8862000000 1.6016000000
1.7574000000 2.5474000000 2.3639000000
1.7570000000 6.5961000000 0.9288000000
1.7568000000 3.4638000000 3.0284000000
1.7567000000 5.9325000000 1.5603000000
1.7563000000 7.6410000000 0.0176000000
1.7561000000 1.9957000000 1.8466000000
1.7560000000 4.6381000000 2.7595000000
1.7555000000 2.9335000000 2.7302000000
1.7553000000 5.2856000000 2.1733000000
1.7552000000 2.6785000000 2.4963000000
1.7550000000 5.6844000000 1.7894000000
1.7548000000 2.6655000000 2.4794000000
1.7545000000 1.0913000000 0.9927000000
1.7544000000 6.5039000000 1.0181000000
1.7541000000 5.2293000000 2.2242000000
1.7540000000 3.3307000000 2.9675000000
1.7538000000 3.8476000000 3.1662000000
1.7536000000 5.4884000000 1.9815000000
1.7535000000 2.1206000000 1.9656000000
1.7533000000 2.1861000000 2.0262000000
1.7531000000 2.2982000000 2.1408000000
1.7528000000 4.0976000000 3.0582000000
1.7525000000 4.3752000000 2.9298000000
1.7524000000 4.6213000000 2.7846000000
1.7523000000 3.9431000000 3.1330000000
1.7521000000 1.7589000000 1.6213000000
1.7519000000 6.7633000000 0.7733000000
1.7518000000 1.4545000000 1.3377000000
1.7517000000 5.7178000000 1.7601000000
1.7516000000 3.0811000000 2.8395000000
1.7512000000 1.3161000000 1.2040000000
1.7501000000 1.3749000000 1.2606000000
1.7497000000 0.0901000000 0.1266000000
1.7495000000 5.9578000000 1.5323000000
1.7494000000 0.2518000000 0.2007000000
1.7489000000 5.2131000000 2.2349000000
1.7487000000 3.7319000000 3.1524000000
1.7481000000 0.5693000000 0.5054000000
1.7475000000 2.4527000000 2.2716000000
1.7470000000 2.0209000000 1.8649000000
1.7460000000 1.0282000000 0.9353000000
1.5137000000 3.4436000000 2.8238000000
1.5123000000 5.7977000000 1.6826000000
1.5109000000 2.9118000000 2.5716000000
1.5099000000 6.2412000000 1.2637000000
1.5093000000 6.4334000000 1.0852000000
1.5092000000 1.9482000000 1.8032000000
1.5086000000 5.0631000000 2.3634000000
1.5083000000 7.5200000000 0.1341000000
1.5082000000 4.6215000000 2.6104000000
1.5080000000 2.2933000000 2.1277000000
1.5076000000 4.3946000000 2.7188000000
1.5075000000 4.3164000000 2.7546000000
1.5070000000 5.9609000000 1.5270000000
1.5068000000 3.3599000000 2.7853000000
1.5066000000 2.9687000000 2.5922000000
1.5064000000 2.7800000000 2.5044000000
1.5062000000 1.5415000000 1.4183000000
1.5061000000 5.5378000000 1.9242000000
1.5060000000 7.4107000000 0.1672000000
1.5058000000 7.3333000000 0.2407000000
1.5056000000 5.0541000000 2.3631000000
1.5053000000 6.3411000000 1.1692000000
1.5052000000 0.1605000000 0.1170000000
1.5051000000 1.9384000000 1.7940000000
1.5049000000 4.6445000000 2.6030000000
1.5048000000 0.4210000000 0.3620000000
1.5047000000 2.6178000000 2.4156000000
1.5046000000 0.3250000000 0.2686000000
1.5045000000 6.9923000000 0.5604000000
1.5043000000 1.0914000000 0.9993000000
1.5043000000 0.0796000000 0.1090000000
1.5040000000 1.7844000000 1.6543000000
1.5039000000 7.2490000000 0.3129000000
1.5037000000 1.5382000000 1.4177000000
1.5035000000 0.5197000000 0.4543000000
1.5034000000 4.9785000000 2.4220000000
1.5030000000 0.3950000000 0.3383000000
1.5028000000 4.0546000000 2.8722000000
1.5027000000 3.7073000000 2.9417000000
1.5026000000 2.4312000000 2.2567000000
1.5025000000 3.6857000000 2.9345000000
1.5023000000 4.0290000000 2.8875000000
1.5023000000 1.9004000000 1.7597000000
1.5022000000 2.4877000000 2.3016000000
1.5019000000 0.2993000000 0.2473000000
1.5018000000 5.0620000000 2.3657000000
1.5017000000 0.9448000000 0.8580000000
1.5016000000 2.6418000000 2.4227000000
1.5014000000 0.3998000000 0.3428000000
1.5012000000 0.5547000000 0.4885000000
1.5008000000 3.7113000000 2.9389000000
1.5006000000 0.8144000000 0.7347000000
1.5003000000 4.1880000000 2.8126000000
1.4997000000 2.5746000000 2.3830000000
1.4985000000 2.4812000000 2.3042000000
1.4973000000 3.3516000000 2.7665000000
1.4947000000 6.0589000000 1.4386000000
1.2618000000 7.5957000000 0.0567000000
1.2601000000 1.5787000000 1.4596000000
1.2596000000 4.7712000000 2.3358000000
1.2588000000 5.0461000000 2.2076000000
1.2585000000 7.5080000000 0.1432000000
1.2583000000 4.9711000000 2.2384000000
1.2579000000 3.4039000000 2.5994000000
1.2578000000 4.9473000000 2.2498000000
1.2574000000 4.0263000000 2.6884000000
1.2572000000 5.9213000000 1.5620000000
1.2571000000 4.6615000000 2.3852000000
1.2568000000 7.1493000000 0.4116000000
1.2565000000 6.5394000000 0.9812000000
1.2564000000 4.2263000000 2.5936000000
1.2563000000 4.2551000000 2.5822000000
1.2562000000 0.9651000000 0.8729000000
1.2560000000 5.7047000000 1.7700000000
1.2557000000 3.9490000000 2.7239000000
1.2556000000 2.3452000000 2.0996000000
1.2555000000 4.1694000000 2.6166000000
1.2553000000 6.0091000000 1.4912000000
1.2550000000 5.1225000000 2.1780000000
1.2548000000 4.0544000000 2.6693000000
1.2548000000 7.5022000000 0.1498000000
1.2545000000 0.4956000000 0.4273000000
1.2545000000 3.4343000000 2.6103000000
1.2543000000 4.6060000000 2.4137000000
1.2542000000 5.2557000000 2.1020000000
1.2540000000 6.5273000000 0.9947000000
1.2537000000 7.4806000000 0.0942000000
1.2536000000 4.8997000000 2.2713000000
1.2534000000 7.3010000000 0.2670000000
1.2532000000 5.6010000000 1.8695000000
1.2531000000 6.5746000000 0.9570000000
1.2527000000 6.7004000000 0.8358000000
1.2525000000 0.3420000000 0.2867000000
1.2524000000 4.4005000000 2.5048000000
1.2523000000 7.3011000000 0.2643000000
1.2520000000 2.1629000000 1.9884000000
1.2519000000 2.6557000000 2.2461000000
1.2518000000 1.6384000000 1.5132000000
1.2513000000 0.3572000000 0.3007000000
1.2512000000 1.3104000000 1.2018000000
1.2510000000 6.6866000000 0.8432000000
1.2509000000 4.8881000000 2.2785000000
1.2507000000 1.8310000000 1.6918000000
1.2505000000 2.4825000000 2.1574000000
1.2493000000 4.5809000000 2.4195000000
1.2488000000 2.9099000000 2.3624000000
1.2483000000 6.3903000000 1.1302000000
1.2477000000 2.0861000000 1.9158000000
1.2475000000 5.5419000000 1.9142000000
1.2450000000 1.9637000000 1.8186000000
1.0110000000 6.7440000000 0.7908000000
1.0095000000 7.5171000000 0.1441000000
1.0085000000 4.3928000000 2.3099000000
1.0083000000 4.2462000000 2.3786000000
1.0080000000 4.0155000000 2.4886000000
1.0077000000 6.3429000000 1.1702000000
1.0072000000 6.8815000000 0.6668000000
1.0070000000 2.3659000000 1.8963000000
1.0067000000 4.8406000000 2.0979000000
1.0066000000 5.7387000000 1.6772000000
1.0063000000 4.3552000000 2.3260000000
1.0062000000 0.9734000000 0.8807000000
1.0060000000 5.5478000000 1.7646000000
1.0058000000 4.1414000000 2.4278000000
1.0057000000 3.7806000000 2.5497000000
1.0053000000 4.7087000000 2.1625000000
1.0048000000 6.8569000000 0.6852000000
1.0045000000 5.1060000000 1.9782000000
1.0044000000 2.1550000000 1.8025000000
1.0043000000 5.7578000000 1.6628000000
1.0041000000 7.0696000000 0.4823000000
1.0040000000 6.0783000000 1.4195000000
1.0038000000 3.7131000000 2.5343000000
1.0036000000 4.2850000000 2.3556000000
1.0035000000 6.5018000000 1.0204000000
1.0034000000 0.2395000000 0.1929000000
1.0033000000 2.7019000000 2.0596000000
1.0029000000 1.0820000000 0.9848000000
1.0026000000 5.2409000000 1.9050000000
1.0025000000 6.4945000000 1.0281000000
1.0023000000 1.0696000000 0.9730000000
1.0021000000 0.2073000000 0.1628000000
1.0019000000 4.5434000000 2.2308000000
1.0017000000 0.9129000000 0.8234000000
1.0015000000 3.4691000000 2.4106000000
1.0011000000 6.7790000000 0.7529000000
1.0009000000 1.8082000000 1.6236000000
1.0005000000 0.7014000000 0.6243000000
1.0003000000 0.7206000000 0.6453000000
1.0002000000 3.3904000000 2.3810000000
1.0000000000 0.1189000000 0.1468000000
0.9999000000 2.5106000000 1.9687000000
0.9992000000 1.1872000000 1.0774000000
0.9988000000 0.9947000000 0.9041000000
0.9983000000 0.8915000000 0.8007000000
0.9971000000 1.2319000000 1.1166000000
0.7630000000 4.5136000000 2.0523000000
0.7623000000 4.6635000000 1.9835000000
0.7619000000 0.3166000000 0.2630000000
0.7608000000 5.1707000000 1.7456000000
0.7607000000 6.1929000000 1.2511000000
0.7590000000 3.0449000000 2.0220000000
0.7588000000 1.9193000000 1.4909000000
0.7585000000 2.9118000000 1.9575000000
0.7583000000 4.7793000000 1.9233000000
0.7579000000 6.0139000000 1.3372000000
0.7578000000 0.2013000000 0.1525000000
0.7574000000 6.1286000000 1.2860000000
0.7570000000 1.6387000000 1.3577000000
0.7569000000 6.2112000000 1.2417000000
0.7562000000 2.6665000000 1.8395000000
0.7560000000 6.1272000000 1.2872000000
0.7559000000 5.2958000000 1.6788000000
0.7558000000 4.3386000000 2.1295000000
0.7556000000 6.3015000000 1.1880000000
0.7555000000 2.9966000000 1.9959000000
0.7552000000 0.0931000000 0.1285000000
0.7550000000 2.4454000000 1.7356000000
0.7548000000 6.9865000000 0.5638000000
0.7545000000 3.2230000000 2.1003000000
0.7543000000 5.5807000000 1.5458000000
0.7541000000 6.6582000000 0.8718000000
0.7540000000 5.8915000000 1.3971000000
0.7538000000 0.9065000000 0.8139000000
0.7537000000 5.8627000000 1.4118000000
0.7535000000 0.9149000000 0.8280000000
0.7534000000 0.6236000000 0.5543000000
0.7531000000 0.1861000000 0.1384000000
0.7530000000 1.7086000000 1.3854000000
0.7528000000 5.6896000000 1.4894000000
0.7527000000 4.2270000000 2.1808000000
0.7526000000 3.2022000000 2.0911000000
0.7525000000 1.0134000000 0.9241000000
0.7524000000 0.4811000000 0.4157000000
0.7519000000 5.2364000000 1.7048000000
0.7515000000 2.2437000000 1.6405000000
0.7514000000 3.8328000000 2.3535000000
0.7511000000 4.0502000000 2.2622000000
0.7510000000 6.0848000000 1.3033000000
0.7509000000 0.0055000000 0.0409000000
0.7507000000 2.4458000000 1.7333000000
0.7503000000 6.9541000000 0.5909000000
0.7504000000 5.6859000000 1.4944000000
0.7501000000 0.5520000000 0.4846000000
0.7499000000 0.7135000000 0.6372000000
0.7496000000 5.9010000000 1.3926000000
0.7495000000 5.1865000000 1.7207000000
0.7492000000 3.3818000000 2.1773000000
0.7483000000 3.6561000000 2.2961000000
0.7478000000 0.8160000000 0.7316000000
0.7452000000 0.9464000000 0.8546000000
0.5150000000 5.6175000000 1.3328000000
0.5140000000 6.5043000000 0.9080000000
0.5119000000 7.1594000000 0.3985000000
0.5109000000 3.5645000000 2.0642000000
0.5100000000 6.2509000000 1.0242000000
0.5093000000 6.1878000000 1.0586000000
0.5091000000 3.9325000000 2.1244000000
0.5088000000 3.9685000000 2.1024000000
0.5087000000 4.7552000000 1.7336000000
0.5085000000 5.8554000000 1.2143000000
0.5081000000 1.1007000000 0.9045000000
0.5080000000 2.3898000000 1.5011000000
0.5076000000 0.8960000000 0.7878000000
0.5075000000 2.7386000000 1.6673000000
0.5074000000 4.5821000000 1.8105000000
0.5072000000 5.7936000000 1.2416000000
0.5071000000 0.2555000000 0.2025000000
0.5070000000 5.9767000000 1.1518000000
0.5066000000 2.9389000000 1.7629000000
0.5065000000 3.8062000000 2.1604000000
0.5062000000 6.8037000000 0.7209000000
0.5061000000 3.4396000000 2.0048000000
0.5059000000 1.0670000000 0.8778000000
0.5057000000 3.8574000000 2.1390000000
0.5054000000 3.1129000000 1.8410000000
0.5053000000 3.7949000000 2.1468000000
0.5052000000 3.6712000000 2.1145000000
0.5049000000 3.8351000000 2.1436000000
0.5048000000 4.1707000000 2.0057000000
0.5045000000 7.2489000000 0.3116000000
0.5043000000 5.7454000000 1.2592000000
0.5041000000 5.6600000000 1.3085000000
0.5040000000 4.4824000000 1.8543000000
0.5038000000 5.0708000000 1.5782000000
0.5037000000 1.4888000000 1.0795000000
0.5035000000 2.7824000000 1.6863000000
0.5031000000 2.8431000000 1.7123000000
0.5030000000 7.6572000000 0.0783000000
0.5029000000 2.1660000000 1.3953000000
0.5028000000 6.8202000000 0.7049000000
0.5027000000 2.2658000000 1.4486000000
0.5023000000 3.6904000000 2.1134000000
0.5022000000 3.6969000000 2.1178000000
0.5021000000 6.0176000000 1.1330000000
0.5019000000 3.1073000000 1.8403000000
0.5017000000 3.5148000000 2.0341000000
0.5012000000 4.6843000000 1.7603000000
0.5010000000 0.5785000000 0.5113000000
0.5004000000 4.1425000000 2.0157000000
0.5000000000 3.7588000000 2.1397000000
0.4998000000 0.1853000000 0.1353000000
0.4995000000 5.9863000000 1.1468000000
0.4993000000 1.0182000000 0.8547000000
0.4988000000 2.2798000000 1.4512000000
0.4979000000 2.9848000000 1.7803000000
0.4970000000 2.3491000000 1.4707000000
0.4963000000 3.1257000000 1.8495000000
0.4958000000 2.6884000000 1.6421000000
0.4930000000 5.3787000000 1.4214000000
0.2644000000 7.1564000000 0.3863000000
0.2628000000 5.9492000000 0.9675000000
0.2614000000 5.3946000000 1.2256000000
0.2612000000 0.6155000000 0.4646000000
0.2601000000 3.0714000000 1.6279000000
0.2596000000 2.6221000000 1.4135000000
0.2594000000 6.5451000000 0.6838000000
0.2587000000 0.8010000000 0.5508000000
0.2586000000 7.1520000000 0.3789000000
0.2581000000 4.6234000000 1.5892000000
0.2580000000 0.3135000000 0.2618000000
0.2578000000 3.5035000000 1.8277000000
0.2575000000 4.9111000000 1.4511000000
0.2571000000 0.9183000000 0.6070000000
0.2569000000 4.6891000000 1.5646000000
0.2567000000 5.7639000000 1.0482000000
0.2563000000 4.8063000000 1.4980000000
0.2562000000 2.2962000000 1.2556000000
0.2560000000 5.0008000000 1.4124000000
0.2558000000 6.9598000000 0.4831000000
0.2555000000 4.9685000000 1.4230000000
0.2553000000 5.7280000000 1.0668000000
0.2550000000 0.8500000000 0.5760000000
0.2548000000 4.3826000000 1.6994000000
0.2545000000 5.8704000000 1.0016000000
0.2543000000 6.2520000000 0.8156000000
0.2541000000 5.6590000000 1.0971000000
0.2539000000 3.3019000000 1.7289000000
0.2538000000 4.4087000000 1.6873000000
0.2538000000 3.7800000000 1.9388000000
0.2536000000 2.8445000000 1.5136000000
0.2535000000 0.3248000000 0.2702000000
0.2532000000 2.9878000000 1.5872000000
0.2530000000 2.6044000000 1.3964000000
0.2528000000 3.2435000000 1.6994000000
0.2525000000 1.3886000000 0.8305000000
0.2524000000 3.6973000000 1.9127000000
0.2521000000 6.3190000000 0.7838000000
0.2518000000 1.0062000000 0.6493000000
0.2518000000 6.2353000000 0.8268000000
0.2513000000 0.6555000000 0.4859000000
0.2510000000 1.8331000000 1.0318000000
0.2508000000 5.6765000000 1.0863000000
0.2507000000 1.2866000000 0.7710000000
0.2503000000 0.7185000000 0.5050000000
0.2500000000 4.9501000000 1.4311000000
0.2498000000 5.2820000000 1.2717000000
0.2492000000 3.2484000000 1.7008000000
0.2487000000 1.5261000000 0.8866000000
0.2483000000 2.2864000000 1.2444000000
0.2479000000 1.5286000000 0.8924000000
0.2476000000 2.0616000000 1.1404000000
0.2472000000 3.1242000000 1.6379000000
0.2463000000 1.7855000000 1.0093000000
0.0131000000 0.5442000000 0.2312000000
0.0115000000 7.2594000000 0.1457000000
0.0103000000 5.8068000000 0.8273000000
0.0096000000 3.9399000000 1.7075000000
0.0095000000 6.2795000000 0.6013000000
0.0090000000 6.5144000000 0.4960000000
0.0087000000 6.0214000000 0.7245000000
0.0084000000 4.7990000000 1.3047000000
0.0080000000 0.4960000000 0.2086000000
0.0078000000 4.5649000000 1.4081000000
0.0072000000 1.6440000000 0.7439000000
0.0070000000 7.2667000000 0.1295000000
0.0067000000 2.7458000000 1.2638000000
0.0066000000 6.7930000000 0.3629000000
0.0063000000 7.3567000000 0.0929000000
0.0060000000 5.6846000000 0.8886000000
0.0058000000 5.7588000000 0.8438000000
0.0053000000 3.9672000000 1.6930000000
0.0053000000 5.3705000000 1.0275000000
0.0050000000 3.2512000000 1.4996000000
0.0049000000 6.9947000000 0.2627000000
0.0048000000 5.9795000000 0.7455000000
0.0047000000 3.3953000000 1.5705000000
0.0045000000 2.4896000000 1.1413000000
0.0043000000 7.3983000000 0.1466000000
0.0041000000 0.6457000000 0.2697000000
0.0038000000 0.3373000000 0.1308000000
0.0036000000 3.2931000000 1.5187000000
0.0035000000 4.1618000000 1.5990000000
0.0032000000 3.3699000000 1.5530000000
0.0027000000 6.9982000000 0.2593000000
0.0026000000 5.5733000000 0.9330000000
0.0025000000 0.4719000000 0.1854000000
0.0025000000 3.7159000000 1.7148000000
0.0019000000 3.5836000000 1.6616000000
0.0017000000 6.2470000000 0.6124000000
0.0015000000 6.9507000000 0.2805000000
0.0014000000 0.1724000000 0.1256000000
0.0013000000 5.4277000000 0.9956000000
0.0011000000 3.4074000000 1.5737000000
0.0003000000 7.3563000000 0.0905000000
0.0002000000 1.0589000000 0.4646000000
0.0001000000 2.6038000000 1.1958000000
-0.0002000000 1.4147000000 0.6247000000
-0.0007000000 2.3233000000 1.0580000000
-0.0012000000 1.6986000000 0.7656000000
-0.0013000000 2.1568000000 0.9853000000
-0.0021000000 1.8912000000 0.8561000000
-0.0026000000 1.5248000000 0.6778000000
-0.0030000000 1.3077000000 0.5773000000
-0.0032000000 0.2030000000 0.1342000000
-0.0060000000 6.9865000000 0.2608000000
