3.0039000000 2.6390000000 1.0358000000
3.0037000000 4.8080000000 0.4002000000
3.0036000000 3.3492000000 0.9020000000
3.0033000000 1.6730000000 0.7049000000
3.0032000000 2.0975000000 0.8448000000
3.0031000000 2.8809000000 1.0593000000
3.0029000000 4.7450000000 0.4290000000
3.0029000000 2.1512000000 0.8694000000
3.0028000000 2.3649000000 0.9373000000
3.0024000000 1.2791000000 0.5732000000
3.0023000000 3.0664000000 0.9929000000
3.0022000000 0.7479000000 0.3937000000
3.0022000000 0.8685000000 0.4344000000
3.0021000000 4.7019000000 0.4390000000
3.0021000000 1.2477000000 0.5579000000
3.0020000000 3.1722000000 0.9567000000
3.0020000000 3.8630000000 0.7227000000
3.0018000000 4.3874000000 0.5432000000
3.0018000000 4.3420000000 0.5588000000
3.0017000000 0.5085000000 0.3087000000
3.0016000000 3.9052000000 0.7109000000
3.0011000000 0.6363000000 0.3534000000
3.0010000000 2.8018000000 1.0715000000
3.0007000000 2.8201000000 1.0700000000
3.0007000000 1.7143000000 0.7209000000
3.0005000000 0.9507000000 0.4619000000
3.0004000000 1.5486000000 0.6663000000
3.0003000000 0.9413000000 0.4588000000
3.0000000000 0.9284000000 0.4567000000
2.9997000000 2.2856000000 0.9200000000
2.9993000000 3.8495000000 0.7299000000
2.9990000000 1.5162000000 0.6546000000
2.9987000000 2.5591000000 1.0119000000
2.9985000000 4.8714000000 0.3856000000
2.9983000000 4.6830000000 0.4479000000
2.9971000000 1.3909000000 0.6146000000
2.9967000000 0.2006000000 0.1402000000
2.9961000000 5.5541000000 0.0299000000
2.9958000000 4.8497000000 0.3901000000
2.9948000000 0.5724000000 0.3324000000
2.9925000000 0.1650000000 0.1168000000
2.7630000000 3.2747000000 1.0617000000
2.7600000000 5.4247000000 0.1178000000
2.7600000000 4.7587000000 0.5576000000
2.7591000000 1.7250000000 0.8626000000
2.7590000000 2.3488000000 1.0796000000
2.7585000000 5.3590000000 0.1637000000
2.7577000000 5.3225000000 0.1840000000
2.7577000000 3.4297000000 1.0176000000
2.7573000000 2.6166000000 1.1730000000
2.7573000000 5.3007000000 0.2016000000
2.7572000000 3.4619000000 1.0079000000
2.7568000000 2.5638000000 1.1571000000
2.7567000000 0.8000000000 0.5353000000
2.7567000000 5.4522000000 0.0988000000
2.7565000000 4.5548000000 0.6286000000
2.7564000000 3.8186000000 0.8810000000
2.7561000000 3.2745000000 1.0698000000
2.7559000000 1.7272000000 0.8725000000
2.7558000000 3.1133000000 1.1237000000
2.7557000000 3.4024000000 1.0274000000
2.7556000000 3.3761000000 1.0342000000
2.7553000000 3.8872000000 0.8579000000
2.7553000000 5.4805000000 0.0763000000
2.7550000000 1.2320000000 0.7032000000
2.7550000000 1.8897000000 0.9239000000
2.7549000000 0.3262000000 0.2252000000
2.7548000000 4.6981000000 0.5784000000
2.7547000000 1.5629000000 0.8149000000
2.7546000000 3.2868000000 1.0626000000
2.7545000000 5.1087000000 0.3334000000
2.7543000000 5.2686000000 0.2182000000
2.7543000000 2.8279000000 1.2090000000
2.7542000000 3.5890000000 0.9645000000
2.7540000000 1.8112000000 0.8978000000
2.7540000000 2.3279000000 1.0786000000
2.7538000000 2.4238000000 1.1088000000
2.7536000000 3.7774000000 0.8984000000
2.7536000000 2.0413000000 0.9757000000
2.7533000000 3.7204000000 0.9177000000
2.7531000000 3.8513000000 0.8782000000
2.7530000000 1.7797000000 0.8972000000
2.7529000000 3.7340000000 0.9107000000
2.7528000000 3.9021000000 0.8593000000
2.7527000000 1.3373000000 0.7375000000
2.7526000000 5.1638000000 0.2919000000
2.7525000000 0.8060000000 0.5448000000
2.7525000000 1.9655000000 0.9543000000
2.7524000000 2.2485000000 1.0448000000
2.7523000000 3.2168000000 1.0993000000
2.7523000000 0.9295000000 0.6039000000
2.7520000000 2.9765000000 1.1672000000
2.7517000000 4.4632000000 0.6693000000
2.7516000000 4.3649000000 0.6996000000
2.7514000000 0.5830000000 0.4025000000
2.7513000000 4.1214000000 0.7803000000
2.7509000000 4.6624000000 0.5973000000
2.7506000000 1.4538000000 0.7809000000
2.7504000000 2.4241000000 1.1080000000
2.7503000000 2.8859000000 1.2081000000
2.7501000000 1.6224000000 0.8364000000
2.7500000000 0.8966000000 0.5804000000
2.7496000000 2.2173000000 1.0381000000
2.7495000000 1.5305000000 0.8081000000
2.7495000000 1.9899000000 0.9678000000
2.7493000000 1.6348000000 0.8393000000
2.7492000000 4.3988000000 0.6876000000
2.7490000000 0.9094000000 0.5838000000
2.7488000000 0.4978000000 0.3500000000
2.7483000000 3.2792000000 1.0680000000
2.7480000000 1.3760000000 0.7586000000
2.7472000000 5.0652000000 0.3618000000
2.7470000000 2.6038000000 1.1734000000
2.5140000000 2.7548000000 1.3508000000
2.5118000000 3.4488000000 1.1562000000
2.5110000000 0.3471000000 0.2435000000
2.5110000000 5.1150000000 0.3316000000
2.5106000000 4.7399000000 0.5827000000
2.5104000000 3.2712000000 1.2172000000
2.5100000000 3.3119000000 1.1996000000
2.5098000000 3.7191000000 1.0635000000
2.5096000000 4.7534000000 0.5723000000
2.5095000000 3.0337000000 1.3064000000
2.5095000000 4.0706000000 0.9464000000
2.5090000000 0.6849000000 0.4728000000
2.5088000000 3.1405000000 1.2594000000
2.5087000000 2.3895000000 1.2374000000
2.5086000000 4.0745000000 0.9437000000
2.5084000000 2.8784000000 1.3567000000
2.5082000000 2.7172000000 1.3539000000
2.5081000000 5.1517000000 0.3017000000
2.5080000000 0.6468000000 0.4408000000
2.5080000000 3.0640000000 1.2864000000
2.5077000000 3.4725000000 1.1523000000
2.5073000000 1.6293000000 0.9823000000
2.5073000000 3.9259000000 0.9943000000
2.5071000000 2.8283000000 1.3633000000
2.5072000000 1.1229000000 0.7665000000
2.5070000000 3.1415000000 1.2627000000
2.5070000000 5.1749000000 0.2847000000
2.5069000000 2.1793000000 1.1715000000
2.5068000000 0.2436000000 0.1702000000
2.5065000000 3.6742000000 1.0864000000
2.5064000000 1.5989000000 0.9762000000
2.5062000000 1.5464000000 0.9511000000
2.5061000000 1.3333000000 0.8702000000
2.5060000000 5.2072000000 0.2636000000
2.5061000000 1.4212000000 0.9129000000
2.5060000000 0.7462000000 0.5078000000
2.5060000000 3.1447000000 1.2650000000
2.5056000000 1.3922000000 0.9036000000
2.5055000000 5.4326000000 0.1127000000
2.5054000000 3.5822000000 1.1114000000
2.5053000000 0.1916000000 0.1356000000
2.5051000000 5.4997000000 0.0681000000
2.5050000000 0.8411000000 0.5794000000
2.5048000000 2.9344000000 1.3278000000
2.5047000000 0.4554000000 0.3229000000
2.5047000000 3.9509000000 0.9859000000
2.5046000000 3.2400000000 1.2330000000
2.5046000000 3.2916000000 1.2101000000
2.5045000000 2.1739000000 1.1705000000
2.5042000000 3.8618000000 1.0224000000
2.5041000000 2.6126000000 1.3163000000
2.5039000000 3.2215000000 1.2371000000
2.5038000000 2.9095000000 1.3444000000
2.5036000000 1.6481000000 0.9921000000
2.5036000000 1.3850000000 0.9045000000
2.5034000000 0.3373000000 0.2360000000
2.5034000000 1.8556000000 1.0665000000
2.5033000000 1.8112000000 1.0536000000
2.5033000000 5.4063000000 0.1255000000
2.5032000000 1.1542000000 0.7828000000
2.5031000000 3.0436000000 1.2951000000
2.5028000000 0.8283000000 0.5718000000
2.5028000000 1.2529000000 0.8522000000
2.5027000000 4.9197000000 0.4619000000
2.5026000000 4.6509000000 0.6408000000
2.5025000000 4.5894000000 0.6832000000
2.5024000000 4.1804000000 0.9132000000
2.5021000000 1.5647000000 0.9627000000
2.5020000000 1.8737000000 1.0699000000
2.5018000000 2.7776000000 1.3672000000
2.5017000000 0.3982000000 0.2748000000
2.5017000000 3.0640000000 1.2896000000
2.5013000000 1.0506000000 0.7292000000
2.5013000000 4.6769000000 0.6239000000
2.5012000000 0.8093000000 0.5584000000
2.5011000000 5.1343000000 0.3138000000
2.5010000000 5.0263000000 0.3867000000
2.5008000000 0.0140000000 0.0177000000
2.4999000000 0.3143000000 0.2245000000
2.4998000000 1.3228000000 0.8692000000
2.4992000000 2.2903000000 1.2157000000
2.4985000000 1.9951000000 1.1171000000
2.4977000000 2.8552000000 1.3665000000
2.4977000000 3.4243000000 1.1670000000
2.4975000000 3.4104000000 1.1789000000
2.4957000000 2.3928000000 1.2489000000
2.4950000000 1.1483000000 0.7859000000
2.2615000000 3.9043000000 1.1347000000
2.2607000000 3.7357000000 1.2027000000
2.2604000000 5.5528000000 0.0289000000
2.2602000000 1.2149000000 0.8318000000
2.2592000000 3.9433000000 1.1109000000
2.2590000000 3.8171000000 1.1733000000
2.2589000000 4.2863000000 0.8890000000
2.2587000000 4.9985000000 0.4063000000
2.2583000000 4.6913000000 0.6150000000
2.2579000000 5.5371000000 0.0439000000
2.2575000000 3.2075000000 1.3857000000
2.2574000000 3.3801000000 1.3278000000
2.2572000000 5.2474000000 0.2343000000
2.2569000000 5.0328000000 0.3815000000
2.2568000000 3.9754000000 1.0915000000
2.2567000000 3.7905000000 1.1841000000
2.2565000000 2.3934000000 1.3884000000
2.2564000000 1.1600000000 0.7978000000
2.2558000000 2.9339000000 1.4791000000
2.2557000000 1.3531000000 0.9287000000
2.2556000000 2.6658000000 1.4794000000
2.2554000000 4.2849000000 0.8867000000
2.2554000000 1.2426000000 0.8526000000
2.2550000000 5.3532000000 0.1647000000
2.2549000000 3.8405000000 1.1658000000
2.2548000000 1.1435000000 0.7859000000
2.2548000000 4.1563000000 0.9783000000
2.2548000000 0.0275000000 0.0233000000
2.2546000000 1.2957000000 0.8854000000
2.2545000000 4.0932000000 1.0217000000
2.2543000000 2.0649000000 1.2845000000
2.2540000000 0.0100000000 0.0133000000
2.2540000000 3.3761000000 1.3305000000
2.2538000000 4.4934000000 0.7500000000
2.2538000000 4.4067000000 0.8068000000
2.2537000000 5.0797000000 0.3496000000
2.2537000000 3.2420000000 1.3744000000
2.2536000000 1.6582000000 1.1240000000
2.2536000000 2.5879000000 1.4654000000
2.2535000000 0.2467000000 0.1749000000
2.2534000000 0.4346000000 0.3073000000
2.2532000000 1.1511000000 0.7875000000
2.2531000000 2.7036000000 1.4984000000
2.2531000000 0.5452000000 0.3815000000
2.2528000000 4.2335000000 0.9305000000
2.2526000000 3.6615000000 1.2364000000
2.2525000000 2.4007000000 1.3958000000
2.2523000000 0.4928000000 0.3372000000
2.2522000000 0.6428000000 0.4433000000
2.2521000000 5.2419000000 0.2385000000
2.2521000000 3.9073000000 1.1373000000
2.2520000000 4.1791000000 0.9667000000
2.2517000000 2.2299000000 1.3411000000
2.2516000000 2.3359000000 1.3796000000
2.2515000000 0.5911000000 0.4102000000
2.2515000000 3.2833000000 1.3634000000
2.2514000000 2.0863000000 1.2895000000
2.2508000000 4.7128000000 0.5961000000
2.2506000000 3.0847000000 1.4360000000
2.2505000000 3.1109000000 1.4248000000
2.2503000000 5.0547000000 0.3646000000
2.2502000000 3.2760000000 1.3692000000
2.2500000000 0.5015000000 0.3444000000
2.2500000000 0.2548000000 0.1763000000
2.2498000000 0.4214000000 0.2965000000
2.2495000000 0.1340000000 0.0975000000
2.2494000000 5.0149000000 0.3914000000
2.2490000000 2.1401000000 1.3084000000
2.2489000000 1.4486000000 0.9924000000
2.2488000000 1.1303000000 0.7726000000
2.2483000000 0.7780000000 0.5386000000
2.2482000000 3.0922000000 1.4276000000
2.2481000000 3.8502000000 1.1571000000
2.2478000000 0.1462000000 0.1043000000
2.2477000000 3.5543000000 1.2770000000
2.2475000000 1.6426000000 1.1181000000
2.2466000000 2.2750000000 1.3563000000
2.2450000000 4.0047000000 1.0828000000
2.2445000000 0.5622000000 0.3890000000
2.2440000000 4.9387000000 0.4504000000
2.2430000000 2.4814000000 1.4322000000
2.2415000000 0.0132000000 0.0161000000
2.0129000000 4.1793000000 0.9674000000
2.0125000000 5.1933000000 0.2702000000
2.0115000000 5.3191000000 0.1797000000
2.0104000000 3.2133000000 1.5336000000
2.0095000000 4.1951000000 0.9534000000
2.0090000000 2.2558000000 1.4913000000
2.0083000000 4.6632000000 0.6335000000
2.0078000000 4.1778000000 0.9668000000
2.0077000000 1.9141000000 1.3136000000
2.0077000000 5.3691000000 0.1546000000
2.0074000000 4.4153000000 0.8078000000
2.0073000000 4.4087000000 0.8073000000
2.0072000000 3.7949000000 1.2297000000
2.0071000000 3.3302000000 1.4913000000
2.0071000000 1.3889000000 0.9544000000
2.0069000000 3.5593000000 1.3713000000
2.0068000000 0.5117000000 0.3554000000
2.0067000000 1.8877000000 1.2914000000
2.0067000000 3.3391000000 1.4817000000
2.0064000000 0.6197000000 0.4269000000
2.0063000000 0.2099000000 0.1515000000
2.0059000000 1.2004000000 0.8237000000
2.0058000000 3.1870000000 1.5401000000
2.0058000000 2.6467000000 1.6281000000
2.0055000000 4.6255000000 0.6619000000
2.0053000000 1.6737000000 1.1497000000
2.0052000000 3.1425000000 1.5543000000
2.0049000000 1.5027000000 1.0305000000
2.0048000000 1.0635000000 0.7335000000
2.0048000000 1.6947000000 1.1586000000
2.0047000000 3.7683000000 1.2447000000
2.0045000000 3.6549000000 1.3193000000
2.0044000000 2.0990000000 1.4266000000
2.0044000000 5.5621000000 0.0274000000
2.0040000000 4.4911000000 0.7508000000
2.0040000000 3.8240000000 1.2046000000
2.0039000000 3.4113000000 1.4579000000
2.0039000000 4.1165000000 1.0016000000
2.0037000000 1.8590000000 1.2758000000
2.0035000000 1.2442000000 0.8559000000
2.0034000000 0.6706000000 0.4608000000
2.0033000000 0.9890000000 0.6840000000
2.0031000000 2.9438000000 1.6343000000
2.0030000000 1.7902000000 1.2209000000
2.0029000000 3.1003000000 1.5766000000
2.0028000000 0.6490000000 0.4501000000
2.0028000000 5.5502000000 0.0320000000
2.0028000000 0.2517000000 0.1793000000
2.0025000000 1.7194000000 1.1791000000
2.0024000000 4.1198000000 1.0023000000
2.0021000000 3.8838000000 1.1684000000
2.0018000000 0.9154000000 0.6332000000
2.0017000000 5.3890000000 0.1369000000
2.0015000000 4.5052000000 0.7423000000
2.0015000000 4.1724000000 0.9685000000
2.0014000000 1.3832000000 0.9480000000
2.0013000000 0.6844000000 0.4757000000
2.0007000000 0.0085000000 0.0094000000
2.0004000000 2.0165000000 1.3726000000
2.0002000000 3.0222000000 1.6003000000
1.9998000000 3.1913000000 1.5485000000
1.9996000000 0.1731000000 0.1216000000
1.9994000000 0.9571000000 0.6538000000
1.9988000000 0.0429000000 0.0378000000
1.9988000000 0.2898000000 0.1984000000
1.9985000000 1.9565000000 1.3343000000
1.9985000000 4.6551000000 0.6477000000
1.9979000000 2.4634000000 1.5671000000
1.9973000000 0.8290000000 0.5711000000
1.9963000000 1.7478000000 1.2030000000
1.7633000000 2.7808000000 1.8063000000
1.7632000000 5.2818000000 0.2115000000
1.7630000000 4.5108000000 0.7386000000
1.7624000000 4.3815000000 0.8256000000
1.7619000000 4.3282000000 0.8599000000
1.7600000000 5.1896000000 0.2750000000
1.7595000000 4.4457000000 0.7823000000
1.7592000000 5.4023000000 0.1361000000
1.7590000000 3.7733000000 1.2491000000
1.7584000000 4.4968000000 0.7484000000
1.7583000000 2.6970000000 1.7866000000
1.7579000000 2.9625000000 1.7551000000
1.7578000000 5.1387000000 0.3192000000
1.7577000000 3.5069000000 1.4202000000
1.7574000000 4.3433000000 0.8564000000
1.7572000000 2.9066000000 1.7809000000
1.7571000000 4.3490000000 0.8515000000
1.7570000000 3.6824000000 1.3004000000
1.7568000000 0.7822000000 0.5412000000
1.7567000000 0.7845000000 0.5426000000
1.7568000000 3.2697000000 1.5854000000
1.7564000000 4.7590000000 0.5690000000
1.7563000000 4.6714000000 0.6289000000
1.7563000000 5.1911000000 0.2747000000
1.7562000000 5.2455000000 0.2417000000
1.7558000000 5.5208000000 0.0525000000
1.7558000000 1.1946000000 0.8201000000
1.7558000000 4.1145000000 1.0122000000
1.7557000000 5.0560000000 0.3647000000
1.7557000000 3.7065000000 1.2869000000
1.7556000000 1.0403000000 0.7190000000
1.7555000000 5.4034000000 0.1324000000
1.7555000000 2.4226000000 1.6559000000
1.7555000000 5.4341000000 0.1053000000
1.7554000000 3.3051000000 1.5636000000
1.7553000000 2.7139000000 1.7967000000
1.7551000000 3.7544000000 1.2511000000
1.7550000000 4.6794000000 0.6203000000
1.7549000000 3.9575000000 1.1134000000
1.7548000000 5.1027000000 0.3401000000
1.7548000000 2.0932000000 1.4327000000
1.7548000000 3.5289000000 1.4078000000
1.7544000000 3.9274000000 1.1361000000
1.7543000000 3.3659000000 1.5253000000
1.7541000000 1.4307000000 0.9784000000
1.7540000000 5.2582000000 0.2296000000
1.7540000000 0.4868000000 0.3367000000
1.7539000000 2.8707000000 1.7980000000
1.7538000000 2.5547000000 1.7319000000
1.7538000000 2.6437000000 1.7724000000
1.7537000000 4.4639000000 0.7672000000
1.7536000000 1.6048000000 1.0935000000
1.7535000000 3.6716000000 1.3102000000
1.7531000000 5.0656000000 0.3618000000
1.7528000000 3.3546000000 1.5236000000
1.7527000000 0.1383000000 0.0984000000
1.7524000000 4.4549000000 0.7742000000
1.7524000000 1.7144000000 1.1732000000
1.7523000000 4.0993000000 1.0208000000
1.7522000000 3.0784000000 1.6990000000
1.7521000000 4.4829000000 0.7626000000
1.7520000000 0.7088000000 0.4904000000
1.7518000000 2.7154000000 1.7928000000
1.7518000000 2.3511000000 1.6095000000
1.7517000000 4.1877000000 0.9600000000
1.7516000000 2.0797000000 1.4216000000
1.7516000000 0.6723000000 0.4662000000
1.7514000000 5.0890000000 0.3457000000
1.7512000000 0.0090000000 0.0106000000
1.7511000000 0.6744000000 0.4668000000
1.7508000000 0.4758000000 0.3295000000
1.7503000000 0.1949000000 0.1317000000
1.7500000000 2.4858000000 1.6916000000
1.7498000000 3.3531000000 1.5277000000
1.7496000000 3.9254000000 1.1366000000
1.7495000000 5.1922000000 0.2781000000
1.7495000000 0.4144000000 0.2880000000
1.7494000000 1.8333000000 1.2480000000
1.7493000000 0.7351000000 0.5084000000
1.7491000000 0.8777000000 0.6044000000
1.7489000000 4.2438000000 0.9188000000
1.7486000000 5.2844000000 0.2055000000
1.7477000000 1.2066000000 0.8267000000
1.7475000000 3.1858000000 1.6412000000
1.7467000000 3.5790000000 1.3709000000
1.7464000000 0.1068000000 0.0803000000
1.7449000000 0.2899000000 0.2046000000
1.7440000000 2.3894000000 1.6325000000
1.5133000000 4.8325000000 0.5198000000
1.5115000000 1.4763000000 1.0141000000
1.5107000000 4.1152000000 1.0141000000
1.5097000000 3.2748000000 1.5837000000
1.5095000000 4.1920000000 0.9544000000
1.5092000000 3.2546000000 1.5967000000
1.5089000000 5.0960000000 0.3373000000
1.5087000000 1.1774000000 0.8082000000
1.5079000000 4.7307000000 0.5887000000
1.5077000000 3.9751000000 1.1042000000
1.5075000000 4.8219000000 0.5245000000
1.5073000000 1.7122000000 1.1760000000
1.5071000000 4.9823000000 0.4140000000
1.5070000000 1.3862000000 0.9566000000
1.5070000000 3.5844000000 1.3697000000
1.5069000000 2.0434000000 1.3934000000
1.5068000000 1.3296000000 0.9174000000
1.5066000000 0.4489000000 0.3052000000
1.5065000000 2.5941000000 1.7590000000
1.5065000000 4.6418000000 0.6494000000
1.5063000000 4.0697000000 1.0364000000
1.5061000000 3.0107000000 1.7506000000
1.5060000000 1.5343000000 1.0486000000
1.5059000000 2.8549000000 1.8280000000
1.5058000000 1.3633000000 0.9341000000
1.5058000000 2.5101000000 1.7135000000
1.5056000000 3.9965000000 1.0867000000
1.5055000000 1.5641000000 1.0726000000
1.5053000000 2.7818000000 1.8165000000
1.5053000000 5.1475000000 0.3055000000
1.5050000000 4.8894000000 0.4811000000
1.5050000000 3.9545000000 1.1170000000
1.5049000000 2.7019000000 1.8041000000
1.5049000000 1.0937000000 0.7563000000
1.5048000000 1.7718000000 1.2132000000
1.5048000000 4.9174000000 0.4570000000
1.5047000000 4.4657000000 0.7667000000
1.5043000000 2.5493000000 1.7266000000
1.5042000000 0.9847000000 0.6710000000
1.5042000000 2.5170000000 1.7101000000
1.5040000000 1.1376000000 0.7839000000
1.5037000000 3.9582000000 1.1134000000
1.5035000000 5.2119000000 0.2638000000
1.5031000000 2.4583000000 1.6825000000
1.5030000000 1.7946000000 1.2345000000
1.5029000000 2.7086000000 1.8068000000
1.5029000000 5.0886000000 0.3407000000
1.5025000000 0.9789000000 0.6746000000
1.5023000000 1.2724000000 0.8792000000
1.5023000000 2.0319000000 1.3907000000
1.5022000000 0.9417000000 0.6500000000
1.5020000000 4.8912000000 0.4742000000
1.5019000000 0.4756000000 0.3323000000
1.5018000000 4.5455000000 0.7141000000
1.5018000000 0.6431000000 0.4394000000
1.5017000000 0.6919000000 0.4831000000
1.5017000000 4.8997000000 0.4775000000
1.5015000000 2.9527000000 1.7802000000
1.5014000000 4.8569000000 0.5029000000
1.5012000000 0.0631000000 0.0499000000
1.5009000000 4.6507000000 0.6485000000
1.5008000000 4.7868000000 0.5548000000
1.5005000000 1.3934000000 0.9539000000
1.5001000000 4.9816000000 0.4215000000
1.4999000000 2.2848000000 1.5644000000
1.4998000000 3.8583000000 1.1862000000
1.4995000000 3.6956000000 1.2920000000
1.4995000000 0.5916000000 0.4108000000
1.4994000000 0.3958000000 0.2748000000
1.4992000000 3.8601000000 1.1804000000
1.4988000000 1.2906000000 0.8838000000
1.4985000000 1.2739000000 0.8676000000
1.4983000000 1.4746000000 1.0118000000
1.4963000000 1.8716000000 1.2813000000
1.4957000000 1.5415000000 1.0593000000
1.4955000000 2.7819000000 1.8157000000
1.2616000000 4.0826000000 1.0283000000
1.2608000000 3.5111000000 1.4195000000
1.2605000000 1.3129000000 0.9005000000
1.2599000000 3.7662000000 1.2500000000
1.2598000000 3.2624000000 1.5438000000
1.2591000000 4.0063000000 1.0777000000
1.2586000000 2.6380000000 1.6462000000
1.2581000000 3.1426000000 1.5768000000
1.2580000000 4.5209000000 0.7335000000
1.2579000000 4.9655000000 0.4295000000
1.2575000000 0.7881000000 0.5451000000
1.2575000000 3.7277000000 1.2764000000
1.2573000000 4.1392000000 0.9958000000
1.2567000000 2.6962000000 1.6676000000
1.2566000000 4.3627000000 0.8413000000
1.2564000000 4.3082000000 0.8732000000
1.2563000000 4.5196000000 0.7336000000
1.2561000000 3.5043000000 1.4197000000
1.2560000000 4.8095000000 0.5320000000
1.2558000000 4.2531000000 0.9159000000
1.2558000000 1.9233000000 1.3180000000
1.2557000000 4.3761000000 0.8315000000
1.2557000000 2.5347000000 1.6064000000
1.2555000000 3.0155000000 1.6228000000
1.2554000000 5.0156000000 0.3942000000
1.2553000000 4.2104000000 0.9421000000
1.2553000000 0.0835000000 0.0652000000
1.2552000000 4.9765000000 0.4204000000
1.2552000000 1.3841000000 0.9468000000
1.2549000000 4.3570000000 0.8450000000
1.2548000000 2.6844000000 1.6636000000
1.2545000000 0.3919000000 0.2722000000
1.2545000000 5.4730000000 0.0874000000
1.2543000000 2.6531000000 1.6464000000
1.2542000000 5.5536000000 0.0340000000
1.2540000000 2.5129000000 1.6002000000
1.2539000000 4.3212000000 0.8685000000
1.2538000000 4.2452000000 0.9218000000
1.2538000000 1.8999000000 1.3020000000
1.2536000000 2.4986000000 1.5944000000
1.2536000000 0.3473000000 0.2456000000
1.2535000000 1.5120000000 1.0387000000
1.2535000000 2.2749000000 1.5160000000
1.2534000000 0.5969000000 0.4082000000
1.2532000000 1.4946000000 1.0257000000
1.2532000000 1.9571000000 1.3413000000
1.2530000000 3.6756000000 1.3031000000
1.2528000000 4.6184000000 0.6662000000
1.2527000000 3.5847000000 1.3722000000
1.2524000000 5.0842000000 0.3458000000
1.2522000000 3.7122000000 1.2820000000
1.2522000000 3.1534000000 1.5735000000
1.2518000000 1.8892000000 1.2959000000
1.2516000000 4.0914000000 1.0223000000
1.2515000000 2.4314000000 1.5705000000
1.2513000000 0.4766000000 0.3278000000
1.2513000000 5.4445000000 0.1026000000
1.2512000000 0.3641000000 0.2541000000
1.2510000000 2.8806000000 1.6651000000
1.2509000000 4.1514000000 0.9855000000
1.2508000000 5.2508000000 0.2333000000
1.2505000000 0.5944000000 0.4156000000
1.2503000000 0.0646000000 0.0518000000
1.2500000000 3.9012000000 1.1531000000
1.2497000000 2.7147000000 1.6660000000
1.2496000000 0.4878000000 0.3375000000
1.2494000000 3.3739000000 1.4896000000
1.2493000000 0.1250000000 0.0915000000
1.2493000000 0.6631000000 0.4595000000
1.2490000000 0.0142000000 0.0164000000
1.2477000000 3.9428000000 1.1255000000
1.2468000000 1.8349000000 1.2574000000
1.2467000000 3.1050000000 1.5826000000
1.2461000000 2.3211000000 1.5320000000
1.2461000000 4.0927000000 1.0166000000
1.2460000000 2.2712000000 1.5152000000
1.2460000000 2.1648000000 1.4670000000
1.2451000000 0.2179000000 0.1537000000
1.0109000000 2.0415000000 1.2958000000
1.0108000000 2.9459000000 1.5040000000
1.0098000000 4.4799000000 0.7543000000
1.0094000000 1.8361000000 1.2169000000
1.0093000000 5.0121000000 0.3970000000
1.0090000000 4.0698000000 1.0388000000
1.0089000000 2.8890000000 1.5252000000
1.0087000000 0.6264000000 0.4338000000
1.0083000000 3.3814000000 1.3523000000
1.0082000000 2.0319000000 1.2939000000
1.0078000000 4.5249000000 0.7292000000
1.0075000000 4.5278000000 0.7287000000
1.0073000000 4.2550000000 0.9116000000
1.0072000000 2.1335000000 1.3255000000
1.0071000000 3.1819000000 1.4185000000
1.0070000000 3.1270000000 1.4391000000
1.0067000000 2.3627000000 1.4037000000
1.0066000000 5.4645000000 0.0888000000
1.0065000000 5.5784000000 0.0094000000
1.0065000000 3.1997000000 1.4143000000
1.0063000000 5.3734000000 0.1523000000
1.0063000000 1.2901000000 0.8894000000
1.0061000000 4.0596000000 1.0466000000
1.0061000000 2.5323000000 1.4688000000
1.0060000000 1.4159000000 0.9728000000
1.0059000000 5.4423000000 0.1020000000
1.0058000000 2.6346000000 1.4959000000
1.0057000000 1.7175000000 1.1616000000
1.0055000000 3.7263000000 1.2335000000
1.0053000000 1.9447000000 1.2586000000
1.0053000000 3.9392000000 1.1221000000
1.0052000000 1.5704000000 1.0803000000
1.0051000000 4.8104000000 0.5323000000
1.0050000000 3.0876000000 1.4527000000
1.0049000000 3.2938000000 1.3793000000
1.0047000000 5.2348000000 0.2414000000
1.0047000000 1.8570000000 1.2334000000
1.0045000000 4.3406000000 0.8563000000
1.0045000000 1.1828000000 0.8126000000
1.0044000000 1.4527000000 0.9907000000
1.0043000000 1.8261000000 1.2152000000
1.0043000000 2.4992000000 1.4487000000
1.0041000000 4.5535000000 0.7140000000
1.0039000000 1.8883000000 1.2407000000
1.0039000000 1.6176000000 1.1117000000
1.0038000000 4.1192000000 1.0039000000
1.0036000000 0.2310000000 0.1662000000
1.0036000000 3.1638000000 1.4232000000
1.0035000000 1.3783000000 0.9435000000
1.0035000000 3.3166000000 1.3674000000
1.0034000000 3.0206000000 1.4710000000
1.0033000000 1.4085000000 0.9650000000
1.0033000000 1.5551000000 1.0670000000
1.0031000000 2.3229000000 1.3842000000
1.0031000000 4.8366000000 0.5152000000
1.0029000000 0.6843000000 0.4720000000
1.0028000000 1.0704000000 0.7288000000
1.0027000000 3.0298000000 1.4715000000
1.0024000000 3.8461000000 1.1832000000
1.0022000000 1.5415000000 1.0604000000
1.0022000000 2.7686000000 1.5287000000
1.0021000000 0.4396000000 0.3086000000
1.0021000000 0.9025000000 0.6185000000
1.0020000000 1.8157000000 1.2090000000
1.0019000000 2.3734000000 1.4078000000
1.0018000000 1.2971000000 0.8916000000
1.0017000000 0.1494000000 0.1018000000
1.0015000000 4.8301000000 0.5214000000
1.0014000000 3.0942000000 1.4442000000
1.0012000000 3.2179000000 1.4056000000
1.0011000000 1.5404000000 1.0525000000
1.0011000000 0.8733000000 0.6001000000
1.0010000000 4.4605000000 0.7759000000
1.0008000000 3.6452000000 1.2577000000
1.0006000000 4.0622000000 1.0488000000
1.0006000000 5.4420000000 0.1070000000
1.0005000000 2.0684000000 1.3011000000
1.0003000000 1.9169000000 1.2525000000
1.0001000000 1.6297000000 1.1071000000
1.0000000000 4.8410000000 0.5171000000
1.0000000000 1.5450000000 1.0582000000
0.9998000000 0.1584000000 0.1180000000
0.9997000000 2.1728000000 1.3329000000
0.9993000000 0.9515000000 0.6567000000
0.9987000000 2.2346000000 1.3537000000
0.9985000000 2.1184000000 1.3167000000
0.9982000000 4.1424000000 0.9920000000
0.9980000000 2.2587000000 1.3649000000
0.9979000000 1.3711000000 0.9360000000
0.9978000000 3.6660000000 1.2458000000
0.9978000000 1.5387000000 1.0622000000
0.9975000000 2.8025000000 1.5406000000
0.9974000000 4.8000000000 0.5408000000
0.9972000000 0.3514000000 0.2447000000
0.9970000000 4.1618000000 0.9781000000
0.9965000000 1.0617000000 0.7291000000
0.9957000000 0.6577000000 0.4563000000
0.9954000000 1.9131000000 1.2479000000
0.7620000000 5.0790000000 0.3466000000
0.7607000000 3.8103000000 1.0538000000
0.7605000000 1.1083000000 0.7586000000
0.7603000000 5.3958000000 0.1370000000
0.7599000000 2.9332000000 1.3592000000
0.7598000000 1.8797000000 1.0940000000
0.7593000000 4.5456000000 0.7148000000
0.7593000000 1.2973000000 0.8811000000
0.7590000000 0.8327000000 0.5717000000
0.7589000000 2.7239000000 1.3839000000
0.7588000000 5.2822000000 0.2120000000
0.7585000000 3.6533000000 1.1130000000
0.7574000000 5.5335000000 0.0374000000
0.7573000000 4.3926000000 0.8163000000
0.7573000000 0.6049000000 0.4253000000
0.7573000000 5.0037000000 0.4023000000
0.7567000000 5.2743000000 0.2185000000
0.7565000000 0.6763000000 0.4689000000
0.7565000000 4.2745000000 0.8899000000
0.7565000000 4.1178000000 0.9563000000
0.7563000000 0.6603000000 0.4567000000
0.7561000000 4.3206000000 0.8536000000
0.7559000000 0.7266000000 0.5037000000
0.7558000000 1.2078000000 0.8251000000
0.7558000000 3.6007000000 1.1293000000
0.7554000000 2.9186000000 1.3656000000
0.7555000000 1.1990000000 0.8253000000
0.7552000000 2.9164000000 1.3592000000
0.7551000000 4.3135000000 0.8623000000
0.7550000000 4.0048000000 0.9922000000
0.7550000000 5.1549000000 0.2967000000
0.7548000000 1.6601000000 1.0234000000
0.7548000000 3.6348000000 1.1203000000
0.7546000000 3.3211000000 1.2254000000
0.7544000000 5.2879000000 0.2114000000
0.7544000000 5.4857000000 0.0768000000
0.7543000000 1.2809000000 0.8667000000
0.7543000000 4.0873000000 0.9637000000
0.7542000000 5.2255000000 0.2519000000
0.7539000000 5.4877000000 0.0764000000
0.7538000000 0.5766000000 0.3953000000
0.7538000000 5.3645000000 0.1604000000
0.7537000000 3.0653000000 1.3049000000
0.7535000000 2.8082000000 1.3875000000
0.7535000000 3.4868000000 1.1710000000
0.7534000000 1.1716000000 0.8025000000
0.7533000000 2.7491000000 1.3769000000
0.7531000000 2.7556000000 1.3823000000
0.7530000000 2.6369000000 1.3509000000
0.7528000000 2.4050000000 1.2712000000
0.7528000000 1.7368000000 1.0417000000
0.7527000000 1.4926000000 0.9555000000
0.7525000000 4.5682000000 0.7029000000
0.7527000000 3.6719000000 1.0986000000
0.7525000000 4.6657000000 0.6353000000
0.7523000000 4.6117000000 0.6699000000
0.7520000000 3.3630000000 1.2079000000
0.7519000000 0.8915000000 0.6168000000
0.7518000000 2.3755000000 1.2581000000
0.7516000000 1.1323000000 0.7739000000
0.7515000000 2.5888000000 1.3304000000
0.7515000000 2.6137000000 1.3335000000
0.7512000000 0.6991000000 0.4842000000
0.7511000000 2.4398000000 1.2753000000
0.7509000000 2.9881000000 1.3356000000
0.7508000000 0.8506000000 0.5832000000
0.7507000000 4.3951000000 0.8218000000
0.7505000000 3.5911000000 1.1263000000
0.7504000000 2.7242000000 1.3761000000
0.7503000000 4.2688000000 0.8897000000
0.7503000000 4.6658000000 0.6339000000
0.7501000000 4.9718000000 0.4273000000
0.7498000000 1.8599000000 1.0829000000
0.7497000000 1.3053000000 0.8888000000
0.7494000000 0.4274000000 0.2938000000
0.7491000000 2.4299000000 1.2741000000
0.7489000000 0.3411000000 0.2353000000
0.7484000000 2.5617000000 1.3213000000
0.7483000000 5.1749000000 0.2831000000
0.7483000000 4.5774000000 0.6942000000
0.7482000000 1.9203000000 1.0963000000
0.7477000000 3.6073000000 1.1260000000
0.7475000000 2.6439000000 1.3492000000
0.7474000000 0.1797000000 0.1270000000
0.7470000000 1.4503000000 0.9414000000
0.7470000000 3.2076000000 1.2535000000
0.7468000000 3.8556000000 1.0425000000
0.5126000000 1.5329000000 0.8310000000
0.5125000000 2.7865000000 1.2453000000
0.5123000000 5.5291000000 0.0457000000
0.5117000000 5.5054000000 0.0624000000
0.5093000000 5.0090000000 0.4045000000
0.5088000000 0.8311000000 0.5697000000
0.5088000000 3.4861000000 1.0210000000
0.5086000000 5.5042000000 0.0615000000
0.5086000000 0.2279000000 0.1582000000
0.5084000000 5.3809000000 0.1471000000
0.5080000000 0.6179000000 0.4275000000
0.5080000000 2.0961000000 1.0206000000
0.5078000000 2.8184000000 1.2368000000
0.5076000000 1.7318000000 0.8962000000
0.5075000000 0.7091000000 0.4922000000
0.5076000000 5.3783000000 0.1526000000
0.5077000000 3.9121000000 0.8806000000
0.5074000000 5.1783000000 0.2835000000
0.5072000000 3.9143000000 0.8759000000
0.5070000000 5.1177000000 0.3248000000
0.5070000000 0.7706000000 0.5333000000
0.5069000000 1.9904000000 0.9854000000
0.5066000000 2.7417000000 1.2291000000
0.5065000000 5.3466000000 0.1634000000
0.5063000000 2.7957000000 1.2432000000
0.5062000000 5.3315000000 0.1789000000
0.5059000000 3.1417000000 1.1387000000
0.5058000000 1.0023000000 0.6455000000
0.5057000000 5.5222000000 0.0524000000
0.5056000000 0.0575000000 0.0499000000
0.5055000000 3.5427000000 0.9983000000
0.5055000000 2.7275000000 1.2317000000
0.5055000000 2.5163000000 1.1632000000
0.5053000000 2.2473000000 1.0692000000
0.5052000000 3.8843000000 0.8863000000
0.5050000000 3.7656000000 0.9180000000
0.5049000000 1.0751000000 0.6691000000
0.5048000000 4.4135000000 0.7046000000
0.5046000000 3.1222000000 1.1435000000
0.5045000000 1.7922000000 0.9124000000
0.5043000000 4.1517000000 0.7942000000
0.5042000000 3.0331000000 1.1672000000
0.5041000000 2.1550000000 1.0349000000
0.5040000000 3.5561000000 0.9982000000
0.5039000000 0.8790000000 0.5931000000
0.5038000000 0.2984000000 0.2058000000
0.5036000000 5.0820000000 0.3464000000
0.5036000000 4.2554000000 0.7582000000
0.5033000000 2.6860000000 1.2187000000
0.5033000000 5.0309000000 0.3842000000
0.5030000000 5.0304000000 0.3905000000
0.5028000000 3.7051000000 0.9441000000
0.5028000000 1.1989000000 0.7064000000
0.5028000000 2.7759000000 1.2438000000
0.5027000000 3.0248000000 1.1790000000
0.5026000000 0.7092000000 0.4879000000
0.5026000000 4.6770000000 0.6047000000
0.5024000000 3.1745000000 1.1271000000
0.5024000000 1.8372000000 0.9306000000
0.5023000000 3.9133000000 0.8746000000
0.5023000000 4.1887000000 0.7777000000
0.5020000000 2.3163000000 1.0932000000
0.5021000000 2.7121000000 1.2322000000
0.5020000000 4.2729000000 0.7502000000
0.5019000000 0.4045000000 0.2869000000
0.5019000000 5.2036000000 0.2619000000
0.5017000000 5.3517000000 0.1654000000
0.5015000000 2.1309000000 1.0314000000
0.5015000000 5.3601000000 0.1661000000
0.5014000000 3.3195000000 1.0745000000
0.5013000000 2.7775000000 1.2373000000
0.5011000000 2.3939000000 1.1192000000
0.5011000000 3.2704000000 1.0908000000
0.5010000000 3.6233000000 0.9683000000
0.5010000000 4.3427000000 0.7260000000
0.5007000000 0.5673000000 0.3915000000
0.5000000000 3.6779000000 0.9488000000
0.5002000000 0.7281000000 0.5035000000
0.4996000000 0.7653000000 0.5195000000
0.4996000000 2.8606000000 1.2293000000
0.4994000000 1.6019000000 0.8440000000
0.4991000000 1.3896000000 0.7754000000
0.4990000000 3.5840000000 0.9780000000
0.4990000000 3.5009000000 1.0076000000
0.4990000000 2.2105000000 1.0540000000
0.4987000000 0.9394000000 0.6073000000
0.4986000000 1.1733000000 0.7010000000
0.4987000000 3.1729000000 1.1185000000
0.4970000000 1.9979000000 0.9840000000
0.4964000000 1.8646000000 0.9394000000
0.4962000000 2.3663000000 1.1070000000
0.4960000000 0.1100000000 0.0819000000
0.4950000000 2.0232000000 0.9879000000
0.4949000000 0.5913000000 0.4129000000
0.2605000000 0.0858000000 0.0626000000
0.2598000000 5.1902000000 0.2713000000
0.2595000000 0.4001000000 0.2687000000
0.2593000000 3.5427000000 0.8580000000
0.2591000000 3.0907000000 1.0051000000
0.2589000000 4.4407000000 0.5498000000
0.2588000000 5.0633000000 0.3280000000
0.2586000000 4.7281000000 0.4555000000
0.2580000000 4.8689000000 0.4064000000
0.2573000000 1.3736000000 0.6232000000
0.2573000000 3.8638000000 0.7412000000
0.2572000000 4.4692000000 0.5351000000
0.2573000000 0.3194000000 0.2243000000
0.2571000000 0.7027000000 0.3999000000
0.2570000000 5.5041000000 0.0634000000
0.2569000000 3.8921000000 0.7313000000
0.2566000000 0.7587000000 0.4177000000
0.2562000000 3.2448000000 0.9568000000
0.2561000000 4.7510000000 0.4399000000
0.2559000000 1.1690000000 0.5549000000
0.2558000000 3.8670000000 0.7402000000
0.2555000000 0.2745000000 0.1941000000
0.2554000000 3.8972000000 0.7305000000
0.2553000000 1.9370000000 0.8180000000
0.2553000000 1.8128000000 0.7696000000
0.2551000000 0.2527000000 0.1807000000
0.2550000000 0.5019000000 0.3181000000
0.2550000000 2.0190000000 0.8466000000
0.2546000000 5.3510000000 0.1582000000
0.2545000000 4.9471000000 0.3732000000
0.2544000000 1.7805000000 0.7579000000
0.2543000000 2.4830000000 0.9999000000
0.2542000000 4.7463000000 0.4429000000
0.2541000000 3.2172000000 0.9603000000
0.2540000000 5.4012000000 0.1305000000
0.2538000000 0.0060000000 0.0070000000
0.2535000000 4.7200000000 0.4512000000
0.2535000000 3.7351000000 0.7839000000
0.2534000000 1.1937000000 0.5598000000
0.2534000000 4.5158000000 0.5201000000
0.2533000000 4.1915000000 0.6341000000
0.2532000000 2.9785000000 1.0436000000
0.2531000000 0.3106000000 0.2187000000
0.2530000000 4.0484000000 0.6834000000
0.2529000000 1.2788000000 0.5838000000
0.2528000000 3.3315000000 0.9197000000
0.2527000000 3.8765000000 0.7401000000
0.2526000000 2.6939000000 1.0751000000
0.2526000000 0.3233000000 0.2331000000
0.2525000000 3.6616000000 0.8094000000
0.2524000000 4.0946000000 0.6644000000
0.2524000000 3.9720000000 0.6994000000
0.2521000000 0.7199000000 0.4018000000
0.2520000000 0.6358000000 0.3684000000
0.2520000000 2.2851000000 0.9376000000
0.2519000000 1.5428000000 0.6821000000
0.2518000000 0.6691000000 0.3785000000
0.2518000000 1.0572000000 0.5217000000
0.2516000000 0.2368000000 0.1601000000
0.2515000000 0.6331000000 0.3688000000
0.2515000000 0.8198000000 0.4383000000
0.2515000000 4.5220000000 0.5168000000
0.2514000000 2.5589000000 1.0250000000
0.2514000000 1.6553000000 0.7161000000
0.2513000000 1.1847000000 0.5629000000
0.2509000000 4.6868000000 0.4566000000
0.2508000000 0.2665000000 0.1865000000
0.2504000000 0.4855000000 0.3096000000
0.2503000000 3.5386000000 0.8512000000
0.2502000000 4.0069000000 0.6921000000
0.2501000000 1.9011000000 0.8023000000
0.2500000000 3.6645000000 0.8161000000
0.2496000000 3.5585000000 0.8424000000
0.2494000000 4.2637000000 0.6026000000
0.2492000000 1.7702000000 0.7541000000
0.2485000000 1.2992000000 0.6041000000
0.2480000000 3.1376000000 0.9816000000
0.2448000000 0.2601000000 0.1816000000
0.0113000000 1.8058000000 0.6312000000
0.0109000000 4.4992000000 0.3847000000
0.0086000000 3.2333000000 0.8158000000
0.0082000000 3.0683000000 0.8700000000
0.0082000000 5.0794000000 0.1896000000
0.0080000000 4.0297000000 0.5377000000
0.0077000000 5.5356000000 0.0155000000
0.0073000000 5.2363000000 0.1343000000
0.0070000000 5.1584000000 0.1525000000
0.0065000000 2.0550000000 0.7073000000
0.0060000000 5.5564000000 0.0830000000
0.0060000000 5.0937000000 0.1804000000
0.0061000000 1.4249000000 0.4935000000
0.0059000000 3.4438000000 0.7434000000
0.0058000000 5.2766000000 0.1170000000
0.0058000000 3.3943000000 0.7580000000
0.0055000000 4.1122000000 0.5119000000
0.0054000000 3.4066000000 0.7491000000
0.0050000000 4.2756000000 0.4597000000
0.0049000000 0.2750000000 0.0999000000
0.0047000000 1.5032000000 0.5200000000
0.0045000000 1.5017000000 0.5192000000
0.0045000000 2.0722000000 0.7098000000
0.0044000000 4.9578000000 0.2250000000
0.0043000000 4.9937000000 0.2103000000
0.0042000000 2.5118000000 0.8653000000
0.0040000000 1.5031000000 0.5229000000
0.0038000000 4.6236000000 0.3375000000
0.0036000000 1.8160000000 0.6234000000
0.0035000000 1.5813000000 0.5460000000
0.0034000000 2.8108000000 0.9465000000
0.0033000000 0.1324000000 0.0520000000
0.0033000000 5.1719000000 0.1476000000
0.0032000000 0.1710000000 0.0660000000
0.0032000000 4.0934000000 0.5163000000
0.0031000000 2.3934000000 0.8265000000
0.0030000000 5.0958000000 0.1764000000
0.0029000000 3.9384000000 0.5679000000
0.0028000000 2.9604000000 0.9020000000
0.0025000000 2.9813000000 0.8901000000
0.0024000000 0.0097000000 0.0782000000
0.0021000000 3.5922000000 0.6892000000
0.0020000000 0.4246000000 0.1599000000
0.0020000000 1.8004000000 0.6220000000
0.0017000000 0.4036000000 0.1457000000
0.0016000000 1.3740000000 0.4771000000
0.0015000000 5.1600000000 0.1559000000
0.0013000000 2.9488000000 0.9041000000
0.0013000000 0.5162000000 0.1798000000
0.0010000000 3.3924000000 0.7549000000
0.0008000000 4.4744000000 0.3824000000
0.0007000000 1.9781000000 0.6763000000
0.0006000000 3.6304000000 0.6731000000
0.0005000000 4.0252000000 0.5397000000
0.0004000000 1.5215000000 0.5275000000
-0.0000000000 3.0973000000 0.8489000000
-0.0001000000 2.8442000000 0.9306000000
-0.0003000000 2.2903000000 0.7918000000
-0.0005000000 3.7516000000 0.6321000000
-0.0005000000 3.8161000000 0.6088000000
-0.0006000000 1.9839000000 0.6815000000
-0.0017000000 2.5692000000 0.8794000000
-0.0018000000 2.8986000000 0.9183000000
-0.0020000000 4.3799000000 0.4150000000
-0.0027000000 0.0546000000 0.0850000000
-0.0044000000 2.9378000000 0.9055000000
-0.0052000000 2.7675000000 0.9321000000
-0.2390000000 1.3592000000 0.3330000000
-0.2400000000 2.9373000000 0.7655000000
-0.2404000000 3.2338000000 0.6691000000
-0.2406000000 2.7776000000 0.7994000000
-0.2407000000 1.5016000000 0.3724000000
-0.2407000000 4.4541000000 0.2551000000
-0.2417000000 3.4210000000 0.6024000000
-0.2417000000 1.8785000000 0.4994000000
-0.2425000000 4.2998000000 0.3005000000
-0.2426000000 3.4774000000 0.5863000000
-0.2427000000 3.1891000000 0.6728000000
-0.2428000000 4.4666000000 0.2474000000
-0.2431000000 4.0114000000 0.4017000000
-0.2432000000 3.8966000000 0.4370000000
-0.2434000000 1.1845000000 0.2713000000
-0.2434000000 3.4426000000 0.5898000000
-0.2435000000 5.0357000000 0.0508000000
-0.2440000000 4.8536000000 0.1132000000
-0.2441000000 4.4992000000 0.2362000000
-0.2442000000 3.6847000000 0.5102000000
-0.2443000000 2.9200000000 0.7666000000
-0.2448000000 4.1967000000 0.3317000000
-0.2450000000 0.9365000000 0.1859000000
-0.2453000000 4.1268000000 0.3583000000
-0.2454000000 1.4290000000 0.3498000000
-0.2456000000 1.7815000000 0.4711000000
-0.2458000000 4.2820000000 0.3064000000
-0.2458000000 0.9542000000 0.1822000000
-0.2460000000 3.6423000000 0.5218000000
-0.2464000000 1.0421000000 0.2156000000
-0.2465000000 5.0299000000 0.0527000000
-0.2469000000 2.6758000000 0.7738000000
-0.2470000000 4.3586000000 0.2817000000
-0.2470000000 3.2994000000 0.6391000000
-0.2470000000 1.6606000000 0.4252000000
-0.2471000000 0.7058000000 0.0997000000
-0.2473000000 3.9689000000 0.4110000000
-0.2473000000 2.8792000000 0.7831000000
-0.2474000000 3.2122000000 0.6701000000
-0.2478000000 2.3638000000 0.6690000000
-0.2479000000 3.9575000000 0.4178000000
-0.2480000000 3.2047000000 0.6733000000
-0.2481000000 3.9298000000 0.4252000000
-0.2492000000 0.8887000000 0.1649000000
-0.2493000000 2.2399000000 0.6212000000
-0.2494000000 3.9554000000 0.4129000000
-0.2497000000 1.2399000000 0.2829000000
-0.2497000000 3.2362000000 0.6593000000
-0.2498000000 3.9689000000 0.4069000000
-0.2500000000 1.0813000000 0.2232000000
-0.2500000000 2.3439000000 0.6559000000
-0.2502000000 1.0694000000 0.2295000000
-0.2504000000 0.3456000000 0.0519000000
-0.2508000000 3.5421000000 0.5541000000
-0.2510000000 4.9735000000 0.0636000000
-0.2512000000 0.6621000000 0.0843000000
-0.2515000000 3.8049000000 0.4648000000
-0.2519000000 1.3406000000 0.3088000000
-0.2520000000 1.2730000000 0.2956000000
-0.2524000000 2.9164000000 0.7696000000
-0.2525000000 1.5597000000 0.3904000000
-0.2531000000 4.6879000000 0.1608000000
-0.2555000000 0.2505000000 0.0191000000
-0.4885000000 2.2635000000 0.4939000000
-0.4903000000 1.0275000000 0.0674000000
-0.4904000000 4.5556000000 0.0685000000
-0.4906000000 1.6221000000 0.2698000000
-0.4907000000 3.9519000000 0.2718000000
-0.4912000000 2.7203000000 0.6438000000
-0.4914000000 3.9838000000 0.2594000000
-0.4916000000 2.6109000000 0.6092000000
-0.4917000000 4.7377000000 0.0768000000
-0.4917000000 4.2618000000 0.1672000000
-0.4919000000 2.9825000000 0.6025000000
-0.4920000000 2.8383000000 0.6435000000
-0.4925000000 2.0726000000 0.4198000000
-0.4930000000 4.6002000000 0.0557000000
-0.4935000000 4.8438000000 0.0427000000
-0.4936000000 4.8272000000 0.0428000000
-0.4940000000 1.7992000000 0.3269000000
-0.4941000000 1.3018000000 0.1576000000
-0.4944000000 3.6434000000 0.3703000000
-0.4945000000 2.3521000000 0.5169000000
-0.4946000000 1.4052000000 0.1967000000
-0.4947000000 2.7539000000 0.6390000000
-0.4949000000 2.6056000000 0.6039000000
-0.4951000000 2.2044000000 0.4623000000
-0.4954000000 4.3510000000 0.1287000000
-0.4954000000 1.1954000000 0.1213000000
-0.4955000000 3.7647000000 0.3340000000
-0.4955000000 1.8519000000 0.3443000000
-0.4956000000 1.6693000000 0.2807000000
-0.4957000000 1.7443000000 0.3073000000
-0.4959000000 1.9793000000 0.3879000000
-0.4964000000 2.9566000000 0.6084000000
-0.4967000000 0.7273000000 0.0366000000
-0.4970000000 1.4315000000 0.1992000000
-0.4971000000 4.3495000000 0.1338000000
-0.4973000000 1.9513000000 0.3816000000
-0.4975000000 4.3703000000 0.1259000000
-0.4976000000 4.0695000000 0.2335000000
-0.4977000000 4.7112000000 0.0109000000
-0.4980000000 3.0528000000 0.5736000000
-0.4981000000 3.0733000000 0.5706000000
-0.4981000000 1.7507000000 0.3077000000
-0.4983000000 4.1161000000 0.2168000000
-0.4985000000 3.7881000000 0.3266000000
-0.4985000000 1.6727000000 0.2837000000
-0.4986000000 2.5417000000 0.5760000000
-0.4987000000 2.8209000000 0.6429000000
-0.4988000000 3.9696000000 0.2600000000
-0.4990000000 2.1286000000 0.4447000000
-0.4990000000 4.5754000000 0.0549000000
-0.4992000000 0.6879000000 0.0161000000
-0.4993000000 2.9068000000 0.6185000000
-0.5000000000 1.0707000000 0.0805000000
-0.5005000000 4.5009000000 0.0825000000
-0.5006000000 3.2056000000 0.5233000000
-0.5008000000 0.8606000000 0.0769000000
-0.5012000000 0.9222000000 0.0282000000
-0.5014000000 4.2063000000 0.1802000000
-0.5014000000 1.2365000000 0.1286000000
-0.5015000000 0.8640000000 0.0773000000
-0.5017000000 1.7421000000 0.3040000000
-0.5020000000 1.1281000000 0.1042000000
-0.5021000000 3.8672000000 0.2961000000
-0.5026000000 1.8113000000 0.3315000000
-0.5030000000 1.1604000000 0.1043000000
-0.5032000000 1.1530000000 0.1066000000
-0.5037000000 2.1313000000 0.4377000000
-0.5041000000 1.1745000000 0.1104000000
-0.5052000000 2.0644000000 0.4096000000
-0.5057000000 2.2781000000 0.4823000000
-0.5065000000 1.4092000000 0.1897000000
-0.7379000000 4.4057000000 0.0429000000
-0.7400000000 1.1828000000 0.0464000000
-0.7402000000 2.1764000000 0.3100000000
-0.7409000000 4.3672000000 0.0571000000
-0.7427000000 4.0243000000 0.1006000000
-0.7429000000 3.3418000000 0.3306000000
-0.7432000000 1.4385000000 0.0572000000
-0.7432000000 2.9375000000 0.4670000000
-0.7435000000 4.1070000000 0.0724000000
-0.7437000000 3.0696000000 0.4259000000
-0.7439000000 2.4217000000 0.3944000000
-0.7441000000 3.1352000000 0.4066000000
-0.7443000000 1.8768000000 0.2050000000
-0.7444000000 1.3225000000 0.0153000000
-0.7445000000 2.1349000000 0.2943000000
-0.7451000000 1.7154000000 0.1483000000
-0.7458000000 3.1429000000 0.3946000000
-0.7460000000 4.0084000000 0.1029000000
-0.7462000000 1.7360000000 0.1591000000
-0.7462000000 3.7730000000 0.1849000000
-0.7463000000 2.6095000000 0.4512000000
-0.7464000000 3.5329000000 0.2655000000
-0.7465000000 3.9424000000 0.1247000000
-0.7466000000 2.2717000000 0.3393000000
-0.7468000000 1.0635000000 0.0021000000
-0.7470000000 1.2573000000 0.0658000000
-0.7472000000 4.2457000000 0.0207000000
-0.7472000000 3.8032000000 0.1745000000
-0.7478000000 1.2609000000 0.0700000000
-0.7483000000 1.7303000000 0.1543000000
-0.7486000000 1.2514000000 0.0630000000
-0.7488000000 2.0427000000 0.2642000000
-0.7499000000 3.8019000000 0.1717000000
-0.7500000000 2.8040000000 0.4998000000
-0.7503000000 1.0766000000 0.0127000000
-0.7505000000 1.4512000000 0.0592000000
-0.7509000000 2.2239000000 0.3181000000
-0.7521000000 2.5568000000 0.4370000000
-0.7526000000 1.6369000000 0.1263000000
-0.7532000000 1.9174000000 0.2162000000
-0.9895000000 2.8756000000 0.3483000000
-0.9902000000 2.6417000000 0.3199000000
-0.9908000000 3.7115000000 0.0583000000
-0.9909000000 1.9821000000 0.0928000000
-0.9916000000 2.9421000000 0.3234000000
-0.9921000000 3.6501000000 0.0816000000
-0.9921000000 3.8167000000 0.0260000000
-0.9923000000 1.8751000000 0.0599000000
-0.9930000000 2.0424000000 0.1151000000
-0.9931000000 3.9415000000 0.0565000000
-0.9936000000 1.6804000000 0.0709000000
-0.9947000000 2.9754000000 0.3098000000
-0.9949000000 2.4759000000 0.2645000000
-0.9951000000 1.8553000000 0.0556000000
-0.9956000000 2.0136000000 0.1056000000
-0.9960000000 1.5513000000 0.0232000000
-0.9966000000 2.2987000000 0.1999000000
-0.9968000000 2.2284000000 0.1795000000
-0.9969000000 3.0954000000 0.2623000000
-0.9976000000 2.3354000000 0.2108000000
-0.9987000000 3.5277000000 0.1154000000
-0.9989000000 1.6073000000 0.0385000000
-1.0008000000 3.1101000000 0.2605000000
-1.0008000000 1.6908000000 0.0650000000
-1.0009000000 3.9530000000 0.0459000000
-1.0011000000 3.8020000000 0.0228000000
-1.0016000000 2.1627000000 0.1541000000
-1.0020000000 3.8580000000 0.0742000000
-1.0025000000 3.1136000000 0.2573000000
-1.2389000000 2.6852000000 0.1947000000
-1.2414000000 3.1132000000 0.1168000000
-1.2414000000 3.1849000000 0.0920000000
-1.2418000000 2.9713000000 0.1623000000
