5.7566000000 3.3532000000 0.0349000000
5.7563000000 3.4471000000 0.0811000000
5.7553000000 3.1190000000 0.0354000000
5.7550000000 3.3488000000 0.0336000000
5.7535000000 3.0543000000 0.0075000000
5.7495000000 3.3313000000 0.0333000000
5.5088000000 3.3765000000 0.2009000000
5.5080000000 2.6460000000 0.0171000000
5.5065000000 3.4318000000 0.1862000000
5.5060000000 3.2334000000 0.1773000000
5.5048000000 3.5518000000 0.1394000000
5.5042000000 3.3957000000 0.1955000000
5.5028000000 3.8426000000 0.0278000000
5.5010000000 3.4913000000 0.1656000000
5.5003000000 3.2126000000 0.1764000000
5.5000000000 3.0996000000 0.1295000000
5.2600000000 3.6859000000 0.2573000000
5.2595000000 3.8803000000 0.1841000000
5.2590000000 3.6420000000 0.2798000000
5.2579000000 4.4248000000 0.0460000000
5.2566000000 3.5686000000 0.3114000000
5.2563000000 4.1779000000 0.0652000000
5.2555000000 3.2520000000 0.3636000000
5.2553000000 3.6240000000 0.2907000000
5.2548000000 2.3533000000 0.0750000000
5.2543000000 2.5228000000 0.0688000000
5.2540000000 2.5449000000 0.0817000000
5.2536000000 4.0430000000 0.1203000000
5.2532000000 3.5859000000 0.3030000000
5.2531000000 2.8711000000 0.2115000000
5.2521000000 3.7055000000 0.2548000000
5.2513000000 3.5084000000 0.3424000000
5.2505000000 3.6638000000 0.2769000000
5.2494000000 2.4395000000 0.0401000000
5.2485000000 2.7907000000 0.1751000000
5.2470000000 2.4684000000 0.0546000000
5.0105000000 4.5987000000 0.0635000000
5.0086000000 4.6594000000 0.0467000000
5.0080000000 2.9486000000 0.4156000000
5.0071000000 2.2483000000 0.1258000000
5.0059000000 3.3654000000 0.5532000000
5.0058000000 2.5491000000 0.2515000000
5.0053000000 2.0177000000 0.0393000000
5.0052000000 3.8097000000 0.3857000000
5.0048000000 4.8800000000 0.0300000000
5.0047000000 2.1858000000 0.1072000000
5.0045000000 4.9177000000 0.0149000000
5.0041000000 2.2054000000 0.1102000000
5.0035000000 3.8225000000 0.3845000000
5.0028000000 4.0828000000 0.2808000000
5.0020000000 2.1672000000 0.1066000000
5.0018000000 4.2474000000 0.2182000000
5.0013000000 3.8300000000 0.3865000000
5.0004000000 1.8115000000 0.0296000000
4.9986000000 4.0026000000 0.3164000000
4.9970000000 3.2640000000 0.5544000000
4.9880000000 2.3385000000 0.1838000000
4.7607000000 3.1138000000 0.6532000000
4.7597000000 5.1972000000 0.0769000000
4.7584000000 3.9194000000 0.5222000000
4.7580000000 3.6998000000 0.6088000000
4.7576000000 5.1981000000 0.0679000000
4.7575000000 5.1600000000 0.0172000000
4.7573000000 4.0769000000 0.4555000000
4.7571000000 2.8273000000 0.5328000000
4.7567000000 3.8553000000 0.5461000000
4.7560000000 1.6343000000 0.0608000000
4.7556000000 3.4373000000 0.7161000000
4.7553000000 3.5790000000 0.6619000000
4.7550000000 1.6988000000 0.0821000000
4.7548000000 1.9288000000 0.1769000000
4.7540000000 3.7219000000 0.5984000000
4.7537000000 3.1748000000 0.6838000000
4.7535000000 2.9096000000 0.5755000000
4.7532000000 5.0099000000 0.0812000000
4.7530000000 3.2436000000 0.7203000000
4.7528000000 4.4406000000 0.3127000000
4.7520000000 3.5511000000 0.6777000000
4.7512000000 1.4448000000 0.0620000000
4.7510000000 5.0822000000 0.0484000000
4.7505000000 2.0212000000 0.2177000000
4.7500000000 2.1854000000 0.2899000000
4.7495000000 3.2927000000 0.7264000000
4.7489000000 1.7287000000 0.0980000000
4.5152000000 5.0699000000 0.2180000000
4.5103000000 4.6481000000 0.3988000000
4.5096000000 1.6649000000 0.2471000000
4.5092000000 5.4898000000 0.0618000000
4.5086000000 5.7691000000 0.0198000000
4.5080000000 4.7043000000 0.3798000000
4.5076000000 4.5036000000 0.4564000000
4.5074000000 4.7949000000 0.3390000000
4.5073000000 0.9405000000 0.0278000000
4.5068000000 3.9678000000 0.6760000000
4.5065000000 1.4041000000 0.1346000000
4.5062000000 4.8552000000 0.3147000000
4.5059000000 2.2763000000 0.4914000000
4.5057000000 3.4615000000 0.8865000000
4.5055000000 2.6524000000 0.6484000000
4.5051000000 2.1432000000 0.4419000000
4.5051000000 1.9352000000 0.3554000000
4.5049000000 1.4052000000 0.1413000000
4.5045000000 2.4409000000 0.5588000000
4.5043000000 5.7723000000 0.0238000000
4.5038000000 5.7869000000 0.0104000000
4.5035000000 3.2447000000 0.8911000000
4.5033000000 5.3377000000 0.1231000000
4.5030000000 4.1335000000 0.6136000000
4.5025000000 4.2075000000 0.5850000000
4.5023000000 0.8887000000 0.0059000000
4.5020000000 4.1349000000 0.6077000000
4.5018000000 1.5016000000 0.1839000000
4.5013000000 1.2160000000 0.0640000000
4.5010000000 0.9487000000 0.0331000000
4.5009000000 2.3021000000 0.5072000000
4.5005000000 5.8229000000 0.0015000000
4.4984000000 1.4789000000 0.1740000000
4.4975000000 2.1581000000 0.4547000000
4.2606000000 5.1790000000 0.3543000000
4.2602000000 5.4127000000 0.2632000000
4.2598000000 5.6763000000 0.1543000000
4.2594000000 2.5098000000 0.7684000000
4.2583000000 5.2877000000 0.3116000000
4.2581000000 5.4155000000 0.2628000000
4.2580000000 5.8673000000 0.0848000000
4.2570000000 5.6217000000 0.1786000000
4.2568000000 5.1640000000 0.3681000000
4.2564000000 2.1024000000 0.5999000000
4.2561000000 4.3793000000 0.6948000000
4.2560000000 1.9184000000 0.5258000000
4.2556000000 2.0760000000 0.5898000000
4.2553000000 0.5899000000 0.0568000000
4.2552000000 0.4766000000 0.0128000000
4.2551000000 6.0832000000 0.0704000000
4.2548000000 2.8669000000 0.9034000000
4.2544000000 2.3861000000 0.7177000000
4.2543000000 0.6699000000 0.0938000000
4.2542000000 3.7939000000 0.9277000000
4.2540000000 1.1439000000 0.2134000000
4.2537000000 1.2534000000 0.2528000000
4.2537000000 2.8695000000 0.9128000000
4.2535000000 4.0432000000 0.8248000000
4.2533000000 3.3626000000 1.0848000000
4.2531000000 4.7221000000 0.5500000000
4.2526000000 3.2528000000 1.0634000000
4.2524000000 1.4483000000 0.3377000000
4.2523000000 4.3944000000 0.6818000000
4.2518000000 2.8677000000 0.9150000000
4.2515000000 3.2146000000 1.0561000000
4.2510000000 4.0464000000 0.8217000000
4.2506000000 4.4838000000 0.6493000000
4.2504000000 2.5578000000 0.7819000000
4.2503000000 1.0677000000 0.1863000000
4.2502000000 3.9423000000 0.8642000000
4.2495000000 1.4758000000 0.3447000000
4.2493000000 4.8858000000 0.4828000000
4.2483000000 1.1896000000 0.2352000000
4.2474000000 3.7896000000 0.9336000000
4.2459000000 0.7121000000 0.0465000000
4.2448000000 1.4707000000 0.3490000000
4.0142000000 5.1006000000 0.5622000000
4.0112000000 3.1357000000 1.1934000000
4.0101000000 0.1790000000 0.0636000000
4.0097000000 2.7107000000 1.0202000000
4.0095000000 1.7533000000 0.6285000000
4.0090000000 5.4497000000 0.4225000000
4.0084000000 2.8220000000 1.0678000000
4.0083000000 4.2255000000 0.9186000000
4.0076000000 5.3580000000 0.4658000000
4.0075000000 1.9447000000 0.7146000000
4.0071000000 4.7748000000 0.7065000000
4.0070000000 6.4360000000 0.0234000000
4.0069000000 3.0596000000 1.1619000000
4.0065000000 5.6805000000 0.3372000000
4.0063000000 0.5941000000 0.1643000000
4.0061000000 5.3943000000 0.4509000000
4.0060000000 2.0188000000 0.7471000000
4.0059000000 3.3591000000 1.2614000000
4.0055000000 4.0553000000 0.9901000000
4.0053000000 3.9149000000 1.0511000000
4.0051000000 2.4037000000 0.8948000000
4.0050000000 1.7712000000 0.6361000000
4.0050000000 3.9438000000 1.0406000000
4.0048000000 6.3269000000 0.0772000000
4.0046000000 2.3179000000 0.8660000000
4.0044000000 0.8230000000 0.2594000000
4.0040000000 6.0636000000 0.1794000000
4.0038000000 1.8800000000 0.6845000000
4.0037000000 3.4160000000 1.2560000000
4.0035000000 1.7199000000 0.6233000000
4.0035000000 4.3213000000 0.8858000000
4.0033000000 0.7083000000 0.2156000000
4.0031000000 3.6282000000 1.1651000000
4.0030000000 5.7132000000 0.3228000000
4.0028000000 2.2003000000 0.8122000000
4.0027000000 2.7605000000 1.0457000000
4.0025000000 2.3404000000 0.8783000000
4.0024000000 2.9007000000 1.1036000000
4.0023000000 3.7393000000 1.1253000000
4.0022000000 3.8602000000 1.0767000000
4.0021000000 0.0763000000 0.0341000000
4.0017000000 0.9539000000 0.3126000000
4.0016000000 1.1251000000 0.3767000000
4.0011000000 1.2237000000 0.4223000000
4.0009000000 1.5150000000 0.5404000000
4.0008000000 2.9116000000 1.1109000000
4.0005000000 1.7078000000 0.6219000000
4.0003000000 0.3157000000 0.0544000000
4.0000000000 2.4736000000 0.9311000000
3.9997000000 1.4835000000 0.5286000000
3.9995000000 3.2800000000 1.2594000000
3.9992000000 1.2324000000 0.4248000000
3.9989000000 0.3666000000 0.0743000000
3.9982000000 2.5676000000 0.9734000000
3.7667000000 6.0983000000 0.3375000000
3.7629000000 5.7422000000 0.4831000000
3.7613000000 5.9967000000 0.3745000000
3.7608000000 4.1758000000 1.1128000000
3.7605000000 6.5046000000 0.1580000000
3.7598000000 5.1284000000 0.7276000000
3.7594000000 6.1210000000 0.3257000000
3.7588000000 3.8386000000 1.2590000000
3.7586000000 4.0592000000 1.1628000000
3.7584000000 4.4761000000 0.9914000000
3.7582000000 1.6347000000 0.7571000000
3.7580000000 4.4849000000 0.9874000000
3.7580000000 3.9069000000 1.2206000000
3.7577000000 2.2118000000 0.9967000000
3.7575000000 4.9658000000 0.8027000000
3.7571000000 5.8177000000 0.4574000000
3.7569000000 2.3988000000 1.0712000000
3.7565000000 2.7473000000 1.2130000000
3.7562000000 0.3859000000 0.2570000000
3.7561000000 5.8699000000 0.4343000000
3.7560000000 3.9817000000 1.1997000000
3.7557000000 4.9788000000 0.7943000000
3.7553000000 0.1621000000 0.1460000000
3.7552000000 3.3334000000 1.4421000000
3.7551000000 2.1410000000 0.9691000000
3.7550000000 6.5442000000 0.1376000000
3.7546000000 6.6653000000 0.0469000000
3.7546000000 1.1996000000 0.5828000000
3.7545000000 0.4298000000 0.2716000000
3.7543000000 6.1741000000 0.3100000000
3.7541000000 0.5884000000 0.3385000000
3.7540000000 1.8390000000 0.8487000000
3.7536000000 2.9721000000 1.3073000000
3.7535000000 3.8716000000 1.2443000000
3.7534000000 1.4778000000 0.7015000000
3.7533000000 6.0069000000 0.3775000000
3.7531000000 5.7496000000 0.4835000000
3.7529000000 1.5200000000 0.7128000000
3.7528000000 1.3913000000 0.6648000000
3.7527000000 2.5051000000 1.1178000000
3.7525000000 2.2524000000 1.0117000000
3.7523000000 0.2571000000 0.1986000000
3.7517000000 6.5081000000 0.1591000000
3.7515000000 5.2705000000 0.6781000000
3.7511000000 1.5994000000 0.7506000000
3.7511000000 6.1607000000 0.3220000000
3.7506000000 2.3019000000 1.0429000000
3.7499000000 0.6529000000 0.3701000000
3.7496000000 5.8920000000 0.4247000000
3.7489000000 5.5966000000 0.5483000000
3.7480000000 2.3363000000 1.0520000000
3.7471000000 1.3350000000 0.6417000000
3.7462000000 1.4435000000 0.6876000000
3.7435000000 0.1008000000 0.1000000000
3.5116000000 3.9266000000 1.3920000000
3.5113000000 6.1016000000 0.4915000000
3.5109000000 6.0350000000 0.5262000000
3.5100000000 6.0956000000 0.4974000000
3.5095000000 5.8996000000 0.5940000000
3.5094000000 2.9274000000 1.4608000000
3.5088000000 6.5746000000 0.1213000000
3.5083000000 4.9232000000 0.9905000000
3.5081000000 2.8729000000 1.4353000000
3.5081000000 6.5862000000 0.1080000000
3.5074000000 1.4379000000 0.8550000000
3.5069000000 3.5862000000 1.5348000000
3.5064000000 5.9477000000 0.5675000000
3.5061000000 3.8471000000 1.4264000000
3.5060000000 1.3705000000 0.8292000000
3.5059000000 0.0466000000 0.0584000000
3.5057000000 5.3326000000 0.8252000000
3.5055000000 2.9457000000 1.4656000000
3.5052000000 3.4827000000 1.5782000000
3.5048000000 3.0165000000 1.5043000000
3.5048000000 3.1349000000 1.5499000000
3.5046000000 1.4459000000 0.8606000000
3.5044000000 3.8380000000 1.4283000000
3.5042000000 0.3213000000 0.2854000000
3.5039000000 0.4205000000 0.3609000000
3.5038000000 5.8070000000 0.6371000000
3.5037000000 1.0381000000 0.6977000000
3.5035000000 0.9804000000 0.6732000000
3.5035000000 3.5775000000 1.5393000000
3.5033000000 4.3162000000 1.2389000000
3.5030000000 0.7806000000 0.5858000000
3.5026000000 5.0214000000 0.9573000000
3.5022000000 5.2528000000 0.8584000000
3.5020000000 2.5824000000 1.3222000000
3.5017000000 0.8342000000 0.6170000000
3.5016000000 1.0304000000 0.6952000000
3.5010000000 1.9141000000 1.0547000000
3.5008000000 2.6105000000 1.3383000000
3.5005000000 1.4174000000 0.8493000000
3.5004000000 6.2619000000 0.3718000000
3.5003000000 4.3459000000 1.2292000000
3.4994000000 0.6766000000 0.5411000000
3.4988000000 0.8447000000 0.6131000000
3.4985000000 4.8131000000 1.0403000000
3.4970000000 2.1270000000 1.1424000000
3.4960000000 3.0373000000 1.5118000000
3.4945000000 3.4119000000 1.6133000000
3.2631000000 4.5143000000 1.3240000000
3.2621000000 5.2678000000 1.0198000000
3.2609000000 1.4687000000 1.0404000000
3.2598000000 4.3748000000 1.3904000000
3.2594000000 1.0714000000 0.8742000000
3.2591000000 1.6020000000 1.0935000000
3.2586000000 6.6043000000 0.0966000000
3.2579000000 3.9399000000 1.5657000000
3.2576000000 3.4224000000 1.7729000000
3.2575000000 1.2660000000 0.9600000000
3.2570000000 5.9125000000 0.6533000000
3.2568000000 5.4487000000 0.9526000000
3.2564000000 5.5948000000 0.8803000000
3.2559000000 3.0795000000 1.6991000000
3.2557000000 4.6329000000 1.2770000000
3.2555000000 2.0779000000 1.2908000000
3.2553000000 3.8686000000 1.5928000000
3.2549000000 0.0353000000 0.0482000000
3.2548000000 2.1386000000 1.3179000000
3.2547000000 4.0534000000 1.5196000000
3.2545000000 5.1524000000 1.0781000000
3.2543000000 6.0603000000 0.5334000000
3.2539000000 1.4966000000 1.0509000000
3.2538000000 4.5561000000 1.3174000000
3.2534000000 1.2849000000 0.9728000000
3.2531000000 1.4317000000 1.0240000000
3.2527000000 1.5303000000 1.0724000000
3.2525000000 4.5287000000 1.3349000000
3.2524000000 2.9181000000 1.6321000000
3.2522000000 6.2531000000 0.3784000000
3.2518000000 2.9382000000 1.6480000000
3.2515000000 6.0803000000 0.5199000000
3.2512000000 0.9162000000 0.7648000000
3.2510000000 0.8645000000 0.7277000000
3.2508000000 3.4897000000 1.7524000000
3.2507000000 2.2920000000 1.3843000000
3.2504000000 5.8571000000 0.7027000000
3.2501000000 0.8296000000 0.6976000000
3.2498000000 3.9407000000 1.5702000000
3.2495000000 6.4955000000 0.1799000000
3.2487000000 3.2178000000 1.7562000000
3.2475000000 0.3949000000 0.3429000000
3.2453000000 2.9652000000 1.6589000000
3.0137000000 6.4167000000 0.2496000000
3.0114000000 4.3977000000 1.5511000000
3.0109000000 6.1036000000 0.5012000000
3.0098000000 4.3246000000 1.5823000000
3.0095000000 5.5923000000 0.9164000000
3.0092000000 6.0065000000 0.5776000000
3.0088000000 6.0441000000 0.5502000000
3.0085000000 3.9364000000 1.7411000000
3.0082000000 2.1697000000 1.5044000000
3.0081000000 1.3891000000 1.1364000000
3.0080000000 6.6061000000 0.0944000000
3.0075000000 3.5567000000 1.8953000000
3.0074000000 2.7105000000 1.7212000000
3.0070000000 1.3874000000 1.1394000000
3.0067000000 6.2335000000 0.4002000000
3.0065000000 5.7228000000 0.8102000000
3.0063000000 3.8504000000 1.7812000000
3.0063000000 1.0938000000 0.9141000000
3.0061000000 0.8740000000 0.7296000000
3.0060000000 1.1565000000 0.9577000000
3.0058000000 2.3421000000 1.5804000000
3.0055000000 4.0926000000 1.6786000000
3.0053000000 3.6713000000 1.8468000000
3.0051000000 4.5985000000 1.4766000000
3.0050000000 4.3985000000 1.5564000000
3.0050000000 4.0364000000 1.7056000000
3.0048000000 6.1634000000 0.4508000000
3.0047000000 2.1963000000 1.5150000000
3.0046000000 4.2374000000 1.6243000000
3.0041000000 3.4220000000 1.9574000000
3.0039000000 4.0724000000 1.6877000000
3.0038000000 3.5729000000 1.8901000000
3.0037000000 3.2337000000 1.9348000000
3.0035000000 3.8601000000 1.7753000000
3.0032000000 4.6174000000 1.4627000000
3.0031000000 2.6069000000 1.6885000000
3.0030000000 6.6462000000 0.0605000000
3.0027000000 2.9214000000 1.8125000000
3.0026000000 4.1370000000 1.6676000000
3.0023000000 3.8793000000 1.7682000000
3.0021000000 3.0974000000 1.8813000000
3.0020000000 2.9858000000 1.8416000000
3.0019000000 6.0852000000 0.5165000000
3.0016000000 1.0550000000 0.8847000000
3.0013000000 5.8405000000 0.7142000000
3.0010000000 5.7993000000 0.7468000000
3.0008000000 1.1803000000 0.9818000000
3.0006000000 3.4180000000 1.9557000000
3.0004000000 6.3822000000 0.2660000000
2.9998000000 3.3038000000 1.9525000000
2.9995000000 0.4749000000 0.4116000000
2.9990000000 5.2397000000 1.1857000000
2.9988000000 5.5455000000 0.9537000000
2.9984000000 1.6274000000 1.2935000000
2.9981000000 3.7185000000 1.8321000000
2.9974000000 1.9168000000 1.4063000000
2.9965000000 3.0171000000 1.8559000000
2.9949000000 1.8665000000 1.3962000000
2.7621000000 4.7976000000 1.5504000000
2.7611000000 4.0172000000 1.8843000000
2.7600000000 3.2752000000 2.1254000000
2.7590000000 3.9269000000 1.9197000000
2.7587000000 5.0005000000 1.3943000000
2.7580000000 3.2181000000 2.1097000000
2.7576000000 5.3659000000 1.0989000000
2.7575000000 4.9701000000 1.4261000000
2.7569000000 6.1263000000 0.4822000000
2.7568000000 2.5396000000 1.8296000000
2.7566000000 5.4830000000 1.0077000000
2.7565000000 5.0364000000 1.3684000000
2.7565000000 3.9828000000 1.8970000000
2.7564000000 2.5534000000 1.8334000000
2.7563000000 2.9990000000 2.0196000000
2.7559000000 4.9900000000 1.4123000000
2.7558000000 6.0680000000 0.5303000000
2.7557000000 5.1079000000 1.3116000000
2.7555000000 6.1038000000 0.5037000000
2.7555000000 1.0983000000 0.9127000000
2.7553000000 1.7610000000 1.4505000000
2.7550000000 2.8655000000 1.9640000000
2.7547000000 6.1714000000 0.4408000000
2.7541000000 2.6492000000 1.8806000000
2.7538000000 2.0771000000 1.6411000000
2.7535000000 4.2832000000 1.7789000000
2.7533000000 2.8063000000 1.9458000000
2.7532000000 2.0029000000 1.6038000000
2.7531000000 5.6661000000 0.8553000000
2.7529000000 3.3702000000 2.1390000000
2.7527000000 5.7757000000 0.7693000000
2.7525000000 0.6741000000 0.5735000000
2.7523000000 0.8502000000 0.7149000000
2.7522000000 1.4620000000 1.2085000000
2.7517000000 1.1834000000 0.9806000000
2.7516000000 0.3084000000 0.2736000000
2.7513000000 6.5145000000 0.1715000000
2.7511000000 6.0140000000 0.5753000000
2.7510000000 3.6828000000 2.0291000000
2.7504000000 0.4583000000 0.3990000000
2.7502000000 1.9598000000 1.5913000000
2.7500000000 2.9046000000 1.9855000000
2.7496000000 3.1397000000 2.0842000000
2.7510000000 0.0615000000 0.0741000000
2.7486000000 1.7607000000 1.4550000000
2.7482000000 3.3243000000 2.1400000000
2.7473000000 1.8365000000 1.5003000000
2.7470000000 3.4507000000 2.1237000000
2.7464000000 1.2254000000 1.0158000000
2.7450000000 3.0014000000 2.0194000000
2.5123000000 6.6676000000 0.0384000000
2.5111000000 4.6114000000 1.7133000000
2.5097000000 6.0967000000 0.5043000000
2.5093000000 6.1129000000 0.4929000000
2.5085000000 6.3138000000 0.3337000000
2.5079000000 1.8308000000 1.5065000000
2.5077000000 5.5978000000 0.9155000000
2.5074000000 5.6798000000 0.8444000000
2.5073000000 6.1972000000 0.4283000000
2.5071000000 4.8151000000 1.5400000000
2.5069000000 2.0134000000 1.6573000000
2.5065000000 5.2652000000 1.1834000000
2.5060000000 2.6115000000 2.0331000000
2.5057000000 0.7456000000 0.6254000000
2.5055000000 2.8413000000 2.1268000000
2.5053000000 3.6458000000 2.2195000000
2.5051000000 4.0864000000 2.0341000000
2.5050000000 5.2404000000 1.1981000000
2.5049000000 1.9322000000 1.5922000000
2.5046000000 2.5528000000 2.0148000000
2.5045000000 1.0553000000 0.8740000000
2.5038000000 1.5364000000 1.2708000000
2.5036000000 6.2341000000 0.3940000000
2.5034000000 1.4259000000 1.1805000000
2.5033000000 4.7071000000 1.6365000000
2.5030000000 0.5363000000 0.4578000000
2.5029000000 2.4417000000 1.9558000000
2.5027000000 4.4997000000 1.8011000000
2.5025000000 3.2407000000 2.2917000000
2.5023000000 3.6651000000 2.2059000000
2.5021000000 1.2571000000 1.0423000000
2.5018000000 0.4474000000 0.3896000000
2.5013000000 0.5958000000 0.5081000000
2.5011000000 5.0160000000 1.3838000000
2.5007000000 0.6057000000 0.5087000000
2.5000000000 1.4829000000 1.2255000000
2.4999000000 3.1666000000 2.2620000000
2.4997000000 3.7461000000 2.1746000000
2.4993000000 3.2364000000 2.2980000000
2.4990000000 1.6270000000 1.3464000000
2.4978000000 1.9409000000 1.5995000000
2.4970000000 1.2542000000 1.0349000000
2.4910000000 0.2713000000 0.2436000000
2.2631000000 6.3291000000 0.3173000000
2.2620000000 3.3977000000 2.4793000000
2.2612000000 2.1746000000 1.7844000000
2.2608000000 6.6184000000 0.0855000000
2.2603000000 5.8025000000 0.7419000000
2.2597000000 4.6029000000 1.7222000000
2.2592000000 4.9378000000 1.4468000000
2.2586000000 6.1087000000 0.4981000000
2.2580000000 1.8029000000 1.4910000000
2.2576000000 0.2375000000 0.2166000000
2.2574000000 4.5150000000 1.7883000000
2.2572000000 6.1116000000 0.4952000000
2.2569000000 4.1014000000 2.1295000000
2.2567000000 1.0135000000 0.8458000000
2.2563000000 1.6722000000 1.3775000000
2.2560000000 3.7721000000 2.3361000000
2.2559000000 0.1348000000 0.1360000000
2.2557000000 3.1208000000 2.4177000000
2.2556000000 6.2408000000 0.3858000000
2.2554000000 4.9652000000 1.4272000000
2.2552000000 1.2223000000 1.0195000000
2.2550000000 3.5011000000 2.4466000000
2.2550000000 3.9142000000 2.2565000000
2.2547000000 6.0930000000 0.5108000000
2.2546000000 5.7265000000 0.8069000000
2.2545000000 4.8123000000 1.5476000000
2.2542000000 1.8671000000 1.5389000000
2.2539000000 5.2543000000 1.1947000000
2.2538000000 2.8339000000 2.2911000000
2.2536000000 5.4474000000 1.0290000000
2.2535000000 1.0415000000 0.8679000000
2.2533000000 6.0391000000 0.5550000000
2.2530000000 0.0620000000 0.0771000000
2.2529000000 5.9888000000 0.5972000000
2.2528000000 3.6042000000 2.4085000000
2.2527000000 5.1936000000 1.2381000000
2.2525000000 2.8505000000 2.2938000000
2.2521000000 2.4435000000 2.0076000000
2.2519000000 2.2964000000 1.8856000000
2.2516000000 2.6230000000 2.1510000000
2.2514000000 5.7757000000 0.7712000000
2.2511000000 5.9853000000 0.5946000000
2.2510000000 4.4212000000 1.8691000000
2.2507000000 4.1226000000 2.1104000000
2.2504000000 2.8945000000 2.3224000000
2.2499000000 1.7255000000 1.4142000000
2.2495000000 2.3913000000 1.9648000000
2.2492000000 2.0959000000 1.7232000000
2.2489000000 0.4057000000 0.3484000000
2.2486000000 0.3473000000 0.3090000000
2.2482000000 2.0239000000 1.6685000000
2.2477000000 1.2777000000 1.0637000000
2.2470000000 1.1827000000 0.9869000000
2.2461000000 2.7026000000 2.2104000000
2.2460000000 3.3660000000 2.4981000000
2.2454000000 4.4679000000 1.8302000000
2.0110000000 5.6471000000 0.8706000000
2.0097000000 5.9661000000 0.6112000000
2.0093000000 5.5771000000 0.9270000000
2.0091000000 2.0618000000 1.7005000000
2.0085000000 6.2620000000 0.3744000000
2.0083000000 3.8952000000 2.2960000000
2.0078000000 5.0744000000 1.3377000000
2.0073000000 6.7099000000 0.0072000000
2.0070000000 2.8082000000 2.3048000000
2.0070000000 5.1031000000 1.3116000000
2.0068000000 2.0211000000 1.6598000000
2.0065000000 2.4820000000 2.0379000000
2.0063000000 2.1230000000 1.7429000000
2.0062000000 6.4688000000 0.2066000000
2.0059000000 3.6366000000 2.5022000000
2.0057000000 4.7404000000 1.6046000000
2.0054000000 4.3839000000 1.8934000000
2.0053000000 0.6230000000 0.5256000000
2.0050000000 2.0552000000 1.6933000000
2.0049000000 3.5962000000 2.5372000000
2.0045000000 2.5409000000 2.0836000000
2.0040000000 2.2668000000 1.8596000000
2.0040000000 6.1687000000 0.4506000000
2.0039000000 4.7290000000 1.6170000000
2.0038000000 1.2835000000 1.0618000000
2.0035000000 2.2053000000 1.8115000000
2.0032000000 1.0451000000 0.8679000000
2.0031000000 0.3358000000 0.2957000000
2.0030000000 0.8497000000 0.7100000000
2.0028000000 5.7548000000 0.7843000000
2.0027000000 4.4227000000 1.8678000000
2.0026000000 1.3782000000 1.1376000000
2.0025000000 5.3263000000 1.1299000000
2.0024000000 5.9884000000 0.5925000000
2.0022000000 5.2374000000 1.2017000000
2.0021000000 0.7646000000 0.6422000000
2.0018000000 3.0192000000 2.4717000000
2.0017000000 2.9931000000 2.4540000000
2.0016000000 5.1642000000 1.2647000000
2.0014000000 1.7417000000 1.4368000000
2.0011000000 1.4912000000 1.2311000000
2.0006000000 3.8575000000 2.3214000000
2.0003000000 2.0706000000 1.7011000000
2.0000000000 1.0714000000 0.8934000000
1.9998000000 1.4834000000 1.2273000000
1.9994000000 2.3940000000 1.9614000000
1.9993000000 0.9483000000 0.7924000000
1.9985000000 0.0010000000 0.0221000000
1.9978000000 4.5037000000 1.7987000000
1.9971000000 6.0576000000 0.5349000000
1.7670000000 6.5828000000 0.1114000000
1.7637000000 4.2446000000 2.0081000000
1.7615000000 6.6087000000 0.0908000000
1.7606000000 2.7401000000 2.2420000000
1.7602000000 0.8268000000 0.6937000000
1.7596000000 5.4015000000 1.0715000000
1.7592000000 3.9843000000 2.2177000000
1.7587000000 6.1716000000 0.4412000000
1.7582000000 2.6963000000 2.2140000000
1.7581000000 5.4151000000 1.0604000000
1.7577000000 5.0591000000 1.3462000000
1.7574000000 2.9483000000 2.3996000000
1.7570000000 6.6853000000 0.0340000000
1.7570000000 6.0213000000 0.5671000000
1.7568000000 5.7439000000 0.7952000000
1.7567000000 3.1028000000 2.5032000000
1.7565000000 4.5906000000 1.7283000000
1.7564000000 6.4763000000 0.2006000000
1.7563000000 4.1423000000 2.0931000000
1.7560000000 6.1427000000 0.4727000000
1.7555000000 2.9521000000 2.4034000000
1.7554000000 4.6593000000 1.6721000000
1.7552000000 2.7629000000 2.2626000000
1.7550000000 0.8687000000 0.7249000000
1.7546000000 0.4998000000 0.4241000000
1.7545000000 3.8283000000 2.3431000000
1.7543000000 4.3581000000 1.9146000000
1.7542000000 2.6063000000 2.1405000000
1.7541000000 0.8312000000 0.6956000000
1.7538000000 5.7030000000 0.8247000000
1.7537000000 2.4487000000 2.0093000000
1.7535000000 2.3427000000 1.9246000000
1.7531000000 2.5970000000 2.1275000000
1.7528000000 4.9149000000 1.4639000000
1.7526000000 5.1316000000 1.2898000000
1.7523000000 1.2385000000 1.0237000000
1.7520000000 1.1564000000 0.9600000000
1.7518000000 0.2776000000 0.2468000000
1.7517000000 2.4866000000 2.0360000000
1.7515000000 6.6450000000 0.0629000000
1.7513000000 2.5013000000 2.0546000000
1.7511000000 1.7160000000 1.4179000000
1.7510000000 0.3270000000 0.2903000000
1.7507000000 2.7845000000 2.2871000000
1.7503000000 4.7042000000 1.6348000000
1.7501000000 0.7655000000 0.6422000000
1.7498000000 4.1277000000 2.1112000000
1.7486000000 2.8257000000 2.3152000000
1.7484000000 3.6993000000 2.4298000000
1.7481000000 0.2903000000 0.2527000000
1.7471000000 0.4279000000 0.3702000000
1.5108000000 5.4955000000 0.9968000000
1.5099000000 2.7474000000 2.1992000000
1.5087000000 6.3277000000 0.3205000000
1.5085000000 3.3920000000 2.4076000000
1.5083000000 1.2887000000 1.0703000000
1.5078000000 0.7638000000 0.6403000000
1.5077000000 5.6190000000 0.8944000000
1.5074000000 6.0624000000 0.5355000000
1.5073000000 5.1512000000 1.2688000000
1.5068000000 4.0671000000 2.1337000000
1.5063000000 6.6864000000 0.0263000000
1.5061000000 1.7755000000 1.4684000000
1.5059000000 2.0589000000 1.6958000000
1.5058000000 5.3457000000 1.1185000000
1.5055000000 2.5574000000 2.0819000000
1.5053000000 2.3971000000 1.9660000000
1.5051000000 5.3297000000 1.1318000000
1.5050000000 0.5501000000 0.4656000000
1.5049000000 5.6567000000 0.8659000000
1.5048000000 3.6552000000 2.3115000000
1.5047000000 3.3489000000 2.4256000000
1.5045000000 2.1583000000 1.7734000000
1.5044000000 3.7843000000 2.2628000000
1.5043000000 3.0758000000 2.3282000000
1.5041000000 1.8727000000 1.5429000000
1.5040000000 3.9296000000 2.2043000000
1.5037000000 3.0017000000 2.2980000000
1.5035000000 1.1403000000 0.9474000000
1.5034000000 3.7643000000 2.2644000000
1.5032000000 3.8118000000 2.2468000000
1.5030000000 2.4442000000 2.0093000000
1.5028000000 0.1058000000 0.1089000000
1.5026000000 6.5374000000 0.1497000000
1.5025000000 2.9383000000 2.2736000000
1.5024000000 2.3943000000 1.9672000000
1.5020000000 2.4981000000 2.0470000000
1.5019000000 1.0252000000 0.8520000000
1.5017000000 2.0375000000 1.6764000000
1.5013000000 5.7243000000 0.8092000000
1.5011000000 6.1734000000 0.4392000000
1.5008000000 1.5608000000 1.2890000000
1.5005000000 3.8113000000 2.2422000000
1.5003000000 6.2788000000 0.3586000000
1.4995000000 2.1168000000 1.7424000000
1.4991000000 3.2849000000 2.4039000000
1.4989000000 2.8678000000 2.2401000000
1.4973000000 3.0542000000 2.3084000000
1.4964000000 5.5656000000 0.9410000000
1.4954000000 0.3758000000 0.3260000000
1.2619000000 3.8522000000 2.0622000000
1.2594000000 4.3217000000 1.8672000000
1.2585000000 3.3069000000 2.2297000000
1.2583000000 5.5874000000 0.9145000000
1.2576000000 6.3709000000 0.2864000000
1.2575000000 6.6615000000 0.0504000000
1.2573000000 3.3497000000 2.2473000000
1.2571000000 1.3250000000 1.0977000000
1.2568000000 2.0043000000 1.6477000000
1.2567000000 6.1968000000 0.4233000000
1.2564000000 4.5537000000 1.7507000000
1.2561000000 0.6363000000 0.5415000000
1.2560000000 1.9938000000 1.6509000000
1.2558000000 6.6297000000 0.0701000000
1.2553000000 4.9536000000 1.4426000000
1.2551000000 6.6687000000 0.0432000000
1.2549000000 1.3062000000 1.0801000000
1.2548000000 5.6659000000 0.8564000000
1.2548000000 1.8400000000 1.5161000000
1.2547000000 6.6382000000 0.0646000000
1.2544000000 4.4161000000 1.8224000000
1.2542000000 0.9486000000 0.7926000000
1.2540000000 6.0145000000 0.5721000000
1.2540000000 2.0623000000 1.6926000000
1.2537000000 4.2987000000 1.8783000000
1.2536000000 4.8812000000 1.4942000000
1.2535000000 2.3433000000 1.8555000000
1.2533000000 1.4010000000 1.1546000000
1.2531000000 1.0268000000 0.8639000000
1.2530000000 6.5798000000 0.1179000000
1.2528000000 0.4442000000 0.3828000000
1.2528000000 5.8241000000 0.7267000000
1.2526000000 0.9121000000 0.7624000000
1.2520000000 3.9381000000 2.0197000000
1.2519000000 0.5588000000 0.4744000000
1.2518000000 3.7090000000 2.1113000000
1.2517000000 3.8457000000 2.0576000000
1.2515000000 4.1509000000 1.9309000000
1.2513000000 2.5551000000 1.9391000000
1.2509000000 3.6246000000 2.1435000000
1.2507000000 4.7738000000 1.5798000000
1.2506000000 0.1029000000 0.1087000000
1.2505000000 1.0064000000 0.8410000000
1.2503000000 0.8171000000 0.6732000000
1.2500000000 4.4539000000 1.7977000000
1.2497000000 2.3437000000 1.8525000000
1.2495000000 4.8446000000 1.5205000000
1.2489000000 1.2199000000 1.0152000000
1.2484000000 6.2254000000 0.3952000000
1.2483000000 0.2598000000 0.2325000000
1.2478000000 0.0020000000 0.0146000000
1.2473000000 1.7930000000 1.4765000000
1.0112000000 2.7927000000 1.8646000000
1.0086000000 6.5269000000 0.1604000000
1.0084000000 6.6981000000 0.0220000000
1.0075000000 4.8619000000 1.4603000000
1.0073000000 5.3303000000 1.1298000000
1.0070000000 6.6769000000 0.0362000000
1.0069000000 4.6158000000 1.5730000000
1.0066000000 2.4145000000 1.7056000000
1.0064000000 1.2312000000 1.0220000000
1.0061000000 5.4477000000 1.0343000000
1.0060000000 3.5201000000 2.0157000000
1.0059000000 1.2576000000 1.0396000000
1.0058000000 3.4574000000 2.0367000000
1.0054000000 0.9763000000 0.8167000000
1.0053000000 5.5727000000 0.9348000000
1.0050000000 3.1761000000 2.0206000000
1.0049000000 4.9073000000 1.4352000000
1.0047000000 5.0095000000 1.3776000000
1.0045000000 0.1782000000 0.1685000000
1.0043000000 6.5281000000 0.1581000000
1.0043000000 5.1866000000 1.2488000000
1.0040000000 5.9187000000 0.6514000000
1.0038000000 3.6738000000 1.9574000000
1.0038000000 4.4334000000 1.6457000000
1.0036000000 5.0877000000 1.3232000000
1.0034000000 2.9550000000 1.9275000000
1.0032000000 4.2155000000 1.7380000000
1.0031000000 3.5652000000 1.9952000000
1.0028000000 0.8171000000 0.6857000000
1.0027000000 1.5249000000 1.2663000000
1.0025000000 5.0367000000 1.3552000000
1.0019000000 5.9209000000 0.6449000000
1.0018000000 0.5994000000 0.5084000000
1.0016000000 0.3340000000 0.2888000000
1.0015000000 0.9907000000 0.8262000000
1.0013000000 6.3290000000 0.3126000000
1.0011000000 1.8002000000 1.4399000000
1.0010000000 2.9172000000 1.9088000000
1.0007000000 1.2949000000 1.0744000000
1.0002000000 1.3796000000 1.1432000000
0.9998000000 0.4434000000 0.3811000000
0.9996000000 5.2374000000 1.2051000000
0.9995000000 2.6250000000 1.7935000000
0.9992000000 2.1610000000 1.5976000000
0.9990000000 6.1983000000 0.4283000000
0.9983000000 0.3021000000 0.2696000000
0.9971000000 0.1575000000 0.1487000000
0.9965000000 3.5715000000 1.9895000000
0.9956000000 0.6188000000 0.5240000000
0.7629000000 6.3551000000 0.2958000000
0.7615000000 5.2954000000 1.1094000000
0.7605000000 6.7189000000 0.0748000000
0.7591000000 3.8162000000 1.7264000000
0.7589000000 1.0258000000 0.8525000000
0.7586000000 6.3847000000 0.2759000000
0.7579000000 3.1944000000 1.8526000000
0.7574000000 1.6705000000 1.2293000000
0.7572000000 1.5061000000 1.1674000000
0.7570000000 2.8810000000 1.7263000000
0.7568000000 1.6599000000 1.2248000000
0.7564000000 6.5150000000 0.1632000000
0.7563000000 5.9908000000 0.5904000000
0.7560000000 2.0403000000 1.3796000000
0.7558000000 3.2363000000 1.8644000000
0.7555000000 0.3143000000 0.2789000000
0.7550000000 3.9846000000 1.6564000000
0.7550000000 3.8539000000 1.7117000000
0.7547000000 3.8057000000 1.7256000000
0.7546000000 6.5705000000 0.1253000000
0.7545000000 4.8254000000 1.3025000000
0.7543000000 1.5671000000 1.1873000000
0.7541000000 4.7887000000 1.3238000000
0.7540000000 6.6561000000 0.0535000000
0.7538000000 1.3721000000 1.0973000000
0.7535000000 2.0672000000 1.3926000000
0.7535000000 5.2925000000 1.1072000000
0.7532000000 1.4537000000 1.1402000000
0.7530000000 0.9568000000 0.7948000000
0.7528000000 2.1879000000 1.4426000000
0.7524000000 4.6498000000 1.3785000000
0.7523000000 0.1757000000 0.1726000000
0.7521000000 3.9500000000 1.6697000000
0.7518000000 4.2049000000 1.5643000000
0.7518000000 4.9728000000 1.2483000000
0.7515000000 1.0988000000 0.9109000000
0.7513000000 2.0066000000 1.3657000000
0.7514000000 6.6609000000 0.0466000000
0.7510000000 4.2966000000 1.5260000000
0.7508000000 1.0795000000 0.8928000000
0.7505000000 2.7751000000 1.6826000000
0.7503000000 1.2274000000 0.9933000000
0.7503000000 3.0261000000 1.7744000000
0.7497000000 5.9391000000 0.6323000000
0.7495000000 5.5855000000 0.9212000000
0.7490000000 4.9686000000 1.2447000000
0.7488000000 2.8239000000 1.6931000000
0.7480000000 4.7538000000 1.3380000000
0.7465000000 1.5857000000 1.1918000000
0.7440000000 0.9323000000 0.7789000000
0.5112000000 0.4891000000 0.4182000000
0.5103000000 5.4455000000 0.8875000000
0.5094000000 0.2394000000 0.2129000000
0.5090000000 3.5007000000 1.6704000000
0.5088000000 5.0706000000 1.0362000000
0.5076000000 4.9468000000 1.0902000000
0.5074000000 1.7659000000 1.0978000000
0.5072000000 5.3110000000 0.9419000000
0.5069000000 4.0858000000 1.4371000000
0.5063000000 1.9105000000 1.1528000000
0.5062000000 1.1924000000 0.8576000000
0.5059000000 4.3933000000 1.3129000000
0.5057000000 5.2254000000 0.9686000000
0.5055000000 1.8628000000 1.1342000000
0.5052000000 1.1217000000 0.8319000000
0.5051000000 6.3342000000 0.3167000000
0.5050000000 3.2310000000 1.6889000000
0.5048000000 1.3531000000 0.9259000000
0.5047000000 0.6113000000 0.5214000000
0.5044000000 6.4144000000 0.2488000000
0.5043000000 4.8479000000 1.1227000000
0.5041000000 5.9506000000 0.6230000000
0.5038000000 1.3613000000 0.9325000000
0.5036000000 4.7126000000 1.1770000000
0.5035000000 5.0168000000 1.0545000000
0.5033000000 1.3008000000 0.9065000000
0.5027000000 2.3027000000 1.3064000000
0.5023000000 4.3134000000 1.3464000000
0.5020000000 6.2243000000 0.4024000000
0.5018000000 4.8308000000 1.1310000000
0.5017000000 6.1796000000 0.4351000000
0.5015000000 0.4342000000 0.3693000000
0.5013000000 3.6492000000 1.6108000000
0.5011000000 3.7042000000 1.5848000000
0.5010000000 4.8954000000 1.1009000000
0.5004000000 6.2173000000 0.4089000000
0.5001000000 5.6088000000 0.8110000000
0.4999000000 0.0900000000 0.0959000000
0.4994000000 2.2092000000 1.2652000000
0.4986000000 3.5932000000 1.6335000000
0.4983000000 3.3047000000 1.6983000000
0.4981000000 4.5884000000 1.2251000000
0.4973000000 2.8335000000 1.5234000000
0.4970000000 3.6971000000 1.5909000000
0.4961000000 0.6222000000 0.5281000000
0.2624000000 4.6952000000 1.0161000000
0.2602000000 3.3498000000 1.5494000000
0.2595000000 2.3111000000 1.1367000000
0.2594000000 3.0307000000 1.4355000000
0.2587000000 2.0271000000 1.0256000000
0.2580000000 1.9707000000 0.9958000000
0.2568000000 5.1222000000 0.8431000000
0.2565000000 1.7000000000 0.8917000000
0.2564000000 5.8362000000 0.5523000000
0.2562000000 3.3719000000 1.5383000000
0.2560000000 3.2179000000 1.5073000000
0.2559000000 6.5438000000 0.1418000000
0.2558000000 4.0548000000 1.2755000000
0.2556000000 5.5844000000 0.6553000000
0.2553000000 1.3095000000 0.7314000000
0.2553000000 5.1015000000 0.8522000000
0.2549000000 4.3725000000 1.1420000000
0.2547000000 4.9585000000 0.9043000000
0.2544000000 2.9168000000 1.3876000000
0.2542000000 3.5269000000 1.4821000000
0.2539000000 0.9882000000 0.6018000000
0.2538000000 3.3966000000 1.5357000000
0.2536000000 5.7015000000 0.6039000000
0.2534000000 1.0346000000 0.6208000000
0.2531000000 2.9916000000 1.4134000000
0.2531000000 4.4779000000 1.0964000000
0.2526000000 0.3358000000 0.2897000000
0.2525000000 1.5245000000 0.8219000000
0.2525000000 0.7064000000 0.4873000000
0.2523000000 5.6806000000 0.6113000000
0.2522000000 1.6286000000 0.8620000000
0.2521000000 2.9547000000 1.4016000000
0.2518000000 3.6114000000 1.4508000000
0.2516000000 3.4077000000 1.5285000000
0.2514000000 5.8301000000 0.5490000000
0.2509000000 5.8105000000 0.5502000000
0.2509000000 2.5321000000 1.2202000000
0.2508000000 1.2746000000 0.7189000000
0.2503000000 3.7526000000 1.3995000000
0.2502000000 3.2732000000 1.5298000000
0.2500000000 0.6707000000 0.4718000000
0.2498000000 4.7628000000 0.9863000000
0.2492000000 0.6678000000 0.4660000000
0.2489000000 6.4699000000 0.2005000000
0.2485000000 5.2682000000 0.7741000000
0.2481000000 1.7375000000 0.9021000000
0.2480000000 1.4458000000 0.7901000000
0.2474000000 0.1005000000 0.1044000000
0.2451000000 2.7389000000 1.3110000000
0.0104000000 6.0405000000 0.2920000000
0.0097000000 6.4893000000 0.1111000000
0.0085000000 5.3406000000 0.5773000000
0.0080000000 4.6425000000 0.8585000000
0.0078000000 0.8052000000 0.3517000000
0.0072000000 3.4472000000 1.3461000000
0.0070000000 3.3569000000 1.3633000000
0.0067000000 2.3809000000 0.9940000000
0.0065000000 5.4789000000 0.5128000000
0.0062000000 3.1005000000 1.2904000000
0.0059000000 3.4367000000 1.3491000000
0.0057000000 1.1947000000 0.5119000000
0.0055000000 1.0957000000 0.4709000000
0.0052000000 5.2396000000 0.6216000000
0.0051000000 3.9595000000 1.1369000000
0.0048000000 0.5932000000 0.2663000000
0.0046000000 5.4410000000 0.5330000000
0.0045000000 5.1496000000 0.6494000000
0.0043000000 5.9026000000 0.3457000000
0.0038000000 5.2922000000 0.5891000000
0.0037000000 4.2620000000 1.0168000000
0.0033000000 0.8185000000 0.3556000000
0.0032000000 0.6088000000 0.2682000000
0.0029000000 2.3090000000 0.9594000000
0.0028000000 4.2640000000 1.0116000000
0.0025000000 4.4398000000 0.9409000000
0.0025000000 4.4854000000 0.9156000000
0.0023000000 4.5358000000 0.8973000000
0.0022000000 6.5456000000 0.0859000000
0.0021000000 2.2039000000 0.9192000000
0.0017000000 6.2854000000 0.1870000000
0.0015000000 0.2137000000 0.1080000000
0.0013000000 2.5148000000 1.0532000000
0.0011000000 0.0022000000 0.0119000000
0.0009000000 0.1113000000 0.0647000000
0.0007000000 0.2039000000 0.1043000000
0.0004000000 3.3597000000 1.3635000000
0.0003000000 4.4718000000 0.9271000000
-0.0000000000 0.3355000000 0.1578000000
-0.0003000000 3.6387000000 1.2637000000
-0.0007000000 1.1471000000 0.4908000000
-0.0008000000 2.9134000000 1.2020000000
-0.0011000000 1.9971000000 0.8334000000
-0.0015000000 3.5946000000 1.2768000000
-0.0020000000 3.2155000000 1.3288000000
-0.0023000000 0.8855000000 0.3766000000
-0.0029000000 2.3774000000 0.9805000000
-0.0030000000 6.0134000000 0.2949000000
-0.0044000000 1.6905000000 0.7013000000
-0.0081000000 4.1389000000 1.0545000000
-0.2378000000 3.4121000000 1.1843000000
-0.2396000000 6.4366000000 0.0355000000
-0.2399000000 3.4479000000 1.1692000000
-0.2403000000 4.0432000000 0.9285000000
-0.2414000000 2.8533000000 1.0094000000
-0.2417000000 5.8514000000 0.1926000000
-0.2424000000 1.1952000000 0.3369000000
-0.2427000000 5.7648000000 0.2256000000
-0.2430000000 5.3497000000 0.3941000000
-0.2434000000 5.7045000000 0.2524000000
-0.2435000000 6.1895000000 0.0565000000
-0.2437000000 4.6925000000 0.6634000000
-0.2440000000 1.2540000000 0.3584000000
-0.2442000000 4.8337000000 0.6085000000
-0.2442000000 1.7091000000 0.5423000000
-0.2444000000 1.4851000000 0.4522000000
-0.2445000000 3.1447000000 1.1286000000
-0.2448000000 0.5540000000 0.0750000000
-0.2455000000 2.1261000000 0.7102000000
-0.2457000000 6.2356000000 0.0366000000
-0.2457000000 5.3778000000 0.3844000000
-0.2459000000 4.9222000000 0.5738000000
-0.2460000000 3.8934000000 0.9808000000
-0.2461000000 1.6615000000 0.5248000000
-0.2462000000 0.8684000000 0.2068000000
-0.2463000000 3.0014000000 1.0710000000
-0.2465000000 6.1341000000 0.0782000000
-0.2469000000 5.8523000000 0.1913000000
-0.2470000000 4.7096000000 0.6556000000
-0.2471000000 0.5024000000 0.0543000000
-0.2472000000 5.1767000000 0.4692000000
-0.2473000000 4.5892000000 0.7003000000
-0.2475000000 1.9694000000 0.6434000000
-0.2480000000 2.1477000000 0.7160000000
-0.2482000000 0.4097000000 0.0902000000
-0.2482000000 2.3475000000 0.8007000000
-0.2485000000 0.6215000000 0.1032000000
-0.2489000000 5.7943000000 0.2122000000
-0.2492000000 2.5160000000 0.8677000000
-0.2492000000 2.2770000000 0.7703000000
-0.2495000000 3.9070000000 0.9717000000
-0.2501000000 2.3498000000 0.8001000000
-0.2503000000 0.8413000000 0.1822000000
-0.2505000000 0.5475000000 0.0670000000
-0.2510000000 3.1110000000 1.1058000000
-0.2517000000 3.4216000000 1.1718000000
-0.2520000000 1.0583000000 0.2705000000
-0.2529000000 5.4620000000 0.3467000000
-0.2563000000 1.0040000000 0.2528000000
-0.4877000000 4.1107000000 0.7243000000
-0.4902000000 5.9100000000 0.0720000000
-0.4911000000 4.5146000000 0.5586000000
-0.4915000000 6.0571000000 0.0078000000
-0.4916000000 0.7383000000 0.0512000000
-0.4926000000 4.9931000000 0.3658000000
-0.4928000000 5.3375000000 0.2239000000
-0.4931000000 3.3322000000 1.0177000000
-0.4935000000 2.0550000000 0.5110000000
-0.4938000000 1.1792000000 0.1548000000
-0.4942000000 1.9143000000 0.4487000000
-0.4944000000 1.4551000000 0.2640000000
-0.4947000000 2.2275000000 0.5794000000
-0.4950000000 4.9014000000 0.4004000000
-0.4952000000 2.3095000000 0.6112000000
-0.4951000000 4.0595000000 0.7371000000
-0.4953000000 3.5859000000 0.9314000000
-0.4954000000 2.4805000000 0.6772000000
-0.4956000000 1.3761000000 0.2352000000
-0.4959000000 4.5706000000 0.5331000000
-0.4960000000 0.7829000000 0.0648000000
-0.4961000000 3.0376000000 0.9075000000
-0.4962000000 3.6185000000 0.9206000000
-0.4964000000 3.0560000000 0.9155000000
-0.4968000000 4.5094000000 0.5593000000
-0.4969000000 5.1255000000 0.3077000000
-0.4970000000 2.8650000000 0.8405000000
-0.4972000000 5.5946000000 0.1205000000
-0.4974000000 2.9880000000 0.8883000000
-0.4977000000 4.8399000000 0.4239000000
-0.4978000000 4.3645000000 0.6152000000
-0.4983000000 4.5517000000 0.5444000000
-0.4985000000 1.3029000000 0.2039000000
-0.4989000000 4.1703000000 0.7006000000
-0.4990000000 3.2294000000 0.9831000000
-0.4991000000 0.9981000000 0.0749000000
-0.4994000000 0.8092000000 0.0817000000
-0.5000000000 1.9390000000 0.4576000000
-0.5001000000 2.3652000000 0.6356000000
-0.5010000000 2.0174000000 0.4878000000
-0.5012000000 5.0883000000 0.3230000000
-0.5021000000 4.4294000000 0.5903000000
-0.7387000000 4.5804000000 0.3603000000
-0.7396000000 5.5953000000 0.0164000000
-0.7413000000 5.5459000000 0.0449000000
-0.7417000000 3.6453000000 0.7365000000
-0.7424000000 2.2645000000 0.4190000000
-0.7431000000 2.1220000000 0.3631000000
-0.7439000000 2.9146000000 0.6773000000
-0.7446000000 3.0733000000 0.7432000000
-0.7454000000 3.8841000000 0.6371000000
-0.7455000000 2.8157000000 0.6409000000
-0.7459000000 1.9340000000 0.2830000000
-0.7461000000 1.5465000000 0.1222000000
-0.7462000000 2.6486000000 0.5742000000
-0.7463000000 2.3285000000 0.4482000000
-0.7467000000 5.4173000000 0.0890000000
-0.7469000000 1.1379000000 0.0394000000
-0.7477000000 4.4597000000 0.3993000000
-0.7480000000 5.3480000000 0.0406000000
-0.7481000000 3.7807000000 0.6756000000
-0.7483000000 1.8825000000 0.2615000000
-0.7489000000 4.7088000000 0.3017000000
-0.7492000000 3.1027000000 0.7563000000
-0.7495000000 2.9201000000 0.6839000000
-0.7497000000 2.6271000000 0.5617000000
-0.7503000000 2.8679000000 0.6621000000
-0.7506000000 4.6323000000 0.3349000000
-0.7534000000 1.7419000000 0.2044000000
-0.7541000000 2.8899000000 0.6538000000
-0.7560000000 1.3102000000 0.0258000000
-0.9875000000 1.5827000000 0.0458000000
-0.9888000000 3.1858000000 0.6238000000
-0.9902000000 4.7272000000 0.1263000000
-0.9907000000 3.0455000000 0.5629000000
-0.9914000000 2.8453000000 0.4799000000
-0.9925000000 4.8098000000 0.0883000000
-0.9937000000 4.2687000000 0.3053000000
-0.9943000000 3.6476000000 0.5595000000
-0.9946000000 2.7583000000 0.4366000000
-0.9948000000 2.6452000000 0.3913000000
-0.9950000000 1.5506000000 0.0252000000
-0.9956000000 3.7813000000 0.4975000000
-0.9959000000 5.1774000000 0.0182000000
-0.9960000000 2.9060000000 0.4992000000
-0.9963000000 3.6289000000 0.5652000000
-0.9965000000 1.6181000000 0.0531000000
-0.9966000000 5.1952000000 0.0048000000
-0.9975000000 3.3330000000 0.6592000000
-0.9977000000 1.4997000000 0.0049000000
-0.9980000000 2.1420000000 0.1962000000
-0.9984000000 3.3416000000 0.6587000000
-0.9986000000 4.3569000000 0.2655000000
-0.9992000000 2.6897000000 0.4120000000
-0.9993000000 1.9290000000 0.1022000000
-1.0000000000 2.8116000000 0.4616000000
-1.0002000000 5.1218000000 0.0333000000
-1.0010000000 2.7808000000 0.4476000000
-1.0018000000 3.4199000000 0.6465000000
-1.2354000000 4.3343000000 0.1124000000
-1.2387000000 3.5654000000 0.4172000000
-1.2408000000 3.2778000000 0.4793000000
-1.2419000000 3.0751000000 0.3938000000
-1.2425000000 3.1482000000 0.4217000000
-1.2449000000 3.0252000000 0.3741000000
-1.2457000000 4.2327000000 0.1372000000
-1.2459000000 3.8448000000 0.3020000000
-1.2472000000 3.0289000000 0.3706000000
-1.2477000000 2.4408000000 0.1363000000
-1.2478000000 4.2367000000 0.1421000000
-1.2481000000 3.6658000000 0.3758000000
-1.2483000000 2.7188000000 0.2468000000
-1.2484000000 2.6954000000 0.2420000000
-1.2491000000 4.3105000000 0.1112000000
-1.2495000000 2.4344000000 0.1331000000
-1.2500000000 2.8758000000 0.3098000000
-1.2501000000 2.7048000000 0.2423000000
-1.2513000000 2.5971000000 0.1884000000
-1.2518000000 3.4839000000 0.4449000000
-1.2526000000 3.2451000000 0.4590000000
-1.2544000000 1.9961000000 0.0241000000
-1.4935000000 3.4576000000 0.2837000000
-1.4942000000 2.3862000000 0.0125000000
-1.4944000000 3.1040000000 0.2294000000
-1.4948000000 3.0848000000 0.2220000000
-1.4958000000 3.7322000000 0.1733000000
-1.4966000000 3.2290000000 0.2818000000
-1.4970000000 2.9363000000 0.1630000000
-1.4976000000 4.2053000000 0.0547000000
-1.4982000000 2.6837000000 0.0563000000
-1.4994000000 3.7312000000 0.1722000000
-1.5009000000 4.1025000000 0.0999000000
-1.5037000000 2.8046000000 0.1055000000
-1.7451000000 3.7183000000 0.0796000000
-1.7489000000 3.8297000000 0.0340000000
-1.7495000000 3.2231000000 0.0983000000
-1.7502000000 3.0583000000 0.0344000000
