7.0104000000 4.7884000000 0.0253000000
7.0074000000 4.4607000000 0.0953000000
7.0065000000 3.8917000000 0.0872000000
7.0058000000 3.7514000000 0.0730000000
7.0050000000 4.2579000000 0.1571000000
7.0038000000 3.9572000000 0.1360000000
7.0023000000 4.6226000000 0.0666000000
6.7605000000 4.7245000000 0.1304000000
6.7593000000 4.0224000000 0.4649000000
6.7582000000 3.9441000000 0.4130000000
6.7568000000 5.0386000000 0.0742000000
6.7565000000 4.6776000000 0.1624000000
6.7559000000 4.5836000000 0.2358000000
6.7553000000 4.6192000000 0.2060000000
6.7549000000 5.0705000000 0.0539000000
6.7544000000 4.9618000000 0.0534000000
6.7531000000 4.3967000000 0.3572000000
6.7515000000 3.4629000000 0.0968000000
6.7498000000 4.0089000000 0.3899000000
6.7428000000 3.5423000000 0.1608000000
6.5097000000 3.7332000000 0.4823000000
6.5091000000 5.3129000000 0.1058000000
6.5076000000 5.2357000000 0.1550000000
6.5070000000 3.8837000000 0.5824000000
6.5058000000 5.1719000000 0.1268000000
6.5055000000 4.8772000000 0.3198000000
6.5047000000 4.7561000000 0.4049000000
6.5041000000 3.6129000000 0.4841000000
6.5035000000 3.5770000000 0.4646000000
6.5027000000 3.5622000000 0.4513000000
6.5009000000 4.1288000000 0.8220000000
6.4993000000 3.4830000000 0.3241000000
6.2638000000 4.8188000000 0.6511000000
6.2617000000 4.7865000000 0.6676000000
6.2599000000 5.1447000000 0.4355000000
6.2582000000 5.4381000000 0.2383000000
6.2578000000 3.0626000000 0.3286000000
6.2568000000 2.8086000000 0.1588000000
6.2564000000 4.7949000000 0.6644000000
6.2562000000 2.2822000000 0.0351000000
6.2557000000 5.6883000000 0.1463000000
6.2556000000 5.6788000000 0.1489000000
6.2552000000 3.4977000000 0.6957000000
6.2547000000 5.8820000000 0.0191000000
6.2540000000 3.5819000000 0.6761000000
6.2534000000 4.8031000000 0.6680000000
6.2526000000 3.8860000000 0.9580000000
6.2523000000 3.6126000000 0.7794000000
6.2517000000 2.8192000000 0.1685000000
6.2512000000 5.7223000000 0.1298000000
6.2488000000 4.1693000000 1.1357000000
6.2466000000 4.2101000000 1.1248000000
6.0097000000 5.2670000000 0.6380000000
6.0084000000 3.6799000000 1.1094000000
6.0081000000 2.9184000000 0.5925000000
6.0076000000 5.6208000000 0.4014000000
6.0072000000 2.7914000000 0.5146000000
6.0069000000 3.3114000000 0.7821000000
6.0065000000 5.2068000000 0.6798000000
6.0061000000 4.3780000000 1.2415000000
6.0056000000 5.1322000000 0.7372000000
6.0052000000 3.6348000000 1.0721000000
6.0047000000 5.1228000000 0.7375000000
6.0043000000 5.4789000000 0.5058000000
6.0038000000 5.0797000000 0.7697000000
6.0031000000 3.6713000000 1.1086000000
6.0025000000 2.3675000000 0.1571000000
6.0022000000 2.0431000000 0.0116000000
6.0019000000 5.2285000000 0.6739000000
6.0010000000 6.5659000000 0.0042000000
5.9991000000 5.2015000000 0.6971000000
5.9977000000 2.9071000000 0.6017000000
5.7632000000 5.2965000000 0.9075000000
5.7623000000 4.9311000000 1.1550000000
5.7610000000 3.1156000000 0.9360000000
5.7602000000 2.4609000000 0.4963000000
5.7599000000 4.9506000000 1.1408000000
5.7592000000 6.1790000000 0.3178000000
5.7584000000 6.9139000000 0.0535000000
5.7581000000 3.4365000000 1.1546000000
5.7579000000 2.7700000000 0.7130000000
5.7578000000 1.4506000000 0.0488000000
5.7575000000 5.1160000000 1.0353000000
5.7573000000 4.1086000000 1.6824000000
5.7566000000 5.3290000000 0.8949000000
5.7563000000 4.1704000000 1.7051000000
5.7558000000 5.5259000000 0.7573000000
5.7553000000 4.4140000000 1.5110000000
5.7548000000 6.1870000000 0.3174000000
5.7542000000 3.6259000000 1.3658000000
5.7538000000 2.1982000000 0.4018000000
5.7532000000 3.5484000000 1.3183000000
5.7522000000 3.2085000000 1.0910000000
5.7518000000 2.9181000000 0.8146000000
5.7513000000 5.7865000000 0.5915000000
5.7503000000 5.1426000000 1.0230000000
5.7493000000 1.9543000000 0.1804000000
5.7487000000 4.3217000000 1.5737000000
5.7473000000 4.1748000000 1.7226000000
5.5146000000 4.8930000000 1.4696000000
5.5118000000 3.8934000000 1.8237000000
5.5107000000 3.4332000000 1.5186000000
5.5095000000 7.3148000000 0.0725000000
5.5088000000 2.8185000000 1.1081000000
5.5077000000 3.5794000000 1.5391000000
5.5070000000 6.8734000000 0.1477000000
5.5063000000 4.0302000000 1.9249000000
5.5060000000 6.5365000000 0.3724000000
5.5056000000 1.0530000000 -0.0031000000
5.5053000000 1.9972000000 0.4921000000
5.5048000000 6.9800000000 0.1520000000
5.5045000000 3.0834000000 1.2867000000
5.5040000000 6.8732000000 0.1469000000
5.5036000000 4.1301000000 1.9844000000
5.5030000000 1.8487000000 0.3929000000
5.5029000000 3.4841000000 1.5618000000
5.5024000000 4.3808000000 1.8215000000
5.5019000000 3.4386000000 1.5320000000
5.5013000000 3.6209000000 1.6589000000
5.5010000000 6.2544000000 0.5700000000
5.5008000000 1.0038000000 0.0542000000
5.5005000000 3.0882000000 1.2935000000
5.4992000000 3.6836000000 1.6984000000
5.4977000000 6.6769000000 0.2845000000
5.4964000000 2.5467000000 0.9386000000
5.2631000000 5.9725000000 1.0307000000
5.2616000000 7.2443000000 0.1828000000
5.2610000000 7.0020000000 0.3421000000
5.2600000000 1.9387000000 0.8102000000
5.2591000000 7.1135000000 0.2759000000
5.2584000000 6.5801000000 0.6285000000
5.2581000000 6.6804000000 0.5600000000
5.2577000000 5.9790000000 1.0316000000
5.2576000000 5.5282000000 1.3328000000
5.2572000000 6.9497000000 0.3864000000
5.2569000000 7.7243000000 0.0124000000
5.2564000000 6.8693000000 0.4384000000
5.2562000000 5.6274000000 1.2729000000
5.2561000000 3.3408000000 1.7539000000
5.2558000000 6.7779000000 0.4989000000
5.2555000000 3.3592000000 1.7682000000
5.2553000000 1.8305000000 0.6600000000
5.2550000000 4.1960000000 2.2832000000
5.2548000000 0.8355000000 0.0710000000
5.2545000000 3.8784000000 2.0383000000
5.2543000000 1.8009000000 0.6520000000
5.2541000000 0.8889000000 0.1177000000
5.2538000000 7.3950000000 0.1649000000
5.2537000000 3.2336000000 1.6094000000
5.2533000000 1.0405000000 0.1447000000
5.2531000000 6.0463000000 0.9971000000
5.2528000000 5.6551000000 1.2570000000
5.2526000000 7.0032000000 0.3507000000
5.2525000000 4.3673000000 2.1247000000
5.2522000000 6.0774000000 0.9785000000
5.2519000000 1.4431000000 0.4083000000
5.2518000000 3.7920000000 2.0574000000
5.2513000000 2.6419000000 1.2181000000
5.2510000000 6.4339000000 0.7343000000
5.2501000000 0.6291000000 0.0171000000
5.2495000000 1.3595000000 0.3532000000
5.2487000000 3.5022000000 1.8669000000
5.2473000000 1.9343000000 0.7413000000
5.0138000000 6.4354000000 1.0084000000
5.0123000000 7.3085000000 0.4282000000
5.0117000000 4.8352000000 2.0878000000
5.0113000000 7.5144000000 0.2940000000
5.0107000000 6.9727000000 0.6586000000
5.0103000000 7.2365000000 0.4765000000
5.0098000000 6.6642000000 0.8609000000
5.0094000000 6.2031000000 1.1712000000
5.0086000000 5.0664000000 1.9375000000
5.0084000000 6.8454000000 0.7455000000
5.0080000000 7.9287000000 0.0986000000
5.0079000000 0.2934000000 0.0722000000
5.0077000000 4.7931000000 2.1206000000
5.0075000000 7.0890000000 0.5835000000
5.0072000000 6.9560000000 0.6697000000
5.0071000000 7.2085000000 0.5005000000
5.0070000000 7.4717000000 0.3267000000
5.0068000000 6.7794000000 0.7903000000
5.0065000000 2.1890000000 1.2701000000
5.0063000000 4.6741000000 2.1973000000
5.0061000000 3.4037000000 2.0864000000
5.0057000000 4.6289000000 2.2347000000
5.0055000000 5.3178000000 1.7738000000
5.0052000000 4.5342000000 2.2924000000
5.0048000000 5.3445000000 1.7523000000
5.0044000000 5.9883000000 1.3232000000
5.0043000000 3.8748000000 2.4030000000
5.0041000000 5.4053000000 1.7088000000
5.0039000000 0.6339000000 0.1534000000
5.0037000000 2.5196000000 1.4965000000
5.0035000000 6.6188000000 0.9042000000
5.0033000000 0.6677000000 0.1801000000
5.0031000000 6.0722000000 1.2706000000
5.0027000000 8.0712000000 0.0734000000
5.0024000000 1.0801000000 0.4588000000
5.0021000000 3.1400000000 1.9110000000
5.0018000000 4.7786000000 2.1302000000
5.0014000000 0.3226000000 0.0259000000
5.0012000000 1.5194000000 0.7511000000
5.0008000000 2.1389000000 1.2386000000
5.0001000000 2.1684000000 1.1867000000
4.9998000000 3.2470000000 1.9863000000
4.9990000000 2.9030000000 1.7607000000
4.9962000000 0.1865000000 0.0141000000
4.7626000000 5.2010000000 2.1295000000
4.7618000000 8.1538000000 0.2082000000
4.7603000000 5.5099000000 1.9221000000
4.7598000000 2.0844000000 1.4054000000
4.7595000000 7.0392000000 0.9015000000
4.7592000000 0.5286000000 0.3735000000
4.7587000000 8.1300000000 0.1696000000
4.7584000000 4.4942000000 2.6082000000
4.7578000000 4.8141000000 2.3956000000
4.7575000000 4.5090000000 2.6037000000
4.7573000000 7.3950000000 0.6679000000
4.7571000000 7.6100000000 0.5236000000
4.7568000000 2.5595000000 1.8046000000
4.7566000000 7.7535000000 0.4235000000
4.7564000000 4.7213000000 2.4562000000
4.7562000000 2.4077000000 1.6312000000
4.7558000000 0.2012000000 0.1995000000
4.7553000000 4.4117000000 2.6690000000
4.7549000000 3.0710000000 2.1580000000
4.7546000000 5.8468000000 1.7088000000
4.7544000000 7.0957000000 0.8728000000
4.7543000000 2.3354000000 1.6619000000
4.7540000000 0.0759000000 0.0938000000
4.7539000000 2.7730000000 1.8748000000
4.7536000000 0.9356000000 0.6429000000
4.7534000000 5.4382000000 1.9850000000
4.7532000000 5.0877000000 2.2187000000
4.7529000000 8.3279000000 0.0483000000
4.7525000000 1.2586000000 0.8680000000
4.7525000000 4.6757000000 2.4917000000
4.7521000000 1.1267000000 0.7741000000
4.7515000000 3.5779000000 2.5007000000
4.7513000000 0.2830000000 0.2076000000
4.7511000000 2.6715000000 1.8899000000
4.7508000000 3.3621000000 2.3513000000
4.7505000000 3.5984000000 2.5086000000
4.7504000000 4.6189000000 2.5343000000
4.7496000000 6.4003000000 1.3425000000
4.7487000000 2.1788000000 1.4858000000
4.7472000000 2.2829000000 1.5611000000
4.5152000000 7.3521000000 0.9763000000
4.5130000000 3.1282000000 2.4743000000
4.5119000000 2.6768000000 2.1687000000
4.5110000000 1.0240000000 0.9895000000
4.5103000000 1.5340000000 1.4099000000
4.5099000000 7.0347000000 1.1967000000
4.5094000000 0.5966000000 0.7529000000
4.5088000000 3.1307000000 2.4780000000
4.5084000000 3.4496000000 2.6873000000
4.5078000000 7.7680000000 0.7616000000
4.5075000000 7.5041000000 0.8846000000
4.5072000000 6.5488000000 1.5267000000
4.5069000000 7.2974000000 1.0185000000
4.5068000000 6.2337000000 1.7334000000
4.5065000000 3.9912000000 3.0564000000
4.5062000000 0.9940000000 0.9710000000
4.5059000000 5.9920000000 1.8971000000
4.5058000000 6.8122000000 1.3508000000
4.5056000000 6.4484000000 1.5931000000
4.5053000000 4.6651000000 2.7955000000
4.5052000000 6.2874000000 1.6989000000
4.5050000000 5.3177000000 2.3516000000
4.5047000000 8.4316000000 0.0618000000
4.5044000000 6.3862000000 1.6367000000
4.5041000000 2.7948000000 2.2593000000
4.5039000000 4.9312000000 2.6129000000
4.5036000000 3.9508000000 3.0364000000
4.5035000000 2.2988000000 1.9312000000
4.5032000000 3.4462000000 2.7030000000
4.5028000000 2.8701000000 2.3058000000
4.5025000000 1.8752000000 1.5677000000
4.5023000000 3.9176000000 3.0145000000
4.5020000000 4.8552000000 2.6607000000
4.5018000000 5.0047000000 2.5618000000
4.5017000000 4.5545000000 2.8677000000
4.5012000000 6.4099000000 1.6215000000
4.5009000000 0.9727000000 0.9683000000
4.5003000000 3.1967000000 2.5295000000
4.4999000000 4.4608000000 2.9312000000
4.4991000000 2.6360000000 2.0843000000
4.4985000000 1.0380000000 1.0118000000
4.4979000000 2.3016000000 1.9352000000
4.4965000000 6.6495000000 1.4668000000
4.2622000000 7.7412000000 0.7722000000
4.2603000000 3.0354000000 2.7074000000
4.2598000000 4.8764000000 2.9342000000
4.2589000000 3.5340000000 2.9640000000
4.2582000000 0.7192000000 0.9780000000
4.2578000000 7.5600000000 1.0141000000
4.2570000000 1.3391000000 1.4971000000
4.2568000000 8.2878000000 0.1154000000
4.2565000000 5.9678000000 2.2020000000
4.2561000000 3.7234000000 3.1702000000
4.2559000000 2.2690000000 2.1957000000
4.2558000000 1.7878000000 1.7973000000
4.2555000000 3.7518000000 3.1899000000
4.2553000000 2.4969000000 2.2683000000
4.2552000000 2.9070000000 2.6257000000
4.2550000000 4.0750000000 3.4111000000
4.2549000000 5.8104000000 2.3108000000
4.2548000000 0.4379000000 0.5267000000
4.2546000000 4.0264000000 3.3726000000
4.2544000000 3.4545000000 2.9947000000
4.2543000000 2.4484000000 2.3140000000
4.2540000000 4.6389000000 3.0984000000
4.2537000000 2.6521000000 2.4577000000
4.2536000000 8.2948000000 0.1067000000
4.2535000000 2.7026000000 2.4904000000
4.2533000000 2.4201000000 2.2989000000
4.2530000000 3.1970000000 2.8190000000
4.2527000000 2.0992000000 2.0854000000
4.2525000000 3.7123000000 3.1672000000
4.2522000000 0.7306000000 0.9911000000
4.2519000000 4.0213000000 3.3761000000
4.2518000000 7.2613000000 1.3347000000
4.2510000000 6.8386000000 1.6278000000
4.2504000000 1.2079000000 1.4137000000
4.2501000000 6.3796000000 1.9360000000
4.2492000000 8.1670000000 0.2038000000
4.2481000000 0.7630000000 0.9626000000
4.0130000000 6.2451000000 2.3043000000
4.0108000000 6.8190000000 1.9202000000
4.0105000000 1.3877000000 1.8586000000
4.0101000000 4.6023000000 3.4071000000
4.0098000000 7.7102000000 0.8147000000
4.0087000000 6.4707000000 2.1535000000
4.0084000000 5.1840000000 3.0150000000
4.0077000000 6.6112000000 2.0629000000
4.0075000000 5.4206000000 2.8654000000
4.0073000000 2.0220000000 2.3115000000
4.0071000000 4.8520000000 3.2454000000
4.0069000000 0.2257000000 0.2354000000
4.0065000000 6.2187000000 2.3283000000
4.0064000000 3.0400000000 3.0059000000
4.0060000000 6.0312000000 2.4491000000
4.0059000000 4.3767000000 3.5596000000
4.0055000000 0.8238000000 1.0395000000
4.0053000000 7.1877000000 1.5132000000
4.0051000000 6.8325000000 1.9778000000
4.0050000000 5.6669000000 2.6946000000
4.0048000000 7.2432000000 1.4416000000
4.0045000000 6.9905000000 1.8282000000
4.0041000000 4.3553000000 3.5766000000
4.0036000000 1.1229000000 1.5167000000
4.0035000000 7.1606000000 1.5505000000
4.0033000000 7.6643000000 0.8705000000
4.0031000000 8.1229000000 0.2566000000
4.0029000000 1.6414000000 1.9925000000
4.0027000000 8.1667000000 0.2058000000
4.0024000000 2.5383000000 2.5976000000
4.0022000000 5.7848000000 2.6206000000
4.0020000000 5.5186000000 2.8006000000
4.0018000000 7.9156000000 0.5341000000
4.0014000000 2.0751000000 2.3604000000
4.0009000000 0.6203000000 0.7682000000
4.0004000000 3.0828000000 3.0311000000
3.9997000000 1.3367000000 1.7887000000
3.9993000000 0.1191000000 0.1734000000
3.9988000000 5.3877000000 2.8912000000
3.9982000000 4.8319000000 3.2647000000
3.9950000000 1.8541000000 2.2231000000
3.7644000000 5.3759000000 3.1716000000
3.7627000000 8.2301000000 0.1211000000
3.7610000000 5.1814000000 3.3059000000
3.7600000000 4.8592000000 3.5218000000
3.7596000000 6.0982000000 2.6979000000
3.7592000000 8.3650000000 0.0862000000
3.7587000000 4.7057000000 3.6297000000
3.7585000000 1.6960000000 2.2818000000
3.7581000000 7.0147000000 1.7421000000
3.7576000000 4.9176000000 3.4832000000
3.7571000000 1.7945000000 2.4007000000
3.7568000000 0.1708000000 0.1674000000
3.7565000000 6.3373000000 2.5366000000
3.7562000000 6.3777000000 2.5099000000
3.7559000000 3.2900000000 3.4573000000
3.7556000000 4.4759000000 3.7873000000
3.7554000000 8.4027000000 0.0342000000
3.7550000000 6.9710000000 1.8061000000
3.7549000000 5.5407000000 3.0749000000
3.7547000000 3.8642000000 3.8429000000
3.7545000000 0.0090000000 0.0176000000
3.7543000000 3.2686000000 3.4499000000
3.7542000000 7.9642000000 0.4676000000
3.7540000000 2.4334000000 2.8888000000
3.7537000000 5.4647000000 3.1201000000
3.7534000000 8.2111000000 0.1444000000
3.7532000000 6.0508000000 2.7366000000
3.7529000000 3.2293000000 3.4208000000
3.7525000000 4.6794000000 3.6586000000
3.7523000000 4.6525000000 3.6697000000
3.7521000000 5.7327000000 2.9537000000
3.7518000000 3.5473000000 3.6404000000
3.7515000000 5.9747000000 2.7853000000
3.7508000000 2.6153000000 3.0106000000
3.7503000000 7.2576000000 1.4237000000
3.7500000000 1.6079000000 2.1636000000
3.7496000000 5.3119000000 3.2293000000
3.7495000000 6.3164000000 2.5617000000
3.7465000000 -0.0006000000 0.0868000000
3.5173000000 8.3144000000 0.0748000000
3.5118000000 7.8562000000 0.6182000000
3.5108000000 3.2457000000 3.7163000000
3.5105000000 4.4800000000 4.0662000000
3.5094000000 4.6953000000 3.9279000000
3.5091000000 1.8163000000 2.4453000000
3.5088000000 4.1335000000 4.2946000000
3.5081000000 4.1751000000 4.3220000000
3.5079000000 4.3765000000 4.1414000000
3.5076000000 7.3108000000 1.3477000000
3.5075000000 6.8813000000 1.9242000000
3.5073000000 8.3277000000 0.0597000000
3.5069000000 0.1660000000 0.1620000000
3.5068000000 5.4420000000 3.4229000000
3.5064000000 8.4222000000 0.0811000000
3.5063000000 6.1644000000 2.9415000000
3.5060000000 7.8730000000 0.5929000000
3.5056000000 1.0984000000 1.4093000000
3.5054000000 5.7747000000 3.2068000000
3.5052000000 5.3784000000 3.4675000000
3.5050000000 8.1421000000 0.2345000000
3.5049000000 5.5161000000 3.3776000000
3.5045000000 7.7157000000 0.8045000000
3.5042000000 5.2435000000 3.5606000000
3.5040000000 3.9269000000 4.1847000000
3.5037000000 1.8607000000 2.5042000000
3.5035000000 2.7280000000 3.3728000000
3.5033000000 1.4786000000 1.9873000000
3.5032000000 4.7247000000 3.9098000000
3.5029000000 0.9046000000 1.2272000000
3.5026000000 0.7084000000 0.8868000000
3.5023000000 6.4905000000 2.4494000000
3.5020000000 4.8883000000 3.7998000000
3.5019000000 4.5604000000 4.0250000000
3.5018000000 0.5063000000 0.6145000000
3.5014000000 3.8952000000 4.1584000000
3.5011000000 7.9382000000 0.5076000000
3.5006000000 5.4335000000 3.4411000000
3.5002000000 3.2774000000 3.7492000000
3.4995000000 3.7723000000 4.0792000000
3.4992000000 4.3282000000 4.1827000000
3.4986000000 3.5992000000 3.9630000000
3.4975000000 0.5659000000 0.6949000000
3.4969000000 8.1822000000 0.1835000000
3.2641000000 7.2602000000 1.4180000000
3.2623000000 2.6986000000 3.6074000000
3.2612000000 6.7703000000 2.0767000000
3.2601000000 0.8621000000 1.1689000000
3.2594000000 7.4427000000 1.1736000000
3.2592000000 3.5838000000 4.2361000000
3.2590000000 7.3868000000 1.2450000000
3.2588000000 3.7103000000 4.3182000000
3.2585000000 1.0471000000 1.4131000000
3.2580000000 0.1104000000 0.1601000000
3.2578000000 6.1539000000 2.8932000000
3.2573000000 4.2273000000 4.5885000000
3.2569000000 5.4204000000 3.7256000000
3.2567000000 3.3533000000 4.0841000000
3.2565000000 6.1620000000 2.8846000000
3.2563000000 1.4685000000 1.9825000000
3.2560000000 0.9345000000 1.1900000000
3.2558000000 8.3086000000 0.0833000000
3.2555000000 6.3663000000 2.6142000000
3.2552000000 6.2662000000 2.7447000000
3.2550000000 4.0067000000 4.5211000000
3.2547000000 0.3182000000 0.3656000000
3.2544000000 6.1064000000 2.9669000000
3.2541000000 4.7127000000 4.2077000000
3.2536000000 3.0616000000 3.8928000000
3.2533000000 1.0164000000 1.3774000000
3.2531000000 0.7481000000 0.9405000000
3.2529000000 1.0143000000 1.2932000000
3.2525000000 1.8775000000 2.5212000000
3.2523000000 6.2348000000 2.7914000000
3.2520000000 1.4096000000 1.9017000000
3.2518000000 3.5688000000 4.2313000000
3.2512000000 3.4061000000 4.1237000000
3.2509000000 4.8063000000 4.1535000000
3.2507000000 4.6073000000 4.2869000000
3.2498000000 1.6619000000 2.2401000000
3.2495000000 3.5006000000 4.1893000000
3.2493000000 0.4947000000 0.5996000000
3.2490000000 3.5722000000 4.2418000000
3.2484000000 0.0605000000 0.0847000000
3.2478000000 1.8858000000 2.5397000000
3.2448000000 0.6426000000 0.7995000000
3.0130000000 7.9260000000 0.5273000000
3.0117000000 6.7183000000 2.1367000000
3.0109000000 7.0464000000 1.6982000000
3.0097000000 4.2778000000 4.7848000000
3.0093000000 7.4709000000 1.1305000000
3.0085000000 4.3117000000 4.7661000000
3.0083000000 7.2656000000 1.4116000000
3.0078000000 7.7449000000 0.7653000000
3.0074000000 1.0720000000 1.4476000000
3.0070000000 8.3718000000 0.0707000000
3.0065000000 5.7763000000 3.4059000000
3.0064000000 5.9535000000 3.1701000000
3.0063000000 6.9869000000 1.7849000000
3.0061000000 5.6535000000 3.5706000000
3.0058000000 5.9013000000 3.2347000000
3.0056000000 6.2374000000 2.7894000000
3.0053000000 6.0827000000 2.9940000000
3.0052000000 6.5912000000 2.3132000000
3.0049000000 8.4208000000 0.0836000000
3.0046000000 5.5321000000 3.7317000000
3.0044000000 7.4187000000 1.2014000000
3.0041000000 7.0958000000 1.6367000000
3.0039000000 1.7009000000 2.2904000000
3.0035000000 8.0130000000 0.4070000000
3.0032000000 4.7652000000 4.4718000000
3.0029000000 6.6951000000 2.1745000000
3.0027000000 5.0915000000 4.3141000000
3.0025000000 4.7418000000 4.4842000000
3.0022000000 6.8120000000 2.0117000000
3.0020000000 4.7329000000 4.4880000000
3.0018000000 3.5335000000 4.5006000000
3.0013000000 0.1361000000 0.1198000000
3.0011000000 5.7732000000 3.4089000000
3.0008000000 2.0706000000 2.7840000000
3.0000000000 3.9815000000 4.8004000000
2.9996000000 2.5335000000 3.4103000000
2.9993000000 2.8731000000 3.8593000000
2.9989000000 6.1278000000 2.9339000000
2.9982000000 2.4919000000 3.3547000000
2.9933000000 1.5607000000 2.1016000000
2.7633000000 4.1911000000 5.1767000000
2.7617000000 6.0363000000 3.0568000000
2.7608000000 8.3202000000 0.0707000000
2.7599000000 5.5800000000 3.6659000000
2.7595000000 5.4500000000 3.8472000000
2.7593000000 2.5411000000 3.4183000000
2.7590000000 6.6987000000 2.1680000000
2.7582000000 3.7489000000 4.9223000000
2.7580000000 8.3579000000 0.0190000000
2.7575000000 7.8296000000 0.6533000000
2.7571000000 3.5185000000 4.7056000000
2.7567000000 4.7181000000 4.8364000000
2.7565000000 7.9925000000 0.4335000000
2.7564000000 0.0268000000 0.0433000000
2.7559000000 8.3831000000 0.0561000000
2.7558000000 7.3584000000 1.2825000000
2.7556000000 2.8657000000 3.8542000000
2.7552000000 3.9917000000 5.0886000000
2.7550000000 6.4369000000 2.5217000000
2.7545000000 7.3677000000 1.2711000000
2.7544000000 5.8855000000 3.2555000000
2.7543000000 5.8636000000 3.2903000000
2.7537000000 6.6305000000 2.2615000000
2.7535000000 5.9928000000 3.1116000000
2.7533000000 5.4494000000 3.8411000000
2.7530000000 1.1424000000 1.5447000000
2.7529000000 4.5343000000 4.9147000000
2.7527000000 4.9503000000 4.5127000000
2.7524000000 1.1370000000 1.4588000000
2.7520000000 0.2680000000 0.2899000000
2.7516000000 0.9608000000 1.2189000000
2.7510000000 4.3639000000 5.0262000000
2.7508000000 0.0086000000 0.0294000000
2.7506000000 1.7734000000 2.3879000000
2.7496000000 1.9118000000 2.5709000000
2.7493000000 3.1705000000 4.2602000000
2.7485000000 4.1324000000 5.1756000000
2.7483000000 6.5811000000 2.3211000000
2.7473000000 0.6914000000 0.8638000000
2.5135000000 3.9725000000 5.3147000000
2.5126000000 7.2039000000 1.4889000000
2.5116000000 6.3308000000 2.6612000000
2.5111000000 4.9111000000 4.5688000000
2.5106000000 3.5049000000 4.7048000000
2.5099000000 7.5311000000 1.0552000000
2.5092000000 7.1723000000 1.5350000000
2.5090000000 6.1335000000 2.9244000000
2.5085000000 8.1730000000 0.1933000000
2.5080000000 5.4388000000 3.8535000000
2.5079000000 6.8241000000 2.0018000000
2.5075000000 7.6822000000 0.8495000000
2.5073000000 7.2000000000 1.4912000000
2.5071000000 1.0711000000 1.4481000000
2.5068000000 5.7758000000 3.4073000000
2.5067000000 7.2337000000 1.4496000000
2.5065000000 3.1935000000 4.2912000000
2.5062000000 8.3720000000 0.0716000000
2.5058000000 7.2712000000 1.4032000000
2.5054000000 0.3933000000 0.4585000000
2.5053000000 2.0522000000 2.7639000000
2.5048000000 0.3344000000 0.3889000000
2.5046000000 4.1532000000 5.4103000000
2.5043000000 4.9968000000 4.4526000000
2.5041000000 4.5675000000 5.0223000000
2.5039000000 8.1875000000 0.1684000000
2.5035000000 1.0686000000 1.4452000000
2.5034000000 4.2616000000 5.4251000000
2.5030000000 1.6491000000 2.2151000000
2.5027000000 0.0768000000 0.1121000000
2.5022000000 2.6124000000 3.5123000000
2.5019000000 7.6438000000 0.8984000000
2.5018000000 4.9803000000 4.4711000000
2.5014000000 2.8830000000 3.8717000000
2.5011000000 5.5049000000 3.7703000000
2.5010000000 3.2050000000 4.3074000000
2.5003000000 1.9571000000 2.6359000000
2.5001000000 4.3451000000 5.3713000000
2.4997000000 0.9585000000 1.2210000000
2.4993000000 1.0822000000 1.3906000000
2.4988000000 2.5791000000 3.4631000000
2.4970000000 1.0839000000 1.4609000000
2.2625000000 8.0979000000 0.2933000000
2.2623000000 7.7485000000 0.7627000000
2.2615000000 8.4237000000 0.0793000000
2.2607000000 5.7486000000 3.4430000000
2.2602000000 8.4107000000 0.0280000000
2.2599000000 8.3332000000 0.0557000000
2.2589000000 2.3245000000 3.1297000000
2.2583000000 7.0529000000 1.6901000000
2.2580000000 8.2188000000 0.1326000000
2.2573000000 4.8154000000 4.6904000000
2.2570000000 5.4051000000 3.8994000000
2.2566000000 1.9710000000 2.6507000000
2.2564000000 6.0398000000 3.0514000000
2.2560000000 1.6694000000 2.2469000000
2.2558000000 6.8747000000 1.9354000000
2.2556000000 5.3454000000 3.9786000000
2.2552000000 0.8187000000 1.0377000000
2.2549000000 1.7204000000 2.3148000000
2.2547000000 6.5723000000 2.3396000000
2.2543000000 6.0902000000 2.9877000000
2.2540000000 0.7546000000 1.0209000000
2.2537000000 1.9725000000 2.6609000000
2.2535000000 2.3345000000 3.1394000000
2.2533000000 4.2360000000 5.3845000000
2.2528000000 4.0535000000 5.3348000000
2.2522000000 1.2798000000 1.7314000000
2.2520000000 6.6535000000 2.2291000000
2.2518000000 1.9670000000 2.6437000000
2.2515000000 4.3708000000 5.2788000000
2.2513000000 0.5765000000 0.7111000000
2.2511000000 2.9892000000 4.0110000000
2.2508000000 3.4989000000 4.7026000000
2.2506000000 3.8785000000 5.1842000000
2.2502000000 0.6714000000 0.8372000000
2.2501000000 1.5736000000 2.1144000000
2.2498000000 6.2218000000 2.8000000000
2.2495000000 1.9839000000 2.6664000000
2.2491000000 4.0234000000 5.2451000000
2.2476000000 3.6784000000 4.9415000000
2.2458000000 2.9496000000 3.9687000000
2.0113000000 5.7358000000 3.4604000000
2.0108000000 4.4614000000 4.8850000000
2.0104000000 5.4075000000 3.9062000000
2.0101000000 3.4775000000 4.6512000000
2.0098000000 6.3964000000 2.5748000000
2.0092000000 1.7442000000 2.3429000000
2.0085000000 8.0163000000 0.4040000000
2.0081000000 2.3260000000 3.1366000000
2.0080000000 6.2550000000 2.7581000000
2.0077000000 7.2596000000 1.4196000000
2.0076000000 4.4108000000 4.9179000000
2.0071000000 3.5797000000 4.7241000000
2.0068000000 4.5726000000 4.8110000000
2.0062000000 0.4623000000 0.5520000000
2.0057000000 2.9184000000 3.9240000000
2.0055000000 7.9557000000 0.4891000000
2.0053000000 2.8193000000 3.7961000000
2.0052000000 8.3752000000 0.0679000000
2.0049000000 4.1886000000 5.1155000000
2.0046000000 2.0642000000 2.7799000000
2.0044000000 0.8119000000 1.0227000000
2.0041000000 4.4966000000 4.8532000000
2.0039000000 3.0882000000 4.1546000000
2.0037000000 0.1475000000 0.1343000000
2.0035000000 6.0814000000 2.9958000000
2.0033000000 1.5475000000 2.0859000000
2.0030000000 3.9883000000 5.0088000000
2.0028000000 1.1526000000 1.5608000000
2.0027000000 2.1604000000 2.9060000000
2.0025000000 7.5371000000 1.0428000000
2.0022000000 1.3791000000 1.8648000000
2.0020000000 3.1418000000 4.2203000000
2.0017000000 2.6636000000 3.5765000000
2.0015000000 3.5417000000 4.6859000000
2.0011000000 1.4467000000 1.8761000000
2.0009000000 3.1253000000 4.1950000000
2.0003000000 2.1871000000 2.9428000000
1.9998000000 3.0248000000 4.0629000000
1.9993000000 1.8439000000 2.4789000000
1.9988000000 6.1600000000 2.8914000000
1.9984000000 2.3943000000 3.2215000000
1.9972000000 1.7122000000 2.3060000000
1.7663000000 8.3256000000 0.0644000000
1.7630000000 4.4358000000 4.6171000000
1.7610000000 4.3380000000 4.6757000000
1.7605000000 7.5616000000 1.0109000000
1.7600000000 8.2487000000 0.1675000000
1.7592000000 7.5743000000 0.9948000000
1.7590000000 2.4355000000 3.2760000000
1.7585000000 6.6903000000 2.1762000000
1.7576000000 1.8948000000 2.5526000000
1.7572000000 3.9180000000 4.6747000000
1.7569000000 4.9469000000 4.2702000000
1.7568000000 3.4457000000 4.3660000000
1.7565000000 1.1084000000 1.4990000000
1.7564000000 3.7967000000 4.5933000000
1.7563000000 4.2797000000 4.7105000000
1.7562000000 3.0305000000 4.0534000000
1.7558000000 6.9434000000 1.8402000000
1.7555000000 3.3419000000 4.2848000000
1.7553000000 5.1019000000 4.1639000000
1.7550000000 5.2328000000 4.1239000000
1.7549000000 2.4923000000 3.3544000000
1.7547000000 1.6808000000 2.2687000000
1.7543000000 7.8487000000 0.6287000000
1.7540000000 3.0782000000 4.0888000000
1.7535000000 7.4022000000 1.2240000000
1.7534000000 2.4916000000 3.3520000000
1.7532000000 1.7914000000 2.4150000000
1.7530000000 0.6432000000 0.8018000000
1.7527000000 3.1165000000 4.1105000000
1.7524000000 4.7769000000 4.3734000000
1.7522000000 0.3916000000 0.4610000000
1.7517000000 3.1333000000 4.1274000000
1.7515000000 2.0153000000 2.7119000000
1.7512000000 4.7715000000 4.3800000000
1.7507000000 1.3031000000 1.7588000000
1.7505000000 3.4323000000 4.3419000000
1.7502000000 0.8554000000 1.1567000000
1.7492000000 5.2599000000 4.1049000000
1.7490000000 4.3079000000 4.6814000000
1.7486000000 3.8791000000 4.6376000000
1.7484000000 2.4467000000 3.2884000000
1.7470000000 3.7951000000 4.5801000000
1.5125000000 4.4220000000 4.3279000000
1.5102000000 4.0826000000 4.4973000000
1.5099000000 3.3445000000 4.0081000000
1.5097000000 8.3633000000 0.0887000000
1.5094000000 7.6649000000 0.8734000000
1.5091000000 7.2440000000 1.4344000000
1.5088000000 4.5910000000 4.2184000000
1.5083000000 2.3268000000 3.1317000000
1.5080000000 2.8047000000 3.6400000000
1.5077000000 0.6822000000 0.8462000000
1.5073000000 2.4003000000 3.2325000000
1.5071000000 8.3464000000 0.0361000000
1.5069000000 5.8153000000 3.4011000000
1.5066000000 6.2002000000 2.8369000000
1.5064000000 1.9616000000 2.5675000000
1.5061000000 5.6613000000 3.5487000000
1.5059000000 0.8847000000 1.1241000000
1.5056000000 4.3582000000 4.3654000000
1.5055000000 5.4039000000 3.6670000000
1.5053000000 1.5853000000 2.1384000000
1.5051000000 1.5908000000 2.1427000000
1.5050000000 7.8861000000 0.5747000000
1.5048000000 7.3187000000 1.3401000000
1.5046000000 4.3952000000 4.3416000000
1.5044000000 7.0885000000 1.6445000000
1.5043000000 4.5323000000 4.2499000000
1.5040000000 3.7843000000 4.2963000000
1.5038000000 3.2195000000 3.9142000000
1.5036000000 1.7858000000 2.4053000000
1.5034000000 6.2144000000 2.8112000000
1.5032000000 4.4808000000 4.2882000000
1.5031000000 3.7986000000 4.3014000000
1.5029000000 3.7629000000 4.2770000000
1.5025000000 3.6348000000 4.1853000000
1.5024000000 4.9415000000 3.9760000000
1.5022000000 2.8682000000 3.6752000000
1.5018000000 1.5105000000 2.0332000000
1.5016000000 8.1883000000 0.1722000000
1.5012000000 0.1386000000 0.1202000000
1.5008000000 3.7584000000 4.2665000000
1.5004000000 2.9732000000 3.7472000000
1.4994000000 1.5378000000 2.0702000000
1.4985000000 3.4920000000 4.0904000000
1.4980000000 1.2890000000 1.7398000000
1.2670000000 5.6974000000 3.1922000000
1.2615000000 2.8774000000 3.4016000000
1.2611000000 7.2235000000 1.4630000000
1.2603000000 7.6030000000 0.9566000000
1.2594000000 7.2802000000 1.3915000000
1.2592000000 8.1662000000 0.2069000000
1.2588000000 6.5443000000 2.3757000000
1.2583000000 0.9526000000 1.2053000000
1.2580000000 1.4229000000 1.9159000000
1.2580000000 8.1629000000 0.2066000000
1.2573000000 7.8892000000 0.5749000000
1.2570000000 3.4389000000 3.7763000000
1.2568000000 7.5807000000 0.9902000000
1.2566000000 6.6450000000 2.2371000000
1.2564000000 4.8485000000 3.7532000000
1.2562000000 6.8775000000 1.9239000000
1.2557000000 6.7102000000 2.1495000000
1.2555000000 4.0561000000 4.1927000000
1.2553000000 2.0013000000 2.6967000000
1.2551000000 2.1120000000 2.8243000000
1.2549000000 8.2564000000 0.1605000000
1.2548000000 6.1288000000 2.9419000000
1.2545000000 0.4475000000 0.5360000000
1.2544000000 8.1975000000 0.1651000000
1.2541000000 6.0196000000 2.9607000000
1.2538000000 2.2143000000 2.9258000000
1.2536000000 5.1749000000 3.5301000000
1.2534000000 5.4130000000 3.3729000000
1.2533000000 3.2701000000 3.6590000000
1.2531000000 5.6586000000 3.2039000000
1.2529000000 4.2066000000 4.2295000000
1.2528000000 6.2327000000 2.8493000000
1.2525000000 5.8570000000 3.0709000000
1.2522000000 3.5762000000 3.8654000000
1.2519000000 6.9682000000 1.8111000000
1.2516000000 0.5805000000 0.7097000000
1.2513000000 0.4814000000 0.5818000000
1.2510000000 0.5601000000 0.6919000000
1.2505000000 1.6816000000 2.2653000000
1.2498000000 6.1937000000 2.8938000000
1.2483000000 7.4823000000 1.1203000000
1.2475000000 2.0881000000 2.7889000000
1.2469000000 0.4543000000 0.5458000000
1.0139000000 5.8277000000 2.8155000000
1.0115000000 5.5663000000 2.9848000000
1.0105000000 2.5741000000 2.9107000000
1.0101000000 0.3819000000 0.4524000000
1.0095000000 6.7874000000 2.0509000000
1.0092000000 7.5254000000 1.0649000000
1.0089000000 5.0744000000 3.3095000000
1.0087000000 2.8402000000 3.0853000000
1.0081000000 7.0403000000 1.7186000000
1.0075000000 5.3611000000 3.1194000000
1.0071000000 0.8521000000 1.0799000000
1.0069000000 4.3912000000 3.7674000000
1.0066000000 6.2607000000 2.5055000000
1.0063000000 1.1894000000 1.6054000000
1.0058000000 2.8554000000 3.0880000000
1.0056000000 3.4450000000 3.4877000000
1.0054000000 7.4169000000 1.2040000000
1.0049000000 4.9786000000 3.3745000000
1.0047000000 7.3068000000 1.3615000000
1.0044000000 1.1902000000 1.6042000000
1.0040000000 6.6092000000 2.3331000000
1.0038000000 3.3560000000 3.4272000000
1.0036000000 4.1516000000 3.9334000000
1.0034000000 3.3824000000 3.4466000000
1.0029000000 5.0150000000 3.3433000000
1.0028000000 4.7888000000 3.4969000000
1.0026000000 5.2212000000 3.2017000000
1.0025000000 0.3081000000 0.3467000000
1.0021000000 2.2296000000 2.6670000000
1.0019000000 6.7099000000 2.2052000000
1.0017000000 4.3260000000 3.8043000000
1.0014000000 2.3634000000 2.7576000000
1.0013000000 4.2920000000 3.8304000000
1.0011000000 3.5918000000 3.5789000000
1.0008000000 0.5802000000 0.7150000000
1.0003000000 2.7428000000 3.0071000000
0.9997000000 3.8378000000 3.7371000000
0.9991000000 7.9839000000 0.4481000000
0.9988000000 3.6412000000 3.6064000000
0.9978000000 0.9350000000 1.2669000000
0.9969000000 2.5504000000 2.8723000000
0.9964000000 0.8309000000 1.0506000000
0.7635000000 2.3610000000 2.4082000000
0.7611000000 3.1227000000 2.9876000000
0.7603000000 2.7520000000 2.7399000000
0.7598000000 4.9709000000 3.0924000000
0.7590000000 3.9582000000 3.5410000000
0.7583000000 2.5299000000 2.5912000000
0.7578000000 3.0443000000 2.9304000000
0.7571000000 7.7545000000 0.7559000000
0.7568000000 4.1212000000 3.5730000000
0.7565000000 5.9807000000 2.4110000000
0.7561000000 7.4012000000 1.2255000000
0.7560000000 6.8143000000 1.8561000000
0.7558000000 3.5356000000 3.2599000000
0.7553000000 0.9578000000 1.3014000000
0.7548000000 6.7088000000 1.9228000000
0.7547000000 1.9923000000 2.2167000000
0.7541000000 6.1402000000 2.3010000000
0.7538000000 6.7977000000 1.8603000000
0.7536000000 7.6710000000 0.8635000000
0.7535000000 6.8620000000 1.8149000000
0.7533000000 6.2868000000 2.2063000000
0.7531000000 1.2545000000 1.6691000000
0.7528000000 5.6670000000 2.6196000000
0.7524000000 2.6332000000 2.6521000000
0.7522000000 7.2033000000 1.4917000000
0.7520000000 3.8570000000 3.4693000000
0.7518000000 1.7589000000 2.0634000000
0.7513000000 1.6695000000 1.9316000000
0.7509000000 2.8633000000 2.8052000000
0.7506000000 4.2028000000 3.6555000000
0.7503000000 1.2733000000 1.6920000000
0.7498000000 0.7334000000 0.9161000000
0.7493000000 3.6776000000 3.3472000000
0.7489000000 0.7994000000 1.0097000000
0.7483000000 3.4469000000 3.1902000000
0.7478000000 0.4362000000 0.5210000000
0.5125000000 7.8582000000 0.6134000000
0.5110000000 7.1442000000 1.3486000000
0.5100000000 4.3509000000 3.2172000000
0.5097000000 5.6026000000 2.3813000000
0.5088000000 5.9868000000 2.1227000000
0.5086000000 5.8964000000 2.1767000000
0.5082000000 6.9581000000 1.4659000000
0.5078000000 7.6996000000 0.8293000000
0.5075000000 3.8750000000 3.2008000000
0.5072000000 3.4094000000 2.8833000000
0.5070000000 3.2660000000 2.7905000000
0.5065000000 3.2240000000 2.7606000000
0.5064000000 5.3071000000 2.5782000000
0.5062000000 2.9836000000 2.5995000000
0.5059000000 2.8288000000 2.4944000000
0.5058000000 7.8236000000 0.6584000000
0.5055000000 8.4155000000 0.0222000000
0.5051000000 3.9855000000 3.2717000000
0.5049000000 6.6540000000 1.6675000000
0.5045000000 4.5067000000 3.1081000000
0.5041000000 4.9234000000 2.8287000000
0.5038000000 1.4657000000 1.5050000000
0.5037000000 3.5275000000 2.9595000000
0.5035000000 1.7416000000 1.7674000000
0.5033000000 5.6731000000 2.3278000000
0.5031000000 4.4292000000 3.1618000000
0.5025000000 6.1495000000 2.0073000000
0.5021000000 3.6962000000 3.0701000000
0.5018000000 3.2893000000 2.7948000000
0.5015000000 1.4617000000 1.5766000000
0.5013000000 6.5580000000 1.7314000000
0.5010000000 1.4485000000 1.5613000000
0.5007000000 4.7030000000 2.9705000000
0.5005000000 6.7607000000 1.5907000000
0.5002000000 4.9416000000 2.8160000000
0.4998000000 0.9046000000 1.1770000000
0.4984000000 0.9775000000 1.1611000000
0.4981000000 0.4298000000 0.5114000000
0.4973000000 3.4243000000 2.8809000000
0.4954000000 0.5073000000 0.6170000000
0.2615000000 0.3675000000 0.4778000000
0.2611000000 5.9237000000 1.8803000000
0.2603000000 4.2080000000 3.0785000000
0.2591000000 1.6018000000 1.3083000000
0.2589000000 8.3444000000 0.0381000000
0.2585000000 6.8388000000 1.2623000000
0.2583000000 6.7372000000 1.3256000000
0.2580000000 7.9047000000 0.6014000000
0.2575000000 6.5151000000 1.4738000000
0.2573000000 6.5926000000 1.4249000000
0.2567000000 5.8938000000 1.8913000000
0.2566000000 1.1159000000 1.0630000000
0.2564000000 5.1021000000 2.4230000000
0.2563000000 8.4370000000 0.0629000000
0.2559000000 2.4439000000 1.9431000000
0.2558000000 4.8132000000 2.6116000000
0.2554000000 6.7860000000 1.2950000000
0.2551000000 8.2967000000 0.1070000000
0.2549000000 5.3276000000 2.2708000000
0.2546000000 3.4535000000 2.6192000000
0.2544000000 7.0654000000 1.1004000000
0.2541000000 4.2648000000 2.9798000000
0.2538000000 6.8685000000 1.2330000000
0.2534000000 3.6483000000 2.7513000000
0.2530000000 6.8697000000 1.2340000000
0.2528000000 4.7920000000 2.6233000000
0.2525000000 1.5608000000 1.2734000000
0.2521000000 5.4681000000 2.1621000000
0.2518000000 1.4626000000 1.2852000000
0.2515000000 3.9257000000 2.9301000000
0.2513000000 3.3987000000 2.5818000000
0.2509000000 1.0082000000 0.9070000000
0.2505000000 6.0605000000 1.7681000000
0.2504000000 4.2599000000 2.9778000000
0.2501000000 0.9997000000 0.8999000000
0.2495000000 0.2225000000 0.2385000000
0.2490000000 7.1970000000 1.0069000000
0.2484000000 3.2260000000 2.4571000000
0.2480000000 2.5799000000 1.9466000000
0.2478000000 1.5060000000 1.2333000000
0.2462000000 0.1971000000 0.1976000000
0.2413000000 1.3653000000 1.1264000000
0.0112000000 7.8694000000 0.2803000000
0.0094000000 4.0509000000 2.7347000000
0.0090000000 6.3758000000 1.2782000000
0.0085000000 4.2947000000 2.6708000000
0.0078000000 2.0326000000 1.3802000000
0.0074000000 7.8234000000 0.3076000000
0.0068000000 4.7065000000 2.3963000000
0.0065000000 3.0271000000 2.0502000000
0.0060000000 7.1990000000 0.7231000000
0.0058000000 8.1823000000 0.1434000000
0.0056000000 7.2414000000 0.6980000000
0.0051000000 2.7674000000 1.8676000000
0.0050000000 0.6223000000 0.3555000000
0.0047000000 7.4358000000 0.5593000000
0.0044000000 8.2228000000 0.1072000000
0.0041000000 5.1823000000 2.0695000000
0.0038000000 7.5992000000 0.4554000000
0.0035000000 4.7125000000 2.3922000000
0.0033000000 3.3968000000 2.2904000000
0.0029000000 1.9720000000 1.3336000000
0.0025000000 2.9470000000 1.9854000000
0.0023000000 5.1708000000 2.0768000000
0.0021000000 3.3068000000 2.2305000000
0.0018000000 3.9789000000 2.6784000000
0.0016000000 1.6053000000 1.0179000000
0.0014000000 3.4699000000 2.3404000000
0.0010000000 1.1277000000 0.6900000000
0.0005000000 4.0564000000 2.7270000000
0.0001000000 1.8763000000 1.1894000000
-0.0008000000 1.1821000000 0.7243000000
-0.0011000000 4.3875000000 2.6004000000
-0.0021000000 1.6480000000 1.1113000000
-0.0026000000 4.8054000000 2.3210000000
-0.0035000000 0.4330000000 0.2254000000
-0.0044000000 5.5203000000 1.8377000000
-0.2366000000 6.3598000000 1.0054000000
-0.2386000000 4.2071000000 2.5015000000
-0.2398000000 5.7600000000 1.4033000000
-0.2406000000 4.3923000000 2.3194000000
-0.2413000000 2.5535000000 1.4411000000
-0.2419000000 6.1210000000 1.1620000000
-0.2421000000 4.4899000000 2.2575000000
-0.2426000000 2.6407000000 1.5006000000
-0.2428000000 5.1872000000 1.7865000000
-0.2432000000 2.6797000000 1.5205000000
-0.2437000000 8.0376000000 0.0180000000
-0.2440000000 4.9240000000 1.9501000000
-0.2442000000 5.9389000000 1.2793000000
-0.2445000000 5.4497000000 1.6039000000
-0.2449000000 5.9453000000 1.2692000000
-0.2450000000 4.6793000000 2.1207000000
-0.2453000000 1.2213000000 0.4710000000
-0.2455000000 5.6952000000 1.4355000000
-0.2458000000 2.0903000000 1.1329000000
-0.2462000000 2.9938000000 1.7261000000
-0.2464000000 1.6876000000 0.7829000000
-0.2465000000 4.5518000000 2.1971000000
-0.2471000000 2.3713000000 1.3135000000
-0.2472000000 6.3043000000 1.0321000000
-0.2479000000 0.7279000000 0.1379000000
-0.2484000000 5.2728000000 1.7202000000
-0.2487000000 2.6875000000 1.5239000000
-0.2490000000 1.2177000000 0.4650000000
-0.2493000000 5.7200000000 1.4220000000
-0.2496000000 5.2587000000 1.7344000000
-0.2497000000 3.1899000000 1.8552000000
-0.2505000000 2.7994000000 1.5200000000
-0.2507000000 1.0834000000 0.3709000000
-0.2515000000 2.6994000000 1.5279000000
-0.2530000000 1.1355000000 0.4012000000
-0.4877000000 7.3337000000 0.1294000000
-0.4898000000 0.7050000000 0.0632000000
-0.4905000000 2.3364000000 1.0141000000
-0.4915000000 5.3673000000 1.3737000000
-0.4924000000 5.4417000000 1.3203000000
-0.4932000000 4.0070000000 2.1209000000
-0.4937000000 4.0591000000 2.1594000000
-0.4940000000 0.9949000000 0.1040000000
-0.4941000000 3.4723000000 1.7618000000
-0.4945000000 1.7635000000 0.6183000000
-0.4948000000 6.7147000000 0.4613000000
-0.4950000000 4.1572000000 2.2050000000
-0.4953000000 3.1463000000 1.5412000000
-0.4956000000 6.8557000000 0.3736000000
-0.4958000000 2.6553000000 1.2127000000
-0.4962000000 5.6356000000 1.1854000000
-0.4965000000 5.8930000000 1.0158000000
-0.4970000000 3.2383000000 1.6059000000
-0.4972000000 6.1455000000 0.8450000000
-0.4975000000 7.4370000000 0.0586000000
-0.4979000000 7.0113000000 0.2632000000
-0.4985000000 0.6666000000 0.0268000000
-0.4987000000 4.6476000000 1.8491000000
-0.4992000000 2.5812000000 1.0911000000
-0.4998000000 2.3911000000 0.9583000000
-0.5004000000 2.5782000000 1.1523000000
-0.5013000000 2.0962000000 0.8300000000
-0.5023000000 2.4424000000 0.9885000000
-0.5037000000 0.9019000000 0.0317000000
-0.7387000000 2.7181000000 0.9749000000
-0.7410000000 6.6315000000 0.2362000000
-0.7416000000 6.2664000000 0.4839000000
-0.7418000000 2.2114000000 0.6349000000
-0.7422000000 4.8497000000 1.4304000000
-0.7428000000 6.0656000000 0.6142000000
-0.7433000000 4.0588000000 1.8647000000
-0.7436000000 2.3682000000 0.7355000000
-0.7439000000 4.3455000000 1.7638000000
-0.7443000000 4.8811000000 1.4007000000
-0.7445000000 7.2890000000 0.0113000000
-0.7448000000 1.8322000000 0.3744000000
-0.7449000000 2.1485000000 0.5100000000
-0.7452000000 6.1793000000 0.5301000000
-0.7456000000 2.0092000000 0.4180000000
-0.7463000000 3.9293000000 1.7795000000
-0.7468000000 4.1087000000 1.8960000000
-0.7471000000 6.8478000000 0.1608000000
-0.7473000000 7.0756000000 0.0813000000
-0.7477000000 3.2363000000 1.3120000000
-0.7485000000 3.8817000000 1.7450000000
-0.7490000000 4.7499000000 1.4887000000
-0.7495000000 3.0611000000 1.1138000000
-0.7500000000 4.3973000000 1.7229000000
-0.7504000000 6.7834000000 0.1264000000
-0.7507000000 1.1300000000 0.0455000000
-0.7510000000 6.6536000000 0.2119000000
-0.7513000000 5.1412000000 1.2218000000
-0.7518000000 5.1252000000 1.2310000000
-0.7525000000 3.7398000000 1.6413000000
-0.7534000000 2.2177000000 0.6224000000
-0.9901000000 3.5671000000 1.2481000000
-0.9926000000 4.0299000000 1.5556000000
-0.9932000000 4.6294000000 1.2903000000
-0.9936000000 2.1237000000 0.2010000000
-0.9939000000 5.7450000000 0.5366000000
-0.9944000000 6.6264000000 0.0181000000
-0.9946000000 3.0268000000 0.8851000000
-0.9948000000 3.2746000000 1.0504000000
-0.9953000000 5.6165000000 0.6193000000
-0.9960000000 3.0856000000 0.8466000000
-0.9965000000 6.4651000000 0.1279000000
-0.9968000000 5.3349000000 0.8084000000
-0.9972000000 2.4129000000 0.4708000000
-0.9974000000 5.1167000000 0.9551000000
-0.9976000000 5.2298000000 0.8755000000
-0.9982000000 2.6727000000 0.6495000000
-0.9985000000 5.2876000000 0.8438000000
-0.9990000000 2.1411000000 0.2770000000
-0.9998000000 2.7284000000 0.5989000000
-1.0008000000 5.9601000000 0.3852000000
-1.0012000000 5.8305000000 0.4669000000
-1.0016000000 4.9297000000 1.0764000000
-1.0052000000 1.9811000000 0.1731000000
-1.0062000000 2.4939000000 0.4342000000
-1.2379000000 5.0224000000 0.7459000000
-1.2400000000 5.6733000000 0.2981000000
-1.2421000000 4.4220000000 1.1315000000
-1.2433000000 2.0271000000 0.0722000000
-1.2435000000 5.7958000000 0.2104000000
-1.2438000000 3.9756000000 1.2343000000
-1.2442000000 6.1879000000 0.0257000000
-1.2444000000 5.5053000000 0.4029000000
-1.2449000000 2.5863000000 0.2222000000
-1.2453000000 2.1951000000 0.0370000000
-1.2457000000 3.2266000000 0.7280000000
-1.2463000000 6.1809000000 0.0340000000
-1.2472000000 6.2214000000 0.0729000000
-1.2480000000 5.4163000000 0.4638000000
-1.2489000000 5.2630000000 0.5641000000
-1.2497000000 3.2428000000 0.7329000000
-1.2526000000 2.0739000000 0.0180000000
-1.4835000000 5.0072000000 0.4672000000
-1.4908000000 3.1755000000 0.3314000000
-1.4920000000 5.6563000000 0.0950000000
-1.4929000000 4.3164000000 0.9156000000
-1.4939000000 3.8939000000 0.8914000000
-1.4946000000 4.9552000000 0.4841000000
-1.4950000000 2.4723000000 0.0099000000
-1.4953000000 2.5122000000 0.0329000000
-1.4962000000 3.3533000000 0.5193000000
-1.4970000000 2.5931000000 0.0139000000
-1.4973000000 3.0268000000 0.3061000000
-1.4980000000 4.0466000000 0.9826000000
-1.4983000000 2.9830000000 0.2700000000
-1.4988000000 5.5419000000 0.1645000000
-1.4995000000 3.6424000000 0.7096000000
-1.5012000000 5.4842000000 0.1208000000
-1.5029000000 3.3446000000 0.5041000000
-1.7395000000 4.6460000000 0.4045000000
-1.7407000000 3.6899000000 0.4593000000
-1.7418000000 4.1194000000 0.6745000000
-1.7431000000 4.6019000000 0.4305000000
-1.7446000000 4.4120000000 0.5607000000
-1.7461000000 4.9767000000 0.1815000000
-1.7470000000 4.9407000000 0.2019000000
-1.7474000000 2.9610000000 0.0427000000
-1.7482000000 4.0199000000 0.5910000000
-1.7497000000 3.5925000000 0.3883000000
-1.7500000000 4.7449000000 0.3338000000
-1.7510000000 2.8350000000 0.0300000000
-1.9928000000 4.3611000000 0.3071000000
-1.9942000000 4.9941000000 0.0321000000
-1.9965000000 4.2732000000 0.3586000000
-1.9978000000 4.7011000000 0.1525000000
