7.0085000000 4.5339000000 0.0461000000
7.0078000000 4.2828000000 0.0712000000
7.0072000000 4.4849000000 0.0625000000
7.0048000000 4.0149000000 0.0879000000
7.0028000000 4.2532000000 0.0874000000
7.0019000000 4.1760000000 0.1065000000
7.0007000000 3.6739000000 0.0195000000
6.7601000000 3.7309000000 0.1423000000
6.7578000000 4.8135000000 0.0323000000
6.7572000000 3.5674000000 0.0788000000
6.7559000000 3.2943000000 0.0419000000
6.7543000000 5.0565000000 0.0058000000
6.7539000000 3.8495000000 0.1976000000
6.7529000000 4.7942000000 0.0395000000
6.7525000000 3.8648000000 0.2087000000
6.7520000000 3.5982000000 0.0915000000
6.7515000000 3.7871000000 0.1734000000
6.7478000000 3.6409000000 0.1135000000
6.5103000000 4.9795000000 0.1390000000
6.5094000000 4.2281000000 0.4499000000
6.5078000000 3.3361000000 0.1598000000
6.5070000000 3.4404000000 0.2063000000
6.5062000000 4.3540000000 0.4004000000
6.5056000000 3.8815000000 0.3906000000
6.5050000000 5.2668000000 0.0301000000
6.5042000000 4.8244000000 0.2048000000
6.5039000000 5.5025000000 0.0029000000
6.5025000000 5.1872000000 0.0635000000
6.5015000000 5.2794000000 0.0201000000
6.4992000000 3.6995000000 0.3211000000
6.4983000000 4.7505000000 0.2382000000
6.2615000000 3.6425000000 0.4611000000
6.2604000000 4.3773000000 0.5687000000
6.2595000000 5.5595000000 0.0804000000
6.2581000000 5.6953000000 0.0193000000
6.2575000000 2.8119000000 0.1261000000
6.2566000000 5.2641000000 0.2000000000
6.2564000000 5.5086000000 0.1004000000
6.2562000000 2.9300000000 0.1749000000
6.2555000000 5.6174000000 0.0621000000
6.2547000000 3.8462000000 0.5560000000
6.2545000000 3.9447000000 0.5911000000
6.2540000000 3.0598000000 0.2321000000
6.2534000000 5.4259000000 0.1381000000
6.2526000000 4.6996000000 0.4367000000
6.2519000000 4.8260000000 0.3867000000
6.2515000000 3.5530000000 0.4317000000
6.2507000000 4.9526000000 0.3371000000
6.2494000000 2.8085000000 0.1278000000
6.2480000000 3.7428000000 0.5148000000
6.2460000000 2.8346000000 0.1444000000
6.0106000000 2.1995000000 0.0479000000
6.0099000000 4.4633000000 0.7071000000
6.0095000000 4.2823000000 0.7839000000
6.0080000000 4.2209000000 0.8131000000
6.0075000000 3.2651000000 0.4803000000
6.0063000000 3.1605000000 0.4405000000
6.0054000000 2.2490000000 0.0719000000
6.0044000000 5.5297000000 0.2752000000
6.0042000000 4.4510000000 0.7190000000
6.0038000000 5.5148000000 0.2814000000
6.0033000000 5.4519000000 0.3083000000
6.0029000000 5.4168000000 0.3230000000
6.0024000000 6.1683000000 0.0133000000
6.0023000000 2.2179000000 0.0578000000
6.0017000000 2.9302000000 0.3548000000
6.0008000000 3.3157000000 0.5125000000
5.9998000000 2.6727000000 0.2494000000
5.9985000000 1.9029000000 0.0066000000
5.7622000000 5.0026000000 0.6682000000
5.7618000000 5.4502000000 0.4801000000
5.7616000000 5.7374000000 0.3577000000
5.7605000000 4.1751000000 0.9990000000
5.7592000000 3.5619000000 0.7921000000
5.7589000000 5.3389000000 0.5303000000
5.7587000000 6.4964000000 0.0529000000
5.7579000000 4.7857000000 0.7539000000
5.7578000000 1.7420000000 0.0444000000
5.7574000000 3.6296000000 0.8196000000
5.7568000000 3.3508000000 0.7052000000
5.7567000000 2.2484000000 0.2489000000
5.7561000000 5.0377000000 0.6527000000
5.7560000000 5.9477000000 0.2801000000
5.7554000000 6.6714000000 0.0590000000
5.7550000000 2.0194000000 0.1519000000
5.7545000000 4.6959000000 0.8019000000
5.7543000000 4.1003000000 1.0000000000
5.7537000000 2.8542000000 0.5080000000
5.7532000000 3.0781000000 0.5907000000
5.7530000000 4.4652000000 0.8967000000
5.7528000000 3.3602000000 0.7113000000
5.7527000000 4.7733000000 0.6939000000
5.7523000000 3.2633000000 0.6728000000
5.7520000000 2.5465000000 0.3726000000
5.7511000000 3.0412000000 0.5776000000
5.7506000000 6.3634000000 0.1134000000
5.7502000000 5.4847000000 0.4722000000
5.7498000000 4.9516000000 0.6984000000
5.7492000000 5.2056000000 0.5910000000
5.7484000000 2.3215000000 0.2874000000
5.7423000000 3.3111000000 0.6979000000
5.5130000000 5.2557000000 0.7416000000
5.5115000000 3.0050000000 0.7383000000
5.5107000000 6.7871000000 0.1109000000
5.5093000000 3.6650000000 1.0129000000
5.5091000000 5.0658000000 0.8213000000
5.5088000000 1.5708000000 0.1426000000
5.5082000000 3.6480000000 1.0018000000
5.5078000000 1.0693000000 0.0164000000
5.5075000000 3.8382000000 1.0825000000
5.5073000000 3.5565000000 0.9651000000
5.5070000000 3.8981000000 1.1092000000
5.5065000000 5.2612000000 0.7409000000
5.5064000000 4.4076000000 1.0965000000
5.5059000000 4.0543000000 1.1809000000
5.5058000000 7.1844000000 0.0190000000
5.5053000000 4.3668000000 1.1129000000
5.5052000000 7.0127000000 0.0194000000
5.5049000000 6.1386000000 0.3807000000
5.5045000000 1.6134000000 0.1645000000
5.5043000000 1.0943000000 0.0268000000
5.5037000000 2.2879000000 0.4450000000
5.5036000000 2.9581000000 0.7236000000
5.5034000000 3.7472000000 1.0505000000
5.5030000000 6.4820000000 0.2437000000
5.5027000000 1.3216000000 0.0462000000
5.5025000000 1.1731000000 0.0610000000
5.5023000000 6.5938000000 0.1963000000
5.5015000000 4.1476000000 1.1932000000
5.5011000000 1.3067000000 0.0430000000
5.4996000000 1.7914000000 0.2474000000
5.4977000000 1.7657000000 0.2414000000
5.4936000000 2.5519000000 0.5633000000
5.2605000000 5.5949000000 0.7787000000
5.2595000000 7.0577000000 0.1741000000
5.2593000000 0.6181000000 0.0046000000
5.2590000000 1.0431000000 0.1088000000
5.2586000000 3.5443000000 1.1454000000
5.2583000000 6.3554000000 0.4699000000
5.2581000000 7.3075000000 0.0747000000
5.2580000000 5.4255000000 0.8476000000
5.2577000000 0.7938000000 0.0095000000
5.2571000000 6.3019000000 0.4896000000
5.2569000000 4.3289000000 1.3057000000
5.2564000000 3.9559000000 1.3166000000
5.2558000000 7.2270000000 0.1112000000
5.2557000000 7.1992000000 0.1261000000
5.2554000000 6.6763000000 0.3382000000
5.2552000000 2.9086000000 0.8783000000
5.2550000000 4.0052000000 1.3346000000
5.2549000000 6.0602000000 0.5931000000
5.2547000000 0.9633000000 0.0782000000
5.2546000000 7.1714000000 0.1305000000
5.2544000000 3.3779000000 1.0779000000
5.2542000000 6.1516000000 0.5542000000
5.2540000000 3.2456000000 1.0185000000
5.2539000000 5.1439000000 0.9743000000
5.2536000000 1.6010000000 0.3416000000
5.2531000000 1.4093000000 0.2573000000
5.2529000000 7.4256000000 0.0285000000
5.2526000000 1.8541000000 0.4454000000
5.2523000000 3.3451000000 1.0646000000
5.2523000000 5.9318000000 0.6466000000
5.2518000000 5.5891000000 0.7927000000
5.2517000000 3.6281000000 1.1795000000
5.2503000000 1.3086000000 0.2162000000
5.2493000000 1.9669000000 0.4975000000
5.2477000000 4.0667000000 1.3639000000
5.0128000000 8.0105000000 0.0339000000
5.0108000000 4.2141000000 1.5399000000
5.0102000000 5.8454000000 0.7816000000
5.0098000000 6.3909000000 0.6312000000
5.0096000000 6.2825000000 0.6710000000
5.0090000000 7.1974000000 0.3003000000
5.0085000000 2.5383000000 0.9026000000
5.0083000000 2.6598000000 0.9522000000
5.0079000000 2.1108000000 0.7234000000
5.0078000000 4.4663000000 1.4293000000
5.0076000000 2.0247000000 0.6939000000
5.0075000000 8.0463000000 0.0189000000
5.0072000000 7.6969000000 0.0980000000
5.0072000000 3.9268000000 1.4846000000
5.0065000000 5.9777000000 0.8025000000
5.0063000000 1.5118000000 0.4840000000
5.0060000000 4.8536000000 1.2733000000
5.0057000000 2.1371000000 0.7459000000
5.0056000000 1.9337000000 0.6569000000
5.0053000000 6.1815000000 0.7198000000
5.0051000000 6.7331000000 0.4188000000
5.0050000000 7.4508000000 0.1957000000
5.0048000000 6.2047000000 0.7138000000
5.0046000000 6.0797000000 0.7679000000
5.0045000000 2.6913000000 0.9725000000
5.0043000000 4.6250000000 1.3654000000
5.0040000000 0.7673000000 0.1782000000
5.0038000000 1.1029000000 0.3158000000
5.0035000000 2.6618000000 0.9619000000
5.0033000000 5.9973000000 0.7971000000
5.0031000000 1.6922000000 0.5609000000
5.0028000000 1.5260000000 0.4906000000
5.0026000000 0.6514000000 0.1256000000
5.0024000000 0.6697000000 0.1386000000
5.0022000000 1.7330000000 0.5775000000
5.0015000000 1.3864000000 0.4344000000
5.0010000000 2.3182000000 0.8198000000
5.0008000000 2.8936000000 1.0589000000
5.0000000000 0.2388000000 0.0380000000
4.9993000000 0.4506000000 0.0511000000
4.9987000000 0.4817000000 0.0679000000
4.9958000000 5.6504000000 0.9466000000
4.7634000000 6.5095000000 0.7598000000
4.7628000000 7.0183000000 0.5451000000
4.7618000000 7.6624000000 0.2843000000
4.7609000000 7.7285000000 0.1853000000
4.7603000000 6.5340000000 0.7494000000
4.7598000000 5.5162000000 1.1714000000
4.7588000000 1.2294000000 0.5413000000
4.7580000000 3.6736000000 1.5488000000
4.7575000000 4.1530000000 1.7270000000
4.7573000000 2.7253000000 1.1663000000
4.7571000000 6.8973000000 0.6052000000
4.7568000000 6.3316000000 0.8352000000
4.7563000000 1.3339000000 0.5893000000
4.7559000000 5.6435000000 1.1218000000
4.7555000000 1.1935000000 0.5309000000
4.7553000000 8.2235000000 0.0421000000
4.7550000000 6.4298000000 0.7239000000
4.7548000000 0.5426000000 0.2615000000
4.7545000000 0.8083000000 0.3701000000
4.7543000000 5.1064000000 1.3430000000
4.7540000000 2.3770000000 1.0204000000
4.7538000000 4.2087000000 1.7188000000
4.7535000000 7.1113000000 0.5155000000
4.7533000000 0.2735000000 0.1508000000
4.7529000000 2.0515000000 0.8876000000
4.7525000000 7.4949000000 0.3593000000
4.7524000000 0.3386000000 0.1778000000
4.7518000000 4.2141000000 1.7153000000
4.7512000000 7.8599000000 0.2096000000
4.7508000000 1.6481000000 0.7215000000
4.7504000000 6.7805000000 0.6565000000
4.7502000000 0.3181000000 0.1721000000
4.7499000000 1.3529000000 0.5968000000
4.7494000000 0.7748000000 0.3541000000
4.7481000000 1.9673000000 0.8513000000
4.7472000000 3.4565000000 1.4720000000
4.7467000000 0.8885000000 0.4095000000
4.5122000000 4.6685000000 1.6964000000
4.5113000000 6.8641000000 0.7948000000
4.5108000000 5.2283000000 1.4681000000
4.5105000000 4.2610000000 1.8659000000
4.5102000000 7.1501000000 0.6777000000
4.5092000000 5.6982000000 1.2755000000
4.5085000000 8.0503000000 0.1283000000
4.5080000000 7.5641000000 0.5064000000
4.5077000000 4.7157000000 1.6808000000
4.5073000000 7.3129000000 0.6088000000
4.5070000000 5.3549000000 1.4213000000
4.5067000000 8.0117000000 0.1628000000
4.5065000000 5.4704000000 1.3704000000
4.5063000000 5.2822000000 1.4500000000
4.5060000000 0.4680000000 0.3959000000
4.5058000000 5.2668000000 1.4579000000
4.5056000000 0.1314000000 0.1340000000
4.5053000000 2.2356000000 1.1413000000
4.5049000000 4.0794000000 1.8989000000
4.5047000000 1.5692000000 0.8670000000
4.5043000000 5.7817000000 1.2470000000
4.5042000000 1.9079000000 1.0015000000
4.5037000000 3.0790000000 1.4844000000
4.5035000000 7.1278000000 0.6920000000
4.5034000000 4.6619000000 1.7099000000
4.5028000000 2.6802000000 1.3269000000
4.5025000000 3.2696000000 1.5711000000
4.5023000000 5.7295000000 1.2656000000
4.5021000000 5.9417000000 1.1799000000
4.5019000000 1.0970000000 0.6803000000
4.5016000000 2.1755000000 1.1189000000
4.5013000000 3.9855000000 1.8658000000
4.5012000000 5.6239000000 1.3127000000
4.5009000000 4.0687000000 1.9060000000
4.5003000000 3.5928000000 1.7078000000
4.5002000000 1.8459000000 0.9821000000
4.4995000000 1.5026000000 0.8431000000
4.4991000000 0.4754000000 0.4001000000
4.4986000000 1.1293000000 0.6912000000
4.4980000000 1.2795000000 0.7480000000
4.4916000000 1.2440000000 0.7419000000
4.2626000000 4.7031000000 1.8640000000
4.2614000000 4.0869000000 2.0712000000
4.2604000000 6.0326000000 1.3154000000
4.2598000000 0.8609000000 0.7245000000
4.2595000000 6.1065000000 1.2852000000
4.2592000000 8.0079000000 0.1707000000
4.2588000000 4.7639000000 1.8446000000
4.2585000000 7.3401000000 0.7675000000
4.2584000000 4.2775000000 2.0426000000
4.2579000000 0.6353000000 0.5527000000
4.2573000000 1.2451000000 0.9050000000
4.2572000000 7.8254000000 0.3188000000
4.2570000000 3.4626000000 1.8226000000
4.2568000000 8.2399000000 0.0495000000
4.2565000000 0.7589000000 0.6577000000
4.2564000000 2.1925000000 1.2981000000
4.2562000000 5.8058000000 1.4115000000
4.2558000000 8.2642000000 0.0249000000
4.2555000000 1.6530000000 1.0746000000
4.2552000000 0.1082000000 0.1077000000
4.2551000000 4.9592000000 1.7643000000
4.2549000000 4.0532000000 2.0707000000
4.2546000000 7.9800000000 0.1866000000
4.2544000000 6.6910000000 1.0554000000
4.2542000000 1.6495000000 1.0747000000
4.2540000000 0.8086000000 0.6813000000
4.2539000000 4.5552000000 1.9263000000
4.2537000000 0.2544000000 0.2394000000
4.2533000000 3.3561000000 1.7881000000
4.2533000000 6.0078000000 1.3267000000
4.2529000000 1.6814000000 1.0915000000
4.2528000000 2.8185000000 1.5612000000
4.2525000000 0.5440000000 0.4709000000
4.2523000000 4.2388000000 2.0670000000
4.2518000000 0.7201000000 0.6189000000
4.2516000000 0.7119000000 0.6095000000
4.2511000000 5.5988000000 1.5047000000
4.2510000000 2.2841000000 1.3472000000
4.2508000000 1.7811000000 1.1376000000
4.2506000000 2.3382000000 1.3638000000
4.2492000000 3.5524000000 1.8718000000
4.2488000000 1.4437000000 0.9988000000
4.2478000000 1.4203000000 0.9918000000
4.2462000000 3.3537000000 1.7920000000
4.0132000000 7.5096000000 0.5756000000
4.0118000000 3.2982000000 1.9364000000
4.0110000000 2.6500000000 1.6632000000
4.0100000000 1.9088000000 1.3615000000
4.0091000000 3.5868000000 2.0508000000
4.0085000000 7.3771000000 0.6868000000
4.0083000000 7.4108000000 0.6585000000
4.0080000000 6.7482000000 1.2007000000
4.0079000000 4.2507000000 2.2332000000
4.0076000000 5.4975000000 1.7252000000
4.0073000000 7.2683000000 0.7810000000
4.0070000000 1.1626000000 0.9887000000
4.0068000000 7.9744000000 0.1965000000
4.0064000000 0.7526000000 0.6470000000
4.0061000000 5.4982000000 1.7171000000
4.0059000000 7.0475000000 1.0310000000
4.0058000000 6.4027000000 1.3445000000
4.0056000000 2.7919000000 1.7250000000
4.0053000000 0.7950000000 0.6804000000
4.0046000000 7.3086000000 0.7467000000
4.0044000000 7.5441000000 0.5535000000
4.0041000000 7.7892000000 0.3463000000
4.0039000000 0.0094000000 0.0309000000
4.0037000000 7.7257000000 0.3994000000
4.0033000000 6.0253000000 1.5068000000
4.0029000000 1.8335000000 1.3373000000
4.0025000000 5.4255000000 1.7500000000
4.0023000000 4.4159000000 2.1691000000
4.0021000000 4.3818000000 2.1908000000
4.0019000000 7.3471000000 0.7153000000
4.0015000000 0.8419000000 0.7244000000
4.0012000000 0.9216000000 0.7875000000
4.0008000000 3.4239000000 1.9992000000
4.0005000000 0.2085000000 0.1973000000
4.0001000000 0.0224000000 0.0450000000
3.9996000000 2.4444000000 1.5877000000
3.9992000000 1.4950000000 1.1944000000
3.9987000000 1.2567000000 1.0533000000
3.9985000000 1.1379000000 0.9688000000
3.9976000000 3.7685000000 2.1396000000
3.9954000000 0.1232000000 0.1261000000
3.7616000000 1.7006000000 1.4147000000
3.7608000000 7.5923000000 0.5105000000
3.7600000000 5.4196000000 1.9174000000
3.7591000000 7.4361000000 0.6430000000
3.7587000000 6.3358000000 1.5501000000
3.7585000000 7.5147000000 0.5744000000
3.7582000000 6.0323000000 1.6744000000
3.7579000000 6.5446000000 1.4317000000
3.7575000000 6.2527000000 1.5860000000
3.7573000000 0.8986000000 0.7634000000
3.7570000000 7.6626000000 0.4499000000
3.7568000000 7.8067000000 0.3315000000
3.7566000000 2.6536000000 1.8517000000
3.7564000000 4.1659000000 2.4322000000
3.7562000000 8.2040000000 0.0788000000
3.7560000000 3.1687000000 2.0664000000
3.7558000000 4.7403000000 2.2078000000
3.7556000000 1.0751000000 0.9186000000
3.7554000000 5.2507000000 1.9958000000
3.7552000000 3.6716000000 2.2681000000
3.7548000000 5.1291000000 2.0489000000
3.7546000000 2.4274000000 1.7529000000
3.7543000000 6.0405000000 1.6744000000
3.7542000000 2.7299000000 1.8793000000
3.7540000000 2.1736000000 1.6534000000
3.7539000000 3.5679000000 2.2264000000
3.7536000000 6.1819000000 1.6158000000
3.7533000000 1.0353000000 0.8876000000
3.7531000000 1.8857000000 1.5331000000
3.7528000000 2.4636000000 1.7777000000
3.7527000000 3.4432000000 2.1783000000
3.7523000000 0.3414000000 0.3034000000
3.7518000000 2.0161000000 1.5887000000
3.7515000000 2.8429000000 1.9343000000
3.7511000000 1.0213000000 0.8750000000
3.7506000000 2.2420000000 1.6826000000
3.7503000000 6.2094000000 1.6029000000
3.7500000000 4.7234000000 2.2242000000
3.7498000000 5.6652000000 1.8338000000
3.7494000000 3.0979000000 2.0397000000
3.7480000000 1.8896000000 1.5439000000
3.7455000000 0.7154000000 0.6185000000
3.5123000000 5.4921000000 2.0770000000
3.5117000000 3.8213000000 2.5093000000
3.5111000000 5.9322000000 1.8935000000
3.5102000000 8.0483000000 0.1313000000
3.5091000000 7.0546000000 0.9618000000
3.5089000000 5.9596000000 1.8890000000
3.5087000000 1.5510000000 1.3107000000
3.5081000000 2.7865000000 2.0796000000
3.5080000000 5.0601000000 2.2555000000
3.5075000000 2.1515000000 1.7911000000
3.5071000000 6.2480000000 1.6250000000
3.5068000000 7.8450000000 0.3028000000
3.5065000000 4.9646000000 2.2944000000
3.5064000000 0.3063000000 0.2778000000
3.5061000000 5.9594000000 1.8893000000
3.5059000000 0.9204000000 0.7840000000
3.5057000000 5.4461000000 2.0984000000
3.5055000000 3.5524000000 2.4111000000
3.5053000000 5.2019000000 2.2022000000
3.5051000000 2.4121000000 1.9298000000
3.5050000000 0.6350000000 0.5571000000
3.5047000000 6.5154000000 1.3983000000
3.5044000000 2.5961000000 2.0077000000
3.5042000000 1.3947000000 1.1794000000
3.5040000000 3.0465000000 2.1976000000
3.5038000000 0.3809000000 0.3401000000
3.5030000000 5.1112000000 2.2415000000
3.5026000000 0.2215000000 0.2051000000
3.5023000000 3.3505000000 2.3185000000
3.5021000000 3.6301000000 2.4422000000
3.5017000000 8.1546000000 0.1174000000
3.5015000000 1.7995000000 1.5137000000
3.5012000000 2.0238000000 1.6958000000
3.5010000000 4.6225000000 2.4392000000
3.5006000000 3.3282000000 2.3142000000
3.5001000000 2.1033000000 1.7581000000
3.5000000000 3.8106000000 2.5074000000
3.4995000000 2.4287000000 1.9382000000
3.4989000000 6.1812000000 1.6765000000
3.4980000000 4.7747000000 2.3856000000
3.4971000000 2.9931000000 2.1759000000
3.4951000000 3.6656000000 2.4516000000
3.2625000000 4.2107000000 2.7877000000
3.2613000000 5.9102000000 1.9000000000
3.2605000000 3.7818000000 2.6722000000
3.2602000000 5.5901000000 2.2087000000
3.2598000000 6.6221000000 1.3116000000
3.2593000000 7.8522000000 0.2943000000
3.2590000000 0.4515000000 0.3983000000
3.2587000000 1.2900000000 1.0949000000
3.2581000000 3.2676000000 2.4631000000
3.2577000000 8.1341000000 0.0585000000
3.2576000000 6.2503000000 1.6970000000
3.2575000000 2.1033000000 1.7598000000
3.2570000000 5.3977000000 2.2907000000
3.2568000000 5.5778000000 2.2115000000
3.2566000000 1.4163000000 1.1934000000
3.2563000000 1.3349000000 1.1356000000
3.2560000000 1.8097000000 1.5235000000
3.2558000000 5.4496000000 2.2796000000
3.2555000000 2.4487000000 2.0467000000
3.2553000000 5.7411000000 2.1110000000
3.2550000000 1.7503000000 1.4755000000
3.2548000000 3.8211000000 2.6955000000
3.2546000000 7.8972000000 0.2566000000
3.2542000000 5.9760000000 1.8475000000
3.2540000000 3.1830000000 2.4258000000
3.2538000000 7.9684000000 0.2066000000
3.2537000000 6.0650000000 1.7782000000
3.2534000000 6.6021000000 1.3284000000
3.2533000000 0.0969000000 0.1049000000
3.2530000000 4.0504000000 2.7903000000
3.2528000000 3.0250000000 2.3654000000
3.2527000000 0.4668000000 0.4103000000
3.2524000000 4.2470000000 2.7789000000
3.2522000000 0.5787000000 0.5028000000
3.2517000000 5.0561000000 2.4415000000
3.2513000000 1.3535000000 1.1421000000
3.2506000000 1.4015000000 1.1793000000
3.2503000000 4.0659000000 2.7947000000
3.2500000000 5.3525000000 2.3244000000
3.2498000000 0.1475000000 0.1515000000
3.2488000000 0.8296000000 0.7150000000
3.2482000000 0.8260000000 0.7062000000
3.2479000000 1.3441000000 1.1336000000
3.2467000000 3.3509000000 2.5002000000
3.0147000000 8.0953000000 0.0932000000
3.0114000000 8.2722000000 0.0183000000
3.0110000000 7.9764000000 0.1979000000
3.0099000000 6.1230000000 1.7251000000
3.0095000000 7.4281000000 0.6500000000
3.0091000000 5.2990000000 2.4729000000
3.0088000000 4.1150000000 2.9808000000
3.0083000000 0.3341000000 0.2985000000
3.0081000000 3.4868000000 2.7298000000
3.0078000000 8.0846000000 0.1021000000
3.0075000000 5.6367000000 2.1284000000
3.0073000000 7.7979000000 0.3436000000
3.0070000000 7.2608000000 0.7864000000
3.0063000000 6.9354000000 1.0525000000
3.0059000000 4.9070000000 2.6795000000
3.0056000000 4.3786000000 2.8971000000
3.0055000000 2.5164000000 2.1015000000
3.0052000000 4.6808000000 2.7772000000
3.0049000000 8.2831000000 0.0102000000
3.0048000000 3.0696000000 2.5437000000
3.0045000000 6.6454000000 1.2959000000
3.0043000000 7.5557000000 0.5399000000
3.0040000000 2.7486000000 2.2982000000
3.0038000000 6.7811000000 1.1789000000
3.0036000000 6.3228000000 1.5589000000
3.0035000000 0.5914000000 0.5134000000
3.0031000000 3.4480000000 2.7197000000
3.0030000000 2.8650000000 2.3925000000
3.0028000000 1.7513000000 1.4777000000
3.0026000000 3.4084000000 2.7080000000
3.0024000000 2.7813000000 2.3212000000
3.0023000000 0.7014000000 0.6040000000
3.0019000000 4.3720000000 2.9073000000
3.0013000000 5.4650000000 2.2665000000
3.0008000000 5.7249000000 2.0532000000
3.0006000000 3.9517000000 2.9258000000
3.0004000000 3.1519000000 2.5821000000
3.0001000000 0.9082000000 0.7761000000
2.9995000000 0.0688000000 0.0821000000
2.9991000000 0.2045000000 0.1961000000
2.9986000000 1.2255000000 1.0398000000
2.9970000000 7.7486000000 0.3834000000
2.9963000000 4.9017000000 2.6893000000
2.9947000000 0.6878000000 0.5899000000
2.7625000000 7.4166000000 0.6560000000
2.7605000000 4.4087000000 3.0625000000
2.7599000000 4.7254000000 2.9206000000
2.7594000000 4.1878000000 3.1537000000
2.7589000000 3.6829000000 2.9930000000
2.7587000000 8.2186000000 0.0715000000
2.7584000000 7.2080000000 0.8297000000
2.7578000000 2.5580000000 2.1378000000
2.7575000000 4.8143000000 2.8714000000
2.7572000000 7.4539000000 0.6257000000
2.7568000000 1.5749000000 1.3271000000
2.7565000000 4.2919000000 3.1115000000
2.7558000000 2.1635000000 1.8128000000
2.7555000000 2.0573000000 1.7285000000
2.7553000000 6.7233000000 1.2273000000
2.7549000000 6.1414000000 1.7880000000
2.7548000000 6.4670000000 1.4415000000
2.7546000000 5.3159000000 2.4675000000
2.7543000000 0.0808000000 0.0924000000
2.7541000000 1.1472000000 0.9719000000
2.7538000000 2.0851000000 1.7394000000
2.7536000000 3.5544000000 2.9292000000
2.7534000000 2.5165000000 2.1060000000
2.7531000000 2.3290000000 1.9544000000
2.7528000000 3.0467000000 2.5462000000
2.7523000000 3.0133000000 2.5123000000
2.7520000000 3.8453000000 3.0603000000
2.7514000000 2.0481000000 1.7179000000
2.7509000000 5.0597000000 2.6052000000
2.7505000000 1.2644000000 1.0701000000
2.7500000000 0.5229000000 0.4538000000
2.7496000000 6.9453000000 1.0424000000
2.7489000000 0.8514000000 0.7295000000
2.7483000000 0.1424000000 0.1444000000
2.7480000000 0.9165000000 0.7857000000
2.7472000000 2.2914000000 1.9161000000
2.7452000000 5.9532000000 1.9433000000
2.5132000000 7.0772000000 0.9319000000
2.5123000000 7.9579000000 0.2093000000
2.5110000000 5.9253000000 1.9652000000
2.5105000000 5.4699000000 2.2686000000
2.5095000000 6.7200000000 1.2310000000
2.5090000000 6.3158000000 1.5681000000
2.5085000000 7.9078000000 0.2501000000
2.5083000000 6.8662000000 1.1084000000
2.5080000000 7.0112000000 0.9884000000
2.5075000000 2.4102000000 2.0204000000
2.5073000000 7.6656000000 0.4498000000
2.5070000000 3.1022000000 2.5934000000
2.5066000000 7.0996000000 0.9135000000
2.5065000000 5.6342000000 2.2073000000
2.5063000000 6.2623000000 1.6094000000
2.5059000000 3.3498000000 2.7975000000
2.5053000000 5.1181000000 2.5584000000
2.5052000000 1.4082000000 1.1875000000
2.5048000000 3.4415000000 2.8757000000
2.5047000000 6.3998000000 1.5703000000
2.5043000000 3.4724000000 2.9012000000
2.5040000000 2.3866000000 1.9985000000
2.5038000000 2.5466000000 2.1313000000
2.5034000000 3.6390000000 3.0344000000
2.5031000000 5.5047000000 2.2372000000
2.5030000000 3.9194000000 3.2565000000
2.5028000000 4.7942000000 2.8239000000
2.5026000000 3.9448000000 3.2741000000
2.5025000000 5.4323000000 2.2924000000
2.5023000000 2.7066000000 2.2621000000
2.5022000000 2.2723000000 1.9057000000
2.5018000000 1.7641000000 1.4875000000
2.5014000000 0.2181000000 0.2035000000
2.5011000000 0.7583000000 0.6520000000
2.5006000000 4.9539000000 2.7692000000
2.5003000000 1.2290000000 1.0380000000
2.4996000000 4.0290000000 3.3081000000
2.4993000000 3.1663000000 2.6453000000
2.4989000000 5.5782000000 2.1761000000
2.4986000000 1.7223000000 1.4475000000
2.4974000000 1.9652000000 1.6491000000
2.2630000000 5.6252000000 2.2119000000
2.2618000000 2.4568000000 2.0550000000
2.2608000000 1.2910000000 1.0922000000
2.2601000000 1.9155000000 1.6088000000
2.2596000000 5.9938000000 1.9129000000
2.2591000000 1.6364000000 1.3801000000
2.2586000000 4.7848000000 2.8262000000
2.2582000000 5.4110000000 2.3909000000
2.2578000000 1.4549000000 1.2286000000
2.2576000000 1.2194000000 1.0339000000
2.2573000000 7.8216000000 0.3216000000
2.2571000000 0.3738000000 0.3347000000
2.2568000000 7.6958000000 0.4260000000
2.2567000000 4.1863000000 3.3212000000
2.2565000000 1.3133000000 1.1097000000
2.2563000000 7.3439000000 0.7158000000
2.2560000000 8.0959000000 0.0904000000
2.2557000000 0.6788000000 0.5828000000
2.2555000000 2.8222000000 2.3607000000
2.2550000000 2.9003000000 2.4260000000
2.2546000000 7.2841000000 0.7607000000
2.2543000000 1.7749000000 1.4943000000
2.2540000000 0.1232000000 0.1313000000
2.2538000000 5.6940000000 2.0807000000
2.2536000000 4.5473000000 3.0281000000
2.2534000000 2.7651000000 2.3105000000
2.2531000000 5.6532000000 2.1145000000
2.2529000000 5.8484000000 2.0335000000
2.2527000000 1.4808000000 1.2464000000
2.2524000000 0.0545000000 0.0726000000
2.2523000000 2.9179000000 2.4358000000
2.2520000000 2.5114000000 2.1018000000
2.2515000000 4.9164000000 2.7279000000
2.2512000000 4.0089000000 3.2938000000
2.2508000000 1.3049000000 1.1002000000
2.2505000000 4.7716000000 2.9186000000
2.2501000000 1.4346000000 1.2080000000
2.2487000000 0.7892000000 0.6693000000
2.2483000000 8.0073000000 0.1673000000
2.2478000000 4.5308000000 3.1190000000
2.2460000000 2.2785000000 1.9061000000
2.2428000000 2.2187000000 1.8591000000
2.0118000000 4.0707000000 3.1551000000
2.0102000000 8.0537000000 0.1275000000
2.0094000000 4.7305000000 2.9198000000
2.0090000000 4.4358000000 3.0532000000
2.0088000000 6.2916000000 1.5877000000
2.0085000000 6.5374000000 1.3826000000
2.0080000000 4.9721000000 2.7534000000
2.0077000000 1.7244000000 1.4507000000
2.0070000000 4.4093000000 3.0598000000
2.0066000000 1.6862000000 1.4191000000
2.0064000000 0.9556000000 0.8160000000
2.0060000000 8.2078000000 0.0736000000
2.0057000000 7.3187000000 0.7387000000
2.0055000000 6.0163000000 1.8912000000
2.0052000000 8.2499000000 0.0365000000
2.0044000000 8.1533000000 0.1239000000
2.0040000000 3.5005000000 2.9026000000
2.0037000000 3.1192000000 2.6059000000
2.0035000000 5.2658000000 2.5068000000
2.0032000000 6.0145000000 1.8887000000
2.0030000000 2.9837000000 2.4958000000
2.0026000000 0.1204000000 0.1210000000
2.0024000000 0.8385000000 0.7243000000
2.0023000000 2.1895000000 1.8371000000
2.0020000000 0.9769000000 0.8312000000
2.0017000000 0.1300000000 0.1323000000
2.0014000000 1.2474000000 1.0528000000
2.0011000000 2.3166000000 1.9415000000
2.0009000000 2.7817000000 2.3261000000
2.0006000000 3.6512000000 2.9670000000
2.0003000000 2.6367000000 2.2098000000
2.0001000000 6.9559000000 1.0366000000
1.9996000000 3.3618000000 2.8005000000
1.9993000000 3.2349000000 2.6995000000
1.9990000000 5.1396000000 2.5385000000
1.9976000000 0.9527000000 0.8130000000
1.9968000000 4.9107000000 2.7954000000
1.9964000000 0.8909000000 0.7578000000
1.7657000000 6.5697000000 1.3548000000
1.7622000000 4.0069000000 2.9477000000
1.7612000000 1.7358000000 1.4582000000
1.7605000000 1.4143000000 1.1969000000
1.7598000000 7.8328000000 0.3168000000
1.7587000000 6.2829000000 1.5901000000
1.7585000000 7.0772000000 0.9398000000
1.7580000000 5.2758000000 2.4881000000
1.7577000000 7.4637000000 0.6177000000
1.7573000000 2.8944000000 2.4107000000
1.7569000000 4.0634000000 2.9652000000
1.7564000000 0.3250000000 0.2907000000
1.7560000000 7.4590000000 0.6137000000
1.7558000000 6.1956000000 1.6672000000
1.7553000000 6.7328000000 1.2194000000
1.7551000000 2.6366000000 2.2099000000
1.7547000000 3.3344000000 2.6667000000
1.7545000000 2.2084000000 1.8516000000
1.7544000000 7.4739000000 0.6034000000
1.7542000000 1.3484000000 1.1378000000
1.7540000000 2.0611000000 1.7305000000
1.7536000000 3.0858000000 2.5455000000
1.7534000000 1.6216000000 1.3661000000
1.7533000000 6.7686000000 1.1887000000
1.7530000000 2.0830000000 1.7466000000
1.7525000000 3.1838000000 2.5978000000
1.7521000000 5.1669000000 2.5517000000
1.7520000000 1.4185000000 1.2065000000
1.7518000000 2.4479000000 2.0512000000
1.7510000000 7.0921000000 0.9285000000
1.7504000000 0.6931000000 0.5930000000
1.7500000000 0.1927000000 0.1858000000
1.7495000000 0.3417000000 0.3075000000
1.7491000000 1.9802000000 1.6693000000
1.7481000000 0.2895000000 0.2590000000
1.7478000000 3.3907000000 2.6822000000
1.7449000000 1.9758000000 1.6580000000
1.5120000000 5.3366000000 2.3224000000
1.5103000000 6.3978000000 1.5068000000
1.5091000000 3.1253000000 2.3951000000
1.5087000000 0.4000000000 0.3534000000
1.5084000000 1.5839000000 1.3312000000
1.5081000000 3.7411000000 2.6461000000
1.5078000000 3.3772000000 2.4986000000
1.5068000000 7.6675000000 0.4483000000
1.5065000000 1.9835000000 1.6625000000
1.5063000000 7.4949000000 0.5938000000
1.5062000000 6.5276000000 1.3908000000
1.5060000000 3.1258000000 2.3931000000
1.5057000000 4.8403000000 2.5249000000
1.5056000000 7.9612000000 0.1999000000
1.5054000000 5.6570000000 2.1696000000
1.5053000000 2.0044000000 1.6835000000
1.5050000000 7.9633000000 0.2033000000
1.5049000000 5.0934000000 2.4146000000
1.5048000000 0.7731000000 0.6604000000
1.5046000000 0.9451000000 0.8083000000
1.5045000000 7.7342000000 0.3896000000
1.5042000000 2.5218000000 2.0934000000
1.5040000000 5.1870000000 2.3765000000
1.5039000000 4.4976000000 2.6668000000
1.5038000000 8.0291000000 0.1430000000
1.5036000000 4.0812000000 2.7888000000
1.5034000000 7.3838000000 0.6812000000
1.5031000000 2.4410000000 2.0448000000
1.5030000000 8.2706000000 0.0213000000
1.5028000000 2.5814000000 2.1482000000
1.5025000000 6.0254000000 1.8051000000
1.5022000000 7.8471000000 0.3037000000
1.5020000000 1.2941000000 1.0962000000
1.5016000000 4.8494000000 2.5136000000
1.5014000000 2.0825000000 1.7410000000
1.5013000000 5.6491000000 2.1752000000
1.5010000000 1.8071000000 1.5165000000
1.5008000000 1.3796000000 1.1656000000
1.5006000000 0.6760000000 0.5829000000
1.4998000000 5.6063000000 2.1860000000
1.4994000000 1.7783000000 1.4989000000
1.4993000000 5.3672000000 2.2966000000
1.4988000000 0.7152000000 0.6144000000
1.4980000000 2.0351000000 1.7079000000
1.4972000000 0.4998000000 0.4350000000
1.4966000000 2.4313000000 2.0336000000
1.4949000000 4.7196000000 2.5632000000
1.2619000000 4.8297000000 2.3514000000
1.2595000000 5.6153000000 2.0229000000
1.2587000000 6.7276000000 1.2314000000
1.2583000000 6.3152000000 1.5672000000
1.2578000000 1.9144000000 1.6055000000
1.2575000000 4.8518000000 2.3431000000
1.2572000000 1.9073000000 1.5981000000
1.2570000000 4.4592000000 2.4997000000
1.2568000000 8.2534000000 0.0353000000
1.2565000000 0.0265000000 0.0458000000
1.2563000000 2.7107000000 2.0462000000
1.2562000000 6.4051000000 1.4872000000
1.2557000000 1.2034000000 1.0173000000
1.2554000000 1.0252000000 0.8690000000
1.2552000000 1.3523000000 1.1406000000
1.2550000000 5.0960000000 2.2344000000
1.2547000000 3.9683000000 2.5705000000
1.2543000000 6.9184000000 1.0714000000
1.2539000000 1.5932000000 1.3417000000
1.2538000000 2.0941000000 1.7432000000
1.2533000000 3.7686000000 2.4865000000
1.2532000000 2.5497000000 1.9831000000
1.2528000000 3.0734000000 2.1942000000
1.2525000000 4.1824000000 2.6051000000
1.2523000000 2.2361000000 1.8261000000
1.2521000000 4.2977000000 2.5655000000
1.2519000000 5.9657000000 1.8777000000
1.2516000000 4.1656000000 2.6031000000
1.2513000000 4.4277000000 2.5066000000
1.2510000000 4.2955000000 2.5649000000
1.2508000000 3.3149000000 2.2961000000
1.2505000000 0.5836000000 0.5037000000
1.2499000000 2.8273000000 2.0909000000
1.2496000000 5.6859000000 1.9872000000
1.2492000000 0.7852000000 0.6748000000
1.2484000000 5.0504000000 2.2466000000
1.2473000000 4.3055000000 2.5598000000
1.0132000000 8.1857000000 0.0940000000
1.0113000000 5.2208000000 2.0103000000
1.0109000000 5.0434000000 2.0820000000
1.0100000000 4.7507000000 2.2002000000
1.0095000000 6.2656000000 1.5018000000
1.0092000000 6.5401000000 1.4416000000
1.0082000000 3.1193000000 2.0380000000
1.0079000000 8.0180000000 0.1569000000
1.0073000000 1.4778000000 1.2472000000
1.0070000000 2.9410000000 1.9613000000
1.0067000000 5.5310000000 1.8778000000
1.0065000000 7.4771000000 0.6152000000
1.0062000000 3.0352000000 2.0005000000
1.0059000000 4.9092000000 2.1363000000
1.0057000000 7.3258000000 0.7368000000
1.0053000000 5.1825000000 2.0185000000
1.0051000000 7.2753000000 0.7727000000
1.0049000000 1.0275000000 0.8774000000
1.0046000000 1.2526000000 1.0692000000
1.0041000000 1.3881000000 1.1763000000
1.0038000000 2.8081000000 1.9093000000
1.0035000000 3.0498000000 2.0079000000
1.0033000000 5.7829000000 1.6956000000
1.0032000000 4.2931000000 2.3872000000
1.0030000000 2.1304000000 1.6235000000
1.0027000000 6.7081000000 1.2422000000
1.0026000000 0.7665000000 0.6613000000
1.0018000000 2.0970000000 1.6133000000
1.0017000000 2.5640000000 1.7981000000
1.0013000000 6.2664000000 1.4962000000
1.0010000000 3.2887000000 2.0985000000
1.0006000000 5.4335000000 1.9097000000
1.0003000000 3.9896000000 2.3911000000
0.9999000000 4.4360000000 2.3281000000
0.9995000000 3.3833000000 2.1427000000
0.9990000000 0.2529000000 0.2317000000
0.9989000000 6.8358000000 1.1384000000
0.9984000000 1.5280000000 1.2863000000
0.9956000000 7.8796000000 0.2682000000
0.7652000000 7.5390000000 0.5539000000
0.7629000000 6.7155000000 1.2173000000
0.7627000000 5.8214000000 1.5799000000
0.7610000000 2.7966000000 1.7185000000
0.7601000000 4.9979000000 1.9246000000
0.7593000000 7.5650000000 0.5308000000
0.7588000000 0.8518000000 0.7319000000
0.7585000000 5.5746000000 1.6858000000
0.7584000000 1.7412000000 1.2868000000
0.7576000000 2.7607000000 1.7102000000
0.7573000000 1.1390000000 0.9699000000
0.7571000000 5.9646000000 1.5214000000
0.7569000000 3.5274000000 2.0294000000
0.7566000000 7.4965000000 0.5816000000
0.7562000000 3.5971000000 2.0556000000
0.7559000000 0.6207000000 0.5437000000
0.7552000000 5.1914000000 1.8390000000
0.7550000000 0.7322000000 0.6297000000
0.7546000000 7.0522000000 1.0197000000
0.7542000000 5.9356000000 1.4571000000
0.7538000000 7.4506000000 0.6296000000
0.7535000000 5.9768000000 1.5125000000
0.7532000000 0.5772000000 0.5028000000
0.7524000000 4.6694000000 2.0591000000
0.7521000000 6.2044000000 1.4158000000
0.7517000000 2.3596000000 1.5390000000
0.7514000000 5.9278000000 1.4619000000
0.7511000000 3.2062000000 1.8839000000
0.7508000000 1.7109000000 1.2733000000
0.7503000000 1.6882000000 1.2642000000
0.7499000000 4.7299000000 2.0233000000
0.7487000000 4.9202000000 1.9464000000
0.7475000000 2.9110000000 1.7664000000
0.7462000000 0.6189000000 0.5384000000
0.5141000000 6.4509000000 1.0746000000
0.5104000000 7.1622000000 0.7733000000
0.5102000000 7.9034000000 0.2530000000
0.5098000000 6.5389000000 1.0228000000
0.5094000000 7.5216000000 0.5674000000
0.5086000000 1.3916000000 0.9614000000
0.5085000000 1.9623000000 1.2030000000
0.5080000000 7.1565000000 0.7746000000
0.5078000000 2.3604000000 1.3655000000
0.5076000000 7.1514000000 0.7726000000
0.5072000000 2.2350000000 1.3128000000
0.5068000000 3.7720000000 1.9416000000
0.5066000000 6.6497000000 1.0546000000
0.5065000000 5.3139000000 1.6077000000
0.5063000000 7.6482000000 0.4635000000
0.5060000000 7.2412000000 0.8123000000
0.5055000000 5.3649000000 1.5877000000
0.5053000000 1.2080000000 0.8874000000
0.5052000000 3.4371000000 1.8114000000
0.5050000000 0.0545000000 0.0669000000
0.5049000000 1.6133000000 1.0493000000
0.5047000000 4.9568000000 1.7525000000
0.5045000000 7.2987000000 0.7784000000
0.5044000000 6.6136000000 0.9979000000
0.5041000000 6.0316000000 1.3110000000
0.5039000000 2.8490000000 1.5636000000
0.5037000000 4.0720000000 2.0733000000
0.5035000000 4.9424000000 1.7598000000
0.5034000000 1.7616000000 1.1136000000
0.5030000000 1.1519000000 0.8569000000
0.5029000000 7.8643000000 0.2818000000
0.5026000000 2.1375000000 1.2672000000
0.5023000000 6.1054000000 1.2830000000
0.5018000000 3.3585000000 1.7746000000
0.5015000000 1.3378000000 0.9366000000
0.5013000000 1.2923000000 0.9195000000
0.5012000000 3.3522000000 1.7734000000
0.5007000000 0.9498000000 0.7652000000
0.5007000000 5.8201000000 1.3985000000
0.5002000000 0.8561000000 0.7236000000
0.4999000000 0.8185000000 0.6902000000
0.4996000000 0.0192000000 0.0488000000
0.4985000000 3.7623000000 1.9351000000
0.4973000000 6.9610000000 0.8455000000
0.4961000000 0.5954000000 0.5171000000
0.4911000000 6.9473000000 0.8422000000
0.2619000000 7.9685000000 0.1988000000
0.2608000000 3.0577000000 1.4782000000
0.2604000000 7.8744000000 0.3423000000
0.2595000000 7.7552000000 0.4110000000
0.2588000000 6.2086000000 1.0631000000
0.2587000000 5.7273000000 1.2559000000
0.2583000000 7.0530000000 0.6374000000
0.2580000000 7.4427000000 0.4761000000
0.2577000000 1.9244000000 1.0026000000
0.2575000000 4.0834000000 1.8904000000
0.2570000000 8.0309000000 0.1496000000
0.2568000000 2.8386000000 1.3871000000
0.2563000000 3.5933000000 1.6952000000
0.2559000000 3.0194000000 1.4578000000
0.2557000000 4.1593000000 1.8960000000
0.2554000000 4.5220000000 1.7584000000
0.2553000000 2.7694000000 1.3496000000
0.2550000000 5.9102000000 1.1066000000
0.2548000000 4.6031000000 1.7195000000
0.2544000000 1.9251000000 1.0047000000
0.2540000000 2.9783000000 1.4375000000
0.2537000000 6.5658000000 0.8370000000
0.2534000000 3.8676000000 1.8027000000
0.2532000000 1.5011000000 0.8256000000
0.2530000000 4.4658000000 1.7805000000
0.2528000000 0.4674000000 0.3855000000
0.2524000000 5.8104000000 1.1508000000
0.2522000000 2.0533000000 1.0520000000
0.2518000000 7.2504000000 0.5486000000
0.2513000000 6.8814000000 0.7808000000
0.2511000000 1.8696000000 0.9801000000
0.2509000000 6.9713000000 0.7387000000
0.2508000000 1.4675000000 0.8164000000
0.2503000000 8.0896000000 0.0979000000
0.2495000000 3.8520000000 1.7984000000
0.2491000000 4.1417000000 1.8971000000
0.2484000000 0.3126000000 0.2853000000
0.2467000000 3.4796000000 1.6351000000
0.2460000000 1.8234000000 0.9571000000
0.2442000000 1.4271000000 0.7924000000
0.0098000000 6.2282000000 0.8728000000
0.0095000000 7.8474000000 0.1328000000
0.0091000000 4.3115000000 1.6675000000
0.0084000000 6.7318000000 0.5869000000
0.0082000000 6.5148000000 0.6812000000
0.0075000000 5.3349000000 1.1628000000
0.0069000000 6.0976000000 0.9239000000
0.0064000000 3.5288000000 1.4913000000
0.0055000000 3.0789000000 1.3008000000
0.0055000000 7.7824000000 0.2236000000
0.0053000000 1.2419000000 0.5417000000
0.0052000000 8.2153000000 0.0362000000
0.0049000000 4.0069000000 1.6898000000
0.0047000000 2.6274000000 1.1125000000
0.0043000000 0.4020000000 0.1928000000
0.0040000000 1.4299000000 0.6188000000
0.0038000000 6.4825000000 0.7645000000
0.0036000000 7.0551000000 0.4621000000
0.0035000000 6.2326000000 0.8645000000
0.0031000000 2.3355000000 0.9909000000
0.0028000000 7.8297000000 0.1357000000
0.0025000000 2.1121000000 0.8965000000
0.0023000000 4.2384000000 1.6936000000
0.0021000000 7.4616000000 0.2826000000
0.0019000000 4.8370000000 1.4486000000
0.0017000000 5.6589000000 1.0323000000
0.0014000000 2.2740000000 0.9659000000
0.0012000000 2.2114000000 0.9372000000
0.0009000000 2.1434000000 0.9090000000
0.0005000000 2.0915000000 0.8915000000
-0.0004000000 3.9603000000 1.6618000000
-0.0018000000 0.2194000000 0.1145000000
-0.0035000000 7.1347000000 0.4169000000
-0.2390000000 5.3109000000 1.0746000000
-0.2401000000 2.1168000000 0.7278000000
-0.2405000000 6.1832000000 0.6350000000
-0.2410000000 7.8157000000 0.0395000000
-0.2412000000 6.4528000000 0.5236000000
-0.2416000000 5.2804000000 1.0888000000
-0.2422000000 7.6090000000 0.1250000000
-0.2425000000 2.7702000000 0.9995000000
-0.2429000000 1.9571000000 0.6541000000
-0.2432000000 2.4873000000 0.8802000000
-0.2436000000 4.5772000000 1.3760000000
-0.2438000000 2.9798000000 1.0898000000
-0.2440000000 5.8446000000 0.7786000000
-0.2442000000 2.5649000000 0.9126000000
-0.2445000000 1.3015000000 0.3879000000
-0.2446000000 1.2006000000 0.3485000000
-0.2450000000 4.3993000000 1.4553000000
-0.2451000000 1.6720000000 0.5406000000
-0.2452000000 6.0855000000 0.7529000000
-0.2455000000 0.8197000000 0.1854000000
-0.2458000000 0.3200000000 0.0579000000
-0.2460000000 0.3855000000 0.0815000000
-0.2462000000 7.9945000000 0.0413000000
-0.2466000000 2.9179000000 1.0553000000
-0.2467000000 1.5567000000 0.4919000000
-0.2470000000 7.5293000000 0.0759000000
-0.2471000000 5.1815000000 1.1280000000
-0.2473000000 0.7482000000 0.1535000000
-0.2476000000 7.1306000000 0.2365000000
-0.2480000000 1.7433000000 0.5647000000
-0.2484000000 3.4917000000 1.2882000000
-0.2487000000 3.6073000000 1.3367000000
-0.2493000000 6.0254000000 0.7756000000
-0.2496000000 7.6144000000 0.1187000000
-0.2503000000 5.2778000000 1.0861000000
-0.2514000000 2.8646000000 1.0283000000
-0.2524000000 7.7084000000 0.0755000000
-0.2542000000 1.8772000000 0.6177000000
-0.4862000000 6.4101000000 0.3691000000
-0.4896000000 1.7504000000 0.3997000000
-0.4908000000 7.2963000000 0.0730000000
-0.4913000000 7.2446000000 0.0956000000
-0.4917000000 6.0755000000 0.5063000000
-0.4921000000 1.1280000000 0.1411000000
-0.4927000000 3.6672000000 1.1850000000
-0.4931000000 5.1941000000 0.9414000000
-0.4932000000 5.0925000000 0.9860000000
-0.4936000000 1.8403000000 0.4322000000
-0.4939000000 4.9930000000 0.9505000000
-0.4941000000 4.4687000000 1.2407000000
-0.4947000000 7.4908000000 0.0659000000
-0.4950000000 6.9525000000 0.1371000000
-0.4953000000 3.0126000000 0.9086000000
-0.4955000000 5.7201000000 0.6529000000
-0.4958000000 7.3056000000 0.0673000000
-0.4965000000 5.2482000000 0.9215000000
-0.4967000000 2.6674000000 0.7719000000
-0.4969000000 4.1582000000 1.3544000000
-0.4970000000 6.3027000000 0.4023000000
-0.4974000000 0.8820000000 0.0310000000
-0.4976000000 2.7170000000 0.7912000000
-0.4982000000 5.1566000000 0.8804000000
-0.4985000000 2.4867000000 0.6969000000
-0.4989000000 5.1565000000 0.9504000000
-0.4994000000 1.1921000000 0.1568000000
-0.4998000000 2.4769000000 0.6916000000
-0.5003000000 4.8958000000 1.0641000000
-0.5006000000 2.2445000000 0.5989000000
-0.5017000000 6.0682000000 0.4920000000
-0.5033000000 0.7771000000 0.0610000000
-0.5064000000 3.7075000000 1.1903000000
-0.7408000000 5.0044000000 0.8428000000
-0.7414000000 6.6685000000 0.0820000000
-0.7416000000 6.7243000000 0.0580000000
-0.7420000000 3.9837000000 1.1424000000
-0.7422000000 6.0628000000 0.4028000000
-0.7424000000 3.6488000000 1.0028000000
-0.7432000000 6.4388000000 0.1725000000
-0.7443000000 4.6731000000 0.9815000000
-0.7448000000 2.9325000000 0.7052000000
-0.7453000000 2.5236000000 0.5324000000
-0.7455000000 4.6251000000 0.9984000000
-0.7457000000 2.3621000000 0.4713000000
-0.7462000000 3.3360000000 0.8734000000
-0.7469000000 4.1472000000 1.1804000000
-0.7471000000 5.1812000000 0.6888000000
-0.7473000000 3.6379000000 0.9948000000
-0.7476000000 6.9534000000 0.0319000000
-0.7484000000 5.6266000000 0.5804000000
-0.7487000000 2.7790000000 0.6382000000
-0.7490000000 1.3174000000 0.0331000000
-0.7492000000 1.3781000000 0.0534000000
-0.7496000000 3.4480000000 0.9151000000
-0.7505000000 2.7480000000 0.6241000000
-0.7512000000 3.7913000000 1.0607000000
-0.7519000000 1.2021000000 0.0560000000
-0.7533000000 2.4812000000 0.5091000000
-0.9840000000 5.4456000000 0.4136000000
-0.9875000000 6.4432000000 0.0762000000
-0.9898000000 5.9642000000 0.1979000000
-0.9909000000 3.5423000000 0.7833000000
-0.9915000000 2.5870000000 0.3872000000
-0.9920000000 2.6089000000 0.3934000000
-0.9922000000 1.4894000000 0.0050000000
-0.9923000000 6.6921000000 0.0391000000
-0.9930000000 3.8676000000 0.9178000000
-0.9942000000 6.3036000000 0.1272000000
-0.9946000000 4.5188000000 0.8650000000
-0.9951000000 3.5665000000 0.7825000000
-0.9955000000 4.8384000000 0.7282000000
-0.9958000000 3.2507000000 0.6607000000
-0.9961000000 3.9603000000 0.9508000000
-0.9966000000 3.7434000000 0.8587000000
-0.9974000000 4.5751000000 0.8345000000
-0.9980000000 5.7262000000 0.2914000000
-0.9983000000 2.8151000000 0.4736000000
-0.9986000000 3.0348000000 0.5638000000
-0.9991000000 3.6805000000 0.8334000000
-0.9999000000 5.8554000000 0.3084000000
-1.0010000000 5.4869000000 0.3862000000
-1.0032000000 2.6636000000 0.4051000000
-1.2380000000 5.2664000000 0.3048000000
-1.2399000000 2.1275000000 0.0911000000
-1.2402000000 3.5024000000 0.5835000000
-1.2406000000 5.5535000000 0.2594000000
-1.2417000000 4.8992000000 0.4532000000
-1.2428000000 3.8376000000 0.7200000000
-1.2439000000 6.1698000000 -0.0025000000
-1.2443000000 2.6362000000 0.2252000000
-1.2449000000 6.2645000000 0.0352000000
-1.2454000000 3.6747000000 0.6516000000
-1.2458000000 4.8803000000 0.5378000000
-1.2461000000 5.5728000000 0.1669000000
-1.2465000000 3.7825000000 0.6963000000
-1.2468000000 2.8145000000 0.2950000000
-1.2472000000 4.5824000000 0.6595000000
-1.2480000000 4.5929000000 0.5735000000
-1.2481000000 3.5418000000 0.5910000000
-1.2483000000 5.1685000000 0.3397000000
-1.2487000000 5.4735000000 0.2880000000
-1.2497000000 3.2768000000 0.4830000000
-1.2499000000 2.9067000000 0.3329000000
-1.2512000000 4.3826000000 0.7360000000
-1.2520000000 3.1711000000 0.4388000000
-1.2526000000 3.6508000000 0.6353000000
-1.2537000000 2.6078000000 0.2052000000
-1.4896000000 4.7845000000 0.3262000000
-1.4915000000 4.2142000000 0.6354000000
-1.4925000000 4.3047000000 0.5940000000
-1.4930000000 5.4444000000 0.1314000000
-1.4935000000 4.4708000000 0.5264000000
-1.4940000000 4.9645000000 0.3232000000
-1.4947000000 2.7405000000 0.0922000000
-1.4955000000 5.8353000000 0.0370000000
-1.4962000000 5.0842000000 0.2724000000
-1.4968000000 3.2377000000 0.2910000000
-1.4972000000 4.5187000000 0.4988000000
-1.4979000000 4.6460000000 0.3750000000
-1.4984000000 4.0496000000 0.6215000000
-1.4990000000 3.9827000000 0.6019000000
-1.4997000000 3.2549000000 0.2940000000
-1.5000000000 5.0726000000 0.1946000000
-1.5020000000 5.2638000000 0.1191000000
-1.7371000000 4.5638000000 0.3117000000
-1.7409000000 5.3875000000 0.0481000000
-1.7419000000 4.5916000000 0.3000000000
-1.7432000000 3.9035000000 0.3889000000
-1.7437000000 3.8505000000 0.3640000000
-1.7448000000 2.8154000000 0.0088000000
-1.7454000000 3.2808000000 0.1301000000
-1.7458000000 4.3589000000 0.3891000000
-1.7462000000 3.9192000000 0.3964000000
-1.7465000000 4.5748000000 0.3003000000
-1.7467000000 3.1836000000 0.0916000000
-1.7472000000 3.5820000000 0.2550000000
-1.7481000000 3.7872000000 0.3313000000
-1.7490000000 4.0121000000 0.4301000000
-1.7508000000 3.9316000000 0.4008000000
-1.7516000000 3.8192000000 0.3474000000
-1.9898000000 4.1988000000 0.2113000000
-1.9912000000 4.9401000000 0.0521000000
-1.9933000000 3.3222000000 0.0423000000
-1.9951000000 3.4847000000 0.0350000000
-1.9961000000 4.0241000000 0.2584000000
-1.9971000000 4.7253000000 0.0577000000
-1.9985000000 3.5195000000 0.0503000000
-1.9997000000 3.3879000000 0.0655000000
