5.5064000000 3.1156000000 0.0643000000
5.5030000000 2.8885000000 0.0190000000
5.4986000000 2.9325000000 0.0452000000
5.2622000000 3.8798000000 0.0619000000
5.2575000000 3.1103000000 0.2329000000
5.2565000000 3.4603000000 0.1577000000
5.2562000000 3.1847000000 0.2548000000
5.2551000000 2.9633000000 0.1513000000
5.2529000000 3.8241000000 0.0255000000
5.2526000000 3.2748000000 0.2642000000
5.2521000000 3.3525000000 0.2223000000
5.2507000000 2.6644000000 0.0655000000
5.2458000000 3.7560000000 0.0716000000
5.0118000000 4.0339000000 0.0706000000
5.0095000000 4.0899000000 0.1164000000
5.0088000000 2.4638000000 0.1096000000
5.0083000000 2.4817000000 0.1205000000
5.0072000000 4.0099000000 0.0864000000
5.0060000000 2.8251000000 0.3230000000
5.0055000000 3.4706000000 0.4011000000
5.0053000000 2.5750000000 0.1766000000
5.0048000000 3.3952000000 0.4358000000
5.0043000000 3.2601000000 0.5020000000
5.0040000000 2.0352000000 0.0216000000
5.0036000000 4.1424000000 0.0938000000
5.0034000000 2.1849000000 0.0353000000
5.0031000000 3.3934000000 0.4407000000
5.0016000000 2.0752000000 0.0463000000
4.9987000000 4.4084000000 0.0214000000
4.7618000000 2.8266000000 0.5640000000
4.7605000000 4.4936000000 0.0520000000
4.7604000000 4.7491000000 0.0599000000
4.7595000000 1.9831000000 0.0863000000
4.7590000000 4.0472000000 0.3117000000
4.7589000000 4.6615000000 0.0390000000
4.7586000000 4.6507000000 0.0435000000
4.7583000000 4.2335000000 0.2125000000
4.7574000000 4.2816000000 0.1802000000
4.7572000000 3.9702000000 0.3583000000
4.7566000000 3.1094000000 0.7307000000
4.7561000000 1.7929000000 0.0532000000
4.7560000000 1.8168000000 0.0651000000
4.7553000000 4.6481000000 0.0529000000
4.7544000000 2.9868000000 0.6640000000
4.7539000000 2.2129000000 0.2199000000
4.7537000000 2.8383000000 0.5730000000
4.7531000000 3.1583000000 0.7551000000
4.7524000000 1.7317000000 0.0943000000
4.7516000000 2.2572000000 0.2445000000
4.7515000000 3.4798000000 0.6373000000
4.7511000000 4.0296000000 0.3285000000
4.7508000000 1.6487000000 0.0533000000
4.7498000000 1.9421000000 0.0692000000
4.7493000000 4.0210000000 0.3341000000
4.7485000000 3.8348000000 0.4439000000
4.7466000000 1.7510000000 0.0402000000
4.5114000000 2.5967000000 0.6736000000
4.5113000000 2.1328000000 0.4159000000
4.5103000000 2.1876000000 0.4443000000
4.5096000000 3.5137000000 0.8608000000
4.5092000000 3.6047000000 0.8042000000
4.5089000000 5.0252000000 0.0731000000
4.5085000000 5.1839000000 0.0673000000
4.5082000000 3.3350000000 0.9694000000
4.5073000000 2.0227000000 0.3535000000
4.5071000000 4.2601000000 0.4360000000
4.5068000000 1.7028000000 0.1761000000
4.5063000000 1.8989000000 0.2833000000
4.5058000000 5.2866000000 0.0134000000
4.5056000000 2.3213000000 0.5277000000
4.5050000000 4.2177000000 0.4631000000
4.5048000000 4.0033000000 0.5894000000
4.5045000000 3.7771000000 0.7196000000
4.5044000000 2.9977000000 0.9106000000
4.5040000000 3.6833000000 0.7704000000
4.5038000000 4.2743000000 0.4385000000
4.5032000000 2.7207000000 0.7576000000
4.5030000000 4.7497000000 0.1660000000
4.5020000000 3.4385000000 0.9164000000
4.5014000000 2.3548000000 0.5477000000
4.5012000000 3.5834000000 0.8316000000
4.5005000000 4.5601000000 0.2781000000
4.5004000000 3.3581000000 0.9592000000
4.4992000000 2.9999000000 0.9200000000
4.4985000000 3.8067000000 0.7097000000
4.4958000000 4.4247000000 0.3576000000
4.4948000000 3.0079000000 0.9328000000
4.2619000000 4.1511000000 0.7368000000
4.2613000000 3.9474000000 0.8563000000
4.2604000000 4.3522000000 0.6303000000
4.2600000000 1.6460000000 0.3818000000
4.2597000000 4.0038000000 0.8325000000
4.2596000000 3.2017000000 1.2519000000
4.2590000000 4.4229000000 0.5942000000
4.2586000000 1.9211000000 0.5386000000
4.2580000000 5.1979000000 0.1515000000
4.2577000000 4.3522000000 0.6344000000
4.2576000000 3.4637000000 1.1358000000
4.2568000000 4.3924000000 0.6160000000
4.2564000000 5.4663000000 0.0756000000
4.2561000000 0.7937000000 0.0533000000
4.2559000000 5.2992000000 0.0942000000
4.2554000000 4.4906000000 0.5537000000
4.2552000000 3.8118000000 0.9380000000
4.2548000000 2.0387000000 0.6139000000
4.2546000000 4.7903000000 0.3874000000
4.2545000000 2.4900000000 0.8662000000
4.2543000000 0.9002000000 0.0448000000
4.2542000000 4.9135000000 0.3215000000
4.2537000000 4.3711000000 0.6310000000
4.2534000000 2.9689000000 1.1420000000
4.2533000000 4.4304000000 0.5952000000
4.2529000000 1.1122000000 0.0902000000
4.2528000000 1.0275000000 0.1199000000
4.2527000000 2.7671000000 1.0180000000
4.2523000000 1.3627000000 0.2314000000
4.2523000000 0.7648000000 0.0390000000
4.2521000000 1.8556000000 0.5136000000
4.2520000000 1.6322000000 0.3843000000
4.2515000000 1.8428000000 0.4982000000
4.2513000000 2.3040000000 0.7714000000
4.2509000000 2.3360000000 0.7827000000
4.2500000000 1.0320000000 0.1183000000
4.2496000000 5.5083000000 0.0594000000
4.2494000000 3.9685000000 0.8594000000
4.2490000000 3.2014000000 1.2588000000
4.2485000000 2.7824000000 1.0456000000
4.2475000000 5.2445000000 0.1359000000
4.2471000000 0.7239000000 0.0225000000
4.2433000000 0.6844000000 0.0024000000
4.0120000000 1.3931000000 0.4835000000
4.0110000000 0.9751000000 0.2444000000
4.0099000000 6.0412000000 0.0666000000
4.0091000000 2.8634000000 1.3235000000
4.0090000000 1.7839000000 0.7054000000
4.0083000000 5.2898000000 0.3433000000
4.0080000000 5.1536000000 0.4304000000
4.0078000000 5.8821000000 0.0854000000
4.0075000000 5.9309000000 0.0511000000
4.0073000000 1.0267000000 0.2829000000
4.0072000000 2.9785000000 1.3907000000
4.0069000000 4.8992000000 0.5750000000
4.0067000000 1.9014000000 0.7786000000
4.0064000000 2.3247000000 1.0185000000
4.0060000000 3.7504000000 1.2221000000
4.0058000000 1.9671000000 0.8131000000
4.0052000000 3.4150000000 1.4114000000
4.0050000000 1.9483000000 0.8107000000
4.0048000000 1.3035000000 0.4373000000
4.0043000000 4.3785000000 0.8649000000
4.0040000000 5.1995000000 0.4043000000
4.0038000000 1.5243000000 0.5714000000
4.0036000000 5.0889000000 0.4646000000
4.0034000000 3.4690000000 1.3830000000
4.0030000000 2.4410000000 1.0864000000
4.0029000000 0.5236000000 0.0732000000
4.0028000000 0.5993000000 0.1143000000
4.0023000000 0.6764000000 0.0870000000
4.0020000000 1.7616000000 0.7038000000
4.0019000000 4.4538000000 0.8221000000
4.0018000000 0.7177000000 0.1120000000
4.0015000000 5.9548000000 0.0500000000
4.0012000000 4.4240000000 0.8443000000
4.0011000000 3.8642000000 1.1669000000
4.0007000000 1.2630000000 0.4224000000
4.0005000000 4.5237000000 0.7886000000
4.0002000000 0.6258000000 0.0581000000
3.9994000000 1.1954000000 0.3852000000
3.9981000000 4.1514000000 1.0015000000
3.9975000000 4.6593000000 0.7119000000
3.9963000000 3.1202000000 1.4821000000
3.7630000000 3.2642000000 1.7284000000
3.7617000000 3.7388000000 1.4706000000
3.7608000000 4.0689000000 1.2814000000
3.7601000000 5.0445000000 0.7272000000
3.7597000000 5.5494000000 0.4389000000
3.7593000000 5.9789000000 0.1984000000
3.7587000000 5.5752000000 0.4246000000
3.7583000000 6.1469000000 0.1137000000
3.7580000000 0.9788000000 0.4932000000
3.7578000000 5.5774000000 0.4306000000
3.7574000000 1.6438000000 0.8805000000
3.7573000000 4.1326000000 1.2513000000
3.7570000000 5.8918000000 0.2521000000
3.7568000000 5.9667000000 0.2071000000
3.7565000000 5.4911000000 0.4776000000
3.7564000000 1.8196000000 0.9827000000
3.7560000000 4.1326000000 1.2542000000
3.7558000000 4.7128000000 0.9238000000
3.7556000000 1.4086000000 0.7435000000
3.7554000000 4.7827000000 0.8803000000
3.7551000000 2.1188000000 1.1456000000
3.7548000000 2.7029000000 1.4854000000
3.7545000000 0.9294000000 0.4663000000
3.7543000000 5.9355000000 0.2344000000
3.7540000000 4.3049000000 1.1637000000
3.7539000000 2.7976000000 1.5349000000
3.7538000000 5.7978000000 0.3125000000
3.7535000000 3.7230000000 1.4875000000
3.7534000000 0.3313000000 0.1332000000
3.7532000000 3.2838000000 1.7373000000
3.7531000000 3.7765000000 1.4640000000
3.7529000000 4.1305000000 1.2549000000
3.7526000000 0.7164000000 0.3525000000
3.7524000000 5.9653000000 0.2138000000
3.7523000000 3.7143000000 1.4926000000
3.7520000000 0.8017000000 0.4033000000
3.7519000000 4.8386000000 0.8565000000
3.7515000000 6.3195000000 0.0824000000
3.7513000000 2.8501000000 1.5669000000
3.7508000000 3.7669000000 1.4601000000
3.7504000000 1.1419000000 0.5981000000
3.7499000000 1.7824000000 0.9634000000
3.7492000000 1.6643000000 0.8954000000
3.7482000000 1.9883000000 1.0825000000
3.7470000000 4.6168000000 0.9843000000
3.7467000000 3.1936000000 1.7556000000
3.7463000000 0.0594000000 0.0573000000
3.7439000000 3.2550000000 1.7421000000
3.5131000000 0.5899000000 0.5237000000
3.5117000000 0.7672000000 0.6208000000
3.5102000000 3.3166000000 1.9519000000
3.5099000000 6.2931000000 0.1504000000
3.5098000000 5.6114000000 0.6516000000
3.5097000000 0.3041000000 0.3168000000
3.5088000000 2.8479000000 1.8025000000
3.5084000000 5.6438000000 0.6386000000
3.5079000000 4.6844000000 1.1839000000
3.5076000000 2.2748000000 1.4839000000
3.5073000000 3.6447000000 1.7762000000
3.5068000000 4.2518000000 1.4338000000
3.5067000000 4.7920000000 1.1311000000
3.5066000000 2.4185000000 1.5592000000
3.5064000000 6.1849000000 0.2698000000
3.5058000000 3.6845000000 1.7547000000
3.5058000000 2.1550000000 1.4137000000
3.5053000000 1.6274000000 1.1110000000
3.5053000000 6.0446000000 0.3928000000
3.5051000000 5.1841000000 0.9019000000
3.5050000000 6.2132000000 0.2378000000
3.5046000000 1.5226000000 1.0602000000
3.5044000000 4.1713000000 1.4822000000
3.5043000000 3.9443000000 1.6085000000
3.5041000000 6.2856000000 0.1525000000
3.5038000000 2.7965000000 1.7761000000
3.5037000000 1.4121000000 0.9907000000
3.5035000000 2.1609000000 1.4173000000
3.5035000000 0.4139000000 0.4089000000
3.5033000000 0.6884000000 0.5784000000
3.5030000000 2.2167000000 1.4509000000
3.5028000000 1.8114000000 1.2244000000
3.5024000000 4.7124000000 1.1678000000
3.5021000000 1.6264000000 1.1146000000
3.5019000000 5.7359000000 0.5939000000
3.5016000000 3.7392000000 1.7245000000
3.5010000000 4.7771000000 1.1378000000
3.5008000000 3.5704000000 1.8182000000
3.5005000000 5.3656000000 0.8037000000
3.5002000000 3.2104000000 2.0035000000
3.4998000000 1.4591000000 1.0198000000
3.4996000000 2.0548000000 1.3643000000
3.4994000000 1.8934000000 1.2760000000
3.4990000000 0.1962000000 0.2125000000
3.4986000000 0.4524000000 0.4325000000
3.4978000000 6.0185000000 0.4181000000
3.4969000000 4.8052000000 1.1235000000
3.4937000000 2.6487000000 1.7073000000
3.2638000000 3.0149000000 2.1404000000
3.2613000000 4.3778000000 1.6004000000
3.2605000000 2.2235000000 1.6961000000
3.2599000000 1.5571000000 1.3167000000
3.2596000000 6.1225000000 0.3374000000
3.2592000000 6.2231000000 0.2307000000
3.2589000000 0.2673000000 0.2895000000
3.2587000000 1.0772000000 1.0491000000
3.2579000000 5.6614000000 0.8465000000
3.2576000000 2.6023000000 1.9196000000
3.2574000000 2.4642000000 1.8310000000
3.2573000000 4.4812000000 1.5486000000
3.2569000000 5.9389000000 0.5525000000
3.2567000000 2.4164000000 1.8107000000
3.2562000000 0.3900000000 0.4303000000
3.2560000000 4.6431000000 1.4566000000
3.2558000000 0.3445000000 0.3771000000
3.2555000000 2.3470000000 1.7742000000
3.2553000000 3.9276000000 1.8644000000
3.2551000000 0.7910000000 0.8651000000
3.2550000000 4.8906000000 1.3155000000
3.2546000000 3.0935000000 2.1962000000
3.2545000000 4.6022000000 1.4764000000
3.2543000000 2.0009000000 1.5792000000
3.2542000000 4.1533000000 1.7390000000
3.2539000000 0.6465000000 0.7219000000
3.2538000000 4.0240000000 1.8049000000
3.2536000000 4.8718000000 1.3230000000
3.2533000000 5.2835000000 1.0946000000
3.2530000000 3.9344000000 1.8620000000
3.2529000000 0.0638000000 0.0582000000
3.2525000000 2.8666000000 2.0710000000
3.2523000000 5.4356000000 1.0132000000
3.2523000000 1.6323000000 1.3646000000
3.2520000000 0.2429000000 0.2641000000
3.2518000000 1.8769000000 1.5021000000
3.2519000000 2.8165000000 2.0416000000
3.2515000000 5.7650000000 0.7483000000
3.2513000000 4.7360000000 1.4062000000
3.2511000000 5.0332000000 1.2389000000
3.2507000000 0.0403000000 0.1044000000
3.2502000000 1.6516000000 1.3789000000
3.2498000000 3.8633000000 1.9045000000
3.2495000000 2.1182000000 1.6460000000
3.2488000000 4.9915000000 1.2588000000
3.2483000000 0.8578000000 0.9127000000
3.2470000000 0.5550000000 0.6174000000
3.2459000000 2.5741000000 1.9133000000
3.0152000000 5.6375000000 0.8933000000
3.0122000000 0.6694000000 0.7529000000
3.0112000000 1.3102000000 1.4068000000
3.0103000000 4.3226000000 1.8845000000
3.0097000000 3.6627000000 2.2492000000
3.0088000000 4.8323000000 1.5891000000
3.0083000000 0.9411000000 1.0564000000
3.0082000000 0.9361000000 1.0483000000
3.0079000000 2.8968000000 2.3264000000
3.0077000000 1.9037000000 1.7615000000
3.0074000000 4.2078000000 1.9437000000
3.0073000000 2.0040000000 1.8204000000
3.0070000000 0.6998000000 0.7850000000
3.0066000000 0.1927000000 0.2082000000
3.0064000000 1.8069000000 1.7139000000
3.0063000000 5.9006000000 0.5962000000
3.0060000000 2.8663000000 2.3122000000
3.0058000000 1.9303000000 1.7832000000
3.0055000000 2.7196000000 2.2251000000
3.0053000000 4.2357000000 1.9327000000
3.0053000000 5.2404000000 1.3251000000
3.0051000000 6.4111000000 0.0866000000
3.0049000000 5.7551000000 0.7602000000
3.0047000000 2.7177000000 2.2332000000
3.0045000000 0.8373000000 0.9414000000
3.0043000000 3.8502000000 2.1484000000
3.0041000000 4.5135000000 1.7772000000
3.0039000000 4.7792000000 1.6270000000
3.0038000000 4.9847000000 1.5123000000
3.0035000000 2.6105000000 2.1660000000
3.0032000000 3.0731000000 2.4320000000
3.0026000000 2.9937000000 2.3904000000
3.0023000000 2.3890000000 2.0482000000
3.0022000000 3.8725000000 2.1388000000
3.0020000000 5.5214000000 1.0242000000
3.0019000000 4.1277000000 1.9976000000
3.0017000000 1.4042000000 1.4775000000
3.0014000000 1.2538000000 1.3803000000
3.0011000000 1.1195000000 1.2521000000
3.0006000000 4.8235000000 1.6018000000
3.0005000000 1.3620000000 1.4643000000
3.0001000000 1.5058000000 1.5434000000
2.9998000000 2.8118000000 2.2858000000
2.9987000000 2.0191000000 1.8399000000
2.9985000000 1.8653000000 1.7500000000
2.9978000000 1.1895000000 1.3199000000
2.9968000000 5.6636000000 0.8614000000
2.7614000000 5.2145000000 1.3705000000
2.7605000000 4.8384000000 1.7774000000
2.7592000000 6.3560000000 0.0727000000
2.7587000000 3.4179000000 2.6462000000
2.7583000000 5.4072000000 1.1521000000
2.7576000000 5.6813000000 0.8379000000
2.7570000000 4.9467000000 1.6767000000
2.7569000000 1.2509000000 1.4042000000
2.7568000000 2.7044000000 2.4679000000
2.7566000000 6.1794000000 0.2763000000
2.7565000000 2.9064000000 2.5810000000
2.7563000000 1.5607000000 1.7473000000
2.7560000000 4.6036000000 1.9704000000
2.7559000000 5.9011000000 0.5947000000
2.7557000000 1.9335000000 2.0355000000
2.7555000000 1.0827000000 1.2098000000
2.7553000000 5.8780000000 0.6228000000
2.7553000000 5.2246000000 1.3631000000
2.7548000000 2.0330000000 2.0855000000
2.7546000000 5.2150000000 1.3724000000
2.7544000000 0.7341000000 0.8247000000
2.7543000000 3.1563000000 2.7232000000
2.7540000000 4.3495000000 2.1154000000
2.7538000000 4.3274000000 2.1302000000
2.7535000000 1.4888000000 1.6778000000
2.7533000000 1.0659000000 1.2023000000
2.7530000000 0.3931000000 0.4329000000
2.7529000000 6.2360000000 0.2138000000
2.7527000000 4.3455000000 2.1227000000
2.7526000000 0.7437000000 0.8305000000
2.7523000000 1.5211000000 1.7150000000
2.7522000000 0.2942000000 0.3295000000
2.7520000000 3.4945000000 2.6052000000
2.7518000000 1.8592000000 1.9955000000
2.7512000000 4.6846000000 1.9150000000
2.7510000000 0.9015000000 1.0071000000
2.7509000000 2.1478000000 2.1534000000
2.7507000000 0.6062000000 0.6736000000
2.7505000000 4.2525000000 2.1755000000
2.7503000000 2.5941000000 2.4120000000
2.7499000000 0.5269000000 0.5829000000
2.7497000000 5.4130000000 1.1487000000
2.7493000000 2.4301000000 2.3230000000
2.7490000000 2.2582000000 2.2221000000
2.7486000000 1.9376000000 2.0418000000
2.7458000000 0.2225000000 0.2417000000
2.5105000000 4.8866000000 1.7478000000
2.5100000000 4.3596000000 2.3300000000
2.5095000000 5.1652000000 1.4256000000
2.5093000000 3.7860000000 2.6773000000
2.5088000000 5.8943000000 0.5994000000
2.5087000000 4.9605000000 1.6624000000
2.5081000000 3.5548000000 2.8129000000
2.5079000000 6.3130000000 0.1246000000
2.5074000000 2.4222000000 2.5483000000
2.5070000000 2.2020000000 2.4243000000
2.5068000000 6.1505000000 0.3089000000
2.5066000000 3.3186000000 2.9489000000
2.5065000000 4.0802000000 2.5151000000
2.5061000000 0.1692000000 0.1792000000
2.5057000000 0.9313000000 1.0431000000
2.5053000000 3.7430000000 2.7072000000
2.5051000000 0.2170000000 0.2350000000
2.5050000000 3.6600000000 2.7509000000
2.5046000000 6.0940000000 0.3663000000
2.5045000000 4.9945000000 1.6265000000
2.5042000000 1.4693000000 1.6589000000
2.5039000000 4.5642000000 2.1119000000
2.5037000000 4.4226000000 2.2548000000
2.5034000000 5.0156000000 1.6006000000
2.5025000000 0.1754000000 0.1857000000
2.5021000000 4.4109000000 2.2689000000
2.5016000000 0.2112000000 0.2319000000
2.5014000000 0.2957000000 0.3221000000
2.5013000000 2.2527000000 2.4583000000
2.5011000000 3.8264000000 2.6613000000
2.5000000000 3.3513000000 2.9321000000
2.4995000000 3.5777000000 2.8031000000
2.4990000000 2.2212000000 2.4474000000
2.4985000000 1.2398000000 1.3970000000
2.4986000000 1.0653000000 1.1972000000
2.4980000000 1.2010000000 1.3518000000
2.4973000000 6.2337000000 0.2140000000
2.4968000000 0.9154000000 1.0282000000
2.4952000000 1.4888000000 1.6819000000
2.2608000000 5.4786000000 1.0683000000
2.2596000000 6.1481000000 0.3030000000
2.2588000000 6.3121000000 0.1283000000
2.2585000000 6.4257000000 0.0701000000
2.2585000000 3.2541000000 3.2077000000
2.2583000000 2.0793000000 2.3509000000
2.2580000000 5.4682000000 1.0818000000
2.2579000000 5.9956000000 0.4865000000
2.2578000000 4.6432000000 2.0226000000
2.2574000000 4.3773000000 2.3217000000
2.2570000000 4.4876000000 2.1989000000
2.2568000000 5.8999000000 0.5972000000
2.2565000000 5.9422000000 0.5428000000
2.2561000000 5.4989000000 1.0553000000
2.2561000000 5.3651000000 1.1977000000
2.2559000000 2.5504000000 2.8505000000
2.2557000000 2.4744000000 2.7836000000
2.2554000000 3.6608000000 2.9983000000
2.2553000000 3.5650000000 3.0525000000
2.2552000000 6.0777000000 0.3938000000
2.2549000000 5.7965000000 0.7123000000
2.2547000000 5.9587000000 0.5285000000
2.2545000000 0.3013000000 0.3281000000
2.2541000000 5.4936000000 1.0554000000
2.2540000000 2.2093000000 2.5009000000
2.2539000000 4.4266000000 2.2673000000
2.2538000000 6.1557000000 0.3005000000
2.2536000000 5.4554000000 1.0965000000
2.2535000000 3.7302000000 2.9548000000
2.2533000000 3.0447000000 3.1542000000
2.2531000000 5.8535000000 0.6455000000
2.2530000000 5.1050000000 1.4974000000
2.2528000000 1.6730000000 1.8871000000
2.2525000000 4.2562000000 2.4569000000
2.2523000000 0.4219000000 0.4658000000
2.2519000000 4.7193000000 1.9395000000
2.2517000000 2.2170000000 2.5001000000
2.2516000000 3.5317000000 3.0793000000
2.2515000000 4.5876000000 2.0785000000
2.2512000000 0.5365000000 0.6005000000
2.2508000000 1.5723000000 1.7756000000
2.2505000000 2.2090000000 2.4941000000
2.2495000000 4.2454000000 2.4727000000
2.2491000000 4.3360000000 2.3647000000
2.2485000000 0.3430000000 0.3747000000
2.2483000000 2.2334000000 2.5219000000
2.2471000000 1.4848000000 1.6729000000
2.2463000000 5.1171000000 1.4814000000
2.2458000000 2.6601000000 2.9476000000
2.0132000000 2.8338000000 3.2000000000
2.0115000000 6.0000000000 0.4776000000
2.0110000000 4.9286000000 1.6963000000
2.0096000000 5.2398000000 1.3461000000
2.0090000000 5.9005000000 0.5891000000
2.0086000000 4.2514000000 2.4703000000
2.0083000000 3.7861000000 3.0004000000
2.0081000000 0.4126000000 0.4565000000
2.0080000000 5.7063000000 0.8131000000
2.0079000000 2.0556000000 2.3237000000
2.0077000000 4.6987000000 1.9506000000
2.0073000000 3.8798000000 2.8895000000
2.0071000000 2.3041000000 2.6057000000
2.0067000000 2.3611000000 2.6656000000
2.0064000000 6.0375000000 0.4314000000
2.0062000000 1.0154000000 1.1377000000
2.0060000000 5.3867000000 1.1754000000
2.0055000000 2.6101000000 2.9493000000
2.0051000000 5.4469000000 1.1114000000
2.0049000000 5.6456000000 0.8792000000
2.0046000000 2.1240000000 2.4042000000
2.0043000000 5.7824000000 0.7252000000
2.0042000000 3.4588000000 3.3406000000
2.0041000000 4.0631000000 2.6793000000
2.0038000000 1.9465000000 2.1956000000
2.0036000000 4.2686000000 2.4455000000
2.0035000000 5.3334000000 1.2395000000
2.0034000000 5.7981000000 0.7066000000
2.0032000000 1.2949000000 1.4628000000
2.0031000000 6.4162000000 0.0807000000
2.0030000000 2.7931000000 3.1580000000
2.0028000000 0.4796000000 0.5310000000
2.0025000000 3.3884000000 3.3826000000
2.0024000000 2.6589000000 3.0099000000
2.0023000000 4.0293000000 2.7222000000
2.0018000000 5.1652000000 1.4291000000
2.0016000000 1.4680000000 1.6551000000
2.0015000000 2.6168000000 2.9570000000
2.0013000000 1.0132000000 1.1389000000
2.0012000000 0.1131000000 0.1141000000
2.0008000000 2.4321000000 2.7518000000
2.0005000000 6.0023000000 0.4822000000
1.9999000000 1.7552000000 1.9822000000
1.9993000000 0.5011000000 0.5503000000
1.9991000000 0.6724000000 0.7493000000
1.9988000000 4.4716000000 2.2135000000
1.9985000000 6.2306000000 0.2221000000
1.9972000000 6.3684000000 0.0637000000
1.9937000000 0.4736000000 0.5227000000
1.9934000000 2.1692000000 2.4497000000
1.7633000000 4.7887000000 1.8617000000
1.7607000000 4.8626000000 1.7680000000
1.7596000000 4.9338000000 1.6908000000
1.7593000000 4.9078000000 1.7249000000
1.7590000000 2.9174000000 3.3047000000
1.7585000000 5.8622000000 0.6349000000
1.7583000000 5.3410000000 1.2316000000
1.7575000000 1.9149000000 2.1651000000
1.7569000000 3.3727000000 3.4336000000
1.7566000000 6.3116000000 0.1243000000
1.7565000000 0.8702000000 0.9752000000
1.7564000000 5.2957000000 1.2801000000
1.7559000000 3.7979000000 2.9825000000
1.7558000000 2.4354000000 2.7537000000
1.7557000000 5.3200000000 1.2542000000
1.7554000000 4.1725000000 2.5487000000
1.7553000000 2.3468000000 2.6529000000
1.7552000000 5.1018000000 1.5046000000
1.7550000000 0.5840000000 0.6562000000
1.7549000000 3.2423000000 3.4755000000
1.7548000000 3.4697000000 3.3385000000
1.7545000000 5.0511000000 1.5569000000
1.7545000000 2.2658000000 2.5628000000
1.7543000000 1.4257000000 1.6060000000
1.7543000000 4.7628000000 1.8863000000
1.7540000000 3.1211000000 3.4687000000
1.7538000000 1.6395000000 1.8481000000
1.7535000000 4.0214000000 2.7291000000
1.7534000000 1.3612000000 1.5319000000
1.7532000000 0.3925000000 0.4310000000
1.7529000000 1.4580000000 1.6422000000
1.7526000000 0.8399000000 0.9401000000
1.7525000000 1.6293000000 1.8379000000
1.7524000000 4.9969000000 1.6148000000
1.7522000000 4.3437000000 2.3657000000
1.7519000000 4.9406000000 1.6837000000
1.7517000000 5.9847000000 0.4968000000
1.7514000000 0.7590000000 0.8551000000
1.7504000000 1.6767000000 1.8936000000
1.7502000000 1.5022000000 1.6977000000
1.7496000000 0.6437000000 0.7177000000
1.7493000000 1.6590000000 1.8686000000
1.7478000000 0.6007000000 0.6757000000
1.7474000000 2.4127000000 2.7258000000
1.7454000000 1.5965000000 1.8031000000
1.7436000000 1.5098000000 1.7029000000
1.5112000000 5.7042000000 0.8220000000
1.5095000000 4.0771000000 2.6644000000
1.5083000000 4.6732000000 1.9924000000
1.5082000000 4.4013000000 2.2988000000
1.5079000000 1.4531000000 1.6389000000
1.5078000000 4.1093000000 2.6328000000
1.5074000000 5.2053000000 1.3863000000
1.5073000000 1.0769000000 1.2111000000
1.5068000000 4.2704000000 2.4476000000
1.5065000000 3.5083000000 3.1326000000
1.5062000000 3.3031000000 3.2445000000
1.5059000000 6.0273000000 0.4487000000
1.5057000000 5.9587000000 0.5250000000
1.5053000000 2.8842000000 3.1110000000
1.5048000000 1.1424000000 1.2945000000
1.5047000000 4.9090000000 1.7178000000
1.5044000000 4.1570000000 2.5710000000
1.5044000000 2.1420000000 2.4192000000
1.5041000000 4.4534000000 2.2389000000
1.5038000000 3.5871000000 3.0866000000
1.5036000000 1.2898000000 1.4527000000
1.5034000000 6.2512000000 0.1972000000
1.5030000000 1.4776000000 1.6656000000
1.5029000000 1.5832000000 1.7893000000
1.5027000000 3.1367000000 3.2489000000
1.5024000000 5.0055000000 1.6162000000
1.5021000000 3.2661000000 3.2488000000
1.5019000000 5.3862000000 1.1759000000
1.5015000000 2.0185000000 2.2820000000
1.5006000000 2.3750000000 2.6909000000
1.5003000000 1.4804000000 1.6731000000
1.5001000000 3.0185000000 3.1778000000
1.4998000000 6.2757000000 0.1656000000
1.4996000000 1.4387000000 1.6216000000
1.4991000000 1.3761000000 1.5492000000
1.4989000000 0.3642000000 0.4039000000
1.4988000000 2.3477000000 2.6546000000
1.4983000000 0.2812000000 0.3090000000
1.4975000000 2.1274000000 2.3997000000
1.4969000000 0.7064000000 0.7855000000
1.4965000000 2.0544000000 2.3204000000
1.4933000000 0.0576000000 0.1251000000
1.2606000000 1.0487000000 1.1779000000
1.2597000000 2.7634000000 2.8007000000
1.2586000000 2.7539000000 2.7928000000
1.2584000000 4.6026000000 2.0667000000
1.2579000000 4.4089000000 2.2913000000
1.2575000000 0.9985000000 1.1223000000
1.2573000000 1.2609000000 1.4195000000
1.2573000000 3.5417000000 2.8678000000
1.2570000000 2.1346000000 2.3991000000
1.2568000000 3.4722000000 2.9051000000
1.2562000000 3.3601000000 2.9702000000
1.2560000000 2.4964000000 2.6400000000
1.2559000000 1.2174000000 1.3733000000
1.2557000000 5.5220000000 1.0233000000
1.2555000000 1.9025000000 2.1530000000
1.2554000000 4.4244000000 2.2700000000
1.2553000000 2.2017000000 2.4591000000
1.2550000000 5.6540000000 0.8749000000
1.2550000000 3.9786000000 2.6210000000
1.2548000000 1.6044000000 1.8102000000
1.2545000000 2.8114000000 2.8262000000
1.2543000000 2.3303000000 2.5484000000
1.2540000000 0.7779000000 0.8710000000
1.2538000000 4.3546000000 2.3339000000
1.2537000000 1.0974000000 1.2370000000
1.2534000000 1.0421000000 1.1752000000
1.2533000000 4.7298000000 1.9242000000
1.2530000000 5.3474000000 1.2179000000
1.2529000000 3.4289000000 2.9288000000
1.2528000000 3.3574000000 2.9726000000
1.2527000000 3.5290000000 2.8688000000
1.2525000000 2.9050000000 2.8703000000
1.2522000000 4.0947000000 2.5478000000
1.2519000000 1.7303000000 1.9487000000
1.2516000000 3.3918000000 2.9456000000
1.2514000000 1.7964000000 2.0256000000
1.2513000000 1.9139000000 2.1673000000
1.2510000000 4.9938000000 1.6216000000
1.2509000000 3.2688000000 3.0056000000
1.2509000000 3.0487000000 2.9526000000
1.2507000000 1.5817000000 1.7807000000
1.2505000000 2.9042000000 2.8652000000
1.2504000000 6.1148000000 0.3487000000
1.2497000000 0.6370000000 0.7171000000
1.2495000000 6.1690000000 0.2894000000
1.2493000000 0.0216000000 0.0848000000
1.2491000000 1.0016000000 1.1277000000
1.2488000000 0.9117000000 1.0235000000
1.2484000000 0.1751000000 0.1809000000
1.2477000000 0.5931000000 0.6648000000
1.2473000000 4.9241000000 1.7011000000
1.2463000000 2.3273000000 2.5348000000
1.2460000000 4.2256000000 2.4506000000
1.2451000000 0.6697000000 0.7474000000
1.0102000000 3.4809000000 2.6586000000
1.0099000000 0.1766000000 0.1872000000
1.0095000000 1.4817000000 1.6737000000
1.0088000000 6.2859000000 0.1516000000
1.0082000000 3.3324000000 2.7380000000
1.0073000000 5.3713000000 1.1919000000
1.0067000000 4.1416000000 2.2855000000
1.0063000000 3.5900000000 2.5906000000
1.0063000000 6.1313000000 0.3294000000
1.0059000000 3.1248000000 2.7471000000
1.0058000000 4.7495000000 1.8855000000
1.0053000000 3.0979000000 2.7368000000
1.0051000000 5.0243000000 1.5908000000
1.0050000000 5.3892000000 1.1738000000
1.0048000000 1.3076000000 1.4735000000
1.0044000000 3.2039000000 2.7774000000
1.0043000000 1.0693000000 1.2009000000
1.0041000000 6.3961000000 0.1026000000
1.0040000000 4.8312000000 1.8093000000
1.0038000000 3.1761000000 2.7608000000
1.0038000000 5.0587000000 1.5470000000
1.0036000000 4.0953000000 2.3090000000
1.0032000000 2.8062000000 2.5669000000
1.0031000000 3.6423000000 2.5606000000
1.0029000000 6.4253000000 0.0702000000
1.0028000000 4.1570000000 2.2694000000
1.0025000000 5.6456000000 0.8855000000
1.0023000000 2.7779000000 2.5503000000
1.0021000000 0.6207000000 0.6917000000
1.0016000000 0.0046000000 0.0738000000
1.0013000000 3.2248000000 2.7787000000
1.0010000000 4.7446000000 1.8860000000
1.0006000000 0.9632000000 1.0814000000
1.0006000000 4.5994000000 2.0036000000
1.0003000000 2.6385000000 2.4700000000
1.0000000000 6.0181000000 0.4575000000
0.9999000000 0.9430000000 1.0603000000
0.9994000000 6.3937000000 0.1083000000
0.9993000000 1.8747000000 2.0339000000
0.9991000000 3.5838000000 2.5913000000
0.9989000000 4.3136000000 2.1753000000
0.9978000000 1.8301000000 2.0007000000
0.9970000000 1.9399000000 2.0721000000
0.9961000000 2.8630000000 2.5939000000
0.7622000000 3.5560000000 2.3722000000
0.7600000000 4.9731000000 1.5617000000
0.7596000000 2.6780000000 2.2619000000
0.7592000000 4.9180000000 1.5925000000
0.7585000000 2.3859000000 2.0901000000
0.7579000000 2.7144000000 2.2752000000
0.7575000000 6.3986000000 0.0949000000
0.7565000000 6.3764000000 0.1264000000
0.7564000000 0.4140000000 0.4576000000
0.7563000000 5.9756000000 0.5053000000
0.7561000000 5.7069000000 0.8096000000
0.7559000000 5.3393000000 1.2337000000
0.7557000000 1.0816000000 1.2146000000
0.7556000000 4.8099000000 1.6538000000
0.7553000000 4.2052000000 2.0006000000
0.7553000000 3.1359000000 2.5170000000
0.7550000000 4.8672000000 1.6207000000
0.7548000000 6.2263000000 0.2261000000
0.7547000000 1.0642000000 1.1950000000
0.7545000000 4.9525000000 1.5742000000
0.7543000000 3.7292000000 2.2685000000
0.7542000000 2.2831000000 2.0299000000
0.7539000000 3.1611000000 2.5215000000
0.7536000000 2.5695000000 2.1938000000
0.7534000000 4.2377000000 1.9769000000
0.7530000000 0.7435000000 0.8312000000
0.7526000000 0.9148000000 1.0294000000
0.7519000000 0.2313000000 0.2526000000
0.7518000000 1.8100000000 1.7582000000
0.7516000000 1.3966000000 1.5075000000
0.7515000000 0.5857000000 0.6515000000
0.7513000000 2.2506000000 2.0047000000
0.7511000000 5.4806000000 1.0732000000
0.7510000000 6.1381000000 0.3221000000
0.7507000000 1.2684000000 1.4137000000
0.7503000000 5.6956000000 0.8257000000
0.7500000000 4.6736000000 1.7260000000
0.7499000000 3.8100000000 2.2222000000
0.7496000000 2.7111000000 2.2666000000
0.7492000000 5.4069000000 1.1576000000
0.7483000000 1.9103000000 1.8126000000
0.7480000000 0.9948000000 1.1199000000
0.7455000000 1.4509000000 1.5409000000
0.7430000000 4.0186000000 2.0937000000
0.5105000000 5.4019000000 1.0737000000
0.5096000000 2.4088000000 1.8618000000
0.5087000000 5.8364000000 0.6676000000
0.5084000000 3.5738000000 2.1159000000
0.5079000000 1.8430000000 1.5328000000
0.5077000000 1.7716000000 1.4919000000
0.5075000000 3.3894000000 2.2170000000
0.5071000000 3.7266000000 2.0213000000
0.5069000000 3.0148000000 2.1984000000
0.5066000000 2.2143000000 1.7462000000
0.5061000000 3.1794000000 2.2663000000
0.5058000000 5.2548000000 1.1558000000
0.5057000000 0.5980000000 0.6655000000
0.5055000000 3.4848000000 2.1591000000
0.5055000000 4.5969000000 1.5275000000
0.5052000000 2.3529000000 1.8234000000
0.5050000000 5.2452000000 1.1572000000
0.5048000000 1.3034000000 1.2206000000
0.5047000000 1.9697000000 1.6054000000
0.5046000000 2.3380000000 1.8058000000
0.5044000000 0.2972000000 0.3234000000
0.5040000000 1.9028000000 1.5592000000
0.5040000000 1.6868000000 1.4429000000
0.5038000000 2.3756000000 1.8388000000
0.5037000000 4.6297000000 1.5123000000
0.5038000000 2.9954000000 2.1818000000
0.5034000000 4.7285000000 1.4501000000
0.5033000000 1.5093000000 1.3442000000
0.5030000000 3.8427000000 1.9567000000
0.5028000000 0.6457000000 0.7263000000
0.5027000000 2.8379000000 2.0951000000
0.5024000000 3.6041000000 2.0946000000
0.5023000000 1.1675000000 1.1456000000
0.5020000000 5.1919000000 1.1918000000
0.5020000000 1.5926000000 1.3812000000
0.5018000000 5.1155000000 1.2253000000
0.5017000000 4.8114000000 1.3979000000
0.5016000000 2.7321000000 2.0384000000
0.5010000000 4.3757000000 1.6415000000
0.5005000000 0.2041000000 0.2174000000
0.5001000000 4.5687000000 1.5397000000
0.5000000000 3.2901000000 2.2663000000
0.4998000000 1.2204000000 1.1750000000
0.4995000000 0.7362000000 0.8229000000
0.4988000000 4.4353000000 1.6121000000
0.4980000000 0.3651000000 0.4049000000
0.4976000000 3.9831000000 1.8705000000
0.4968000000 3.5191000000 2.1342000000
0.4967000000 2.6975000000 2.0113000000
0.4954000000 0.2167000000 0.2345000000
0.4948000000 0.4477000000 0.4974000000
0.2646000000 5.2817000000 0.9017000000
0.2610000000 3.5931000000 1.8536000000
0.2599000000 5.5672000000 0.7380000000
0.2597000000 3.6596000000 1.8150000000
0.2593000000 2.1352000000 1.4628000000
0.2584000000 3.1580000000 2.0384000000
0.2577000000 5.1541000000 0.9733000000
0.2576000000 4.5726000000 1.2940000000
0.2575000000 6.0463000000 0.4080000000
0.2573000000 3.3929000000 1.9678000000
0.2570000000 5.6364000000 0.6949000000
0.2568000000 6.3568000000 0.0729000000
0.2562000000 3.1142000000 2.0051000000
0.2560000000 4.1624000000 1.5297000000
0.2559000000 4.6724000000 1.2389000000
0.2556000000 4.3534000000 1.4215000000
0.2554000000 2.3912000000 1.5991000000
0.2553000000 0.8033000000 0.6993000000
0.2551000000 1.6771000000 1.1972000000
0.2551000000 3.8477000000 1.7058000000
0.2550000000 3.7078000000 1.7847000000
0.2547000000 4.4849000000 1.3453000000
0.2545000000 5.5766000000 0.7258000000
0.2538000000 1.1763000000 0.9089000000
0.2535000000 1.0569000000 0.8422000000
0.2535000000 1.3037000000 0.9790000000
0.2532000000 4.2510000000 1.4774000000
0.2530000000 1.5388000000 1.1053000000
0.2528000000 4.9986000000 1.0533000000
0.2526000000 2.5842000000 1.7025000000
0.2525000000 1.1509000000 0.8925000000
0.2523000000 5.5855000000 0.7170000000
0.2522000000 5.1906000000 0.9389000000
0.2518000000 3.2635000000 2.0149000000
0.2514000000 1.2096000000 0.9266000000
0.2511000000 3.3777000000 1.9677000000
0.2509000000 2.2398000000 1.5068000000
0.2508000000 0.4874000000 0.4937000000
0.2505000000 5.5574000000 0.7352000000
0.2496000000 1.9212000000 1.3217000000
0.2493000000 0.1394000000 0.1403000000
0.2491000000 0.0737000000 0.0736000000
0.2489000000 0.7828000000 0.6753000000
0.2474000000 2.7103000000 1.7677000000
0.2447000000 1.5421000000 1.1057000000
0.0118000000 4.7296000000 0.9611000000
0.0102000000 6.1613000000 0.1531000000
0.0095000000 6.2494000000 0.0984000000
0.0084000000 0.6987000000 0.3922000000
0.0078000000 5.2228000000 0.6817000000
0.0072000000 2.6075000000 1.4751000000
0.0069000000 3.2236000000 1.8020000000
0.0066000000 5.7574000000 0.3749000000
0.0063000000 4.1749000000 1.2750000000
0.0062000000 0.4971000000 0.2783000000
0.0061000000 4.7042000000 0.9739000000
0.0057000000 5.4712000000 0.5391000000
0.0055000000 4.4987000000 1.0916000000
0.0052000000 3.4586000000 1.6826000000
0.0050000000 4.1848000000 1.2736000000
0.0048000000 5.9462000000 0.2630000000
0.0044000000 1.0244000000 0.5754000000
0.0043000000 5.0699000000 0.7649000000
0.0040000000 5.6149000000 0.4578000000
0.0038000000 4.4302000000 1.1267000000
0.0037000000 3.9637000000 1.3921000000
0.0035000000 0.1642000000 0.0906000000
0.0034000000 3.0782000000 1.7326000000
0.0031000000 0.7828000000 0.4331000000
0.0028000000 1.2058000000 0.6739000000
0.0027000000 1.1511000000 0.6450000000
0.0024000000 1.5499000000 0.8715000000
0.0020000000 6.3013000000 0.0650000000
0.0018000000 3.1033000000 1.7486000000
0.0018000000 1.9231000000 1.0815000000
0.0016000000 4.9749000000 0.8189000000
0.0015000000 4.7248000000 0.9598000000
0.0013000000 2.8078000000 1.5883000000
0.0009000000 5.9742000000 0.2496000000
0.0008000000 0.2117000000 0.1109000000
0.0004000000 0.1516000000 0.0748000000
-0.0001000000 3.2666000000 1.7742000000
-0.0003000000 0.9458000000 0.5209000000
-0.0007000000 1.2674000000 0.7069000000
-0.0006000000 1.0079000000 0.5581000000
-0.0012000000 0.5007000000 0.2758000000
-0.0021000000 3.3929000000 1.7059000000
-0.0031000000 2.3258000000 1.3024000000
-0.0048000000 2.0597000000 1.1521000000
-0.0075000000 4.1368000000 1.2789000000
-0.2385000000 4.5551000000 0.8238000000
-0.2415000000 3.7057000000 1.2982000000
-0.2421000000 5.3864000000 0.3412000000
-0.2425000000 0.3002000000 0.0692000000
-0.2426000000 0.5850000000 0.0824000000
-0.2429000000 4.9972000000 0.5610000000
-0.2433000000 5.6883000000 0.1704000000
-0.2435000000 3.9744000000 1.1435000000
-0.2436000000 4.1453000000 1.0496000000
-0.2440000000 4.3594000000 0.9235000000
-0.2443000000 2.3310000000 1.0706000000
-0.2445000000 2.6598000000 1.2594000000
-0.2450000000 5.6299000000 0.2075000000
-0.2454000000 1.8546000000 0.7972000000
-0.2457000000 3.9503000000 1.1600000000
-0.2459000000 3.9932000000 1.1272000000
-0.2460000000 1.4748000000 0.5833000000
-0.2462000000 2.2157000000 1.0097000000
-0.2465000000 1.1233000000 0.3818000000
-0.2468000000 1.0632000000 0.3450000000
-0.2468000000 2.0004000000 0.8758000000
-0.2475000000 3.7233000000 1.2853000000
-0.2476000000 0.9243000000 0.2662000000
-0.2483000000 2.0051000000 0.8832000000
-0.2483000000 4.1408000000 1.0432000000
-0.2485000000 1.1222000000 0.3803000000
-0.2488000000 5.9707000000 0.0758000000
-0.2490000000 0.5876000000 0.0736000000
-0.2491000000 5.8534000000 0.0730000000
-0.2492000000 3.9723000000 1.1411000000
-0.2499000000 1.5990000000 0.6447000000
-0.2501000000 2.1141000000 0.9403000000
-0.2512000000 4.9730000000 0.5686000000
-0.2517000000 3.0369000000 1.4699000000
-0.2520000000 1.5808000000 0.6375000000
-0.2532000000 3.6995000000 1.2899000000
-0.4860000000 5.0730000000 0.2807000000
-0.4889000000 0.7257000000 0.0709000000
-0.4909000000 1.9691000000 0.6212000000
-0.4912000000 5.7782000000 0.0199000000
-0.4915000000 3.2706000000 1.2911000000
-0.4918000000 4.9221000000 0.3598000000
-0.4924000000 5.3957000000 0.0947000000
-0.4927000000 4.7189000000 0.4721000000
-0.4934000000 1.7999000000 0.5243000000
-0.4936000000 3.9366000000 0.9179000000
-0.4940000000 4.2777000000 0.7267000000
-0.4942000000 1.8429000000 0.5495000000
-0.4945000000 4.4906000000 0.6029000000
-0.4947000000 0.6838000000 0.0393000000
-0.4948000000 3.4485000000 1.1943000000
-0.4952000000 3.8569000000 0.9632000000
-0.4953000000 3.4555000000 1.1972000000
-0.4955000000 5.2477000000 0.1772000000
-0.4957000000 0.9791000000 0.0536000000
-0.4962000000 5.1139000000 0.2507000000
-0.4964000000 3.1464000000 1.2843000000
-0.4966000000 4.6373000000 0.5211000000
-0.4967000000 0.9490000000 0.1162000000
-0.4969000000 2.9237000000 1.1590000000
-0.4972000000 4.4782000000 0.6113000000
-0.4975000000 0.7844000000 0.0928000000
-0.4976000000 2.8638000000 1.1261000000
-0.4982000000 1.1843000000 0.1667000000
-0.4984000000 3.5597000000 1.1317000000
-0.4985000000 3.7607000000 1.0123000000
-0.4987000000 4.4308000000 0.6348000000
-0.4991000000 3.4512000000 1.1919000000
-0.4992000000 4.0393000000 0.8576000000
-0.4994000000 3.7196000000 1.0416000000
-0.4997000000 5.0201000000 0.2999000000
-0.5001000000 5.6036000000 0.0441000000
-0.5003000000 2.4868000000 0.9075000000
-0.5012000000 1.3509000000 0.2620000000
-0.5017000000 4.5024000000 0.5956000000
-0.5022000000 1.6345000000 0.4204000000
-0.5044000000 1.1986000000 0.1734000000
-0.5053000000 3.0526000000 1.2225000000
-0.5073000000 0.9960000000 0.1284000000
-0.7396000000 4.9307000000 0.1086000000
-0.7420000000 1.2155000000 0.1011000000
-0.7421000000 5.3340000000 0.0291000000
-0.7432000000 4.4478000000 0.3812000000
-0.7434000000 3.7576000000 0.7816000000
-0.7436000000 4.8826000000 0.1400000000
-0.7439000000 2.5349000000 0.6950000000
-0.7442000000 4.0657000000 0.6039000000
-0.7453000000 2.6607000000 0.7677000000
-0.7455000000 4.8847000000 0.1276000000
-0.7457000000 3.4633000000 0.9428000000
-0.7459000000 3.0323000000 0.9748000000
-0.7460000000 2.0331000000 0.4064000000
-0.7462000000 4.3293000000 0.4492000000
-0.7463000000 2.8199000000 0.8525000000
-0.7466000000 3.9251000000 0.6750000000
-0.7472000000 2.4687000000 0.6552000000
-0.7476000000 1.8365000000 0.2971000000
-0.7479000000 3.3224000000 1.0184000000
-0.7482000000 3.1030000000 1.0121000000
-0.7485000000 1.7421000000 0.2472000000
-0.7487000000 1.5422000000 0.1253000000
-0.7489000000 1.6683000000 0.1980000000
-0.7491000000 3.1695000000 1.0364000000
-0.7492000000 3.1261000000 1.0263000000
-0.7495000000 4.4081000000 0.3976000000
-0.7502000000 3.1138000000 1.0179000000
-0.7503000000 1.7921000000 0.2666000000
-0.7513000000 3.7286000000 0.7823000000
-0.7530000000 1.3094000000 0.0668000000
-0.7541000000 3.4509000000 0.9359000000
-0.9899000000 2.1899000000 0.2532000000
-0.9907000000 3.0821000000 0.7636000000
-0.9913000000 3.4875000000 0.6837000000
-0.9935000000 1.7102000000 0.0547000000
-0.9938000000 2.4777000000 0.4194000000
-0.9941000000 4.4726000000 0.1225000000
-0.9942000000 2.9328000000 0.6684000000
-0.9948000000 2.5069000000 0.4293000000
-0.9954000000 3.6160000000 0.6095000000
-0.9958000000 3.7147000000 0.5558000000
-0.9961000000 3.6162000000 0.6022000000
-0.9967000000 3.7192000000 0.5452000000
-0.9970000000 4.2863000000 0.2270000000
-0.9971000000 1.8606000000 0.0641000000
-0.9972000000 3.9826000000 0.3971000000
-0.9977000000 3.4965000000 0.6735000000
-0.9979000000 3.4181000000 0.7174000000
-0.9985000000 3.3605000000 0.7483000000
-0.9990000000 4.6100000000 0.1167000000
-0.9992000000 2.1177000000 0.2067000000
-0.9998000000 1.7367000000 0.0659000000
-1.0007000000 4.8106000000 0.0782000000
-1.0019000000 4.1434000000 0.3098000000
-1.0036000000 3.1472000000 0.7846000000
-1.2410000000 4.0186000000 0.1385000000
-1.2414000000 4.2610000000 0.0721000000
-1.2426000000 3.4146000000 0.4766000000
-1.2427000000 3.9319000000 0.1813000000
-1.2438000000 3.1971000000 0.5614000000
-1.2440000000 2.9027000000 0.4153000000
-1.2446000000 4.4424000000 0.0458000000
-1.2452000000 4.1569000000 0.1252000000
-1.2454000000 2.0730000000 0.0833000000
-1.2457000000 2.7156000000 0.2998000000
-1.2460000000 2.9045000000 0.4112000000
-1.2463000000 3.7682000000 0.2769000000
-1.2467000000 2.3955000000 0.1200000000
-1.2470000000 4.1674000000 0.1225000000
-1.2476000000 4.3109000000 0.0398000000
-1.2485000000 3.9137000000 0.1903000000
-1.2488000000 3.5548000000 0.3920000000
-1.2494000000 3.4745000000 0.4428000000
-1.2510000000 3.4303000000 0.4616000000
-1.2512000000 2.6325000000 0.2570000000
-1.2532000000 2.5597000000 0.2094000000
-1.2537000000 2.4533000000 0.1442000000
-1.4924000000 3.5959000000 0.1273000000
-1.4932000000 4.0762000000 0.0079000000
-1.4949000000 3.4427000000 0.2132000000
-1.4954000000 3.4204000000 0.2328000000
-1.4959000000 3.7236000000 0.1241000000
-1.4961000000 3.9420000000 0.0773000000
-1.4964000000 2.7024000000 0.1234000000
-1.4968000000 3.1536000000 0.3047000000
-1.4981000000 2.6560000000 0.0954000000
-1.4987000000 3.5705000000 0.1306000000
-1.4998000000 3.0195000000 0.2288000000
-1.5001000000 2.5932000000 0.0540000000
-1.5013000000 2.5477000000 0.0318000000
-1.5046000000 3.0210000000 0.2226000000
-1.7432000000 3.5466000000 0.0654000000
-1.7443000000 3.1551000000 0.0583000000
-1.7449000000 3.5064000000 0.0841000000
-1.7453000000 2.9845000000 0.0392000000
-1.7482000000 2.8669000000 0.0436000000
-1.7508000000 3.0746000000 0.0884000000
-1.7525000000 3.0895000000 0.0902000000
-1.7539000000 3.5070000000 0.0766000000
