6.7593000000 3.7871000000 0.0580000000
6.7511000000 4.3735000000 0.0700000000
6.7485000000 4.2668000000 0.0439000000
6.5089000000 3.7622000000 0.1599000000
6.5075000000 3.3412000000 0.0514000000
6.5061000000 4.5764000000 0.0903000000
6.5048000000 4.6771000000 0.0431000000
6.5036000000 3.9755000000 0.3187000000
6.5026000000 3.4633000000 0.1099000000
6.5013000000 3.4801000000 0.1218000000
6.4988000000 3.8345000000 0.2022000000
6.2609000000 4.5230000000 0.2168000000
6.2571000000 5.3261000000 0.0225000000
6.2562000000 4.5039000000 0.2314000000
6.2560000000 5.0104000000 0.0958000000
6.2553000000 3.8957000000 0.4112000000
6.2546000000 2.8678000000 0.0404000000
6.2542000000 4.1310000000 0.4012000000
6.2540000000 4.4188000000 0.2730000000
6.2535000000 5.3424000000 0.0159000000
6.2533000000 3.0727000000 0.1294000000
6.2523000000 2.7363000000 0.0608000000
6.2506000000 4.2733000000 0.3370000000
6.2500000000 2.8055000000 0.0213000000
6.0153000000 5.5786000000 0.0209000000
6.0111000000 3.8962000000 0.5996000000
6.0104000000 5.4216000000 0.0965000000
6.0098000000 2.4426000000 0.0414000000
6.0088000000 5.7479000000 0.0236000000
6.0085000000 5.4575000000 0.0795000000
6.0077000000 2.3252000000 0.0652000000
6.0066000000 4.4265000000 0.4552000000
6.0061000000 3.3143000000 0.3458000000
6.0057000000 3.6430000000 0.4976000000
6.0054000000 3.3924000000 0.3824000000
6.0050000000 5.7763000000 0.0180000000
6.0040000000 3.7691000000 0.5486000000
6.0035000000 2.3776000000 0.0141000000
6.0032000000 2.8242000000 0.1350000000
6.0025000000 3.5364000000 0.4481000000
6.0004000000 4.6028000000 0.3886000000
5.7672000000 4.9300000000 0.4139000000
5.7599000000 5.7970000000 0.1218000000
5.7591000000 5.2862000000 0.2691000000
5.7579000000 3.4470000000 0.5888000000
5.7578000000 5.9406000000 0.0552000000
5.7574000000 1.9915000000 0.0323000000
5.7567000000 3.7148000000 0.7103000000
5.7563000000 5.1320000000 0.3411000000
5.7560000000 5.2117000000 0.3044000000
5.7557000000 4.9732000000 0.4104000000
5.7552000000 2.5577000000 0.2051000000
5.7547000000 3.9471000000 0.8791000000
5.7544000000 5.3682000000 0.2371000000
5.7538000000 4.5096000000 0.6072000000
5.7533000000 2.8131000000 0.3261000000
5.7523000000 5.3888000000 0.2277000000
5.7518000000 6.0592000000 0.0146000000
5.7511000000 2.4373000000 0.1567000000
5.7501000000 2.2762000000 0.0890000000
5.7495000000 3.3846000000 0.5713000000
5.7488000000 2.7114000000 0.2782000000
5.5147000000 6.1303000000 0.0856000000
5.5118000000 5.4547000000 0.3800000000
5.5101000000 2.6472000000 0.4278000000
5.5096000000 3.0743000000 0.6171000000
5.5086000000 3.0310000000 0.6047000000
5.5081000000 5.2776000000 0.4614000000
5.5075000000 3.6282000000 0.8630000000
5.5067000000 4.4998000000 0.8056000000
5.5060000000 5.8682000000 0.2075000000
5.5058000000 5.3048000000 0.4545000000
5.5053000000 3.1697000000 0.6704000000
5.5049000000 4.9940000000 0.5902000000
5.5048000000 1.6383000000 0.0728000000
5.5043000000 4.7287000000 0.7012000000
5.5040000000 5.4651000000 0.3877000000
5.5037000000 3.0502000000 0.6140000000
5.5033000000 2.9226000000 0.5569000000
5.5029000000 3.9544000000 1.0764000000
5.5024000000 5.3562000000 0.4372000000
5.5017000000 1.5756000000 0.0470000000
5.5015000000 1.3436000000 0.0217000000
5.5009000000 1.5366000000 0.0273000000
5.5005000000 2.6949000000 0.4602000000
5.5000000000 4.6166000000 0.7621000000
5.4987000000 2.1758000000 0.2375000000
5.4943000000 1.7057000000 0.1033000000
5.2621000000 5.9455000000 0.3615000000
5.2598000000 5.2411000000 0.6652000000
5.2585000000 4.7653000000 0.8777000000
5.2580000000 6.0314000000 0.3193000000
5.2575000000 4.8094000000 0.8578000000
5.2572000000 7.0817000000 0.0152000000
5.2568000000 4.9932000000 0.7807000000
5.2566000000 4.4281000000 1.0282000000
5.2563000000 6.6853000000 0.1097000000
5.2559000000 2.7039000000 0.6504000000
5.2558000000 1.7915000000 0.2452000000
5.2556000000 6.1371000000 0.2779000000
5.2552000000 4.2886000000 1.0897000000
5.2549000000 4.9214000000 0.8123000000
5.2544000000 3.8553000000 1.1583000000
5.2541000000 0.9900000000 0.0533000000
5.2538000000 1.9477000000 0.3237000000
5.2537000000 6.0437000000 0.3204000000
5.2536000000 4.9155000000 0.8112000000
5.2533000000 4.8872000000 0.8262000000
5.2530000000 2.8983000000 0.7314000000
5.2528000000 5.9714000000 0.3522000000
5.2522000000 2.8532000000 0.7162000000
5.2516000000 5.3054000000 0.6500000000
5.2513000000 3.7083000000 1.0910000000
5.2504000000 5.7005000000 0.4785000000
5.2496000000 2.2468000000 0.4605000000
5.2486000000 1.9416000000 0.3210000000
5.2450000000 2.1752000000 0.4256000000
5.0109000000 3.9436000000 1.4412000000
5.0094000000 3.0545000000 0.9888000000
5.0089000000 5.6126000000 0.6961000000
5.0088000000 5.9335000000 0.5525000000
5.0083000000 1.5419000000 0.3230000000
5.0078000000 4.4220000000 1.2180000000
5.0075000000 7.0818000000 0.1302000000
5.0072000000 7.2861000000 0.0405000000
5.0069000000 3.5550000000 1.2079000000
5.0068000000 5.4408000000 0.7670000000
5.0065000000 4.4851000000 1.1818000000
5.0061000000 3.7317000000 1.2804000000
5.0058000000 2.4945000000 0.7478000000
5.0056000000 4.3720000000 1.2326000000
5.0052000000 3.2995000000 1.0934000000
5.0048000000 7.1823000000 0.0904000000
5.0045000000 2.0170000000 0.5397000000
5.0043000000 4.2785000000 1.2819000000
5.0041000000 5.1447000000 0.9049000000
5.0038000000 1.9842000000 0.5231000000
5.0035000000 4.6487000000 1.1215000000
5.0031000000 2.5333000000 0.7656000000
5.0029000000 6.2570000000 0.4175000000
5.0025000000 1.5323000000 0.3268000000
5.0022000000 2.4530000000 0.7301000000
5.0018000000 2.4480000000 0.7197000000
5.0015000000 3.0752000000 1.0040000000
5.0010000000 0.8874000000 0.1266000000
5.0003000000 2.3940000000 0.7038000000
4.9990000000 1.3124000000 0.2394000000
4.9980000000 6.8838000000 0.1449000000
4.9972000000 2.1335000000 0.5971000000
4.7625000000 5.6912000000 0.8497000000
4.7615000000 7.8031000000 0.0719000000
4.7602000000 7.8348000000 0.0644000000
4.7600000000 5.2529000000 1.0429000000
4.7594000000 5.5428000000 0.9148000000
4.7592000000 7.4046000000 0.1006000000
4.7584000000 7.4333000000 0.0888000000
4.7583000000 1.5688000000 0.5333000000
4.7581000000 4.4813000000 1.3768000000
4.7579000000 5.1820000000 1.0747000000
4.7576000000 7.3902000000 0.1124000000
4.7573000000 0.9185000000 0.2459000000
4.7568000000 7.0597000000 0.2506000000
4.7564000000 3.7730000000 1.4920000000
4.7561000000 7.5082000000 0.1387000000
4.7558000000 7.8001000000 0.0072000000
4.7558000000 4.7359000000 1.2683000000
4.7555000000 3.2090000000 1.2457000000
4.7552000000 6.0264000000 0.7098000000
4.7550000000 4.6085000000 1.3264000000
4.7547000000 1.1965000000 0.3700000000
4.7544000000 5.2417000000 1.0543000000
4.7541000000 0.7664000000 0.1872000000
4.7540000000 0.8853000000 0.2309000000
4.7538000000 0.8687000000 0.2279000000
4.7535000000 1.8642000000 0.6652000000
4.7528000000 5.5669000000 0.9052000000
4.7527000000 7.6299000000 0.0818000000
4.7523000000 4.7718000000 1.2522000000
4.7522000000 1.4115000000 0.4662000000
4.7518000000 1.2028000000 0.3796000000
4.7516000000 4.6033000000 1.3310000000
4.7513000000 1.4171000000 0.4696000000
4.7508000000 7.8566000000 0.0586000000
4.7503000000 1.5311000000 0.5189000000
4.7499000000 3.2243000000 1.2505000000
4.7490000000 0.6912000000 0.1579000000
4.7472000000 5.6500000000 0.8783000000
4.7463000000 3.4105000000 1.3379000000
4.5136000000 7.9503000000 0.0655000000
4.5114000000 0.2309000000 0.1927000000
4.5108000000 6.5074000000 0.6807000000
4.5099000000 6.2123000000 0.8054000000
4.5088000000 4.3690000000 1.6207000000
4.5085000000 6.4985000000 0.6806000000
4.5079000000 5.2055000000 1.2535000000
4.5074000000 2.7405000000 1.2315000000
4.5073000000 5.1396000000 1.2837000000
4.5066000000 2.0993000000 0.9529000000
4.5062000000 5.4585000000 1.1421000000
4.5060000000 4.9687000000 1.3564000000
4.5059000000 3.4017000000 1.5220000000
4.5057000000 4.5458000000 1.5399000000
4.5053000000 0.8144000000 0.3920000000
4.5052000000 5.9935000000 0.9125000000
4.5047000000 4.1242000000 1.7258000000
4.5044000000 7.0082000000 0.4695000000
4.5043000000 0.3946000000 0.2040000000
4.5039000000 3.0207000000 1.3555000000
4.5036000000 3.7615000000 1.6807000000
4.5034000000 5.0381000000 1.3332000000
4.5030000000 3.8598000000 1.7204000000
4.5027000000 6.1191000000 0.8566000000
4.5024000000 7.9969000000 0.0279000000
4.5021000000 5.2739000000 1.2254000000
4.5016000000 1.5642000000 0.7256000000
4.5013000000 2.0720000000 0.9410000000
4.5008000000 0.6543000000 0.3230000000
4.5005000000 0.6241000000 0.3076000000
4.5003000000 4.3284000000 1.6381000000
4.4996000000 3.5951000000 1.6144000000
4.4993000000 3.3743000000 1.5149000000
4.4985000000 3.8892000000 1.7405000000
4.4980000000 1.9407000000 0.8909000000
4.4976000000 1.8777000000 0.8669000000
4.2653000000 5.5773000000 1.2708000000
4.2640000000 6.3097000000 0.9492000000
4.2624000000 5.8075000000 1.1720000000
4.2602000000 4.1994000000 1.8794000000
4.2598000000 3.9600000000 2.0120000000
4.2591000000 6.4268000000 0.9095000000
4.2588000000 7.0860000000 0.6171000000
4.2585000000 6.6223000000 0.8167000000
4.2581000000 7.6853000000 0.2257000000
4.2576000000 1.1383000000 0.7235000000
4.2572000000 4.3417000000 1.8171000000
4.2570000000 7.5632000000 0.3301000000
4.2567000000 7.6682000000 0.2390000000
4.2564000000 3.2116000000 1.6263000000
4.2560000000 0.4689000000 0.3613000000
4.2555000000 6.9702000000 0.6719000000
4.2552000000 4.6843000000 1.6693000000
4.2550000000 4.9998000000 1.5340000000
4.2548000000 5.2379000000 1.4284000000
4.2545000000 3.1852000000 1.6117000000
4.2543000000 6.0039000000 1.0947000000
4.2539000000 3.6332000000 1.8131000000
4.2537000000 5.5485000000 1.2928000000
4.2534000000 0.3839000000 0.2910000000
4.2533000000 6.6206000000 0.8221000000
4.2531000000 1.8463000000 1.0293000000
4.2529000000 4.1650000000 1.9021000000
4.2525000000 0.4527000000 0.3516000000
4.2523000000 1.8342000000 1.0269000000
4.2517000000 1.8270000000 1.0313000000
4.2510000000 1.6639000000 0.9537000000
4.2508000000 1.8768000000 1.0469000000
4.2505000000 7.1034000000 0.6117000000
4.2497000000 2.9973000000 1.5368000000
4.2487000000 6.4632000000 0.9001000000
4.2471000000 0.4156000000 0.3183000000
4.0147000000 6.9682000000 0.9159000000
4.0112000000 5.2374000000 1.6128000000
4.0102000000 5.6289000000 1.4379000000
4.0092000000 5.7550000000 1.3873000000
4.0087000000 1.8434000000 1.2153000000
4.0085000000 4.3366000000 2.0074000000
4.0080000000 6.2749000000 1.1588000000
4.0077000000 2.7699000000 1.6221000000
4.0075000000 7.8927000000 0.1180000000
4.0073000000 1.4139000000 1.0292000000
4.0068000000 3.4896000000 1.9357000000
4.0063000000 4.2635000000 2.0456000000
4.0060000000 7.6889000000 0.2207000000
4.0057000000 7.2471000000 0.6051000000
4.0055000000 2.8676000000 1.6711000000
4.0051000000 7.2779000000 0.5797000000
4.0048000000 7.8274000000 0.0994000000
4.0045000000 2.2709000000 1.4116000000
4.0044000000 1.9411000000 1.2643000000
4.0041000000 4.4797000000 1.9484000000
4.0039000000 5.0274000000 1.7044000000
4.0038000000 5.5165000000 1.4980000000
4.0035000000 3.6150000000 1.9908000000
4.0032000000 3.6438000000 2.0034000000
4.0031000000 1.5655000000 1.1004000000
4.0029000000 0.5522000000 0.4422000000
4.0027000000 3.0433000000 1.7482000000
4.0024000000 0.6906000000 0.5596000000
4.0020000000 5.6070000000 1.4587000000
4.0018000000 3.5209000000 1.9524000000
4.0013000000 1.6092000000 1.1204000000
4.0011000000 6.1866000000 1.2043000000
4.0009000000 0.8112000000 0.6641000000
4.0005000000 5.1785000000 1.6460000000
4.0002000000 0.9810000000 0.8736000000
3.9995000000 0.9431000000 0.7752000000
3.9991000000 5.8138000000 1.3712000000
3.9984000000 1.0991000000 0.9553000000
3.7612000000 7.0228000000 0.8049000000
3.7604000000 6.9087000000 0.8991000000
3.7598000000 7.0167000000 0.8075000000
3.7592000000 1.8720000000 1.4178000000
3.7588000000 7.1749000000 0.6675000000
3.7581000000 2.1997000000 1.5617000000
3.7578000000 1.6170000000 1.3078000000
3.7571000000 0.4633000000 0.3601000000
3.7568000000 1.8536000000 1.4079000000
3.7566000000 4.0772000000 2.3174000000
3.7565000000 3.5162000000 2.1394000000
3.7562000000 3.0220000000 1.9234000000
3.7559000000 1.8103000000 1.3905000000
3.7554000000 5.9685000000 1.4882000000
3.7551000000 4.1196000000 2.2949000000
3.7549000000 7.6593000000 0.2478000000
3.7546000000 1.3014000000 1.0915000000
3.7542000000 1.3394000000 1.1166000000
3.7541000000 1.5175000000 1.3304000000
3.7540000000 2.9951000000 1.9104000000
3.7537000000 3.9678000000 2.3998000000
3.7536000000 5.9494000000 1.5040000000
3.7534000000 1.2809000000 1.0727000000
3.7532000000 0.2953000000 0.2109000000
3.7529000000 2.0774000000 1.5141000000
3.7525000000 7.1239000000 0.7171000000
3.7523000000 5.6588000000 1.6258000000
3.7521000000 7.1751000000 0.6709000000
3.7510000000 6.3778000000 1.3108000000
3.7508000000 1.0802000000 0.9015000000
3.7492000000 0.8164000000 0.6668000000
3.7484000000 0.2329000000 0.1549000000
3.7474000000 3.7534000000 2.2435000000
3.5133000000 7.1969000000 0.6529000000
3.5129000000 7.7018000000 0.2141000000
3.5122000000 1.6399000000 1.3849000000
3.5103000000 3.9854000000 2.5842000000
3.5097000000 5.7948000000 1.7490000000
3.5093000000 3.9734000000 2.5869000000
3.5090000000 3.1681000000 2.1729000000
3.5087000000 5.5317000000 1.8648000000
3.5085000000 3.5592000000 2.3435000000
3.5082000000 6.3931000000 1.3514000000
3.5079000000 1.5769000000 1.3340000000
3.5073000000 5.4841000000 1.8899000000
3.5070000000 4.2619000000 2.4189000000
3.5068000000 5.4143000000 1.9192000000
3.5066000000 6.5742000000 1.1931000000
3.5064000000 4.8081000000 2.1770000000
3.5062000000 7.0363000000 0.7966000000
3.5059000000 2.5872000000 1.9192000000
3.5054000000 2.4503000000 1.8604000000
3.5052000000 0.1338000000 0.0755000000
3.5050000000 1.4572000000 1.2239000000
3.5048000000 6.2166000000 1.5067000000
3.5045000000 7.3720000000 0.4975000000
3.5043000000 4.3715000000 2.3717000000
3.5040000000 0.7168000000 0.5805000000
3.5039000000 4.3809000000 2.3732000000
3.5036000000 0.3372000000 0.2385000000
3.5035000000 3.3452000000 2.2497000000
3.5030000000 2.6455000000 1.9503000000
3.5028000000 2.8879000000 2.0534000000
3.5025000000 0.8301000000 0.6774000000
3.5023000000 5.7707000000 1.7644000000
3.5019000000 1.9208000000 1.6967000000
3.5018000000 2.9310000000 2.0731000000
3.5016000000 4.8387000000 2.1750000000
3.5009000000 5.0087000000 2.0921000000
3.5003000000 2.5189000000 1.8911000000
3.5000000000 0.9486000000 0.7781000000
3.4991000000 1.1436000000 0.9562000000
3.4989000000 0.5087000000 0.4014000000
3.4981000000 2.9398000000 2.0793000000
3.4973000000 1.2497000000 1.0434000000
3.4962000000 7.3063000000 0.5543000000
3.2618000000 5.1673000000 2.2111000000
3.2605000000 5.9081000000 1.7755000000
3.2601000000 1.9045000000 1.6169000000
3.2598000000 5.9607000000 1.7285000000
3.2595000000 7.0697000000 0.7612000000
3.2591000000 1.0052000000 0.8358000000
3.2588000000 6.7036000000 1.0828000000
3.2581000000 5.2483000000 2.1812000000
3.2574000000 0.7913000000 0.6432000000
3.2569000000 5.6206000000 2.0739000000
3.2563000000 0.8643000000 0.7074000000
3.2563000000 2.8864000000 2.2419000000
3.2558000000 0.1335000000 0.0736000000
3.2554000000 5.4610000000 2.0849000000
3.2553000000 4.2542000000 2.6135000000
3.2549000000 3.5695000000 2.5371000000
3.2548000000 6.8031000000 0.9872000000
3.2545000000 2.3240000000 2.0454000000
3.2543000000 2.2347000000 1.9071000000
3.2540000000 2.2629000000 1.9942000000
3.2537000000 7.8335000000 0.0969000000
3.2534000000 1.2901000000 1.0842000000
3.2533000000 5.7163000000 2.0039000000
3.2531000000 0.6980000000 0.5621000000
3.2530000000 1.2777000000 1.0724000000
3.2527000000 5.8730000000 1.8025000000
3.2525000000 1.8565000000 1.5733000000
3.2524000000 7.2449000000 0.6095000000
3.2523000000 4.3795000000 2.5602000000
3.2518000000 2.1540000000 1.8325000000
3.2515000000 1.5771000000 1.3271000000
3.2514000000 0.0359000000 0.0605000000
3.2512000000 6.9951000000 0.8203000000
3.2505000000 2.1403000000 1.8162000000
3.2503000000 5.6618000000 2.0552000000
3.2501000000 0.3816000000 0.2878000000
3.2499000000 2.1424000000 1.8245000000
3.2490000000 1.3647000000 1.1431000000
3.2484000000 5.2494000000 2.1863000000
3.2463000000 4.5888000000 2.4759000000
3.0129000000 7.6791000000 0.2282000000
3.0113000000 5.8330000000 1.8376000000
3.0108000000 5.8599000000 1.8148000000
3.0098000000 4.0777000000 2.8756000000
3.0093000000 6.4068000000 1.3355000000
3.0088000000 6.0227000000 1.6739000000
3.0083000000 1.2613000000 1.0552000000
3.0079000000 6.9221000000 0.8898000000
3.0076000000 4.6583000000 2.6240000000
3.0071000000 6.5164000000 1.2454000000
3.0069000000 2.7819000000 2.4424000000
3.0064000000 3.7169000000 2.7936000000
3.0060000000 4.2443000000 2.8072000000
3.0059000000 0.3161000000 0.2302000000
3.0053000000 7.4419000000 0.4355000000
3.0052000000 5.5605000000 2.0822000000
3.0048000000 7.5837000000 0.3109000000
3.0045000000 2.8603000000 2.4836000000
3.0042000000 4.9037000000 2.5204000000
3.0040000000 0.1752000000 0.1028000000
3.0036000000 2.2350000000 1.9038000000
3.0035000000 2.2417000000 1.9175000000
3.0028000000 3.0674000000 2.5089000000
3.0027000000 7.1941000000 0.6521000000
3.0025000000 3.1607000000 2.5492000000
3.0023000000 3.4934000000 2.6968000000
3.0021000000 6.5231000000 1.2353000000
3.0018000000 0.1920000000 0.1230000000
3.0014000000 2.9107000000 2.4467000000
3.0012000000 4.8489000000 2.5490000000
3.0009000000 4.0820000000 2.8807000000
3.0008000000 3.5455000000 2.7254000000
3.0006000000 1.1343000000 0.9445000000
3.0003000000 2.5804000000 2.2081000000
2.9997000000 6.5282000000 1.2380000000
2.9994000000 1.3527000000 1.1323000000
2.9989000000 0.0784000000 0.0949000000
2.9971000000 0.0810000000 0.1050000000
2.9942000000 1.4090000000 1.1827000000
2.7613000000 7.6590000000 0.2463000000
2.7607000000 7.4381000000 0.4418000000
2.7603000000 4.9192000000 2.6359000000
2.7596000000 4.5423000000 2.8672000000
2.7590000000 0.4998000000 0.3895000000
2.7583000000 3.1042000000 2.7379000000
2.7581000000 4.5707000000 2.8535000000
2.7579000000 3.7595000000 3.0045000000
2.7570000000 7.0074000000 0.8156000000
2.7568000000 1.6147000000 1.3653000000
2.7565000000 2.5347000000 2.1682000000
2.7564000000 6.8593000000 0.9424000000
2.7558000000 7.3464000000 0.5200000000
2.7554000000 0.2506000000 0.1692000000
2.7549000000 7.3280000000 0.5376000000
2.7546000000 1.0743000000 0.8899000000
2.7545000000 0.6767000000 0.5516000000
2.7541000000 6.0355000000 1.6650000000
2.7537000000 4.5317000000 2.8660000000
2.7535000000 8.0041000000 0.0183000000
2.7533000000 7.9980000000 0.0238000000
2.7532000000 3.0018000000 2.5667000000
2.7530000000 3.1715000000 2.7857000000
2.7528000000 1.8846000000 1.5953000000
2.7525000000 7.8038000000 0.1187000000
2.7523000000 0.9559000000 0.7892000000
2.7520000000 2.7190000000 2.3263000000
2.7516000000 2.1035000000 1.7905000000
2.7514000000 7.0700000000 0.7588000000
2.7508000000 3.5535000000 2.9139000000
2.7506000000 2.6108000000 2.2318000000
2.7499000000 1.2721000000 1.0670000000
2.7493000000 1.0967000000 0.9107000000
2.7487000000 3.0550000000 2.6204000000
2.7480000000 0.0121000000 0.0381000000
2.7470000000 1.6041000000 1.3564000000
2.7465000000 4.9831000000 2.5792000000
2.5132000000 3.1174000000 2.6700000000
2.5114000000 7.7366000000 0.1759000000
2.5105000000 5.7991000000 1.8689000000
2.5102000000 5.5049000000 2.1301000000
2.5095000000 6.7081000000 1.0739000000
2.5086000000 2.5167000000 2.1484000000
2.5084000000 5.5798000000 2.0620000000
2.5080000000 5.6108000000 2.0371000000
2.5073000000 6.6554000000 1.1229000000
2.5066000000 4.5429000000 2.9635000000
2.5063000000 4.9463000000 2.6115000000
2.5060000000 7.3994000000 0.4720000000
2.5058000000 3.1095000000 2.6745000000
2.5055000000 1.3414000000 1.1293000000
2.5053000000 5.5181000000 2.1172000000
2.5052000000 7.6029000000 0.2962000000
2.5047000000 3.5207000000 3.0253000000
2.5044000000 5.2116000000 2.3821000000
2.5041000000 4.6166000000 2.9069000000
2.5034000000 1.9382000000 1.6456000000
2.5033000000 3.3882000000 2.9078000000
2.5030000000 5.0160000000 2.5492000000
2.5025000000 2.9428000000 2.5239000000
2.5022000000 3.7032000000 3.2310000000
2.5020000000 0.1600000000 0.0912000000
2.5015000000 4.6646000000 2.8636000000
2.5013000000 0.9769000000 0.8067000000
2.5007000000 6.2663000000 1.4691000000
2.5002000000 2.7436000000 2.3518000000
2.4994000000 0.0089000000 0.0364000000
2.4991000000 4.6809000000 2.8493000000
2.4982000000 2.3829000000 2.0324000000
2.4977000000 2.5204000000 2.1529000000
2.4969000000 0.5589000000 0.4449000000
2.2668000000 5.2934000000 2.3073000000
2.2607000000 8.0198000000 0.0873000000
2.2601000000 7.3089000000 0.5550000000
2.2590000000 5.9233000000 1.7677000000
2.2585000000 1.8452000000 1.5605000000
2.2580000000 3.3685000000 2.8932000000
2.2575000000 7.5744000000 0.3219000000
2.2572000000 2.5259000000 2.1636000000
2.2570000000 6.2723000000 1.4569000000
2.2568000000 5.5074000000 2.1246000000
2.2563000000 6.7189000000 1.0672000000
2.2560000000 4.6481000000 2.8785000000
2.2558000000 2.4388000000 2.0803000000
2.2556000000 6.3306000000 1.4052000000
2.2553000000 3.3420000000 2.8698000000
2.2552000000 5.7204000000 1.9411000000
2.2549000000 7.9943000000 0.0321000000
2.2545000000 5.3715000000 2.2406000000
2.2544000000 4.2042000000 3.2607000000
2.2542000000 3.9137000000 3.3925000000
2.2541000000 6.3816000000 1.3647000000
2.2537000000 6.2935000000 1.4379000000
2.2534000000 5.3954000000 2.2199000000
2.2533000000 1.8956000000 1.6117000000
2.2531000000 3.6148000000 3.1068000000
2.2530000000 5.7998000000 1.8690000000
2.2527000000 5.1206000000 2.4641000000
2.2524000000 4.5246000000 2.9852000000
2.2521000000 1.5434000000 1.3016000000
2.2518000000 4.0456000000 3.3973000000
2.2515000000 3.4237000000 2.9402000000
2.2511000000 1.3379000000 1.1285000000
2.2506000000 6.0555000000 1.6495000000
2.2500000000 1.3185000000 1.1053000000
2.2496000000 3.7443000000 3.2235000000
2.2494000000 1.7746000000 1.5050000000
2.2490000000 0.2667000000 0.1848000000
2.2488000000 5.5888000000 2.0486000000
2.2475000000 0.3190000000 0.2358000000
2.2463000000 0.0073000000 0.0366000000
2.2451000000 5.9330000000 1.7530000000
2.0136000000 5.6531000000 1.9916000000
2.0119000000 2.4613000000 2.1040000000
2.0112000000 5.5732000000 2.0667000000
2.0110000000 3.8566000000 3.1580000000
2.0105000000 3.3878000000 2.9753000000
2.0089000000 6.5701000000 1.1969000000
2.0083000000 6.3874000000 1.3572000000
2.0080000000 2.4270000000 2.0714000000
2.0075000000 0.9157000000 0.7580000000
2.0074000000 7.5836000000 0.3087000000
2.0072000000 3.0627000000 2.6288000000
2.0070000000 1.6766000000 1.4242000000
2.0068000000 7.9375000000 0.0799000000
2.0066000000 4.5385000000 3.0358000000
2.0064000000 7.5684000000 0.3302000000
2.0063000000 7.6900000000 0.2214000000
2.0059000000 6.6044000000 1.1688000000
2.0054000000 7.5754000000 0.3237000000
2.0050000000 2.5354000000 2.1670000000
2.0049000000 5.4846000000 2.1469000000
2.0048000000 4.6407000000 2.8868000000
2.0047000000 3.2526000000 2.7963000000
2.0038000000 5.4817000000 2.1488000000
2.0035000000 0.5877000000 0.4684000000
2.0031000000 3.9149000000 3.1751000000
2.0027000000 0.7759000000 0.6339000000
2.0025000000 0.4734000000 0.3664000000
2.0020000000 1.1536000000 0.9615000000
2.0013000000 4.8355000000 2.7072000000
2.0007000000 0.9542000000 0.7840000000
2.0004000000 1.8558000000 1.5748000000
1.9992000000 2.8035000000 2.3999000000
1.9981000000 6.5640000000 1.2061000000
1.9972000000 2.5699000000 2.1943000000
1.9965000000 2.4076000000 2.0559000000
1.9950000000 2.2902000000 1.9576000000
1.7617000000 4.0796000000 3.0008000000
1.7608000000 7.7082000000 0.2055000000
1.7599000000 6.4067000000 1.3374000000
1.7594000000 3.1138000000 2.6977000000
1.7589000000 3.9906000000 3.0923000000
1.7583000000 5.7441000000 1.9206000000
1.7582000000 6.5185000000 1.2415000000
1.7574000000 4.5370000000 2.7907000000
1.7571000000 5.3849000000 2.2313000000
1.7567000000 2.2948000000 1.9616000000
1.7565000000 0.6909000000 0.5596000000
1.7560000000 4.0394000000 3.0726000000
1.7558000000 6.8899000000 0.9144000000
1.7555000000 2.4908000000 2.1322000000
1.7553000000 6.7285000000 1.0596000000
1.7551000000 6.0020000000 1.6902000000
1.7549000000 4.7081000000 2.7171000000
1.7545000000 5.7246000000 1.9325000000
1.7544000000 4.8513000000 2.6427000000
1.7542000000 6.3358000000 1.3955000000
1.7539000000 1.9253000000 1.6375000000
1.7536000000 0.9017000000 0.7415000000
1.7534000000 1.3787000000 1.1553000000
1.7532000000 1.9858000000 1.6906000000
1.7528000000 2.7628000000 2.3671000000
1.7526000000 4.5275000000 2.7912000000
1.7525000000 1.3498000000 1.1311000000
1.7523000000 0.0268000000 0.0548000000
1.7521000000 0.4558000000 0.3547000000
1.7518000000 1.5596000000 1.3131000000
1.7516000000 4.9733000000 2.6520000000
1.7513000000 0.1507000000 0.0843000000
1.7508000000 3.6293000000 2.8602000000
1.7504000000 2.9501000000 2.5925000000
1.7502000000 2.1221000000 1.8071000000
1.7501000000 0.1045000000 0.1157000000
1.7497000000 3.5180000000 2.8177000000
1.7486000000 2.8197000000 2.4113000000
1.7482000000 2.0050000000 1.7041000000
1.7478000000 2.5701000000 2.1988000000
1.7470000000 3.2036000000 2.6746000000
1.7460000000 2.4751000000 2.1161000000
1.5127000000 6.7315000000 1.0573000000
1.5102000000 5.8744000000 1.8012000000
1.5094000000 4.5610000000 2.5955000000
1.5084000000 3.0800000000 2.4307000000
1.5080000000 0.9011000000 0.7448000000
1.5077000000 6.9853000000 0.8333000000
1.5071000000 5.7445000000 1.9184000000
1.5069000000 2.9616000000 2.3890000000
1.5066000000 2.7263000000 2.2877000000
1.5064000000 1.0469000000 0.8636000000
1.5063000000 1.7969000000 1.5221000000
1.5058000000 4.0189000000 2.8859000000
1.5056000000 7.8303000000 0.0972000000
1.5054000000 3.3844000000 2.5702000000
1.5052000000 6.7898000000 1.0031000000
1.5050000000 5.0477000000 2.3793000000
1.5048000000 2.5351000000 2.2290000000
1.5043000000 6.8537000000 0.9490000000
1.5040000000 5.5368000000 2.1031000000
1.5038000000 3.2353000000 2.5074000000
1.5035000000 2.9101000000 2.3645000000
1.5032000000 2.2222000000 1.8942000000
1.5031000000 6.7455000000 1.0408000000
1.5029000000 0.9140000000 0.7437000000
1.5028000000 0.7066000000 0.5738000000
1.5027000000 7.9055000000 0.1035000000
1.5025000000 5.2423000000 2.2879000000
1.5022000000 0.8085000000 0.6607000000
1.5018000000 1.7290000000 1.4586000000
1.5014000000 6.0551000000 1.6469000000
1.5011000000 7.0368000000 0.7878000000
1.5008000000 5.8869000000 1.7919000000
1.5005000000 0.2357000000 0.1608000000
1.5001000000 3.9000000000 2.7884000000
1.4998000000 3.9289000000 2.8015000000
1.4989000000 3.0966000000 2.4407000000
1.4975000000 2.7934000000 2.3021000000
1.2628000000 6.3566000000 1.3821000000
1.2615000000 4.5330000000 2.4179000000
1.2596000000 6.3746000000 1.3645000000
1.2593000000 6.3582000000 1.3835000000
1.2590000000 4.3132000000 2.5093000000
1.2585000000 7.3555000000 0.5125000000
1.2580000000 7.8288000000 0.1028000000
1.2575000000 7.4033000000 0.4734000000
1.2573000000 3.7496000000 2.5407000000
1.2570000000 6.0097000000 1.6877000000
1.2568000000 5.0989000000 2.1640000000
1.2564000000 7.1843000000 0.6597000000
1.2563000000 7.6642000000 0.2419000000
1.2560000000 0.0569000000 0.0752000000
1.2558000000 2.0708000000 1.7535000000
1.2555000000 4.0894000000 2.6088000000
1.2553000000 6.4989000000 1.2581000000
1.2550000000 7.8911000000 0.1174000000
1.2548000000 2.0610000000 1.7530000000
1.2542000000 5.7193000000 1.8908000000
1.2538000000 4.9080000000 2.2542000000
1.2537000000 5.9814000000 1.7077000000
1.2535000000 2.0989000000 1.8496000000
1.2530000000 0.6775000000 0.5465000000
1.2527000000 0.5532000000 0.4357000000
1.2523000000 1.9855000000 1.6923000000
1.2521000000 1.4159000000 1.1896000000
1.2518000000 3.2158000000 2.3049000000
1.2515000000 0.3298000000 0.2399000000
1.2508000000 0.2129000000 0.1414000000
1.2506000000 7.6312000000 0.2695000000
1.2503000000 2.0561000000 1.7495000000
1.2500000000 1.1378000000 0.9510000000
1.2493000000 4.3861000000 2.4714000000
1.2490000000 5.0668000000 2.1770000000
1.2487000000 1.5116000000 1.2793000000
1.2476000000 6.0284000000 1.6665000000
1.2455000000 0.0068000000 0.0390000000
1.2442000000 1.5909000000 1.3411000000
1.0117000000 5.9260000000 1.6228000000
1.0110000000 0.3426000000 0.2561000000
1.0106000000 7.2240000000 0.6269000000
1.0100000000 4.4327000000 2.2728000000
1.0087000000 7.1477000000 0.6942000000
1.0075000000 7.5178000000 0.3697000000
1.0071000000 5.1610000000 1.9514000000
1.0069000000 6.1537000000 1.5825000000
1.0064000000 3.4974000000 2.2419000000
1.0062000000 0.8818000000 0.7271000000
1.0060000000 6.5803000000 1.1882000000
1.0058000000 5.6142000000 1.7502000000
1.0056000000 3.1038000000 2.0631000000
1.0053000000 4.9524000000 2.0458000000
1.0052000000 5.4932000000 1.8063000000
1.0051000000 2.6728000000 1.8802000000
1.0050000000 6.9308000000 0.8807000000
1.0048000000 1.8964000000 1.5389000000
1.0046000000 2.9832000000 2.0162000000
1.0044000000 0.7732000000 0.6324000000
1.0043000000 5.3873000000 1.8520000000
1.0038000000 6.4989000000 1.2590000000
1.0036000000 5.5022000000 1.8057000000
1.0034000000 4.7615000000 2.1248000000
1.0032000000 7.9306000000 0.0813000000
1.0029000000 5.5830000000 1.7678000000
1.0028000000 5.4170000000 1.8403000000
1.0021000000 3.3567000000 2.1783000000
1.0018000000 5.4740000000 1.8106000000
1.0015000000 1.8469000000 1.5865000000
1.0013000000 2.6277000000 1.8599000000
1.0010000000 7.4508000000 0.4348000000
1.0007000000 6.8648000000 0.9439000000
0.9998000000 0.8928000000 0.7320000000
0.9992000000 3.9191000000 2.4252000000
0.9983000000 0.7503000000 0.6106000000
0.9977000000 3.4297000000 2.2063000000
0.9966000000 0.0775000000 0.0968000000
0.9956000000 1.7233000000 1.5208000000
0.7650000000 7.0566000000 0.7772000000
0.7621000000 7.8559000000 0.0769000000
0.7619000000 7.5006000000 0.3893000000
0.7608000000 5.9125000000 1.4371000000
0.7597000000 4.5757000000 2.0209000000
0.7588000000 5.4898000000 1.6212000000
0.7584000000 7.2880000000 0.5770000000
0.7583000000 6.9549000000 0.8655000000
0.7576000000 7.9876000000 0.0335000000
0.7573000000 5.7629000000 1.4966000000
0.7571000000 7.9731000000 0.0472000000
0.7568000000 1.7534000000 1.2929000000
0.7565000000 4.9411000000 1.8598000000
0.7560000000 2.5584000000 1.6419000000
0.7558000000 7.0903000000 0.7439000000
0.7554000000 4.4074000000 2.0949000000
0.7553000000 6.5468000000 1.1576000000
0.7549000000 4.0821000000 2.2281000000
0.7547000000 0.5456000000 0.4276000000
0.7544000000 6.3286000000 1.2484000000
0.7543000000 4.6384000000 1.9934000000
0.7541000000 2.6656000000 1.6894000000
0.7538000000 2.3278000000 1.5406000000
0.7535000000 3.4680000000 2.0383000000
0.7533000000 7.7061000000 0.2065000000
0.7531000000 1.2567000000 1.1081000000
0.7529000000 4.9360000000 1.8605000000
0.7527000000 3.9596000000 2.3197000000
0.7525000000 7.0843000000 0.7456000000
0.7521000000 4.0629000000 2.2368000000
0.7517000000 1.2657000000 1.1187000000
0.7513000000 2.1776000000 1.4756000000
0.7509000000 5.5055000000 1.6138000000
0.7505000000 3.0733000000 1.8637000000
0.7499000000 1.0764000000 0.8961000000
0.7496000000 2.9513000000 1.8130000000
0.7493000000 0.6317000000 0.5125000000
0.7490000000 4.4457000000 2.0719000000
0.7485000000 3.4139000000 2.0080000000
0.7483000000 0.1564000000 0.0993000000
0.7473000000 1.6188000000 1.2265000000
0.7420000000 2.8106000000 1.7394000000
0.5111000000 5.8613000000 1.2732000000
0.5107000000 6.4465000000 1.0174000000
0.5096000000 6.1700000000 1.1415000000
0.5088000000 2.0498000000 1.2403000000
0.5085000000 7.6308000000 0.2699000000
0.5081000000 5.6821000000 1.3428000000
0.5075000000 4.9799000000 1.6574000000
0.5070000000 5.3831000000 1.4762000000
0.5068000000 5.4972000000 1.4260000000
0.5067000000 7.2251000000 0.6214000000
0.5064000000 5.4917000000 1.4299000000
0.5062000000 7.1589000000 0.7462000000
0.5059000000 5.3487000000 1.4888000000
0.5054000000 2.5043000000 1.4317000000
0.5050000000 5.7191000000 1.3240000000
0.5048000000 7.9107000000 0.1015000000
0.5045000000 4.6020000000 1.8097000000
0.5043000000 5.9403000000 1.2320000000
0.5038000000 3.1410000000 1.7128000000
0.5037000000 7.5244000000 0.3637000000
0.5034000000 4.4738000000 1.8728000000
0.5032000000 1.1034000000 0.8190000000
0.5028000000 1.8189000000 1.1293000000
0.5023000000 6.0472000000 1.1887000000
0.5017000000 3.4925000000 1.8604000000
0.5015000000 0.1313000000 0.0681000000
0.5011000000 3.7793000000 1.9833000000
0.5008000000 0.6990000000 0.5610000000
0.5003000000 4.2093000000 1.9859000000
0.5001000000 6.0807000000 1.1716000000
0.4997000000 5.8314000000 1.2729000000
0.4993000000 3.2509000000 1.7528000000
0.4989000000 5.6183000000 1.3658000000
0.4968000000 1.6232000000 1.0440000000
0.4950000000 1.9389000000 1.1794000000
0.2664000000 8.0042000000 0.0213000000
0.2595000000 6.5593000000 0.7744000000
0.2590000000 6.4900000000 0.8070000000
0.2583000000 7.7562000000 0.1641000000
0.2581000000 6.7899000000 0.6772000000
0.2578000000 6.6968000000 0.7203000000
0.2573000000 5.5726000000 1.2082000000
0.2570000000 3.2039000000 1.5510000000
0.2565000000 7.2682000000 0.4624000000
0.2562000000 7.3388000000 0.4328000000
0.2556000000 1.1523000000 0.6490000000
0.2548000000 3.2395000000 1.5607000000
0.2546000000 3.7738000000 1.7914000000
0.2544000000 1.8029000000 0.9339000000
0.2542000000 7.5529000000 0.4019000000
0.2539000000 5.3981000000 1.2810000000
0.2537000000 5.9081000000 1.0520000000
0.2534000000 3.9379000000 1.8645000000
0.2533000000 5.0174000000 1.4442000000
0.2531000000 7.0142000000 0.5711000000
0.2528000000 5.2545000000 1.3433000000
0.2527000000 3.1553000000 1.5214000000
0.2524000000 1.4410000000 0.7794000000
0.2523000000 6.3334000000 0.8711000000
0.2521000000 3.7581000000 1.7889000000
0.2518000000 5.2434000000 1.3530000000
0.2515000000 1.1853000000 0.6618000000
0.2513000000 2.3962000000 1.1904000000
0.2509000000 3.6931000000 1.7595000000
0.2503000000 1.9086000000 0.9791000000
0.2500000000 2.7016000000 1.3239000000
0.2494000000 5.1203000000 1.3997000000
0.2489000000 4.5884000000 1.6332000000
0.2482000000 1.1738000000 0.6537000000
0.2444000000 1.1460000000 0.6391000000
0.0122000000 7.3850000000 0.2299000000
0.0100000000 5.9393000000 0.8620000000
0.0094000000 7.3504000000 0.2394000000
0.0089000000 1.5591000000 0.6435000000
0.0081000000 1.6286000000 0.6710000000
0.0078000000 0.0127000000 0.0296000000
0.0073000000 5.6550000000 0.9800000000
0.0069000000 4.7305000000 1.3834000000
0.0067000000 2.7863000000 1.1811000000
0.0065000000 7.9187000000 0.0469000000
0.0061000000 7.8683000000 0.0916000000
0.0059000000 7.5826000000 0.1365000000
0.0056000000 7.2991000000 0.2616000000
0.0054000000 0.3744000000 0.1179000000
0.0052000000 6.7134000000 0.5169000000
0.0049000000 1.5018000000 0.6142000000
0.0046000000 7.0246000000 0.3816000000
0.0043000000 1.6292000000 0.6674000000
0.0040000000 5.1115000000 1.2166000000
0.0038000000 6.4299000000 0.6381000000
0.0037000000 7.9719000000 0.0266000000
0.0034000000 3.5993000000 1.5305000000
0.0031000000 3.7504000000 1.5927000000
0.0028000000 3.5384000000 1.5042000000
0.0025000000 2.8284000000 1.1919000000
0.0022000000 0.0424000000 0.0381000000
0.0018000000 6.1996000000 0.7433000000
0.0016000000 1.5952000000 0.6503000000
0.0013000000 2.7055000000 1.1298000000
0.0006000000 0.5509000000 0.1955000000
0.0004000000 3.5659000000 1.5073000000
-0.0003000000 0.5115000000 0.1853000000
-0.0010000000 0.7365000000 0.2791000000
-0.0014000000 1.6524000000 0.6710000000
-0.0020000000 0.1270000000 0.0882000000
-0.0031000000 0.7542000000 0.2812000000
-0.2362000000 6.7113000000 0.3422000000
-0.2387000000 6.7586000000 0.3221000000
-0.2400000000 4.5996000000 1.2585000000
-0.2406000000 4.5552000000 1.2707000000
-0.2412000000 5.2091000000 0.9894000000
-0.2419000000 4.1718000000 1.4387000000
-0.2421000000 7.0116000000 0.2012000000
-0.2430000000 7.6504000000 0.0671000000
-0.2434000000 1.6782000000 0.5041000000
-0.2440000000 4.8468000000 1.1411000000
-0.2443000000 5.4428000000 0.8785000000
-0.2445000000 6.5192000000 0.4168000000
-0.2447000000 4.6531000000 1.2319000000
-0.2451000000 6.9831000000 0.2089000000
-0.2454000000 1.3712000000 0.3682000000
-0.2457000000 0.3779000000 0.0061000000
-0.2458000000 4.1318000000 1.4492000000
-0.2462000000 1.8612000000 0.5812000000
-0.2464000000 6.1867000000 0.5554000000
-0.2468000000 4.2785000000 1.3819000000
-0.2472000000 7.0989000000 0.1630000000
-0.2478000000 1.9293000000 0.6054000000
-0.2480000000 3.0385000000 1.0957000000
-0.2482000000 7.0905000000 0.1633000000
-0.2484000000 2.2891000000 0.7611000000
-0.2486000000 3.2179000000 1.1680000000
-0.2492000000 4.2585000000 1.3959000000
-0.2495000000 3.7521000000 1.4028000000
-0.2498000000 3.6488000000 1.3561000000
-0.2500000000 3.0643000000 1.1004000000
-0.2504000000 6.2821000000 0.5107000000
-0.2507000000 6.3202000000 0.4910000000
-0.2513000000 1.6727000000 0.4921000000
-0.2522000000 6.5824000000 0.3798000000
-0.2550000000 1.5397000000 0.4370000000
-0.4892000000 4.3632000000 1.1655000000
-0.4900000000 0.6220000000 0.0038000000
-0.4908000000 1.5537000000 0.2658000000
-0.4924000000 5.7696000000 0.5504000000
-0.4928000000 5.4361000000 0.6959000000
-0.4933000000 4.9174000000 0.9240000000
-0.4938000000 6.4998000000 0.2373000000
-0.4940000000 0.8890000000 0.0492000000
-0.4942000000 2.9219000000 0.8580000000
-0.4947000000 6.1028000000 0.4061000000
-0.4950000000 6.3072000000 0.3117000000
-0.4952000000 2.8839000000 0.8395000000
-0.4954000000 6.4015000000 0.2760000000
-0.4957000000 0.7507000000 0.0620000000
-0.4959000000 4.5372000000 1.0835000000
-0.4961000000 1.8070000000 0.3672000000
-0.4965000000 2.7419000000 0.7731000000
-0.4968000000 4.8966000000 0.9314000000
-0.4972000000 4.0912000000 1.2792000000
-0.4975000000 3.6240000000 1.1613000000
-0.4977000000 1.1153000000 0.0623000000
-0.4980000000 1.2919000000 0.1460000000
-0.4984000000 2.3077000000 0.5839000000
-0.4987000000 3.5151000000 1.1101000000
-0.4991000000 2.2165000000 0.5463000000
-0.4995000000 2.5548000000 0.6930000000
-0.5003000000 2.9501000000 0.8662000000
-0.5014000000 5.1493000000 0.8174000000
-0.5017000000 3.6208000000 1.1531000000
-0.5037000000 2.9815000000 0.8781000000
-0.7378000000 6.5329000000 0.1106000000
-0.7397000000 5.6381000000 0.4243000000
-0.7406000000 6.4270000000 0.0789000000
-0.7416000000 5.3210000000 0.5578000000
-0.7419000000 1.2021000000 0.0677000000
-0.7429000000 4.3470000000 0.9852000000
-0.7433000000 5.5243000000 0.4706000000
-0.7434000000 2.3044000000 0.3941000000
-0.7440000000 3.3637000000 0.8624000000
-0.7443000000 4.6136000000 0.8631000000
-0.7450000000 6.8266000000 0.0520000000
-0.7455000000 1.2187000000 0.0785000000
-0.7457000000 2.2502000000 0.3731000000
-0.7460000000 2.1827000000 0.3410000000
-0.7463000000 5.4395000000 0.5088000000
-0.7467000000 5.5948000000 0.4391000000
-0.7472000000 1.9140000000 0.2232000000
-0.7476000000 6.4019000000 0.0825000000
-0.7480000000 1.3786000000 0.0667000000
-0.7486000000 5.0316000000 0.6849000000
-0.7490000000 1.1268000000 0.0289000000
-0.7493000000 1.7429000000 0.1548000000
-0.7495000000 5.8720000000 0.3145000000
-0.7496000000 6.6673000000 0.0414000000
-0.7498000000 2.0530000000 0.2826000000
-0.7510000000 1.2185000000 0.0699000000
-0.7520000000 1.1094000000 0.0197000000
-0.7527000000 2.2687000000 0.3737000000
-0.7555000000 6.1492000000 0.1921000000
-0.9906000000 5.2232000000 0.4158000000
-0.9911000000 4.5572000000 0.7006000000
-0.9919000000 5.5314000000 0.2812000000
-0.9926000000 4.0020000000 1.0037000000
-0.9932000000 4.5990000000 0.6908000000
-0.9936000000 4.8900000000 0.5586000000
-0.9937000000 5.0407000000 0.4923000000
-0.9944000000 5.2314000000 0.4095000000
-0.9950000000 5.7691000000 0.1698000000
-0.9954000000 1.7309000000 0.0407000000
-0.9961000000 2.1058000000 0.1201000000
-0.9965000000 2.7393000000 0.3968000000
-0.9968000000 4.9246000000 0.5420000000
-0.9972000000 2.4483000000 0.2633000000
-0.9975000000 5.6180000000 0.2380000000
-0.9978000000 1.8089000000 0.0626000000
-0.9987000000 3.8845000000 0.8943000000
-0.9996000000 2.1938000000 0.1566000000
-0.9998000000 2.1523000000 0.1334000000
-1.0002000000 6.2636000000 0.0241000000
-1.0007000000 2.2761000000 0.1959000000
-1.0017000000 3.1892000000 0.5872000000
-1.0031000000 2.9372000000 0.4774000000
-1.0047000000 1.8446000000 0.0757000000
-1.2390000000 5.9804000000 0.0460000000
-1.2405000000 5.5401000000 0.0835000000
-1.2416000000 3.9691000000 0.8079000000
-1.2423000000 3.5667000000 0.5762000000
-1.2430000000 3.3426000000 0.4749000000
-1.2437000000 3.9552000000 0.8023000000
-1.2442000000 2.7194000000 0.2000000000
-1.2446000000 1.9594000000 0.0190000000
-1.2451000000 2.8159000000 0.2419000000
-1.2454000000 4.2745000000 0.6343000000
-1.2459000000 5.1477000000 0.2526000000
-1.2461000000 2.4081000000 0.0657000000
-1.2467000000 2.1397000000 0.0268000000
-1.2470000000 5.7145000000 0.0832000000
-1.2475000000 4.9695000000 0.3346000000
-1.2482000000 4.8211000000 0.3923000000
-1.2489000000 2.5642000000 0.1272000000
-1.2492000000 5.3587000000 0.1643000000
-1.2498000000 5.7742000000 0.0562000000
-1.2503000000 3.7342000000 0.6398000000
-1.2512000000 3.6446000000 0.6057000000
-1.2518000000 1.9367000000 0.0038000000
-1.2529000000 3.7493000000 0.6416000000
-1.4889000000 4.0037000000 0.6319000000
-1.4895000000 3.9765000000 0.6235000000
-1.4914000000 2.8434000000 0.0688000000
-1.4926000000 3.6859000000 0.4370000000
-1.4933000000 4.7239000000 0.2508000000
-1.4942000000 5.5673000000 0.0352000000
-1.4945000000 4.6953000000 0.2630000000
-1.4955000000 5.1102000000 0.0848000000
-1.4961000000 3.4191000000 0.3140000000
-1.4966000000 3.1467000000 0.2004000000
-1.4972000000 5.4167000000 0.0251000000
-1.4976000000 4.3279000000 0.4245000000
-1.4977000000 2.4490000000 0.0439000000
-1.4980000000 4.4832000000 0.3550000000
-1.4986000000 4.5902000000 0.3037000000
-1.7380000000 3.0328000000 0.0404000000
-1.7403000000 5.1397000000 0.0333000000
-1.7416000000 4.4885000000 0.1688000000
-1.7427000000 3.6942000000 0.2516000000
-1.7440000000 5.1135000000 0.0410000000
-1.7444000000 4.4987000000 0.1609000000
-1.7458000000 4.7512000000 0.1217000000
-1.7466000000 3.3917000000 0.1127000000
-1.7471000000 4.9407000000 0.0380000000
-1.7482000000 5.1973000000 0.0010000000
-1.7486000000 5.0811000000 0.0524000000
-1.7523000000 3.3111000000 0.0755000000
-1.7555000000 4.1567000000 0.3046000000
-1.9883000000 4.7380000000 0.0217000000
-1.9932000000 3.5188000000 0.0612000000
-1.9947000000 3.7741000000 0.0943000000
-1.9955000000 3.3857000000 0.0714000000
-1.9965000000 3.4232000000 0.0147000000
-1.9982000000 3.8169000000 0.1060000000
