5.5134000000 3.0647000000 0.0689000000
5.5088000000 3.3987000000 0.0932000000
5.5069000000 2.9335000000 0.0696000000
5.5061000000 3.2210000000 0.0737000000
5.5052000000 2.8336000000 0.0164000000
5.5035000000 3.5351000000 0.0891000000
5.5010000000 3.4394000000 0.0719000000
5.2584000000 3.1795000000 0.3163000000
5.2556000000 2.6952000000 0.1151000000
5.2553000000 2.4229000000 0.0260000000
5.2559000000 2.6722000000 0.0986000000
5.2548000000 2.6119000000 0.0689000000
5.2545000000 3.3871000000 0.2762000000
5.2542000000 3.8283000000 0.0914000000
5.2537000000 3.6488000000 0.1225000000
5.2529000000 3.7214000000 0.0773000000
5.2512000000 3.3890000000 0.2845000000
5.2502000000 2.6259000000 0.0789000000
5.2487000000 3.5800000000 0.1707000000
5.2481000000 3.5020000000 0.2170000000
5.0145000000 4.0544000000 0.1310000000
5.0119000000 4.0681000000 0.1262000000
5.0111000000 3.1088000000 0.5268000000
5.0094000000 4.2404000000 0.0985000000
5.0083000000 4.2494000000 0.0984000000
5.0070000000 4.3541000000 0.0334000000
5.0068000000 4.4253000000 0.0723000000
5.0065000000 3.6138000000 0.3905000000
5.0057000000 2.1396000000 0.0406000000
5.0053000000 4.4421000000 0.0650000000
5.0052000000 3.4882000000 0.4717000000
5.0045000000 4.0905000000 0.1213000000
5.0038000000 4.4170000000 0.0774000000
5.0025000000 4.0714000000 0.1343000000
5.0020000000 4.1125000000 0.1052000000
5.0018000000 4.5351000000 0.0153000000
5.0016000000 3.0730000000 0.5169000000
4.9995000000 3.2037000000 0.5721000000
4.9991000000 3.9016000000 0.2354000000
4.9985000000 1.9500000000 0.0128000000
4.7608000000 3.1423000000 0.7978000000
4.7595000000 4.3474000000 0.2166000000
4.7587000000 2.5442000000 0.4528000000
4.7585000000 3.3480000000 0.8047000000
4.7579000000 4.9418000000 0.0185000000
4.7573000000 4.2671000000 0.2674000000
4.7569000000 4.4709000000 0.1455000000
4.7565000000 2.5019000000 0.4258000000
4.7563000000 2.3730000000 0.3571000000
4.7558000000 2.6820000000 0.5370000000
4.7551000000 3.7651000000 0.5573000000
4.7548000000 4.1503000000 0.3376000000
4.7536000000 3.1201000000 0.7870000000
4.7535000000 2.6457000000 0.5125000000
4.7538000000 3.3527000000 0.8087000000
4.7530000000 3.8464000000 0.5197000000
4.7526000000 4.9651000000 0.0087000000
4.7524000000 2.2214000000 0.2739000000
4.7523000000 2.9637000000 0.7041000000
4.7522000000 2.7880000000 0.5986000000
4.7517000000 2.3782000000 0.3614000000
4.7507000000 2.9031000000 0.6692000000
4.7489000000 2.1464000000 0.2311000000
4.7473000000 2.4684000000 0.4180000000
4.7442000000 3.0025000000 0.7320000000
4.5125000000 4.5081000000 0.3714000000
4.5118000000 4.0355000000 0.6479000000
4.5113000000 5.0172000000 0.0740000000
4.5095000000 4.6972000000 0.2645000000
4.5080000000 1.4508000000 0.0660000000
4.5076000000 4.5450000000 0.3542000000
4.5071000000 3.3952000000 1.0214000000
4.5067000000 1.4172000000 0.1209000000
4.5062000000 3.1746000000 1.0741000000
4.5059000000 2.6527000000 0.7624000000
4.5058000000 2.4262000000 0.6332000000
4.5054000000 4.2307000000 0.5412000000
4.5052000000 2.8377000000 0.8781000000
4.5046000000 1.7979000000 0.2728000000
4.5044000000 4.7727000000 0.2266000000
4.5040000000 3.5394000000 0.9431000000
4.5038000000 4.9645000000 0.1209000000
4.5030000000 2.6578000000 0.7742000000
4.5026000000 3.7079000000 0.8494000000
4.5021000000 4.4647000000 0.4083000000
4.5019000000 5.2391000000 0.0293000000
4.5018000000 2.9018000000 0.9170000000
4.5015000000 4.2188000000 0.5490000000
4.5013000000 1.4000000000 0.1166000000
4.5010000000 2.5007000000 0.6871000000
4.5008000000 2.7445000000 0.8203000000
4.5000000000 3.6259000000 0.8979000000
4.4992000000 3.9302000000 0.7219000000
4.4989000000 2.4201000000 0.6436000000
4.4975000000 4.9692000000 0.1123000000
4.4945000000 2.5634000000 0.7268000000
4.2624000000 1.1283000000 0.1246000000
4.2603000000 3.5822000000 1.1656000000
4.2592000000 0.9439000000 0.0956000000
4.2589000000 0.8888000000 0.0627000000
4.2585000000 1.5366000000 0.3701000000
4.2583000000 4.0738000000 0.8856000000
4.2581000000 1.7919000000 0.5206000000
4.2574000000 5.6806000000 0.0919000000
4.2568000000 2.2297000000 0.7773000000
4.2564000000 4.2646000000 0.7709000000
4.2562000000 4.2487000000 0.7807000000
4.2555000000 5.0071000000 0.3384000000
4.2553000000 5.6358000000 0.0534000000
4.2550000000 0.9590000000 0.1050000000
4.2549000000 1.1428000000 0.1412000000
4.2546000000 2.3144000000 0.8292000000
4.2544000000 3.6804000000 1.1149000000
4.2541000000 2.2514000000 0.7914000000
4.2540000000 1.9724000000 0.6329000000
4.2538000000 2.0727000000 0.6839000000
4.2536000000 2.2524000000 0.7917000000
4.2533000000 5.5134000000 0.1260000000
4.2532000000 1.6096000000 0.4215000000
4.2529000000 0.9130000000 0.0803000000
4.2527000000 0.7893000000 0.0837000000
4.2525000000 3.8058000000 1.0440000000
4.2523000000 0.8940000000 0.0732000000
4.2519000000 1.6462000000 0.4391000000
4.2518000000 2.7801000000 1.0996000000
4.2514000000 2.0421000000 0.6694000000
4.2511000000 4.2082000000 0.8113000000
4.2507000000 0.6851000000 0.0273000000
4.2505000000 2.0555000000 0.6819000000
4.2503000000 2.5760000000 0.9793000000
4.2499000000 3.4380000000 1.2629000000
4.2495000000 1.0298000000 0.0850000000
4.2485000000 3.5468000000 1.2010000000
4.2478000000 2.7524000000 1.0892000000
4.2477000000 4.7753000000 0.4835000000
4.2471000000 2.0620000000 0.6909000000
4.0148000000 2.7015000000 1.2921000000
4.0120000000 5.5597000000 0.2656000000
4.0107000000 2.3959000000 1.1136000000
4.0092000000 4.6694000000 0.7913000000
4.0091000000 3.6447000000 1.3847000000
4.0088000000 5.6087000000 0.2402000000
4.0083000000 5.3187000000 0.4101000000
4.0080000000 1.4948000000 0.5918000000
4.0077000000 5.2444000000 0.4503000000
4.0073000000 4.3344000000 0.9851000000
4.0071000000 5.8116000000 0.1193000000
4.0069000000 6.2075000000 0.0443000000
4.0068000000 1.8873000000 0.8254000000
4.0065000000 0.2629000000 0.0383000000
4.0064000000 0.2323000000 0.0141000000
4.0063000000 2.5797000000 1.2288000000
4.0062000000 3.1696000000 1.5747000000
4.0060000000 1.1259000000 0.3806000000
4.0060000000 1.9554000000 0.8708000000
4.0057000000 3.6269000000 1.3962000000
4.0055000000 0.2757000000 0.0339000000
4.0055000000 1.2767000000 0.4743000000
4.0051000000 4.3799000000 0.9584000000
4.0048000000 5.9643000000 0.1135000000
4.0045000000 3.8033000000 1.2934000000
4.0045000000 2.8690000000 1.3991000000
4.0043000000 3.0501000000 1.5095000000
4.0039000000 0.4373000000 0.0662000000
4.0034000000 5.0270000000 0.5817000000
4.0033000000 1.9359000000 0.8539000000
4.0029000000 2.2363000000 1.0312000000
4.0027000000 4.9345000000 0.6401000000
4.0023000000 0.5292000000 0.1082000000
4.0022000000 4.0615000000 1.1454000000
4.0019000000 0.6165000000 0.0905000000
4.0018000000 0.7187000000 0.1491000000
4.0017000000 1.2522000000 0.4611000000
4.0015000000 5.7190000000 0.1858000000
4.0013000000 2.5064000000 1.1943000000
4.0011000000 6.0101000000 0.0845000000
4.0007000000 4.8373000000 0.6959000000
4.0003000000 6.0075000000 0.0932000000
4.0001000000 2.5975000000 1.2430000000
3.9997000000 0.9154000000 0.2679000000
3.9996000000 1.7711000000 0.7629000000
3.9984000000 1.9796000000 0.8889000000
3.9982000000 0.2461000000 0.0280000000
3.9945000000 5.3846000000 0.3841000000
3.9938000000 3.8201000000 1.2951000000
3.7623000000 6.0712000000 0.2169000000
3.7619000000 2.6785000000 1.5381000000
3.7616000000 2.6800000000 1.5386000000
3.7608000000 5.4519000000 0.5851000000
3.7591000000 2.2324000000 1.2764000000
3.7586000000 4.3453000000 1.2258000000
3.7580000000 3.8006000000 1.5496000000
3.7578000000 5.1486000000 0.7590000000
3.7576000000 2.0117000000 1.1521000000
3.7575000000 0.9096000000 0.5122000000
3.7572000000 2.3227000000 1.3299000000
3.7570000000 6.0310000000 0.2501000000
3.7566000000 0.1353000000 0.0579000000
3.7564000000 5.7241000000 0.4298000000
3.7563000000 2.8331000000 1.6321000000
3.7560000000 3.4446000000 1.7574000000
3.7559000000 1.1887000000 0.6720000000
3.7556000000 5.3664000000 0.6326000000
3.7553000000 1.3776000000 0.7824000000
3.7549000000 6.1053000000 0.2102000000
3.7548000000 5.5647000000 0.5174000000
3.7547000000 2.9844000000 1.7198000000
3.7545000000 2.9370000000 1.6935000000
3.7543000000 1.3990000000 0.7903000000
3.7542000000 2.4185000000 1.3939000000
3.7538000000 2.1732000000 1.2502000000
3.7537000000 1.5958000000 0.9104000000
3.7536000000 3.7543000000 1.5742000000
3.7535000000 0.9184000000 0.5155000000
3.7533000000 2.7328000000 1.5689000000
3.7530000000 2.6457000000 1.5229000000
3.7529000000 0.6375000000 0.3491000000
3.7528000000 1.9170000000 1.1026000000
3.7524000000 5.2796000000 0.6890000000
3.7523000000 2.0349000000 1.1704000000
3.7520000000 3.6580000000 1.6310000000
3.7519000000 4.7611000000 0.9977000000
3.7515000000 3.5240000000 1.7049000000
3.7513000000 4.0177000000 1.4285000000
3.7511000000 5.2322000000 0.7189000000
3.7508000000 2.5577000000 1.4705000000
3.7499000000 3.8881000000 1.5022000000
3.7494000000 5.4529000000 0.5924000000
3.7491000000 1.0733000000 0.6138000000
3.7482000000 0.3178000000 0.1672000000
3.7475000000 4.3831000000 1.2173000000
3.7456000000 2.3209000000 1.3495000000
3.5121000000 4.7041000000 1.2677000000
3.5110000000 3.3521000000 2.0537000000
3.5103000000 1.7380000000 1.2428000000
3.5099000000 4.6187000000 1.3219000000
3.5096000000 5.7863000000 0.6395000000
3.5088000000 5.9086000000 0.5669000000
3.5088000000 4.9865000000 1.1081000000
3.5084000000 0.3942000000 0.4339000000
3.5083000000 2.3251000000 1.5865000000
3.5078000000 3.5474000000 1.9445000000
3.5077000000 6.4977000000 0.0622000000
3.5073000000 6.2552000000 0.2626000000
3.5071000000 3.7111000000 1.8488000000
3.5070000000 1.5073000000 1.1115000000
3.5068000000 5.3487000000 0.9015000000
3.5065000000 4.6723000000 1.2971000000
3.5063000000 3.2273000000 2.0965000000
3.5061000000 3.9777000000 1.6962000000
3.5058000000 4.3460000000 1.4872000000
3.5057000000 5.1658000000 1.0037000000
3.5055000000 5.5402000000 0.7905000000
3.5054000000 3.9757000000 1.6976000000
3.5051000000 5.1745000000 0.9979000000
3.5049000000 1.2477000000 0.9616000000
3.5048000000 5.9554000000 0.5449000000
3.5047000000 3.8605000000 1.7614000000
3.5043000000 2.6753000000 1.7928000000
3.5042000000 0.5128000000 0.5162000000
3.5041000000 2.5579000000 1.7194000000
3.5040000000 4.1973000000 1.5701000000
3.5038000000 4.2889000000 1.5199000000
3.5038000000 1.1193000000 0.8889000000
3.5033000000 3.2720000000 2.0889000000
3.5034000000 0.0472000000 0.1221000000
3.5032000000 4.7215000000 1.2709000000
3.5030000000 2.1610000000 1.4945000000
3.5028000000 5.7444000000 0.6703000000
3.5022000000 3.7788000000 1.8143000000
3.5020000000 4.7747000000 1.2355000000
3.5017000000 2.9020000000 1.9236000000
3.5012000000 2.0729000000 1.4409000000
3.5010000000 0.2041000000 0.2269000000
3.5008000000 4.8491000000 1.1897000000
3.5003000000 6.1647000000 0.3619000000
3.4994000000 1.5689000000 1.1536000000
3.4988000000 1.9701000000 1.3856000000
3.4985000000 0.7637000000 0.6867000000
3.4974000000 3.1055000000 2.0509000000
3.2678000000 3.9903000000 1.9312000000
3.2639000000 6.3762000000 0.1274000000
3.2619000000 5.2244000000 1.2106000000
3.2606000000 2.8775000000 2.1567000000
3.2602000000 4.1590000000 1.8387000000
3.2598000000 1.0377000000 1.0869000000
3.2592000000 5.2957000000 1.1817000000
3.2588000000 1.3555000000 1.2732000000
3.2583000000 6.2855000000 0.2303000000
3.2581000000 5.0768000000 1.3097000000
3.2580000000 4.7905000000 1.4700000000
3.2578000000 5.4830000000 1.0727000000
3.2573000000 2.1496000000 1.7324000000
3.2568000000 4.2399000000 1.7934000000
3.2566000000 0.2369000000 0.2696000000
3.2565000000 6.3095000000 0.1988000000
3.2562000000 0.8602000000 0.9657000000
3.2559000000 0.8639000000 0.9701000000
3.2559000000 1.0992000000 1.1264000000
3.2558000000 0.5168000000 0.5900000000
3.2555000000 3.0298000000 2.2514000000
3.2554000000 0.6682000000 0.7719000000
3.2553000000 1.9153000000 1.6005000000
3.2551000000 5.6478000000 0.9485000000
3.2549000000 2.3013000000 1.8240000000
3.2547000000 6.0490000000 0.5058000000
3.2546000000 5.7479000000 0.8481000000
3.2543000000 2.6545000000 2.0355000000
3.2542000000 2.7901000000 2.1149000000
3.2540000000 1.8626000000 1.5733000000
3.2538000000 6.3873000000 0.1121000000
3.2537000000 0.7508000000 0.8614000000
3.2534000000 1.2724000000 1.2349000000
3.2533000000 4.7115000000 1.5292000000
3.2529000000 4.5638000000 1.6119000000
3.2528000000 1.6566000000 1.4512000000
3.2527000000 2.3606000000 1.8599000000
3.2523000000 0.2120000000 0.2319000000
3.2522000000 6.2542000000 0.2671000000
3.2518000000 1.9057000000 1.5935000000
3.2516000000 5.2700000000 1.2034000000
3.2513000000 3.6664000000 2.1408000000
3.2510000000 6.4747000000 0.0846000000
3.2508000000 0.2098000000 0.2335000000
3.2507000000 2.5896000000 1.9983000000
3.2502000000 1.0409000000 1.1016000000
3.2496000000 5.9350000000 0.6401000000
3.2495000000 0.9406000000 1.0210000000
3.2493000000 5.0131000000 1.3580000000
3.2489000000 4.2712000000 1.7851000000
3.2485000000 2.6650000000 2.0479000000
3.2481000000 1.7342000000 1.5102000000
3.0098000000 4.7102000000 1.7655000000
3.0088000000 2.9001000000 2.4253000000
3.0080000000 4.2997000000 2.0087000000
3.0077000000 4.3025000000 2.0112000000
3.0075000000 2.3684000000 2.1109000000
3.0072000000 2.8891000000 2.4158000000
3.0067000000 4.7657000000 1.7370000000
3.0063000000 2.5836000000 2.2427000000
3.0061000000 4.6938000000 1.7872000000
3.0061000000 1.5095000000 1.6143000000
3.0058000000 4.5503000000 1.8717000000
3.0055000000 4.1798000000 2.0832000000
3.0053000000 5.8608000000 0.7260000000
3.0051000000 1.1628000000 1.3402000000
3.0049000000 1.1485000000 1.3282000000
3.0048000000 3.6808000000 2.3782000000
3.0047000000 4.2405000000 2.0492000000
3.0044000000 2.2876000000 2.0696000000
3.0042000000 1.2457000000 1.4248000000
3.0042000000 3.5338000000 2.4566000000
3.0038000000 0.3735000000 0.4285000000
3.0036000000 1.9265000000 1.8596000000
3.0033000000 0.3910000000 0.4495000000
3.0032000000 4.6194000000 1.8340000000
3.0027000000 5.9892000000 0.5762000000
3.0028000000 2.8189000000 2.3824000000
3.0026000000 6.4186000000 0.0710000000
3.0025000000 3.2067000000 2.5961000000
3.0024000000 4.5078000000 1.8939000000
3.0022000000 1.1387000000 1.3126000000
3.0020000000 2.1920000000 2.0158000000
3.0018000000 5.5846000000 1.0486000000
3.0015000000 1.6083000000 1.6829000000
3.0014000000 1.0952000000 1.2657000000
3.0008000000 0.7002000000 0.8003000000
3.0004000000 5.8895000000 0.6886000000
3.0000000000 4.4341000000 1.9391000000
2.9994000000 1.5544000000 1.6553000000
2.9992000000 2.4838000000 2.1901000000
2.9982000000 3.4928000000 2.4883000000
2.9978000000 1.0739000000 1.2429000000
2.9975000000 2.2833000000 2.0765000000
2.9968000000 0.1443000000 0.1565000000
2.9959000000 2.2356000000 2.0496000000
2.7627000000 5.0207000000 1.7048000000
2.7606000000 6.0013000000 0.5585000000
2.7591000000 3.5379000000 2.7052000000
2.7588000000 4.2340000000 2.2992000000
2.7586000000 3.9285000000 2.4785000000
2.7583000000 5.7715000000 0.8296000000
2.7575000000 5.1987000000 1.4964000000
2.7573000000 6.3024000000 0.2098000000
2.7570000000 1.9609000000 2.1355000000
2.7565000000 4.5394000000 2.1235000000
2.7564000000 4.4049000000 2.2101000000
2.7558000000 4.3888000000 2.2106000000
2.7555000000 5.8190000000 0.7781000000
2.7554000000 4.1496000000 2.3526000000
2.7553000000 4.1622000000 2.3502000000
2.7549000000 4.9518000000 1.7816000000
2.7548000000 3.4314000000 2.7744000000
2.7545000000 2.7354000000 2.5832000000
2.7543000000 1.5687000000 1.8183000000
2.7543000000 1.9031000000 2.0967000000
2.7541000000 4.4417000000 2.1833000000
2.7538000000 2.7991000000 2.6218000000
2.7534000000 0.3697000000 0.4224000000
2.7532000000 2.6177000000 2.5222000000
2.7531000000 0.2934000000 0.3381000000
2.7530000000 0.0239000000 0.0952000000
2.7529000000 4.1072000000 2.3820000000
2.7528000000 0.2974000000 0.3422000000
2.7527000000 3.6529000000 2.6495000000
2.7525000000 1.5052000000 1.7466000000
2.7520000000 0.0021000000 0.0628000000
2.7519000000 4.8212000000 1.9180000000
2.7515000000 2.5077000000 2.4519000000
2.7513000000 4.7103000000 2.0191000000
2.7511000000 1.0821000000 1.2500000000
2.7507000000 0.8635000000 0.9959000000
2.7505000000 1.3761000000 1.5912000000
2.7503000000 0.7639000000 0.8757000000
2.7498000000 1.0284000000 1.1898000000
2.7486000000 2.9994000000 2.7409000000
2.7483000000 0.4287000000 0.4912000000
2.7472000000 0.4297000000 0.4880000000
2.7464000000 0.4460000000 0.5106000000
2.7450000000 1.6949000000 1.9483000000
2.7446000000 2.0309000000 2.1864000000
2.5140000000 2.7928000000 2.8642000000
2.5131000000 5.1616000000 1.5425000000
2.5105000000 4.4719000000 2.3456000000
2.5091000000 6.1965000000 0.3347000000
2.5088000000 5.7024000000 0.9101000000
2.5080000000 6.4480000000 0.1206000000
2.5075000000 4.5433000000 2.2545000000
2.5072000000 0.9174000000 1.0554000000
2.5068000000 5.6852000000 0.9275000000
2.5066000000 5.8211000000 0.7687000000
2.5064000000 5.8533000000 0.7330000000
2.5062000000 4.8238000000 1.9336000000
2.5061000000 5.6137000000 1.0102000000
2.5059000000 5.5107000000 1.1325000000
2.5057000000 4.1924000000 2.5816000000
2.5056000000 0.0535000000 0.1267000000
2.5051000000 4.6310000000 2.1584000000
2.5049000000 3.7100000000 2.8669000000
2.5047000000 6.1113000000 0.4381000000
2.5045000000 3.6527000000 2.8956000000
2.5043000000 6.0202000000 0.5356000000
2.5042000000 0.3377000000 0.3858000000
2.5041000000 5.6962000000 0.9206000000
2.5038000000 4.6701000000 2.1142000000
2.5037000000 1.3304000000 1.5384000000
2.5033000000 4.2185000000 2.5675000000
2.5031000000 2.8571000000 2.9022000000
2.5029000000 1.6221000000 1.8859000000
2.5028000000 1.3397000000 1.5506000000
2.5027000000 2.6342000000 2.7768000000
2.5026000000 3.7315000000 2.8500000000
2.5025000000 0.6279000000 0.7245000000
2.5023000000 1.3436000000 1.5509000000
2.5022000000 5.8321000000 0.7585000000
2.5018000000 2.5085000000 2.7048000000
2.5016000000 5.7333000000 0.8754000000
2.5015000000 2.7866000000 2.8728000000
2.5012000000 2.1183000000 2.4402000000
2.5010000000 0.3708000000 0.4121000000
2.5005000000 4.6979000000 2.0817000000
2.5002000000 4.6218000000 2.1693000000
2.5000000000 3.7180000000 2.8641000000
2.4997000000 1.8665000000 2.1683000000
2.4995000000 4.2075000000 2.5749000000
2.4991000000 0.9947000000 1.1471000000
2.4984000000 2.3185000000 2.5989000000
2.4979000000 0.7949000000 0.9225000000
2.4976000000 2.7667000000 2.8580000000
2.4965000000 4.7375000000 2.0330000000
2.2642000000 5.1338000000 1.5718000000
2.2633000000 5.1557000000 1.5424000000
2.2627000000 5.2425000000 1.4439000000
2.2616000000 1.3822000000 1.6088000000
2.2614000000 6.3593000000 0.1417000000
2.2599000000 2.0886000000 2.4196000000
2.2598000000 3.6283000000 3.1530000000
2.2587000000 4.3244000000 2.5151000000
2.2582000000 1.8075000000 2.0982000000
2.2576000000 4.0741000000 2.8096000000
2.2573000000 3.0143000000 3.2498000000
2.2570000000 5.7247000000 0.8777000000
2.2568000000 3.0096000000 3.2466000000
2.2567000000 2.5388000000 2.9311000000
2.2563000000 2.1327000000 2.4749000000
2.2562000000 5.4001000000 1.2593000000
2.2560000000 5.2705000000 1.4147000000
2.2558000000 1.5014000000 1.7354000000
2.2554000000 5.7962000000 0.7972000000
2.2553000000 5.3700000000 1.2980000000
2.2550000000 0.6748000000 0.7806000000
2.2549000000 3.1676000000 3.3441000000
2.2548000000 1.4429000000 1.6699000000
2.2546000000 5.4307000000 1.2217000000
2.2544000000 6.3486000000 0.1575000000
2.2539000000 1.3925000000 1.6151000000
2.2535000000 4.0070000000 2.8770000000
2.2534000000 5.2952000000 1.3829000000
2.2531000000 4.9822000000 1.7476000000
2.2529000000 3.1085000000 3.3086000000
2.2527000000 3.8229000000 3.0320000000
2.2526000000 5.6654000000 0.9575000000
2.2525000000 1.8401000000 2.1407000000
2.2521000000 4.3481000000 2.4858000000
2.2519000000 5.2574000000 1.4219000000
2.2517000000 1.9519000000 2.2679000000
2.2515000000 1.8170000000 2.1089000000
2.2512000000 0.0216000000 0.0900000000
2.2509000000 2.8199000000 3.1468000000
2.2502000000 0.5468000000 0.6277000000
2.2499000000 0.6146000000 0.7048000000
2.2487000000 4.3614000000 2.4688000000
2.2483000000 1.1996000000 1.3858000000
2.2474000000 1.9901000000 2.3059000000
2.2461000000 1.8569000000 2.1570000000
2.0141000000 4.2220000000 2.6332000000
2.0100000000 4.9065000000 1.8387000000
2.0094000000 3.7797000000 3.1459000000
2.0087000000 5.8535000000 0.7305000000
2.0083000000 2.0823000000 2.4171000000
2.0080000000 1.1346000000 1.3099000000
2.0076000000 4.9148000000 1.8267000000
2.0073000000 5.3668000000 1.3008000000
2.0070000000 3.5482000000 3.3927000000
2.0070000000 1.0430000000 1.2030000000
2.0065000000 5.7635000000 0.8361000000
2.0062000000 3.7357000000 3.2019000000
2.0060000000 4.9778000000 1.7502000000
2.0055000000 3.1560000000 3.5820000000
2.0053000000 1.6544000000 1.9204000000
2.0053000000 6.2495000000 0.2724000000
2.0049000000 5.4083000000 1.2493000000
2.0046000000 2.2714000000 2.6408000000
2.0045000000 1.1792000000 1.3671000000
2.0043000000 6.2340000000 0.2849000000
2.0042000000 3.5463000000 3.3969000000
2.0040000000 2.2787000000 2.6423000000
2.0035000000 0.2461000000 0.2766000000
2.0032000000 2.8405000000 3.3033000000
2.0027000000 1.2177000000 1.4077000000
2.0025000000 1.7934000000 2.0812000000
2.0023000000 2.0434000000 2.3657000000
2.0020000000 0.3069000000 0.3451000000
2.0018000000 2.1147000000 2.4571000000
2.0017000000 3.6054000000 3.3518000000
2.0015000000 1.0320000000 1.1963000000
2.0013000000 0.5320000000 0.6098000000
2.0011000000 4.5605000000 2.2402000000
2.0010000000 3.5296000000 3.4177000000
2.0006000000 2.2096000000 2.5632000000
2.0003000000 1.7248000000 2.0061000000
2.0001000000 4.1411000000 2.7222000000
2.0000000000 0.7876000000 0.9108000000
1.9997000000 3.9808000000 2.9140000000
1.9995000000 1.0669000000 1.2310000000
1.9994000000 0.8303000000 0.9557000000
1.9990000000 2.3117000000 2.6834000000
1.9988000000 3.5344000000 3.4115000000
1.9973000000 6.0739000000 0.4726000000
1.9964000000 0.8850000000 1.0245000000
1.9948000000 0.2341000000 0.2642000000
1.7625000000 6.0001000000 0.5654000000
1.7610000000 4.1906000000 2.6700000000
1.7601000000 6.1869000000 0.3470000000
1.7594000000 1.6970000000 1.9655000000
1.7593000000 2.5423000000 2.9532000000
1.7591000000 3.8312000000 3.0896000000
1.7585000000 5.0400000000 1.6839000000
1.7583000000 2.8964000000 3.3670000000
1.7580000000 5.5233000000 1.1170000000
1.7576000000 5.9538000000 0.6181000000
1.7573000000 4.9830000000 1.7496000000
1.7569000000 6.3993000000 0.0983000000
1.7567000000 1.5519000000 1.8017000000
1.7566000000 5.2674000000 1.4147000000
1.7565000000 5.6465000000 0.9694000000
1.7560000000 1.9728000000 2.2880000000
1.7559000000 1.8060000000 2.0999000000
1.7556000000 4.2473000000 2.6087000000
1.7554000000 1.4439000000 1.6747000000
1.7552000000 6.4221000000 0.0717000000
1.7548000000 4.1626000000 2.7001000000
1.7544000000 3.5126000000 3.4481000000
1.7543000000 4.1385000000 2.7352000000
1.7542000000 3.8759000000 3.0376000000
1.7539000000 3.0983000000 3.5475000000
1.7536000000 0.8284000000 0.9531000000
1.7534000000 2.4738000000 2.8743000000
1.7531000000 2.1172000000 2.4639000000
1.7530000000 3.8610000000 3.0559000000
1.7526000000 2.2203000000 2.5743000000
1.7525000000 1.0282000000 1.1921000000
1.7520000000 5.8135000000 0.7769000000
1.7519000000 1.7107000000 1.9848000000
1.7517000000 4.2803000000 2.5659000000
1.7515000000 2.7323000000 3.1746000000
1.7514000000 1.2445000000 1.4393000000
1.7512000000 1.1284000000 1.3077000000
1.7511000000 1.3283000000 1.5413000000
1.7510000000 3.2573000000 3.6247000000
1.7509000000 0.1169000000 0.1258000000
1.7505000000 1.1201000000 1.2877000000
1.7501000000 4.2878000000 2.5605000000
1.7499000000 2.3941000000 2.7754000000
1.7498000000 3.1129000000 3.5536000000
1.7493000000 1.0785000000 1.2429000000
1.7492000000 2.5469000000 2.9588000000
1.7483000000 2.8814000000 3.3451000000
1.7482000000 1.0808000000 1.2487000000
1.7478000000 1.5776000000 1.8215000000
1.7477000000 3.7328000000 3.2019000000
1.7469000000 2.3550000000 2.7325000000
1.7459000000 1.4204000000 1.6425000000
1.7455000000 0.1046000000 0.1156000000
1.5105000000 3.4045000000 3.3165000000
1.5100000000 4.0091000000 2.8781000000
1.5086000000 0.5829000000 0.6657000000
1.5085000000 4.2843000000 2.5616000000
1.5080000000 4.5280000000 2.2780000000
1.5074000000 4.2599000000 2.5935000000
1.5069000000 4.5807000000 2.2206000000
1.5068000000 5.1828000000 1.5168000000
1.5066000000 6.3621000000 0.1403000000
1.5065000000 1.4091000000 1.6338000000
1.5063000000 2.0104000000 2.3280000000
1.5060000000 3.8610000000 3.0213000000
1.5056000000 4.6137000000 2.1767000000
1.5053000000 4.8843000000 1.8598000000
1.5051000000 5.2439000000 1.4442000000
1.5049000000 6.2790000000 0.2429000000
1.5048000000 1.7454000000 2.0198000000
1.5046000000 2.1274000000 2.4672000000
1.5045000000 0.0059000000 0.0675000000
1.5043000000 2.9081000000 3.1999000000
1.5040000000 1.3920000000 1.6123000000
1.5039000000 1.0011000000 1.1555000000
1.5038000000 0.7770000000 0.8905000000
1.5037000000 6.1039000000 0.4427000000
1.5035000000 2.0205000000 2.3448000000
1.5028000000 6.3674000000 0.1386000000
1.5026000000 5.4092000000 1.2508000000
1.5025000000 2.3727000000 2.7527000000
1.5023000000 0.0939000000 0.1005000000
1.5020000000 5.2427000000 1.4426000000
1.5020000000 0.2114000000 0.2372000000
1.5016000000 4.6599000000 2.1294000000
1.5014000000 0.9489000000 1.0957000000
1.5011000000 6.2179000000 0.3041000000
1.5009000000 2.7801000000 3.1282000000
1.4999000000 2.0593000000 2.3902000000
1.4996000000 0.6490000000 0.7439000000
1.4993000000 3.0796000000 3.2939000000
1.4987000000 2.5425000000 2.9332000000
1.4985000000 2.2315000000 2.5876000000
1.4981000000 4.3873000000 2.4439000000
1.4969000000 2.1340000000 2.4802000000
1.4949000000 1.0494000000 1.2153000000
1.4929000000 0.0812000000 0.0787000000
1.2625000000 6.0109000000 0.5472000000
1.2610000000 0.8665000000 1.0020000000
1.2603000000 6.4575000000 0.1017000000
1.2596000000 6.3985000000 0.0967000000
1.2589000000 6.3466000000 0.1588000000
1.2586000000 4.9744000000 1.7636000000
1.2582000000 5.0516000000 1.6670000000
1.2576000000 5.7538000000 0.8514000000
1.2575000000 5.5400000000 1.0970000000
1.2573000000 5.8932000000 0.6881000000
1.2570000000 6.4900000000 0.0671000000
1.2570000000 0.2246000000 0.2525000000
1.2568000000 3.1340000000 3.0861000000
1.2568000000 3.7772000000 2.8301000000
1.2565000000 1.5075000000 1.7499000000
1.2563000000 6.3223000000 0.1872000000
1.2562000000 5.1909000000 1.5043000000
1.2559000000 3.4492000000 3.0361000000
1.2556000000 1.4260000000 1.6531000000
1.2550000000 5.7434000000 0.8562000000
1.2549000000 2.2517000000 2.5506000000
1.2546000000 5.6218000000 1.0059000000
1.2545000000 6.2582000000 0.2602000000
1.2544000000 2.2976000000 2.5912000000
1.2543000000 3.4006000000 3.0543000000
1.2541000000 4.1370000000 2.6293000000
1.2538000000 2.9951000000 2.9963000000
1.2537000000 5.3047000000 1.3754000000
1.2535000000 6.3384000000 0.1679000000
1.2534000000 5.3579000000 1.3099000000
1.2532000000 4.9851000000 1.7466000000
1.2530000000 2.9139000000 2.9512000000
1.2526000000 2.8926000000 2.9399000000
1.2523000000 4.5278000000 2.2793000000
1.2520000000 5.8115000000 0.7795000000
1.2520000000 2.9945000000 2.9973000000
1.2516000000 4.6366000000 2.1487000000
1.2513000000 3.3265000000 3.0961000000
1.2510000000 5.9830000000 0.5838000000
1.2509000000 5.3680000000 1.3036000000
1.2508000000 4.3479000000 2.4710000000
1.2503000000 4.1380000000 2.6222000000
1.2498000000 0.4187000000 0.4778000000
1.2489000000 2.4577000000 2.6826000000
1.2487000000 4.1385000000 2.6251000000
1.2478000000 0.7796000000 0.8915000000
1.2474000000 5.9768000000 0.5907000000
1.2465000000 0.1623000000 0.1772000000
1.0133000000 2.4167000000 2.4199000000
1.0127000000 5.5068000000 1.1365000000
1.0085000000 5.6940000000 0.9224000000
1.0082000000 5.4893000000 1.1536000000
1.0077000000 5.1508000000 1.5518000000
1.0071000000 3.5049000000 2.7478000000
1.0068000000 4.1086000000 2.3922000000
1.0066000000 3.8394000000 2.5498000000
1.0065000000 5.6631000000 0.9476000000
1.0060000000 4.9900000000 1.7396000000
1.0056000000 0.9514000000 1.0996000000
1.0055000000 1.6256000000 1.8831000000
1.0048000000 3.8600000000 2.5355000000
1.0045000000 5.0382000000 1.6881000000
1.0042000000 2.7215000000 2.5872000000
1.0039000000 5.0258000000 1.6960000000
1.0035000000 3.6690000000 2.6511000000
1.0033000000 2.1947000000 2.2818000000
1.0030000000 1.0169000000 1.1716000000
1.0029000000 0.9264000000 1.0703000000
1.0026000000 3.3321000000 2.8392000000
1.0027000000 4.4162000000 2.2068000000
1.0023000000 3.8678000000 2.5306000000
1.0020000000 1.7363000000 1.9947000000
1.0020000000 3.6058000000 2.6854000000
1.0014000000 5.4803000000 1.1680000000
1.0013000000 4.7609000000 1.9871000000
1.0009000000 3.6018000000 2.6827000000
1.0005000000 0.5624000000 0.6445000000
1.0003000000 4.2547000000 2.3006000000
1.0001000000 0.1121000000 0.1208000000
0.9998000000 1.5711000000 1.8191000000
0.9997000000 4.2431000000 2.3099000000
0.9995000000 2.4349000000 2.4220000000
0.9994000000 0.1154000000 0.1241000000
0.9989000000 1.9297000000 2.1215000000
0.9985000000 0.0426000000 0.1153000000
0.9983000000 3.3275000000 2.8402000000
0.9980000000 0.5426000000 0.6210000000
0.9978000000 0.7374000000 0.8416000000
0.9966000000 0.5232000000 0.5973000000
0.9958000000 6.4639000000 0.0964000000
0.7667000000 5.5938000000 1.0346000000
0.7619000000 4.1565000000 2.1161000000
0.7604000000 3.6439000000 2.4165000000
0.7597000000 6.2990000000 0.2124000000
0.7590000000 5.4128000000 1.2511000000
0.7585000000 2.2928000000 2.0915000000
0.7580000000 0.1222000000 0.1319000000
0.7575000000 2.7961000000 2.3830000000
0.7570000000 4.9028000000 1.6754000000
0.7566000000 0.3703000000 0.4248000000
0.7563000000 6.5053000000 0.0477000000
0.7556000000 1.6841000000 1.7344000000
0.7555000000 2.9377000000 2.4632000000
0.7553000000 5.5042000000 1.1409000000
0.7553000000 6.4466000000 0.1201000000
0.7551000000 3.6908000000 2.3861000000
0.7549000000 3.2321000000 2.6150000000
0.7547000000 3.5335000000 2.4753000000
0.7545000000 1.5350000000 1.6424000000
0.7544000000 1.4725000000 1.6165000000
0.7543000000 3.5047000000 2.4955000000
0.7539000000 0.0134000000 0.0799000000
0.7535000000 1.5716000000 1.6636000000
0.7534000000 1.7913000000 1.7928000000
0.7532000000 1.6838000000 1.7339000000
0.7531000000 1.0614000000 1.2228000000
0.7530000000 2.4462000000 2.1704000000
0.7528000000 5.4025000000 1.2630000000
0.7527000000 4.5109000000 1.9001000000
0.7524000000 1.3647000000 1.5242000000
0.7521000000 1.0486000000 1.2081000000
0.7519000000 2.2420000000 2.0534000000
0.7518000000 5.1685000000 1.5038000000
0.7517000000 3.2150000000 2.6026000000
0.7515000000 2.6315000000 2.2814000000
0.7513000000 1.4470000000 1.5912000000
0.7512000000 2.9411000000 2.4658000000
0.7511000000 3.2938000000 2.5990000000
0.7508000000 4.8112000000 1.7213000000
0.7507000000 1.9485000000 1.8823000000
0.7506000000 2.0161000000 1.9272000000
0.7502000000 1.2425000000 1.4130000000
0.7500000000 1.0438000000 1.2067000000
0.7499000000 2.2461000000 2.0568000000
0.7493000000 2.7398000000 2.3441000000
0.7491000000 0.2670000000 0.3010000000
0.7488000000 0.8983000000 1.0399000000
0.7486000000 2.4378000000 2.1652000000
0.7484000000 2.3260000000 2.1018000000
0.7469000000 0.2157000000 0.2351000000
0.5112000000 4.4524000000 1.6950000000
0.5102000000 6.2151000000 0.3150000000
0.5093000000 5.8090000000 0.7883000000
0.5085000000 0.1051000000 0.1078000000
0.5084000000 0.9030000000 1.0065000000
0.5083000000 4.2716000000 1.7991000000
0.5073000000 4.7653000000 1.5079000000
0.5068000000 5.2526000000 1.2279000000
0.5066000000 6.0483000000 0.5035000000
0.5063000000 6.1149000000 0.4333000000
0.5062000000 6.3070000000 0.2056000000
0.5060000000 5.7005000000 0.8905000000
0.5058000000 3.8920000000 2.0175000000
0.5056000000 6.1440000000 0.3983000000
0.5050000000 4.0065000000 1.9440000000
0.5048000000 1.0136000000 1.0852000000
0.5046000000 0.0852000000 0.0859000000
0.5045000000 4.8429000000 1.4639000000
0.5044000000 6.3214000000 0.1867000000
0.5043000000 0.4418000000 0.5056000000
0.5042000000 4.7517000000 1.5112000000
0.5039000000 0.9483000000 1.0376000000
0.5038000000 4.7264000000 1.5314000000
0.5037000000 3.7173000000 2.1100000000
0.5036000000 5.8663000000 0.7201000000
0.5034000000 4.6629000000 1.5643000000
0.5033000000 0.6694000000 0.7660000000
0.5031000000 4.2347000000 1.8094000000
0.5029000000 1.9346000000 1.6248000000
0.5026000000 4.0357000000 1.9277000000
0.5025000000 1.5449000000 1.3980000000
0.5023000000 2.2989000000 1.8305000000
0.5022000000 4.3645000000 1.7406000000
0.5020000000 5.0074000000 1.3577000000
0.5018000000 2.2572000000 1.8136000000
0.5014000000 0.9738000000 1.0569000000
0.5010000000 0.2980000000 0.3420000000
0.5009000000 0.5947000000 0.6841000000
0.5007000000 4.1332000000 1.8681000000
0.5001000000 5.3272000000 1.1766000000
0.5000000000 0.2710000000 0.3125000000
0.4996000000 4.9795000000 1.3777000000
0.4995000000 2.5684000000 1.9885000000
0.4993000000 0.9000000000 0.9976000000
0.4989000000 4.8352000000 1.4572000000
0.4987000000 0.0938000000 0.1003000000
0.4983000000 0.6197000000 0.7139000000
0.4980000000 1.4512000000 1.3379000000
0.4961000000 4.3930000000 1.7122000000
0.4936000000 1.4381000000 1.3292000000
0.2673000000 5.9663000000 0.5478000000
0.2633000000 3.7331000000 1.8637000000
0.2615000000 5.3875000000 0.8969000000
0.2608000000 4.2225000000 1.5748000000
0.2585000000 2.0242000000 1.4271000000
0.2584000000 0.1915000000 0.2165000000
0.2581000000 0.1356000000 0.1483000000
0.2577000000 3.6625000000 1.8980000000
0.2576000000 1.7857000000 1.2960000000
0.2573000000 6.3820000000 0.1124000000
0.2568000000 3.9308000000 1.7415000000
0.2563000000 0.8017000000 0.7151000000
0.2561000000 5.6416000000 0.7427000000
0.2558000000 5.3647000000 0.9066000000
0.2556000000 6.5276000000 0.0950000000
0.2554000000 0.4617000000 0.4967000000
0.2551000000 6.4365000000 0.1283000000
0.2550000000 5.6686000000 0.7224000000
0.2549000000 3.8401000000 1.7902000000
0.2548000000 3.2869000000 2.0924000000
0.2547000000 1.4756000000 1.1084000000
0.2545000000 2.3956000000 1.6399000000
0.2541000000 1.6150000000 1.1890000000
0.2540000000 4.7843000000 1.2451000000
0.2540000000 0.6807000000 0.6464000000
0.2538000000 1.1255000000 0.9005000000
0.2537000000 0.7846000000 0.7051000000
0.2535000000 5.4232000000 0.8638000000
0.2534000000 2.8370000000 1.8972000000
0.2533000000 2.6170000000 1.7704000000
0.2528000000 2.9990000000 1.9927000000
0.2526000000 4.6651000000 1.3131000000
0.2525000000 1.7912000000 1.2931000000
0.2523000000 0.5330000000 0.5366000000
0.2521000000 1.6899000000 1.2304000000
0.2520000000 5.2846000000 0.9509000000
0.2518000000 3.0707000000 2.0330000000
0.2516000000 3.8678000000 1.7753000000
0.2515000000 0.6569000000 0.6272000000
0.2511000000 6.0242000000 0.5020000000
0.2502000000 3.1758000000 2.0972000000
0.2500000000 5.9269000000 0.5706000000
0.2499000000 0.9544000000 0.7972000000
0.2495000000 5.9630000000 0.5347000000
0.2490000000 1.6546000000 1.2049000000
0.2489000000 1.5696000000 1.1502000000
0.2487000000 4.4786000000 1.4106000000
0.2484000000 3.0476000000 2.0170000000
0.2480000000 2.9315000000 1.9491000000
0.2466000000 3.8215000000 1.7953000000
0.2462000000 1.0758000000 0.8616000000
0.0152000000 4.3239000000 1.2632000000
0.0104000000 4.8784000000 0.9416000000
0.0097000000 1.9130000000 1.1152000000
0.0094000000 6.3951000000 0.1113000000
0.0089000000 5.2450000000 0.7267000000
0.0087000000 6.4265000000 0.0169000000
0.0086000000 0.5535000000 0.3166000000
0.0081000000 5.1991000000 0.7512000000
0.0080000000 2.2866000000 1.3279000000
0.0079000000 5.3640000000 0.6544000000
0.0073000000 3.1124000000 1.8061000000
0.0069000000 4.2348000000 1.3105000000
0.0063000000 6.0590000000 0.2452000000
0.0060000000 2.3975000000 1.3977000000
0.0057000000 2.5096000000 1.4553000000
0.0055000000 6.1372000000 0.2048000000
0.0053000000 0.7105000000 0.4095000000
0.0052000000 2.2239000000 1.2882000000
0.0050000000 3.1874000000 1.8496000000
0.0048000000 0.7842000000 0.4511000000
0.0045000000 3.4657000000 1.7571000000
0.0041000000 1.0908000000 0.6286000000
0.0039000000 2.2912000000 1.3260000000
0.0037000000 1.6469000000 0.9551000000
0.0036000000 5.4523000000 0.5975000000
0.0033000000 0.2272000000 0.1244000000
0.0030000000 0.1218000000 0.0605000000
0.0028000000 3.8010000000 1.5606000000
0.0027000000 5.6650000000 0.4740000000
0.0024000000 5.6759000000 0.4682000000
0.0023000000 2.2514000000 1.3065000000
0.0022000000 1.6660000000 0.9626000000
0.0021000000 2.4525000000 1.4201000000
0.0019000000 0.3620000000 0.2002000000
0.0018000000 1.8380000000 1.0604000000
0.0015000000 1.9530000000 1.1306000000
0.0012000000 3.6548000000 1.6461000000
0.0009000000 3.5360000000 1.7101000000
0.0008000000 2.2833000000 1.3221000000
0.0005000000 0.7963000000 0.4563000000
0.0003000000 3.9292000000 1.4809000000
-0.0002000000 2.3399000000 1.3542000000
-0.0006000000 4.8314000000 0.9578000000
-0.0009000000 2.9265000000 1.6951000000
-0.0015000000 4.7422000000 1.0096000000
-0.0016000000 0.7496000000 0.4274000000
-0.0019000000 0.8121000000 0.4569000000
-0.0022000000 5.7791000000 0.3995000000
-0.0024000000 0.7921000000 0.4490000000
-0.0027000000 3.3410000000 1.8183000000
-0.0030000000 1.8129000000 1.0415000000
-0.0042000000 0.9961000000 0.5650000000
-0.2359000000 5.6086000000 0.2708000000
-0.2389000000 6.1320000000 0.0273000000
-0.2393000000 4.9051000000 0.6789000000
-0.2398000000 4.7688000000 0.7506000000
-0.2402000000 0.8050000000 0.2132000000
-0.2410000000 4.9577000000 0.6425000000
-0.2417000000 6.2319000000 0.0481000000
-0.2421000000 2.2257000000 1.0388000000
-0.2423000000 6.1692000000 0.0784000000
-0.2425000000 5.9214000000 0.0830000000
-0.2426000000 5.1637000000 0.5184000000
-0.2434000000 5.9626000000 0.1240000000
-0.2437000000 4.3787000000 0.9813000000
-0.2439000000 3.7782000000 1.3269000000
-0.2442000000 5.3566000000 0.4023000000
-0.2442000000 5.5180000000 0.3110000000
-0.2444000000 0.6094000000 0.0988000000
-0.2445000000 6.0687000000 0.0584000000
-0.2447000000 5.5235000000 0.3092000000
-0.2447000000 2.0088000000 0.9135000000
-0.2449000000 4.9173000000 0.6556000000
-0.2451000000 5.5048000000 0.3120000000
-0.2453000000 1.3080000000 0.5057000000
-0.2458000000 3.2630000000 1.5981000000
-0.2462000000 5.0606000000 0.5726000000
-0.2463000000 4.0688000000 1.1549000000
-0.2465000000 4.7223000000 0.7747000000
-0.2467000000 3.3485000000 1.5697000000
-0.2469000000 4.9993000000 0.6142000000
-0.2472000000 2.4807000000 1.1838000000
-0.2473000000 3.1397000000 1.5657000000
-0.2474000000 0.3380000000 0.0912000000
-0.2478000000 5.7905000000 0.1467000000
-0.2481000000 1.5182000000 0.6261000000
-0.2483000000 3.8153000000 1.2934000000
-0.2485000000 6.1569000000 0.0822000000
-0.2485000000 4.0974000000 1.1315000000
-0.2488000000 1.0372000000 0.3460000000
-0.2489000000 1.8115000000 0.7937000000
-0.2491000000 5.6129000000 0.2535000000
-0.2492000000 2.8636000000 1.4103000000
-0.2495000000 4.4875000000 0.9089000000
-0.2497000000 0.3313000000 0.0802000000
-0.2520000000 4.4133000000 0.9465000000
-0.2525000000 1.9432000000 0.8714000000
-0.2527000000 0.4208000000 0.0558000000
-0.2530000000 4.4612000000 0.9188000000
-0.2547000000 0.3202000000 0.0691000000
-0.4875000000 5.7260000000 0.0950000000
-0.4889000000 3.7563000000 1.0901000000
-0.4905000000 3.1972000000 1.3418000000
-0.4911000000 4.5764000000 0.6096000000
-0.4914000000 3.5153000000 1.2275000000
-0.4917000000 2.4392000000 0.9154000000
-0.4926000000 5.6862000000 0.0336000000
-0.4936000000 5.3521000000 0.1518000000
-0.4944000000 3.6055000000 1.1774000000
-0.4945000000 2.5367000000 0.9656000000
-0.4946000000 4.8092000000 0.4637000000
-0.4949000000 3.0406000000 1.2597000000
-0.4950000000 2.0750000000 0.6986000000
-0.4958000000 0.9085000000 0.0905000000
-0.4959000000 4.2258000000 0.8077000000
-0.4964000000 0.9690000000 0.1221000000
-0.4965000000 3.2088000000 1.3361000000
-0.4968000000 2.5083000000 0.9494000000
-0.4972000000 2.9096000000 1.1823000000
-0.4975000000 2.3255000000 0.8409000000
-0.4976000000 3.2989000000 1.3447000000
-0.4982000000 3.0535000000 1.2656000000
-0.4984000000 2.5687000000 0.9863000000
-0.4986000000 2.7956000000 1.1159000000
-0.4987000000 4.0069000000 0.9353000000
-0.4994000000 1.3973000000 0.2982000000
-0.4996000000 4.7738000000 0.4808000000
-0.5006000000 4.9892000000 0.3611000000
-0.5017000000 2.1292000000 0.7223000000
-0.5025000000 1.2225000000 0.1929000000
-0.5034000000 3.7623000000 1.0756000000
-0.7390000000 4.3362000000 0.5012000000
-0.7412000000 5.0333000000 0.0972000000
-0.7417000000 4.0065000000 0.6872000000
-0.7432000000 2.8806000000 0.9173000000
-0.7434000000 3.7945000000 0.8135000000
-0.7438000000 3.1774000000 1.0887000000
-0.7440000000 4.5501000000 0.3682000000
-0.7443000000 3.5594000000 0.9456000000
-0.7445000000 1.5983000000 0.1726000000
-0.7450000000 3.8001000000 0.8065000000
-0.7450000000 4.5111000000 0.3973000000
-0.7455000000 4.6292000000 0.3240000000
-0.7460000000 1.7453000000 0.2529000000
-0.7463000000 1.2673000000 0.0482000000
-0.7465000000 3.8173000000 0.7948000000
-0.7466000000 1.6113000000 0.1806000000
-0.7467000000 5.2990000000 0.0806000000
-0.7470000000 3.8712000000 0.7645000000
-0.7472000000 2.0553000000 0.4304000000
-0.7475000000 1.5560000000 0.1419000000
-0.7479000000 3.9453000000 0.7197000000
-0.7484000000 3.1867000000 1.0965000000
-0.7489000000 4.0246000000 0.6666000000
-0.7493000000 1.4385000000 0.0759000000
-0.7496000000 4.0271000000 0.6633000000
-0.7517000000 4.6228000000 0.3185000000
-0.7535000000 1.8167000000 0.2921000000
-0.9903000000 1.8210000000 0.1263000000
-0.9915000000 1.6300000000 0.0865000000
-0.9920000000 4.3317000000 0.2471000000
-0.9932000000 1.9051000000 0.0955000000
-0.9934000000 2.8717000000 0.6671000000
-0.9938000000 1.7659000000 0.0884000000
-0.9938000000 2.4576000000 0.4163000000
-0.9940000000 4.5795000000 0.0952000000
-0.9943000000 3.2162000000 0.8437000000
-0.9946000000 2.8432000000 0.6349000000
-0.9948000000 4.2727000000 0.2787000000
-0.9954000000 4.2984000000 0.2632000000
-0.9958000000 3.9201000000 0.4827000000
-0.9961000000 3.3428000000 0.8219000000
-0.9962000000 4.7228000000 0.0916000000
-0.9965000000 2.9909000000 0.7282000000
-0.9970000000 2.6252000000 0.5169000000
-0.9972000000 4.5517000000 0.1132000000
-0.9973000000 1.4983000000 0.0111000000
-0.9975000000 3.5840000000 0.6766000000
-0.9977000000 2.1257000000 0.2205000000
-0.9980000000 3.9302000000 0.4731000000
-0.9983000000 4.1954000000 0.3170000000
-0.9985000000 3.8034000000 0.5501000000
-0.9989000000 4.5562000000 0.1143000000
-0.9991000000 4.5315000000 0.1217000000
-1.0000000000 2.5685000000 0.4762000000
-1.0003000000 2.5719000000 0.4779000000
-1.0013000000 2.0981000000 0.2039000000
-1.0015000000 3.9802000000 0.4356000000
-1.0017000000 1.6873000000 0.0392000000
-1.0023000000 2.4649000000 0.4188000000
-1.0026000000 2.8484000000 0.6355000000
-1.0027000000 3.3201000000 0.8259000000
-1.2402000000 3.1733000000 0.5826000000
-1.2417000000 4.2590000000 0.1105000000
-1.2426000000 4.1688000000 0.0906000000
-1.2427000000 2.6323000000 0.2684000000
-1.2439000000 2.5017000000 0.1921000000
-1.2442000000 4.2914000000 0.0898000000
-1.2449000000 2.8203000000 0.3696000000
-1.2455000000 3.8297000000 0.2807000000
-1.2462000000 3.5749000000 0.4307000000
-1.2467000000 3.3943000000 0.5290000000
-1.2472000000 4.1486000000 0.0981000000
-1.2474000000 2.8391000000 0.3827000000
-1.2477000000 2.0301000000 0.0585000000
-1.2482000000 2.7158000000 0.3082000000
-1.2484000000 2.2857000000 0.0599000000
-1.2484000000 2.0485000000 0.0698000000
-1.2495000000 3.7488000000 0.3240000000
-1.2497000000 2.1838000000 0.0832000000
-1.2530000000 2.5527000000 0.2104000000
-1.2545000000 3.0119000000 0.4774000000
-1.4882000000 3.5442000000 0.2039000000
-1.4913000000 3.6812000000 0.1214000000
-1.4937000000 3.0864000000 0.2810000000
-1.4942000000 2.4646000000 0.0653000000
-1.4954000000 2.9484000000 0.1976000000
-1.4965000000 2.5115000000 0.0879000000
-1.4974000000 3.3519000000 0.3115000000
-1.4981000000 3.8498000000 0.0943000000
-1.4982000000 3.6229000000 0.1490000000
-1.4987000000 3.4898000000 0.2275000000
-1.5003000000 4.0820000000 0.0285000000
-1.5010000000 2.3947000000 0.0204000000
-1.5013000000 3.6936000000 0.1024000000
-1.5072000000 2.5356000000 0.0964000000
-1.7410000000 3.4728000000 0.0656000000
-1.7424000000 2.9404000000 0.0942000000
-1.7432000000 3.3826000000 0.1119000000
-1.7455000000 3.2519000000 0.0982000000
-1.7463000000 3.3768000000 0.1169000000
-1.7477000000 3.0619000000 0.0875000000
