4.9978000000 1.5853000000 0.3956000000
4.9969000000 1.3770000000 0.2577000000
4.9957000000 4.4532000000 1.4728000000
4.9948000000 3.8261000000 1.8472000000
4.7624000000 5.7378000000 0.8971000000
4.7611000000 6.5137000000 0.3947000000
4.7605000000 0.7842000000 0.1465000000
4.7603000000 7.1679000000 0.0455000000
4.7600000000 4.7213000000 1.5634000000
4.7595000000 1.8212000000 0.8183000000
4.7589000000 4.2702000000 1.8526000000
4.7588000000 4.6144000000 1.6334000000
4.7586000000 6.6926000000 0.2851000000
4.7584000000 6.7530000000 0.2372000000
4.7581000000 3.1262000000 1.6805000000
4.7580000000 0.8498000000 0.1887000000
4.7578000000 1.1123000000 0.3622000000
4.7574000000 4.9221000000 1.4348000000
4.7573000000 5.5393000000 1.0298000000
4.7570000000 2.0363000000 0.9647000000
4.7566000000 1.4664000000 0.5953000000
4.7564000000 1.8898000000 0.8713000000
4.7563000000 7.0409000000 0.0601000000
4.7563000000 6.4785000000 0.4245000000
4.7561000000 4.2023000000 1.9080000000
4.7557000000 3.8078000000 2.1041000000
4.7555000000 3.8974000000 2.1034000000
4.7554000000 6.8337000000 0.1875000000
4.7552000000 4.4399000000 1.7585000000
4.7549000000 4.9385000000 1.4205000000
4.7548000000 0.9977000000 0.2921000000
4.7547000000 0.9499000000 0.2598000000
4.7545000000 1.8704000000 0.8605000000
4.7544000000 1.7867000000 0.8058000000
4.7543000000 1.7811000000 0.8051000000
4.7542000000 2.4436000000 1.2380000000
4.7538000000 3.0261000000 1.6158000000
4.7537000000 4.0877000000 1.9868000000
4.7535000000 3.1984000000 1.7289000000
4.7533000000 2.9684000000 1.5778000000
4.7530000000 6.2324000000 0.5830000000
4.7527000000 0.4855000000 0.0322000000
4.7525000000 3.9676000000 2.0640000000
4.7523000000 1.8979000000 0.8865000000
4.7521000000 6.6340000000 0.3285000000
4.7519000000 0.6741000000 0.0822000000
4.7518000000 3.8960000000 2.1079000000
4.7513000000 2.2079000000 1.0853000000
4.7508000000 3.2948000000 1.7902000000
4.7503000000 1.1464000000 0.3898000000
4.7495000000 5.5448000000 1.0425000000
4.7493000000 3.3886000000 1.8588000000
4.7480000000 1.8351000000 0.8438000000
4.7454000000 1.2008000000 0.4324000000
4.5144000000 0.6943000000 0.3653000000
4.5115000000 2.9198000000 1.8173000000
4.5096000000 1.2848000000 0.7536000000
4.5094000000 7.4950000000 0.0406000000
4.5092000000 7.5265000000 0.0212000000
4.5088000000 7.4141000000 0.0905000000
4.5085000000 3.2362000000 2.0311000000
4.5083000000 1.6953000000 1.0252000000
4.5078000000 5.8786000000 1.0919000000
4.5076000000 4.1834000000 2.1986000000
4.5074000000 2.2287000000 1.3792000000
4.5071000000 3.8544000000 2.3916000000
4.5069000000 0.4814000000 0.2335000000
4.5067000000 5.2176000000 1.5239000000
4.5065000000 3.0044000000 1.8817000000
4.5064000000 6.2430000000 0.8584000000
4.5062000000 1.7725000000 1.0777000000
4.5061000000 7.2158000000 0.2203000000
4.5060000000 3.1872000000 1.9996000000
4.5059000000 2.6042000000 1.6240000000
4.5055000000 4.9400000000 1.7068000000
4.5054000000 6.6406000000 0.5999000000
4.5053000000 4.1837000000 2.1964000000
4.5050000000 2.1217000000 1.3078000000
4.5048000000 2.1829000000 1.3508000000
4.5047000000 2.2493000000 1.3892000000
4.5046000000 0.3653000000 0.1697000000
4.5045000000 1.0262000000 0.5923000000
4.5043000000 6.0631000000 0.9736000000
4.5041000000 3.1420000000 1.9686000000
4.5040000000 0.4091000000 0.1936000000
4.5038000000 4.6121000000 1.9243000000
4.5036000000 1.7185000000 1.0428000000
4.5034000000 1.9289000000 1.1840000000
4.5033000000 2.5449000000 1.5839000000
4.5032000000 0.5044000000 0.2565000000
4.5031000000 6.0382000000 0.9948000000
4.5030000000 6.1726000000 0.9078000000
4.5028000000 4.9374000000 1.7133000000
4.5026000000 4.8253000000 1.7833000000
4.5023000000 5.9229000000 1.0701000000
4.5021000000 5.9849000000 1.0305000000
4.5018000000 1.0703000000 0.6242000000
4.5017000000 1.5701000000 0.9517000000
4.5010000000 3.3488000000 2.1121000000
4.5008000000 4.6298000000 1.9186000000
4.5005000000 0.9734000000 0.5646000000
4.5001000000 2.2085000000 1.3649000000
4.5000000000 2.2178000000 1.3730000000
4.4992000000 0.5252000000 0.2722000000
4.4989000000 6.1845000000 0.9118000000
4.4985000000 1.3473000000 0.8078000000
4.4984000000 3.5735000000 2.2582000000
4.4979000000 5.0083000000 1.6695000000
4.4968000000 2.8523000000 1.7913000000
4.4945000000 2.1651000000 1.3444000000
4.2670000000 5.7735000000 1.4324000000
4.2638000000 7.5037000000 0.1609000000
4.2611000000 7.2309000000 0.4924000000
4.2608000000 7.6891000000 0.0642000000
4.2604000000 7.1006000000 0.5774000000
4.2602000000 5.4043000000 1.6784000000
4.2588000000 3.5829000000 2.5377000000
4.2585000000 5.1331000000 1.8619000000
4.2583000000 1.1811000000 0.9698000000
4.2581000000 4.1075000000 2.5260000000
4.2580000000 4.6802000000 2.1588000000
4.2578000000 2.0740000000 1.5574000000
4.2575000000 3.0233000000 2.1764000000
4.2573000000 0.1044000000 0.1435000000
4.2571000000 2.9216000000 2.1107000000
4.2566000000 7.6081000000 0.1009000000
4.2563000000 2.7676000000 2.0010000000
4.2562000000 6.9309000000 0.6922000000
4.2560000000 3.1974000000 2.2940000000
4.2558000000 0.6017000000 0.5929000000
4.2558000000 1.1586000000 0.9588000000
4.2557000000 4.9925000000 1.9594000000
4.2555000000 1.5375000000 1.2122000000
4.2552000000 7.7119000000 0.0380000000
4.2551000000 0.4629000000 0.5087000000
4.2550000000 1.3248000000 1.0667000000
4.2549000000 5.4229000000 1.6766000000
4.2548000000 1.1877000000 0.9791000000
4.2546000000 5.5198000000 1.6163000000
4.2543000000 2.9655000000 2.1390000000
4.2541000000 1.8850000000 1.4391000000
4.2540000000 7.2738000000 0.4578000000
4.2538000000 2.1344000000 1.5972000000
4.2537000000 1.0822000000 0.9196000000
4.2536000000 7.6447000000 0.0545000000
4.2533000000 5.4438000000 1.6693000000
4.2530000000 4.1729000000 2.4925000000
4.2530000000 1.2318000000 1.0098000000
4.2529000000 1.9138000000 1.4596000000
4.2528000000 4.3781000000 2.3579000000
4.2526000000 3.2265000000 2.3102000000
4.2524000000 4.9577000000 1.9825000000
4.2523000000 1.5683000000 1.2314000000
4.2522000000 1.0795000000 0.9160000000
4.2520000000 4.0434000000 2.5832000000
4.2517000000 7.3730000000 0.3881000000
4.2515000000 6.3114000000 1.0981000000
4.2511000000 5.8278000000 1.4176000000
4.2507000000 3.2256000000 2.3113000000
4.2505000000 0.0557000000 0.0829000000
4.2503000000 1.6476000000 1.2886000000
4.2500000000 1.9577000000 1.4859000000
4.2498000000 2.6826000000 1.9560000000
4.2492000000 1.0930000000 0.9225000000
4.2489000000 2.2495000000 1.6783000000
4.2488000000 0.8094000000 0.7435000000
4.2479000000 0.2378000000 0.2962000000
4.2474000000 4.6778000000 2.1725000000
4.2467000000 4.3077000000 2.4088000000
4.0118000000 0.0191000000 0.0332000000
4.0115000000 0.4746000000 0.6246000000
4.0103000000 6.6221000000 1.1724000000
4.0098000000 6.3921000000 1.3241000000
4.0094000000 1.5592000000 1.4969000000
4.0086000000 2.9879000000 2.4327000000
4.0082000000 1.2620000000 1.3079000000
4.0080000000 7.6259000000 0.0777000000
4.0077000000 0.2264000000 0.3006000000
4.0075000000 5.1177000000 2.1506000000
4.0069000000 6.7786000000 1.0701000000
4.0068000000 0.4228000000 0.5564000000
4.0066000000 4.4540000000 2.5907000000
4.0064000000 3.2818000000 2.6345000000
4.0063000000 4.7346000000 2.4033000000
4.0061000000 3.9840000000 2.8952000000
4.0059000000 4.5265000000 2.5444000000
4.0057000000 5.1494000000 2.1361000000
4.0056000000 3.7339000000 2.9187000000
4.0052000000 3.6961000000 2.8936000000
4.0051000000 2.5127000000 2.1241000000
4.0048000000 2.2832000000 1.9732000000
4.0047000000 4.5471000000 2.5282000000
4.0045000000 4.3639000000 2.6497000000
4.0044000000 2.4123000000 2.0633000000
4.0041000000 3.0086000000 2.4498000000
4.0040000000 2.1461000000 1.8826000000
4.0040000000 3.0764000000 2.4930000000
4.0037000000 5.3583000000 2.0060000000
4.0035000000 4.9889000000 2.2403000000
4.0034000000 0.4053000000 0.5332000000
4.0033000000 6.2329000000 1.4328000000
4.0031000000 7.7145000000 0.0358000000
4.0029000000 3.2106000000 2.5856000000
4.0025000000 1.3939000000 1.4006000000
4.0019000000 2.5328000000 2.1405000000
4.0017000000 5.5656000000 1.8658000000
4.0015000000 2.3804000000 2.0437000000
4.0013000000 3.0591000000 2.4847000000
4.0011000000 2.6427000000 2.2074000000
4.0010000000 4.8893000000 2.3093000000
4.0007000000 1.8442000000 1.6993000000
4.0005000000 7.7073000000 0.0419000000
4.0003000000 0.6277000000 0.7535000000
4.0002000000 4.4197000000 2.6169000000
3.9995000000 6.1301000000 1.5023000000
3.9991000000 4.7603000000 2.3955000000
3.9990000000 5.1500000000 2.1447000000
3.9986000000 0.3971000000 0.5230000000
3.9982000000 5.1031000000 2.1696000000
3.9973000000 7.4739000000 0.2045000000
3.9970000000 1.7098000000 1.6117000000
3.9932000000 4.2423000000 2.7399000000
3.7655000000 2.8826000000 2.6358000000
3.7628000000 0.1292000000 0.1764000000
3.7624000000 7.5254000000 0.1311000000
3.7614000000 6.5391000000 1.4721000000
3.7609000000 7.0272000000 0.8572000000
3.7607000000 6.8827000000 1.0492000000
3.7605000000 6.5133000000 1.5028000000
3.7600000000 6.5016000000 1.5141000000
3.7597000000 5.3885000000 2.2563000000
3.7593000000 4.7095000000 2.6960000000
3.7592000000 6.8676000000 0.9896000000
3.7587000000 4.6762000000 2.7283000000
3.7585000000 4.5847000000 2.7899000000
3.7583000000 4.0856000000 3.1088000000
3.7580000000 4.3766000000 2.9215000000
3.7578000000 5.5652000000 2.1469000000
3.7577000000 4.7761000000 2.6543000000
3.7573000000 3.5363000000 3.0718000000
3.7570000000 5.6261000000 2.1096000000
3.7566000000 1.3630000000 1.6563000000
3.7565000000 5.8685000000 1.9503000000
3.7564000000 6.8070000000 1.1418000000
3.7559000000 5.0419000000 2.4928000000
3.7558000000 0.4289000000 0.5611000000
3.7557000000 0.7767000000 1.0146000000
3.7555000000 7.3306000000 0.3888000000
3.7554000000 2.0010000000 2.0790000000
3.7553000000 7.2975000000 0.4336000000
3.7551000000 4.2525000000 3.0029000000
3.7549000000 3.6080000000 3.1252000000
3.7548000000 4.4338000000 2.8855000000
3.7545000000 6.1032000000 1.7952000000
3.7543000000 6.4929000000 1.5217000000
3.7542000000 6.7853000000 1.0985000000
3.7538000000 5.1507000000 2.4188000000
3.7537000000 4.3466000000 2.9412000000
3.7531000000 3.6400000000 3.1451000000
3.7529000000 5.3825000000 2.2671000000
3.7526000000 7.6214000000 0.0840000000
3.7522000000 7.0633000000 0.7365000000
3.7520000000 1.3861000000 1.6776000000
3.7518000000 0.1477000000 0.2020000000
3.7515000000 0.0890000000 0.1215000000
3.7514000000 1.9645000000 2.0531000000
3.7513000000 1.4729000000 1.7367000000
3.7513000000 5.6919000000 2.0737000000
3.7506000000 1.8410000000 1.9766000000
3.7505000000 2.4330000000 2.3623000000
3.7502000000 1.3096000000 1.6262000000
3.7499000000 6.9009000000 1.0166000000
3.7497000000 2.2450000000 2.2355000000
3.7495000000 0.9042000000 1.1809000000
3.7495000000 6.0539000000 1.8324000000
3.7493000000 6.6508000000 1.3450000000
3.7490000000 3.7770000000 3.1656000000
3.7488000000 0.6161000000 0.8056000000
3.7485000000 0.0721000000 0.0996000000
3.7471000000 2.4840000000 2.3926000000
3.7467000000 1.9887000000 2.0739000000
3.5185000000 7.6399000000 0.0571000000
3.5120000000 7.6913000000 0.0666000000
3.5114000000 6.3780000000 1.7003000000
3.5098000000 0.6246000000 0.8225000000
3.5095000000 5.2073000000 2.6611000000
3.5090000000 6.2335000000 1.8916000000
3.5083000000 5.9860000000 2.1365000000
3.5077000000 5.8586000000 2.2347000000
3.5075000000 5.8463000000 2.2510000000
3.5073000000 2.2560000000 2.5179000000
3.5070000000 5.7562000000 2.2979000000
3.5067000000 4.0591000000 3.4084000000
3.5064000000 4.7263000000 2.9762000000
3.5063000000 5.0498000000 2.7621000000
3.5061000000 5.1488000000 2.6983000000
3.5058000000 7.7302000000 0.0132000000
3.5058000000 6.9560000000 0.9512000000
3.5056000000 4.6254000000 3.0440000000
3.5054000000 3.6508000000 3.4285000000
3.5053000000 6.1957000000 1.8692000000
3.5051000000 2.7852000000 2.8674000000
3.5052000000 1.6160000000 2.0855000000
3.5050000000 1.3479000000 1.7674000000
3.5048000000 4.5863000000 3.0605000000
3.5046000000 2.2513000000 2.5165000000
3.5044000000 0.9033000000 1.1816000000
3.5043000000 1.6937000000 2.1401000000
3.5042000000 6.6004000000 1.4126000000
3.5039000000 6.7541000000 1.2092000000
3.5035000000 4.0170000000 3.4409000000
3.5035000000 2.2129000000 2.4960000000
3.5034000000 2.8719000000 2.9305000000
3.5033000000 4.5286000000 3.1060000000
3.5031000000 7.6028000000 0.1033000000
3.5030000000 6.3752000000 1.7077000000
3.5025000000 7.1475000000 0.6242000000
3.5023000000 5.8985000000 2.2135000000
3.5021000000 0.1024000000 0.1382000000
3.5020000000 0.4154000000 0.5459000000
3.5017000000 1.5707000000 2.0309000000
3.5015000000 5.1967000000 2.6697000000
3.5014000000 1.8463000000 2.2588000000
3.5013000000 5.2286000000 2.6533000000
3.5011000000 3.9464000000 3.4887000000
3.5009000000 5.9201000000 2.2091000000
3.5008000000 4.0045000000 3.4565000000
3.5006000000 6.9615000000 0.9393000000
3.5005000000 1.3270000000 1.7378000000
3.5003000000 2.8273000000 2.8994000000
3.5001000000 6.4299000000 1.6380000000
3.4998000000 4.5933000000 3.0741000000
3.4995000000 3.3729000000 3.2547000000
3.4984000000 7.5397000000 0.1150000000
3.4979000000 5.0598000000 2.7694000000
3.4971000000 3.4567000000 3.3118000000
3.4958000000 5.0887000000 2.7514000000
3.2634000000 4.9620000000 3.0957000000
3.2613000000 7.3406000000 0.3708000000
3.2610000000 3.3264000000 3.4962000000
3.2597000000 5.4283000000 2.7954000000
3.2593000000 3.0465000000 3.3191000000
3.2589000000 7.1731000000 0.6692000000
3.2585000000 7.2343000000 0.5130000000
3.2582000000 3.8541000000 3.7974000000
3.2581000000 2.3073000000 2.8317000000
3.2579000000 7.1965000000 0.5591000000
3.2573000000 7.5455000000 0.1054000000
3.2572000000 6.4087000000 1.6620000000
3.2570000000 5.3638000000 2.8455000000
3.2567000000 6.8559000000 1.0787000000
3.2566000000 2.3712000000 2.8794000000
3.2563000000 6.7135000000 1.2626000000
3.2562000000 1.5867000000 2.0724000000
3.2561000000 6.7201000000 1.2562000000
3.2560000000 5.3552000000 2.8472000000
3.2559000000 0.6448000000 0.8387000000
3.2556000000 7.6796000000 0.0832000000
3.2554000000 6.7885000000 1.1683000000
3.2553000000 5.8214000000 2.4262000000
3.2552000000 3.4120000000 3.5521000000
3.2551000000 3.8087000000 3.7910000000
3.2550000000 1.3022000000 1.7014000000
3.2548000000 5.5963000000 2.6726000000
3.2546000000 2.1742000000 2.7508000000
3.2544000000 4.6166000000 3.3305000000
3.2542000000 1.8390000000 2.3967000000
3.2540000000 6.4632000000 1.5891000000
3.2538000000 3.6320000000 3.6974000000
3.2537000000 4.8772000000 3.1625000000
3.2536000000 3.4194000000 3.5648000000
3.2533000000 5.0376000000 3.0608000000
3.2533000000 2.0040000000 2.5994000000
3.2530000000 0.1917000000 0.2602000000
3.2525000000 4.7145000000 3.2668000000
3.2523000000 4.1562000000 3.6331000000
3.2521000000 1.9785000000 2.5656000000
3.2518000000 6.8639000000 1.0713000000
3.2516000000 3.7646000000 3.7961000000
3.2513000000 5.5883000000 2.6820000000
3.2512000000 1.9236000000 2.4420000000
3.2511000000 6.3773000000 1.7073000000
3.2508000000 3.8902000000 3.7994000000
3.2506000000 1.8796000000 2.4534000000
3.2504000000 4.0602000000 3.6997000000
3.2500000000 1.1917000000 1.5644000000
3.2493000000 3.1581000000 3.3988000000
3.2483000000 0.3289000000 0.4346000000
3.2476000000 3.5605000000 3.6651000000
3.2443000000 0.0249000000 0.0346000000
3.2401000000 2.4625000000 2.9549000000
3.0123000000 5.4136000000 2.9544000000
3.0111000000 1.6171000000 2.1123000000
3.0103000000 6.7416000000 1.2279000000
3.0100000000 6.0034000000 2.1880000000
3.0097000000 6.3556000000 1.7292000000
3.0096000000 2.3719000000 3.0765000000
3.0094000000 5.7622000000 2.5091000000
3.0090000000 6.0211000000 2.1690000000
3.0084000000 4.5309000000 3.6632000000
3.0082000000 5.9247000000 2.2958000000
3.0081000000 6.6202000000 1.3874000000
3.0080000000 5.7429000000 2.5370000000
3.0076000000 3.0961000000 3.6263000000
3.0073000000 2.6251000000 3.3263000000
3.0071000000 1.4344000000 1.8767000000
3.0068000000 5.9211000000 2.2965000000
3.0065000000 2.5306000000 3.2365000000
3.0063000000 4.9593000000 3.3833000000
3.0058000000 4.1520000000 3.9114000000
3.0057000000 4.2511000000 3.8479000000
3.0055000000 4.4423000000 3.7266000000
3.0051000000 6.3439000000 1.7432000000
3.0049000000 4.1628000000 3.9091000000
3.0045000000 7.6656000000 0.0296000000
3.0042000000 7.4932000000 0.1716000000
3.0041000000 3.9686000000 4.0349000000
3.0039000000 5.7361000000 2.5378000000
3.0038000000 2.8605000000 3.4763000000
3.0036000000 5.2074000000 3.2092000000
3.0035000000 1.5421000000 2.0176000000
3.0033000000 5.6663000000 2.6268000000
3.0032000000 4.1317000000 3.9322000000
3.0030000000 1.4971000000 1.9566000000
3.0029000000 4.8840000000 3.4441000000
3.0028000000 1.7425000000 2.2792000000
3.0027000000 1.3878000000 1.8142000000
3.0023000000 2.8862000000 3.5032000000
3.0021000000 3.1483000000 3.6747000000
3.0018000000 6.8198000000 1.0566000000
3.0016000000 0.6116000000 0.7959000000
3.0017000000 3.8513000000 4.0925000000
3.0012000000 3.0205000000 3.5869000000
3.0012000000 7.0461000000 0.7596000000
3.0008000000 1.5923000000 2.0825000000
3.0003000000 0.3572000000 0.4727000000
3.0003000000 0.3982000000 0.5303000000
2.9992000000 2.3460000000 3.0574000000
2.9990000000 0.0360000000 0.0532000000
2.9985000000 3.9839000000 4.0264000000
2.9972000000 3.8603000000 4.0927000000
2.9956000000 1.4486000000 1.8972000000
2.9948000000 1.5563000000 2.0331000000
2.7616000000 2.2427000000 2.9242000000
2.7609000000 3.2854000000 4.0357000000
2.7602000000 1.1734000000 1.5306000000
2.7595000000 3.3867000000 4.1014000000
2.7593000000 7.4053000000 0.2866000000
2.7584000000 4.4531000000 3.9974000000
2.7580000000 3.6859000000 4.2959000000
2.7578000000 5.3937000000 2.9815000000
2.7575000000 3.3606000000 4.0919000000
2.7572000000 4.7869000000 3.7522000000
2.7572000000 0.5273000000 0.6876000000
2.7568000000 6.6565000000 1.2665000000
2.7566000000 6.9924000000 0.8999000000
2.7565000000 3.4743000000 4.1671000000
2.7561000000 3.2650000000 4.0213000000
2.7560000000 3.6282000000 4.2566000000
2.7557000000 1.7237000000 2.2551000000
2.7555000000 3.5614000000 4.2246000000
2.7553000000 5.0567000000 3.4289000000
2.7552000000 7.0139000000 0.7972000000
2.7549000000 4.3655000000 4.0612000000
2.7549000000 2.7609000000 3.6008000000
2.7548000000 4.2418000000 4.1379000000
2.7547000000 2.4700000000 3.2248000000
2.7546000000 4.1719000000 4.1835000000
2.7545000000 0.1996000000 0.2689000000
2.7544000000 1.5309000000 1.9964000000
2.7542000000 2.4478000000 3.1938000000
2.7539000000 5.6511000000 2.6501000000
2.7538000000 7.3142000000 0.4091000000
2.7537000000 1.4713000000 1.9292000000
2.7534000000 5.8910000000 2.3348000000
2.7533000000 6.4497000000 1.6078000000
2.7532000000 1.9637000000 2.5690000000
2.7530000000 7.0043000000 0.8128000000
2.7528000000 1.3847000000 1.8133000000
2.7525000000 2.2719000000 2.9663000000
2.7525000000 7.3621000000 0.3462000000
2.7523000000 2.4654000000 3.2168000000
2.7521000000 0.8067000000 1.0566000000
2.7520000000 7.5284000000 0.1323000000
2.7516000000 3.9213000000 4.3594000000
2.7515000000 6.6233000000 1.3826000000
2.7514000000 4.8262000000 3.7061000000
2.7513000000 1.4527000000 1.9023000000
2.7509000000 0.7893000000 1.0299000000
2.7507000000 6.4066000000 1.6615000000
2.7506000000 6.4186000000 1.6540000000
2.7502000000 2.3863000000 3.1178000000
2.7501000000 0.5583000000 0.7359000000
2.7498000000 5.9500000000 2.2617000000
2.7495000000 0.8617000000 1.1318000000
2.7492000000 5.0389000000 3.4402000000
2.7485000000 3.2996000000 4.0617000000
2.7480000000 4.4494000000 4.0121000000
2.7422000000 1.9699000000 2.5727000000
2.5133000000 1.9505000000 2.5521000000
2.5105000000 0.7978000000 1.0472000000
2.5098000000 4.0258000000 4.5532000000
2.5093000000 3.3011000000 4.2887000000
2.5088000000 5.7275000000 2.5515000000
2.5087000000 6.1112000000 2.0451000000
2.5081000000 6.4682000000 1.5880000000
2.5079000000 2.7586000000 3.6053000000
2.5077000000 2.3797000000 3.1087000000
2.5073000000 4.8514000000 3.6907000000
2.5070000000 6.5061000000 1.5303000000
2.5069000000 6.6341000000 1.3673000000
2.5068000000 5.1286000000 3.3253000000
2.5066000000 5.8691000000 2.3586000000
2.5063000000 1.9673000000 2.5665000000
2.5063000000 3.8957000000 4.6470000000
2.5060000000 3.1156000000 4.0666000000
2.5059000000 5.9687000000 2.2407000000
2.5058000000 3.9412000000 4.6182000000
2.5055000000 5.3344000000 3.0625000000
2.5055000000 0.7622000000 0.9958000000
2.5054000000 3.6463000000 4.5612000000
2.5052000000 4.9296000000 3.5851000000
2.5048000000 0.8791000000 1.1554000000
2.5046000000 5.6823000000 2.6105000000
2.5043000000 6.7318000000 1.1696000000
2.5040000000 5.8937000000 2.3345000000
2.5040000000 4.2257000000 4.3532000000
2.5038000000 7.1113000000 0.7498000000
2.5036000000 5.8762000000 2.3445000000
2.5035000000 4.5989000000 4.0219000000
2.5033000000 6.1653000000 1.9772000000
2.5030000000 1.6165000000 2.1105000000
2.5029000000 7.6760000000 0.0852000000
2.5026000000 7.5685000000 0.1511000000
2.5023000000 6.8046000000 1.1477000000
2.5022000000 2.0886000000 2.7284000000
2.5020000000 2.6909000000 3.5120000000
2.5017000000 5.8525000000 2.3828000000
2.5015000000 3.7614000000 4.6334000000
2.5013000000 5.7728000000 2.4887000000
2.5010000000 4.5835000000 4.0380000000
2.5009000000 3.8631000000 4.6513000000
2.5005000000 4.2143000000 4.3754000000
2.5000000000 4.1418000000 4.4921000000
2.4995000000 0.6000000000 0.7903000000
2.4992000000 1.3218000000 1.7315000000
2.4986000000 3.0797000000 4.0169000000
2.4984000000 3.7491000000 4.6261000000
2.4975000000 1.8874000000 2.4660000000
2.4962000000 5.0003000000 3.4970000000
2.4938000000 0.9575000000 1.2536000000
2.2653000000 6.6369000000 1.3616000000
2.2612000000 2.8707000000 3.7507000000
2.2604000000 7.5607000000 0.1547000000
2.2599000000 7.4447000000 0.2398000000
2.2590000000 6.1138000000 2.0456000000
2.2586000000 7.6353000000 0.0700000000
2.2583000000 1.0888000000 1.4207000000
2.2580000000 6.1093000000 2.0515000000
2.2573000000 6.3892000000 1.6173000000
2.2571000000 6.0144000000 2.1761000000
2.2570000000 4.1749000000 4.5789000000
2.2567000000 7.5932000000 0.1156000000
2.2566000000 3.7959000000 4.9075000000
2.2565000000 2.7520000000 3.5892000000
2.2564000000 4.5853000000 4.0402000000
2.2563000000 0.7143000000 0.9408000000
2.2562000000 1.0058000000 1.3196000000
2.2560000000 3.0789000000 4.0216000000
2.2558000000 5.7016000000 2.5853000000
2.2557000000 7.4800000000 0.1892000000
2.2554000000 0.8641000000 1.1368000000
2.2552000000 3.6729000000 4.7715000000
2.2551000000 4.0679000000 4.7104000000
2.2550000000 4.5316000000 4.1106000000
2.2548000000 4.9146000000 3.6060000000
2.2547000000 6.2066000000 1.9250000000
2.2545000000 7.2160000000 0.5303000000
2.2544000000 6.2957000000 1.8064000000
2.2542000000 6.0104000000 2.1800000000
2.2541000000 7.5607000000 0.1589000000
2.2540000000 2.0701000000 2.7026000000
2.2539000000 7.4258000000 0.2627000000
2.2536000000 2.0045000000 2.6158000000
2.2532000000 0.6176000000 0.8124000000
2.2530000000 5.2978000000 3.1100000000
2.2530000000 0.7143000000 0.9361000000
2.2526000000 1.2424000000 1.6220000000
2.2527000000 5.1837000000 3.2585000000
2.2522000000 4.3148000000 4.3895000000
2.2521000000 4.0744000000 4.7075000000
2.2520000000 1.5970000000 2.0887000000
2.2520000000 0.9450000000 1.2311000000
2.2517000000 7.2909000000 0.5153000000
2.2516000000 1.0846000000 1.4188000000
2.2512000000 2.8655000000 3.7396000000
2.2510000000 0.1878000000 0.2511000000
2.2508000000 0.0608000000 0.0849000000
2.2506000000 5.0681000000 3.4067000000
2.2505000000 5.3318000000 3.0609000000
2.2502000000 1.1360000000 1.4860000000
2.2495000000 1.1430000000 1.4955000000
2.2490000000 1.3393000000 1.7514000000
2.2486000000 2.0179000000 2.6280000000
2.2481000000 0.8855000000 1.1587000000
2.2475000000 0.1966000000 0.2578000000
2.2467000000 2.2531000000 2.9436000000
2.2419000000 0.2342000000 0.3094000000
2.0144000000 6.1351000000 2.0152000000
2.0123000000 4.9785000000 3.5248000000
2.0110000000 4.2202000000 4.4998000000
2.0104000000 7.2727000000 0.4606000000
2.0096000000 7.3254000000 0.3972000000
2.0095000000 2.9967000000 3.9117000000
2.0094000000 6.5849000000 1.4315000000
2.0083000000 2.4110000000 3.1483000000
2.0083000000 7.2982000000 0.5054000000
2.0080000000 6.8105000000 1.1372000000
2.0078000000 6.6204000000 1.3862000000
2.0076000000 6.9689000000 0.9254000000
2.0073000000 4.6133000000 4.0025000000
2.0068000000 3.0763000000 4.0148000000
2.0067000000 5.6430000000 2.6603000000
2.0064000000 6.6481000000 1.3484000000
2.0063000000 7.6303000000 0.0685000000
2.0060000000 3.6182000000 4.6262000000
2.0058000000 7.7187000000 0.0300000000
2.0056000000 1.1721000000 1.5335000000
2.0055000000 4.2254000000 4.4882000000
2.0054000000 2.0022000000 2.6099000000
2.0052000000 1.3008000000 1.7013000000
2.0051000000 4.2102000000 4.5106000000
2.0049000000 2.7919000000 3.6405000000
2.0048000000 7.4107000000 0.2861000000
2.0047000000 2.6014000000 3.4004000000
2.0046000000 5.0923000000 3.3721000000
2.0044000000 2.6503000000 3.4577000000
2.0043000000 2.4072000000 3.1437000000
2.0042000000 0.7613000000 0.9983000000
2.0040000000 1.0103000000 1.3193000000
2.0039000000 4.2921000000 4.3980000000
2.0038000000 2.8646000000 3.7365000000
2.0036000000 3.9949000000 4.6680000000
2.0035000000 3.7077000000 4.6871000000
2.0030000000 0.1082000000 0.1470000000
2.0028000000 5.0757000000 3.3966000000
2.0027000000 4.8028000000 3.7544000000
2.0024000000 5.1672000000 3.2861000000
2.0025000000 3.3200000000 4.3343000000
2.0023000000 1.0272000000 1.3514000000
2.0021000000 2.9469000000 3.8414000000
2.0020000000 0.6050000000 0.7967000000
2.0019000000 1.6258000000 2.1205000000
2.0018000000 3.4702000000 4.5050000000
2.0015000000 1.9778000000 2.5848000000
2.0011000000 1.1925000000 1.5647000000
2.0009000000 0.7020000000 0.9209000000
2.0008000000 5.7070000000 2.5751000000
2.0007000000 0.2038000000 0.2716000000
2.0004000000 5.3879000000 2.9981000000
1.9996000000 7.1183000000 0.7311000000
1.9991000000 2.9890000000 3.8979000000
1.9989000000 0.7264000000 0.9521000000
1.9982000000 1.3426000000 1.7558000000
1.9975000000 2.9921000000 3.9000000000
1.9967000000 0.5244000000 0.6884000000
1.9960000000 2.1232000000 2.7746000000
1.9949000000 2.3723000000 3.1013000000
1.7607000000 6.5177000000 1.5219000000
1.7602000000 2.5663000000 3.3465000000
1.7597000000 4.0050000000 4.3858000000
1.7593000000 2.9317000000 3.7458000000
1.7589000000 6.3848000000 1.6921000000
1.7588000000 4.2842000000 4.1998000000
1.7587000000 6.6825000000 1.3068000000
1.7582000000 4.7910000000 3.7753000000
1.7578000000 5.2317000000 3.1935000000
1.7571000000 5.9558000000 2.2520000000
1.7570000000 2.3651000000 3.0905000000
1.7565000000 5.1173000000 3.3431000000
1.7565000000 4.3553000000 4.1602000000
1.7563000000 2.2169000000 2.8939000000
1.7561000000 2.0896000000 2.7301000000
1.7558000000 4.7269000000 3.8340000000
1.7556000000 2.6619000000 3.4791000000
1.7555000000 6.3923000000 1.6818000000
1.7553000000 2.2397000000 2.9244000000
1.7551000000 4.4559000000 4.0865000000
1.7550000000 5.8500000000 2.3861000000
1.7548000000 2.0604000000 2.6941000000
1.7547000000 5.5823000000 2.7372000000
1.7545000000 4.6155000000 3.9628000000
1.7543000000 5.7694000000 2.4908000000
1.7541000000 7.6660000000 0.0212000000
1.7540000000 1.6515000000 2.1625000000
1.7536000000 7.2144000000 0.5389000000
1.7535000000 4.3653000000 4.1469000000
1.7530000000 5.7843000000 2.4750000000
1.7528000000 3.5982000000 4.3306000000
1.7528000000 2.4376000000 3.1841000000
1.7527000000 5.9790000000 2.2239000000
1.7525000000 1.1082000000 1.4561000000
1.7523000000 7.2518000000 0.4916000000
1.7521000000 0.1907000000 0.2617000000
1.7518000000 2.5620000000 3.3474000000
1.7516000000 5.1436000000 3.3146000000
1.7512000000 1.4200000000 1.8573000000
1.7511000000 6.2711000000 1.7728000000
1.7510000000 2.5121000000 3.2788000000
1.7506000000 4.4301000000 4.1009000000
1.7503000000 5.9291000000 2.2834000000
1.7501000000 2.1260000000 2.7782000000
1.7497000000 1.7296000000 2.2588000000
1.7494000000 4.4183000000 4.1083000000
1.7490000000 2.7686000000 3.6148000000
1.7489000000 0.5023000000 0.6586000000
1.7479000000 0.2599000000 0.3465000000
1.7475000000 2.3316000000 3.0464000000
1.7472000000 6.7638000000 1.1960000000
1.7449000000 3.4424000000 4.2191000000
1.5147000000 6.7492000000 1.2197000000
1.5116000000 7.2457000000 0.4984000000
1.5112000000 6.7750000000 1.1854000000
1.5110000000 5.0754000000 3.3802000000
1.5100000000 3.9817000000 4.1201000000
1.5095000000 6.6874000000 1.3044000000
1.5089000000 0.5128000000 0.6739000000
1.5088000000 3.7182000000 4.1305000000
1.5083000000 2.0812000000 2.7199000000
1.5078000000 0.2037000000 0.2684000000
1.5077000000 3.7607000000 4.1619000000
1.5074000000 2.9344000000 3.6228000000
1.5072000000 0.2720000000 0.3602000000
1.5070000000 3.9886000000 4.1157000000
1.5067000000 7.5820000000 0.1261000000
1.5066000000 2.2823000000 2.9808000000
1.5065000000 6.2631000000 1.8550000000
1.5062000000 2.4174000000 3.1566000000
1.5060000000 6.5721000000 1.4507000000
1.5057000000 7.1727000000 0.5946000000
1.5055000000 7.4260000000 0.2621000000
1.5054000000 4.8168000000 3.5735000000
1.5050000000 1.8902000000 2.4676000000
1.5048000000 1.3191000000 1.7254000000
1.5046000000 2.8035000000 3.5293000000
1.5046000000 1.0265000000 1.3457000000
1.5045000000 2.4174000000 3.1555000000
1.5043000000 7.0386000000 0.7613000000
1.5041000000 5.1978000000 3.1621000000
1.5038000000 6.9161000000 0.9271000000
1.5036000000 1.6566000000 2.1681000000
1.5035000000 5.9247000000 2.2947000000
1.5034000000 2.6293000000 3.3968000000
1.5032000000 4.2376000000 3.9461000000
1.5031000000 4.7363000000 3.6214000000
1.5028000000 6.3738000000 1.6329000000
1.5026000000 3.5470000000 4.0107000000
1.5025000000 1.3194000000 1.7280000000
1.5024000000 5.1349000000 3.3046000000
1.5022000000 3.8667000000 4.1715000000
1.5019000000 0.0346000000 0.0504000000
1.5017000000 4.5188000000 3.7633000000
1.5016000000 2.5760000000 3.3405000000
1.5013000000 5.5145000000 2.8249000000
1.5010000000 1.0704000000 1.4054000000
1.5007000000 4.1653000000 3.9913000000
1.5005000000 6.8149000000 1.1299000000
1.5004000000 2.6156000000 3.3875000000
1.5003000000 2.2627000000 2.9523000000
1.5001000000 2.7572000000 3.4947000000
1.5000000000 7.7143000000 0.0380000000
1.4999000000 2.7364000000 3.4786000000
1.4998000000 6.2123000000 1.9181000000
1.4997000000 0.8364000000 1.0971000000
1.4987000000 3.0842000000 3.7083000000
1.4984000000 4.4666000000 3.7904000000
1.4978000000 2.9477000000 3.6148000000
1.4975000000 0.3734000000 0.4958000000
1.4963000000 1.7011000000 2.2180000000
1.2635000000 7.5171000000 0.1438000000
1.2618000000 5.6073000000 2.6977000000
1.2609000000 3.8116000000 3.8958000000
1.2602000000 3.5642000000 3.7545000000
1.2600000000 6.2840000000 1.8277000000
1.2592000000 3.4718000000 3.6919000000
1.2589000000 1.6511000000 2.1586000000
1.2580000000 7.5758000000 0.1422000000
1.2575000000 3.7288000000 3.8574000000
1.2574000000 5.2478000000 3.0081000000
1.2571000000 5.1264000000 3.0851000000
1.2569000000 6.8816000000 1.0480000000
1.2568000000 5.4177000000 2.8705000000
1.2567000000 5.1543000000 3.0641000000
1.2565000000 5.7318000000 2.5438000000
1.2564000000 2.2535000000 2.8741000000
1.2562000000 7.5020000000 0.1689000000
1.2560000000 3.0150000000 3.3890000000
1.2559000000 3.3102000000 3.5813000000
1.2558000000 4.4296000000 3.5450000000
1.2555000000 0.0275000000 0.0466000000
1.2552000000 0.1244000000 0.1660000000
1.2549000000 3.3515000000 3.6104000000
1.2548000000 0.5644000000 0.7391000000
1.2547000000 4.1671000000 3.7090000000
1.2544000000 7.4816000000 0.1880000000
1.2543000000 2.2863000000 2.8305000000
1.2541000000 0.9090000000 1.1956000000
1.2540000000 1.9569000000 2.5569000000
1.2539000000 1.9618000000 2.5687000000
1.2537000000 5.6067000000 2.6920000000
1.2535000000 0.4126000000 0.5452000000
1.2532000000 2.1955000000 2.8331000000
1.2530000000 1.1802000000 1.5411000000
1.2528000000 2.7534000000 3.2168000000
1.2528000000 2.6672000000 3.1566000000
1.2524000000 3.6291000000 3.7838000000
1.2523000000 2.0193000000 2.6395000000
1.2518000000 1.3536000000 1.7707000000
1.2517000000 5.7232000000 2.5608000000
1.2513000000 4.2150000000 3.6772000000
1.2510000000 3.3890000000 3.6290000000
1.2508000000 5.2898000000 2.9751000000
1.2505000000 5.6249000000 2.6756000000
1.2500000000 2.6818000000 3.1680000000
1.2496000000 4.9822000000 3.1724000000
1.2491000000 0.1590000000 0.2155000000
1.2485000000 0.1249000000 0.1699000000
1.2480000000 0.5841000000 0.7669000000
1.2475000000 2.4132000000 2.9815000000
1.2472000000 1.3050000000 1.7068000000
1.2450000000 1.4275000000 1.8688000000
1.0144000000 7.6108000000 0.0983000000
1.0125000000 3.9800000000 3.5669000000
1.0106000000 1.6846000000 2.1785000000
1.0103000000 7.6613000000 0.0337000000
1.0093000000 4.4160000000 3.2720000000
1.0091000000 0.2557000000 0.3385000000
1.0090000000 6.5400000000 1.4929000000
1.0082000000 6.6237000000 1.3848000000
1.0078000000 7.5542000000 0.1687000000
1.0076000000 6.8134000000 1.1391000000
1.0073000000 2.9768000000 3.0825000000
1.0071000000 5.2277000000 2.7388000000
1.0070000000 3.5034000000 3.4256000000
1.0067000000 5.1903000000 2.7641000000
1.0065000000 3.5685000000 3.4717000000
1.0063000000 3.6843000000 3.5394000000
1.0060000000 5.6144000000 2.4888000000
1.0057000000 5.9110000000 2.2699000000
1.0056000000 2.7156000000 2.9158000000
1.0053000000 2.6297000000 2.8578000000
1.0052000000 5.1634000000 2.7843000000
1.0050000000 0.8441000000 1.1056000000
1.0050000000 3.7315000000 3.5774000000
1.0049000000 4.4194000000 3.2656000000
1.0046000000 1.1593000000 1.5221000000
1.0045000000 5.2330000000 2.7364000000
1.0044000000 3.7677000000 3.5910000000
1.0042000000 6.4573000000 1.6004000000
1.0040000000 5.6015000000 2.4975000000
1.0038000000 3.7429000000 3.5812000000
1.0038000000 0.8789000000 1.1574000000
1.0037000000 4.8897000000 2.9519000000
1.0035000000 6.5596000000 1.4661000000
1.0032000000 1.8805000000 2.3655000000
1.0031000000 7.4231000000 0.2671000000
1.0030000000 1.3352000000 1.7496000000
1.0028000000 3.2897000000 3.2796000000
1.0027000000 4.2396000000 3.3828000000
1.0025000000 5.9430000000 2.2436000000
1.0023000000 6.5038000000 1.5379000000
1.0018000000 2.1698000000 2.5478000000
1.0018000000 4.4982000000 3.2069000000
1.0015000000 4.3223000000 3.3249000000
1.0014000000 0.8063000000 1.0568000000
1.0013000000 7.0325000000 0.7793000000
1.0011000000 0.8985000000 1.1739000000
1.0010000000 2.4329000000 2.7196000000
1.0009000000 4.3575000000 3.2984000000
1.0007000000 3.7117000000 3.5522000000
1.0004000000 1.7430000000 2.2537000000
1.0002000000 3.6871000000 3.5373000000
0.9998000000 1.2932000000 1.6938000000
0.9997000000 7.4752000000 0.2004000000
0.9994000000 1.2021000000 1.5781000000
0.9991000000 5.4733000000 2.5668000000
0.9988000000 2.5659000000 2.8031000000
0.9974000000 1.6303000000 2.1197000000
0.9965000000 3.0307000000 3.1017000000
0.9961000000 0.4019000000 0.5319000000
0.7610000000 5.1585000000 2.5157000000
0.7598000000 1.0645000000 1.3946000000
0.7594000000 5.2110000000 2.4797000000
0.7589000000 6.4461000000 1.5940000000
0.7585000000 3.4837000000 3.1374000000
0.7584000000 4.5901000000 2.8748000000
0.7579000000 0.7663000000 1.0073000000
0.7576000000 7.0159000000 0.8040000000
0.7574000000 6.1733000000 1.8400000000
0.7572000000 4.6064000000 2.8660000000
0.7570000000 6.9501000000 0.8829000000
0.7570000000 1.7682000000 2.0136000000
0.7568000000 5.9920000000 1.9552000000
0.7567000000 4.9612000000 2.6325000000
0.7566000000 6.4047000000 1.6487000000
0.7563000000 4.9203000000 2.6585000000
0.7561000000 5.5678000000 2.2317000000
0.7559000000 6.5638000000 1.3869000000
0.7557000000 2.1587000000 2.2672000000
0.7555000000 5.2634000000 2.4352000000
0.7553000000 3.0259000000 2.8313000000
0.7549000000 4.7375000000 2.7774000000
0.7548000000 2.5568000000 2.5271000000
0.7547000000 5.0825000000 2.5501000000
0.7546000000 4.6043000000 2.8514000000
0.7545000000 1.4840000000 1.8230000000
0.7544000000 2.4696000000 2.4708000000
0.7543000000 6.0075000000 1.9470000000
0.7542000000 2.4014000000 2.4261000000
0.7541000000 2.8326000000 2.7010000000
0.7540000000 2.0983000000 2.2267000000
0.7538000000 3.2642000000 2.9866000000
0.7536000000 0.3869000000 0.5116000000
0.7535000000 2.8692000000 2.7249000000
0.7534000000 0.5435000000 0.7146000000
0.7533000000 4.2251000000 3.1120000000
0.7531000000 0.4062000000 0.5385000000
0.7530000000 3.3768000000 3.0564000000
0.7529000000 6.2728000000 1.7662000000
0.7527000000 5.9015000000 2.0184000000
0.7526000000 5.8700000000 2.0355000000
0.7525000000 6.7815000000 1.1717000000
0.7524000000 0.3378000000 0.4492000000
0.7522000000 0.1224000000 0.1648000000
0.7518000000 2.1389000000 2.2470000000
0.7515000000 5.6077000000 2.2076000000
0.7510000000 1.1948000000 1.5583000000
0.7508000000 1.1613000000 1.5153000000
0.7506000000 4.4581000000 2.9523000000
0.7503000000 0.9759000000 1.2780000000
0.7501000000 3.1379000000 2.8995000000
0.7499000000 5.2338000000 2.4454000000
0.7495000000 4.7191000000 2.7799000000
0.7493000000 5.0915000000 2.5344000000
0.7491000000 1.3146000000 1.6888000000
0.7490000000 4.6838000000 2.8040000000
0.7488000000 4.8470000000 2.6987000000
0.7479000000 1.2965000000 1.6742000000
0.7450000000 1.5912000000 1.8865000000
0.5127000000 5.8364000000 1.7889000000
0.5107000000 0.1210000000 0.1637000000
0.5095000000 5.1846000000 2.2112000000
0.5092000000 0.6621000000 0.8727000000
0.5090000000 6.1757000000 1.5561000000
0.5084000000 2.2448000000 2.0406000000
0.5081000000 6.5226000000 1.3274000000
0.5078000000 6.0100000000 1.6661000000
0.5073000000 2.2201000000 2.0248000000
0.5070000000 6.9200000000 0.9241000000
0.5066000000 7.6444000000 0.0506000000
0.5064000000 6.2493000000 1.5052000000
0.5063000000 6.4877000000 1.3521000000
0.5060000000 5.5109000000 1.9889000000
0.5060000000 7.6661000000 0.0237000000
0.5058000000 4.5389000000 2.6226000000
0.5056000000 1.8015000000 1.7562000000
0.5053000000 4.0166000000 2.9657000000
0.5053000000 3.4355000000 2.8122000000
0.5050000000 4.6572000000 2.5457000000
0.5050000000 3.8087000000 3.0388000000
0.5049000000 4.7631000000 2.4718000000
0.5046000000 3.0798000000 2.5822000000
0.5045000000 1.2621000000 1.4000000000
0.5045000000 4.7662000000 2.4781000000
0.5043000000 5.4211000000 2.0443000000
0.5041000000 1.4129000000 1.4964000000
0.5040000000 2.1673000000 1.9865000000
0.5040000000 2.1682000000 1.9908000000
0.5039000000 6.9516000000 0.9547000000
0.5037000000 3.0223000000 2.5442000000
0.5035000000 3.1612000000 2.6401000000
0.5034000000 2.4812000000 2.1919000000
0.5032000000 0.7250000000 0.9503000000
0.5031000000 2.7657000000 2.3756000000
0.5030000000 3.8756000000 3.0344000000
0.5029000000 2.0087000000 1.8846000000
0.5027000000 0.6121000000 0.8001000000
0.5026000000 0.4023000000 0.5242000000
0.5025000000 0.7009000000 0.9198000000
0.5023000000 0.0406000000 0.0580000000
0.5023000000 7.5289000000 0.1256000000
0.5021000000 2.6176000000 2.2772000000
0.5019000000 7.0875000000 0.7790000000
0.5018000000 4.6193000000 2.5638000000
0.5011000000 5.6471000000 1.8962000000
0.5009000000 6.9770000000 0.9189000000
0.5008000000 1.5346000000 1.5741000000
0.5006000000 0.3802000000 0.5048000000
0.5005000000 2.5595000000 2.2358000000
0.5003000000 7.0399000000 0.8408000000
0.5002000000 1.4004000000 1.4855000000
0.4998000000 1.5044000000 1.5512000000
0.4995000000 3.5190000000 2.8637000000
0.4988000000 5.1591000000 2.2117000000
0.4986000000 6.7119000000 1.1904000000
0.4985000000 2.5620000000 2.2360000000
0.4980000000 2.4481000000 2.1654000000
0.4972000000 2.5818000000 2.2503000000
0.4956000000 0.2015000000 0.2676000000
0.2636000000 5.4942000000 1.7329000000
0.2628000000 6.8408000000 0.8496000000
0.2605000000 5.0439000000 2.0194000000
0.2601000000 6.1274000000 1.3089000000
0.2596000000 5.1327000000 1.9585000000
0.2589000000 3.0002000000 2.2516000000
0.2583000000 6.4480000000 1.0983000000
0.2577000000 0.6711000000 0.7341000000
0.2576000000 2.2623000000 1.7718000000
0.2570000000 2.2684000000 1.7781000000
0.2570000000 7.3309000000 0.4426000000
0.2564000000 0.9357000000 0.9005000000
0.2563000000 2.9230000000 2.1931000000
0.2558000000 3.7218000000 2.7259000000
0.2555000000 2.1420000000 1.6895000000
0.2552000000 6.0582000000 1.3524000000
0.2550000000 2.7383000000 2.0820000000
0.2549000000 5.8217000000 1.5055000000
0.2546000000 6.8776000000 0.8232000000
0.2544000000 3.7968000000 2.7481000000
0.2542000000 5.5642000000 1.6721000000
0.2540000000 1.5149000000 1.2827000000
0.2538000000 0.1575000000 0.2117000000
0.2536000000 7.5050000000 0.1518000000
0.2532000000 1.1083000000 1.0132000000
0.2530000000 1.9082000000 1.5369000000
0.2528000000 5.6652000000 1.6054000000
0.2526000000 0.9870000000 0.9373000000
0.2523000000 4.7573000000 2.1930000000
0.2522000000 5.5231000000 1.6955000000
0.2520000000 3.5726000000 2.6204000000
0.2518000000 3.5695000000 2.6102000000
0.2517000000 4.5024000000 2.3606000000
0.2515000000 7.3324000000 0.4410000000
0.2514000000 4.5032000000 2.3624000000
0.2511000000 2.4817000000 1.9052000000
0.2511000000 0.5274000000 0.6180000000
0.2510000000 0.9397000000 0.8992000000
0.2506000000 7.4804000000 0.1890000000
0.2505000000 2.2401000000 1.7455000000
0.2500000000 6.3332000000 1.1651000000
0.2499000000 3.0154000000 2.2572000000
0.2498000000 0.5747000000 0.6665000000
0.2493000000 1.5350000000 1.2890000000
0.2491000000 1.2103000000 1.0758000000
0.2485000000 3.5124000000 2.5744000000
0.2474000000 5.3862000000 1.7777000000
0.2457000000 1.4471000000 1.2287000000
0.2443000000 1.3659000000 1.1750000000
0.0114000000 6.4159000000 0.8417000000
0.0102000000 5.5719000000 1.3940000000
0.0094000000 0.5946000000 0.4033000000
0.0089000000 4.8322000000 1.8791000000
0.0087000000 3.5297000000 2.3146000000
0.0084000000 2.7745000000 1.8264000000
0.0083000000 4.8901000000 1.8329000000
0.0078000000 7.2663000000 0.2878000000
0.0078000000 5.1404000000 1.6703000000
0.0075000000 7.4340000000 0.1785000000
0.0074000000 2.5572000000 1.6746000000
0.0073000000 4.9034000000 1.8205000000
0.0071000000 5.8940000000 1.1750000000
0.0069000000 1.0157000000 0.6765000000
0.0066000000 3.5320000000 2.3168000000
0.0064000000 6.5979000000 0.7151000000
0.0061000000 1.5772000000 1.0459000000
0.0060000000 6.4154000000 0.8368000000
0.0057000000 0.2436000000 0.1712000000
0.0055000000 6.3809000000 0.8659000000
0.0055000000 1.3154000000 0.8745000000
0.0051000000 7.6069000000 0.0418000000
0.0050000000 6.4686000000 0.7980000000
0.0048000000 1.5729000000 1.0393000000
0.0047000000 2.9838000000 1.9540000000
0.0046000000 3.9185000000 2.4580000000
0.0043000000 0.2638000000 0.1809000000
0.0042000000 5.6495000000 1.3318000000
0.0035000000 4.1875000000 2.2825000000
0.0033000000 3.8317000000 2.4795000000
0.0032000000 4.4839000000 2.0914000000
0.0030000000 1.8728000000 1.2311000000
0.0029000000 3.6867000000 2.4148000000
0.0027000000 2.3574000000 1.5461000000
0.0026000000 3.4470000000 2.2547000000
0.0024000000 7.3322000000 0.2306000000
0.0020000000 7.3941000000 0.1936000000
0.0020000000 7.0065000000 0.4457000000
0.0017000000 4.0203000000 2.3911000000
0.0016000000 1.6137000000 1.0589000000
0.0015000000 0.3837000000 0.2560000000
0.0015000000 6.9620000000 0.4756000000
0.0014000000 1.6350000000 1.0788000000
0.0011000000 6.1496000000 1.0084000000
0.0010000000 5.3570000000 1.5252000000
0.0008000000 1.3536000000 0.8880000000
0.0006000000 5.0825000000 1.7068000000
0.0003000000 1.7647000000 1.1586000000
-0.0002000000 2.4031000000 1.5725000000
-0.0002000000 2.3857000000 1.5567000000
-0.0006000000 2.0462000000 1.3408000000
-0.0009000000 6.9046000000 0.5084000000
-0.0011000000 1.6041000000 1.0525000000
-0.0016000000 6.7051000000 0.6383000000
-0.0025000000 1.9059000000 1.2476000000
-0.0031000000 3.6129000000 2.3598000000
-0.0037000000 3.5321000000 2.3077000000
-0.0044000000 0.4005000000 0.2638000000
-0.0055000000 0.3968000000 0.2569000000
-0.2394000000 4.2739000000 1.9584000000
-0.2411000000 6.5938000000 0.4435000000
-0.2415000000 7.0108000000 0.1706000000
-0.2419000000 1.0984000000 0.4501000000
-0.2423000000 5.4030000000 1.2201000000
-0.2425000000 6.8006000000 0.3040000000
-0.2430000000 2.9553000000 1.6574000000
-0.2432000000 5.8678000000 0.9132000000
-0.2437000000 4.3877000000 1.8782000000
-0.2441000000 0.9547000000 0.3546000000
-0.2445000000 4.4886000000 1.8075000000
-0.2448000000 4.2389000000 1.9738000000
-0.2451000000 7.1849000000 0.0528000000
-0.2454000000 5.7100000000 1.0098000000
-0.2455000000 3.7499000000 2.1706000000
-0.2457000000 7.0660000000 0.1299000000
-0.2459000000 4.1264000000 2.0436000000
-0.2461000000 3.1704000000 1.7993000000
-0.2468000000 3.7377000000 2.1602000000
-0.2470000000 5.9111000000 0.8798000000
-0.2472000000 6.8387000000 0.2754000000
-0.2473000000 3.9059000000 2.1807000000
-0.2475000000 0.2191000000 0.0177000000
-0.2476000000 6.5884000000 0.4329000000
-0.2478000000 0.2103000000 0.0128000000
-0.2479000000 5.0379000000 1.4491000000
-0.2483000000 5.9507000000 0.8554000000
-0.2485000000 2.1242000000 1.1046000000
-0.2488000000 0.8839000000 0.3058000000
-0.2490000000 6.0986000000 0.7576000000
-0.2492000000 7.2026000000 0.0309000000
-0.2494000000 2.4362000000 1.3082000000
-0.2496000000 2.6131000000 1.4299000000
-0.2498000000 1.7739000000 0.8842000000
-0.2504000000 1.9028000000 0.9592000000
-0.2507000000 0.8693000000 0.2910000000
-0.2508000000 0.3320000000 0.0137000000
-0.2512000000 4.4149000000 1.8434000000
-0.2518000000 0.4485000000 0.0182000000
-0.2525000000 0.3246000000 0.0058000000
-0.2531000000 2.7798000000 1.5286000000
-0.4887000000 6.9589000000 0.0736000000
-0.4896000000 6.0458000000 0.5191000000
-0.4902000000 2.9473000000 1.3763000000
-0.4907000000 5.2488000000 1.0348000000
-0.4912000000 2.5461000000 1.1119000000
-0.4917000000 6.6354000000 0.1250000000
-0.4924000000 0.8288000000 0.0657000000
-0.4928000000 4.6801000000 1.4070000000
-0.4932000000 2.1303000000 0.8370000000
-0.4935000000 2.8866000000 1.3280000000
-0.4941000000 1.0698000000 0.1475000000
-0.4944000000 3.5105000000 1.7328000000
-0.4947000000 5.0938000000 1.1320000000
-0.4950000000 4.6841000000 1.4065000000
-0.4951000000 5.0198000000 1.1807000000
-0.4952000000 3.4256000000 1.6812000000
-0.4953000000 1.3089000000 0.3008000000
-0.4957000000 3.6256000000 1.8037000000
-0.4958000000 3.4899000000 1.7233000000
-0.4960000000 6.3404000000 0.3169000000
-0.4962000000 3.9403000000 1.8856000000
-0.4965000000 1.3359000000 0.3217000000
-0.4967000000 1.7554000000 0.5901000000
-0.4969000000 4.8965000000 1.2528000000
-0.4970000000 6.6546000000 0.1163000000
-0.4974000000 4.3535000000 1.6140000000
-0.4980000000 1.8178000000 0.6296000000
-0.4980000000 5.8683000000 0.6227000000
-0.4981000000 2.5506000000 1.1068000000
-0.4984000000 4.5920000000 1.4520000000
-0.4990000000 1.7387000000 0.5716000000
-0.4992000000 6.0984000000 0.4747000000
-0.4994000000 5.9812000000 0.5481000000
-0.4995000000 5.3192000000 0.9798000000
-0.4998000000 0.7736000000 0.0238000000
-0.5008000000 2.6187000000 1.1411000000
-0.5011000000 2.4599000000 1.0423000000
-0.5016000000 3.5617000000 1.7619000000
-0.5043000000 4.9721000000 1.1960000000
-0.5060000000 0.7400000000 0.0661000000
-0.7377000000 4.8435000000 1.0182000000
-0.7398000000 5.6639000000 0.4850000000
-0.7402000000 4.8298000000 1.0195000000
-0.7410000000 1.7916000000 0.3362000000
-0.7416000000 6.4999000000 0.0128000000
-0.7427000000 4.8701000000 1.0006000000
-0.7437000000 3.5082000000 1.4537000000
-0.7439000000 1.3744000000 0.0600000000
-0.7439000000 5.9836000000 0.2732000000
-0.7441000000 5.6614000000 0.4794000000
-0.7444000000 5.0256000000 0.8930000000
-0.7447000000 5.8113000000 0.3797000000
-0.7448000000 1.7150000000 0.2841000000
-0.7454000000 6.4949000000 0.0137000000
-0.7455000000 1.1886000000 0.0138000000
-0.7457000000 3.0134000000 1.1313000000
-0.7461000000 2.8860000000 1.0429000000
-0.7465000000 1.9978000000 0.4701000000
-0.7467000000 2.6745000000 0.9065000000
-0.7470000000 4.4005000000 1.3008000000
-0.7472000000 3.5619000000 1.4911000000
-0.7475000000 1.2944000000 0.0763000000
-0.7483000000 2.1219000000 0.5447000000
-0.7487000000 1.6446000000 0.2290000000
-0.7490000000 3.5079000000 1.4435000000
-0.7495000000 3.7930000000 1.6136000000
-0.7496000000 3.9200000000 1.6082000000
-0.7498000000 2.3670000000 0.7012000000
-0.7500000000 1.6942000000 0.2617000000
