3.2596000000 2.8026000000 1.1053000000
3.2596000000 3.7905000000 0.8245000000
3.2595000000 4.0671000000 0.7215000000
3.2595000000 5.4188000000 0.2245000000
3.2594000000 5.2287000000 0.3017000000
3.2591000000 2.7559000000 1.0869000000
3.2590000000 4.7707000000 0.4690000000
3.2590000000 2.6625000000 1.0509000000
3.2585000000 5.1614000000 0.3257000000
3.2578000000 5.7825000000 0.0477000000
3.2575000000 2.2257000000 0.8946000000
3.2575000000 1.9111000000 0.7803000000
3.2573000000 5.6589000000 0.1254000000
3.2573000000 0.4162000000 0.2307000000
3.2570000000 2.3744000000 0.9467000000
3.2568000000 5.7881000000 0.0427000000
3.2568000000 0.9861000000 0.4415000000
3.2567000000 0.6773000000 0.3213000000
3.2565000000 5.7041000000 0.0937000000
3.2563000000 2.9987000000 1.1137000000
3.2563000000 4.6220000000 0.5197000000
3.2562000000 4.8216000000 0.4474000000
3.2561000000 3.2775000000 1.0107000000
3.2559000000 2.7564000000 1.0878000000
3.2558000000 4.3968000000 0.6083000000
3.2558000000 1.7263000000 0.7134000000
3.2557000000 4.7258000000 0.4834000000
3.2557000000 3.5152000000 0.9258000000
3.2554000000 3.1168000000 1.0685000000
3.2554000000 3.0013000000 1.1180000000
3.2553000000 2.3372000000 0.9381000000
3.2552000000 4.0086000000 0.7426000000
3.2551000000 4.1308000000 0.7031000000
3.2551000000 1.7508000000 0.7218000000
3.2548000000 1.5003000000 0.6257000000
3.2547000000 2.6466000000 1.0520000000
3.2546000000 5.2770000000 0.2868000000
3.2546000000 1.3984000000 0.5910000000
3.2541000000 1.7765000000 0.7267000000
3.2542000000 4.6975000000 0.4951000000
3.2540000000 0.3545000000 0.2100000000
3.2541000000 3.8273000000 0.8078000000
3.2540000000 2.0603000000 0.8350000000
3.2540000000 0.9608000000 0.4397000000
3.2539000000 4.7162000000 0.4854000000
3.2538000000 5.3965000000 0.2327000000
3.2536000000 4.1790000000 0.6824000000
3.2536000000 5.4340000000 0.2320000000
3.2535000000 3.3489000000 0.9868000000
3.2534000000 5.2867000000 0.2770000000
3.2533000000 3.2330000000 1.0303000000
3.2532000000 2.5858000000 1.0276000000
3.2530000000 4.7643000000 0.4717000000
3.2529000000 5.7353000000 0.0800000000
3.2528000000 2.5950000000 1.0244000000
3.2528000000 1.5469000000 0.6469000000
3.2528000000 4.5005000000 0.5642000000
3.2527000000 4.0085000000 0.7461000000
3.2527000000 3.9482000000 0.7727000000
3.2525000000 1.5503000000 0.6510000000
3.2525000000 0.9934000000 0.4416000000
3.2525000000 3.3178000000 0.9937000000
3.2521000000 0.0812000000 0.0702000000
3.2520000000 1.5383000000 0.6524000000
3.2518000000 2.6579000000 1.0532000000
3.2516000000 4.6080000000 0.5279000000
3.2515000000 4.4441000000 0.5904000000
3.2512000000 2.0762000000 0.8458000000
3.2512000000 1.4579000000 0.6209000000
3.2511000000 1.3176000000 0.5676000000
3.2511000000 4.4531000000 0.5898000000
3.2506000000 1.3640000000 0.5787000000
3.2507000000 4.2283000000 0.6712000000
3.2504000000 2.7119000000 1.0761000000
3.2502000000 0.2498000000 0.1607000000
3.2500000000 3.1132000000 1.0825000000
3.2499000000 4.0563000000 0.7266000000
3.2498000000 0.0486000000 0.0459000000
3.2497000000 4.7599000000 0.4755000000
3.2497000000 5.5831000000 0.1613000000
3.2496000000 0.8323000000 0.3921000000
3.2491000000 1.2466000000 0.5425000000
3.2480000000 1.7618000000 0.7290000000
3.2457000000 5.6831000000 0.1093000000
3.2442000000 2.1664000000 0.8798000000
3.0150000000 5.7476000000 0.0742000000
3.0144000000 2.5495000000 1.1685000000
3.0120000000 5.3779000000 0.3437000000
3.0110000000 2.2109000000 1.0443000000
3.0101000000 5.0633000000 0.5187000000
3.0098000000 2.0029000000 0.9737000000
3.0098000000 2.8750000000 1.2829000000
3.0097000000 4.6316000000 0.6712000000
3.0096000000 2.7787000000 1.2519000000
3.0093000000 3.5039000000 1.0885000000
3.0092000000 2.3598000000 1.1004000000
3.0088000000 3.1211000000 1.2263000000
3.0087000000 5.6089000000 0.1708000000
3.0086000000 4.7356000000 0.6387000000
3.0086000000 3.8407000000 0.9681000000
3.0079000000 5.8219000000 0.0198000000
3.0078000000 4.1635000000 0.8485000000
3.0078000000 3.8437000000 0.9626000000
3.0077000000 0.8384000000 0.5441000000
3.0076000000 5.8340000000 0.0747000000
3.0075000000 4.8223000000 0.6020000000
3.0072000000 4.5362000000 0.7084000000
3.0071000000 3.8578000000 0.9609000000
3.0071000000 4.2229000000 0.8254000000
3.0070000000 2.6314000000 1.1976000000
3.0068000000 2.3847000000 1.1094000000
3.0065000000 4.8586000000 0.5892000000
3.0064000000 3.3684000000 1.1365000000
3.0062000000 2.6082000000 1.1904000000
3.0062000000 4.0629000000 0.8873000000
3.0058000000 4.6537000000 0.6702000000
3.0057000000 4.6510000000 0.6736000000
3.0056000000 0.8051000000 0.5317000000
3.0055000000 3.5891000000 1.0573000000
3.0055000000 4.2807000000 0.8055000000
3.0054000000 0.3895000000 0.2954000000
3.0052000000 0.5233000000 0.3878000000
3.0050000000 3.5012000000 1.0862000000
3.0050000000 3.8608000000 0.9632000000
3.0048000000 0.9397000000 0.5834000000
3.0046000000 1.4170000000 0.7608000000
3.0044000000 4.2308000000 0.8241000000
3.0042000000 1.1274000000 0.6487000000
3.0041000000 2.3678000000 1.1075000000
3.0040000000 5.2146000000 0.4516000000
3.0038000000 2.6457000000 1.2056000000
3.0038000000 4.6868000000 0.6611000000
3.0033000000 2.5583000000 1.1779000000
3.0032000000 0.2760000000 0.2158000000
3.0034000000 0.1649000000 0.1389000000
3.0032000000 2.9119000000 1.2939000000
3.0030000000 3.8522000000 0.9681000000
3.0028000000 5.1692000000 0.4748000000
3.0028000000 1.9234000000 0.9450000000
3.0027000000 0.5740000000 0.4240000000
3.0023000000 0.7975000000 0.5330000000
3.0022000000 1.9273000000 0.9482000000
3.0021000000 3.8513000000 0.9717000000
3.0019000000 0.9559000000 0.5902000000
3.0017000000 1.0785000000 0.6350000000
3.0016000000 4.3248000000 0.7906000000
3.0014000000 1.5825000000 0.8148000000
3.0014000000 2.4812000000 1.1449000000
3.0013000000 2.5241000000 1.1646000000
3.0012000000 3.1713000000 1.2112000000
3.0012000000 3.0419000000 1.2567000000
3.0011000000 0.9887000000 0.6002000000
3.0010000000 4.1218000000 0.8654000000
3.0010000000 0.8057000000 0.5362000000
3.0010000000 1.8213000000 0.9062000000
3.0009000000 5.6436000000 0.1481000000
3.0006000000 2.1136000000 1.0126000000
3.0005000000 1.4456000000 0.7708000000
3.0004000000 0.1394000000 0.1160000000
3.0000000000 1.6223000000 0.8386000000
2.9998000000 1.0829000000 0.6403000000
2.9997000000 4.7860000000 0.6295000000
2.9993000000 3.5845000000 1.0611000000
2.9994000000 1.6819000000 0.8597000000
2.9991000000 5.1052000000 0.4952000000
2.9990000000 0.5588000000 0.4106000000
2.9988000000 0.4786000000 0.3631000000
2.9986000000 3.1524000000 1.2252000000
2.9980000000 0.7321000000 0.5031000000
2.9978000000 0.9061000000 0.5706000000
2.9977000000 3.6732000000 1.0304000000
2.9975000000 0.3826000000 0.2901000000
2.9952000000 1.8487000000 0.9252000000
2.9949000000 2.2997000000 1.0863000000
2.7653000000 5.1488000000 0.5062000000
2.7641000000 4.6269000000 0.8264000000
2.7616000000 5.1422000000 0.5139000000
2.7610000000 3.5261000000 1.2301000000
2.7598000000 4.6020000000 0.8463000000
2.7593000000 4.1403000000 1.0129000000
2.7591000000 4.1497000000 1.0106000000
2.7590000000 1.1486000000 0.8112000000
2.7587000000 4.6870000000 0.8001000000
2.7585000000 0.6485000000 0.4861000000
2.7584000000 0.9131000000 0.6790000000
2.7583000000 2.2670000000 1.2221000000
2.7582000000 4.3768000000 0.9280000000
2.7580000000 2.5715000000 1.3353000000
2.7579000000 4.1160000000 1.0249000000
2.7576000000 1.0119000000 0.7397000000
2.7576000000 3.9924000000 1.0645000000
2.7574000000 5.5763000000 0.1957000000
2.7573000000 4.3926000000 0.9230000000
2.7572000000 5.4207000000 0.3174000000
2.7570000000 2.5604000000 1.3309000000
2.7569000000 4.2389000000 0.9771000000
2.7569000000 1.6071000000 0.9783000000
2.7568000000 4.5396000000 0.8650000000
2.7568000000 4.2073000000 0.9883000000
2.7567000000 3.9661000000 1.0775000000
2.7564000000 3.9103000000 1.0921000000
2.7565000000 4.2388000000 0.9814000000
2.7563000000 5.6026000000 0.1772000000
2.7568000000 3.9231000000 1.0950000000
2.7561000000 2.4516000000 1.2898000000
2.7560000000 2.1750000000 1.1943000000
2.7558000000 3.9918000000 1.0682000000
2.7555000000 5.1801000000 0.4841000000
2.7553000000 1.1986000000 0.8334000000
2.7553000000 1.0111000000 0.7462000000
2.7553000000 2.9265000000 1.4428000000
2.7551000000 0.2712000000 0.2099000000
2.7550000000 3.7497000000 1.1521000000
2.7550000000 3.2497000000 1.3392000000
2.7549000000 3.5036000000 1.2389000000
2.7554000000 2.3968000000 1.2732000000
2.7548000000 1.2183000000 0.8399000000
2.7547000000 5.5373000000 0.2239000000
2.7546000000 0.2096000000 0.1679000000
2.7545000000 1.0494000000 0.7713000000
2.7545000000 0.7492000000 0.5531000000
2.7544000000 4.2104000000 0.9889000000
2.7543000000 4.8401000000 0.7218000000
2.7542000000 1.1910000000 0.8343000000
2.7545000000 5.1882000000 0.4823000000
2.7540000000 0.9085000000 0.6776000000
2.7540000000 2.9696000000 1.4489000000
2.7538000000 3.3063000000 1.3219000000
2.7538000000 2.7831000000 1.4141000000
2.7537000000 2.2729000000 1.2247000000
2.7538000000 4.7598000000 0.7822000000
2.7535000000 0.3862000000 0.3008000000
2.7535000000 5.3604000000 0.3550000000
2.7535000000 2.1669000000 1.1840000000
2.7533000000 3.6738000000 1.1888000000
2.7532000000 1.9725000000 1.1207000000
2.7532000000 0.1506000000 0.1249000000
2.7528000000 4.9805000000 0.6324000000
2.7528000000 3.5571000000 1.2328000000
2.7524000000 4.1076000000 1.0252000000
2.7523000000 1.6059000000 0.9891000000
2.7521000000 1.6794000000 1.0145000000
2.7520000000 1.2601000000 0.8651000000
2.7519000000 4.7947000000 0.7548000000
2.7518000000 0.8072000000 0.6042000000
2.7515000000 4.5219000000 0.8757000000
2.7512000000 1.7799000000 1.0501000000
2.7513000000 0.3455000000 0.2685000000
2.7510000000 0.0368000000 0.0407000000
2.7510000000 1.3268000000 0.8834000000
2.7510000000 3.0827000000 1.4040000000
2.7509000000 0.3611000000 0.2786000000
2.7508000000 3.9070000000 1.1014000000
2.7506000000 3.4680000000 1.2630000000
2.7504000000 4.4006000000 0.9259000000
2.7503000000 4.1383000000 1.0217000000
2.7502000000 3.0538000000 1.4137000000
2.7500000000 2.5779000000 1.3377000000
2.7500000000 3.7522000000 1.1615000000
2.7498000000 4.5745000000 0.8582000000
2.7498000000 4.0036000000 1.0651000000
2.7497000000 5.3156000000 0.3893000000
2.7493000000 3.8284000000 1.1241000000
2.7490000000 0.4777000000 0.3662000000
2.7488000000 0.3468000000 0.2672000000
2.7488000000 0.7560000000 0.5649000000
2.7485000000 3.3663000000 1.3061000000
2.7474000000 3.7061000000 1.1799000000
2.7462000000 2.9937000000 1.4377000000
2.7452000000 0.5838000000 0.4427000000
2.7446000000 1.1825000000 0.8370000000
2.7445000000 2.7048000000 1.3936000000
2.7440000000 1.1888000000 0.8411000000
2.5133000000 4.7203000000 0.8299000000
2.5124000000 5.7477000000 0.0741000000
2.5115000000 3.7367000000 1.3166000000
2.5111000000 5.5424000000 0.2240000000
2.5107000000 4.8929000000 0.6946000000
2.5098000000 0.8199000000 0.6163000000
2.5098000000 3.4291000000 1.4250000000
2.5097000000 5.0951000000 0.5506000000
2.5095000000 3.7771000000 1.3021000000
2.5094000000 5.1184000000 0.5362000000
2.5092000000 2.2395000000 1.3714000000
2.5088000000 4.9423000000 0.6666000000
2.5087000000 2.9638000000 1.5971000000
2.5086000000 4.0949000000 1.1869000000
2.5084000000 3.7997000000 1.2958000000
2.5083000000 5.0262000000 0.5973000000
2.5080000000 1.4465000000 1.0584000000
2.5080000000 5.5751000000 0.2004000000
2.5079000000 5.2751000000 0.4171000000
2.5077000000 2.1104000000 1.3267000000
2.5075000000 1.3865000000 1.0117000000
2.5074000000 2.9286000000 1.6035000000
2.5072000000 5.7999000000 0.0374000000
2.5072000000 3.5575000000 1.3896000000
2.5071000000 4.3325000000 1.0896000000
2.5067000000 3.2382000000 1.5067000000
2.5066000000 2.9540000000 1.5950000000
2.5065000000 5.2898000000 0.4118000000
2.5063000000 3.4635000000 1.4217000000
2.5063000000 5.3393000000 0.3684000000
2.5062000000 1.6329000000 1.1583000000
2.5061000000 4.4129000000 1.0299000000
2.5061000000 3.6320000000 1.3642000000
2.5057000000 5.6291000000 0.1564000000
2.5057000000 0.6345000000 0.4766000000
2.5054000000 1.6102000000 1.1478000000
2.5051000000 2.8466000000 1.5926000000
2.5050000000 3.6526000000 1.3523000000
2.5048000000 4.6252000000 0.8948000000
2.5047000000 1.7502000000 1.1999000000
2.5045000000 3.4683000000 1.4193000000
2.5045000000 2.7547000000 1.5684000000
2.5044000000 5.4276000000 0.3073000000
2.5044000000 5.2793000000 0.4154000000
2.5043000000 1.2458000000 0.9187000000
2.5040000000 5.5001000000 0.2512000000
2.5039000000 4.0407000000 1.2119000000
2.5038000000 4.5614000000 0.9450000000
2.5038000000 5.5417000000 0.2195000000
2.5037000000 1.3242000000 0.9796000000
2.5034000000 3.2659000000 1.4931000000
2.5033000000 0.9621000000 0.7230000000
2.5030000000 4.2577000000 1.1206000000
2.5029000000 2.5167000000 1.4740000000
2.5028000000 0.8201000000 0.6104000000
2.5028000000 3.3339000000 1.4718000000
2.5026000000 5.6670000000 0.1332000000
2.5026000000 0.7601000000 0.5717000000
2.5023000000 1.3090000000 0.9661000000
2.5022000000 5.4149000000 0.3164000000
2.5021000000 0.6632000000 0.4946000000
2.5017000000 4.2506000000 1.1260000000
2.5012000000 0.6366000000 0.4810000000
2.5010000000 0.5522000000 0.4194000000
2.5006000000 1.8205000000 1.2253000000
2.5005000000 5.5992000000 0.1815000000
2.5005000000 3.3834000000 1.4528000000
2.5003000000 0.5710000000 0.4294000000
2.4995000000 3.2854000000 1.4902000000
2.4994000000 1.0618000000 0.7892000000
2.4993000000 0.8312000000 0.6170000000
2.4992000000 2.1045000000 1.3247000000
2.4991000000 2.3027000000 1.4008000000
2.4986000000 0.8779000000 0.6559000000
2.4985000000 3.9014000000 1.2649000000
2.4983000000 0.3565000000 0.2749000000
2.4983000000 0.3785000000 0.2846000000
2.4978000000 4.6433000000 0.8855000000
2.4976000000 0.3163000000 0.2396000000
2.4965000000 0.7594000000 0.5684000000
2.4958000000 2.7405000000 1.5651000000
2.4947000000 0.1538000000 0.1249000000
2.2617000000 3.3022000000 1.6299000000
2.2617000000 0.5554000000 0.4149000000
2.2615000000 4.5707000000 0.9336000000
2.2614000000 4.4176000000 1.0422000000
2.2608000000 5.6694000000 0.1292000000
2.2598000000 3.6474000000 1.5071000000
2.2595000000 2.3864000000 1.5819000000
2.2591000000 0.9807000000 0.7319000000
2.2590000000 2.4757000000 1.6159000000
2.2590000000 1.6684000000 1.2306000000
2.2586000000 2.8319000000 1.7478000000
2.2583000000 3.2574000000 1.6579000000
2.2583000000 5.3873000000 0.3367000000
2.2582000000 5.0579000000 0.5762000000
2.2582000000 3.9006000000 1.4119000000
2.2576000000 5.6950000000 0.1090000000
2.2575000000 0.6566000000 0.4968000000
2.2573000000 4.6323000000 0.8866000000
2.2572000000 4.1460000000 1.2405000000
2.2568000000 2.8373000000 1.7507000000
2.2567000000 5.5810000000 0.1959000000
2.2566000000 4.6699000000 0.8638000000
2.2565000000 1.5851000000 1.1676000000
2.2565000000 4.6251000000 0.8944000000
2.2564000000 2.8838000000 1.7603000000
2.2560000000 5.2917000000 0.4080000000
2.2560000000 2.0173000000 1.4452000000
2.2560000000 1.9154000000 1.3996000000
2.2555000000 2.4512000000 1.6083000000
2.2555000000 1.9631000000 1.4211000000
2.2555000000 5.7209000000 0.0861000000
2.2552000000 4.0201000000 1.3302000000
2.2551000000 3.8071000000 1.4474000000
2.2550000000 4.8773000000 0.7150000000
2.2550000000 3.8458000000 1.4236000000
2.2549000000 3.3325000000 1.6228000000
2.2548000000 4.7126000000 0.8306000000
2.2546000000 2.3273000000 1.5593000000
2.2545000000 2.4282000000 1.6049000000
2.2541000000 1.6809000000 1.2418000000
2.2540000000 4.7670000000 0.7896000000
2.2540000000 2.4995000000 1.6334000000
2.2537000000 0.0068000000 0.0198000000
2.2536000000 0.0196000000 0.0282000000
2.2534000000 0.7284000000 0.5476000000
2.2533000000 4.8536000000 0.7270000000
2.2531000000 1.2126000000 0.9002000000
2.2532000000 3.5645000000 1.5435000000
2.2533000000 4.8022000000 0.7553000000
2.2531000000 4.8559000000 0.7274000000
2.2530000000 3.8414000000 1.4314000000
2.2529000000 1.4811000000 1.0909000000
2.2524000000 4.8048000000 0.7616000000
2.2523000000 5.1573000000 0.5026000000
2.2523000000 0.1604000000 0.1263000000
2.2521000000 1.6323000000 1.2057000000
2.2521000000 0.5137000000 0.3869000000
2.2520000000 3.6587000000 1.5079000000
2.2520000000 5.4156000000 0.3146000000
2.2518000000 3.1835000000 1.6846000000
2.2517000000 1.4064000000 1.0349000000
2.2516000000 5.6753000000 0.1237000000
2.2515000000 5.6383000000 0.1537000000
2.2513000000 5.0053000000 0.6125000000
2.2511000000 1.1270000000 0.8400000000
2.2510000000 2.3822000000 1.5908000000
2.2508000000 2.5449000000 1.6454000000
2.2507000000 4.5395000000 0.9518000000
2.2505000000 1.1036000000 0.8157000000
2.2504000000 3.4460000000 1.5913000000
2.2503000000 0.4274000000 0.3256000000
2.2498000000 2.7708000000 1.7332000000
2.2497000000 5.6005000000 0.1794000000
2.2497000000 1.3871000000 1.0239000000
2.2493000000 2.9320000000 1.7647000000
2.2488000000 4.5658000000 0.9344000000
2.2483000000 3.1663000000 1.6934000000
2.2481000000 0.3105000000 0.2428000000
2.2480000000 0.4730000000 0.3599000000
2.2478000000 4.2228000000 1.1878000000
2.2475000000 1.2129000000 0.9038000000
2.2458000000 0.1124000000 0.0967000000
2.2400000000 0.6030000000 0.4516000000
2.0115000000 4.3589000000 1.0859000000
2.0113000000 0.5590000000 0.4207000000
2.0104000000 5.7632000000 0.0578000000
2.0098000000 0.4087000000 0.3094000000
2.0095000000 2.5549000000 1.8077000000
2.0093000000 0.7352000000 0.5480000000
2.0084000000 2.8593000000 1.9054000000
2.0083000000 4.8357000000 0.7390000000
2.0083000000 5.3373000000 0.3753000000
2.0080000000 2.4181000000 1.7476000000
2.0077000000 4.5412000000 0.9538000000
2.0076000000 5.2179000000 0.4605000000
2.0073000000 0.0561000000 0.0514000000
2.0073000000 1.8024000000 1.3290000000
2.0071000000 5.7297000000 0.0849000000
2.0070000000 3.4551000000 1.7273000000
2.0069000000 2.6777000000 1.8488000000
2.0068000000 2.3134000000 1.6897000000
2.0065000000 1.6432000000 1.2142000000
2.0065000000 3.8109000000 1.4820000000
2.0064000000 0.1950000000 0.1562000000
2.0063000000 1.1319000000 0.8402000000
2.0062000000 4.7528000000 0.8007000000
2.0061000000 0.0634000000 0.0596000000
2.0061000000 1.6264000000 1.2024000000
2.0057000000 1.2974000000 0.9588000000
2.0055000000 3.4195000000 1.7467000000
2.0054000000 4.4179000000 1.0453000000
2.0052000000 2.3882000000 1.7313000000
2.0051000000 0.7582000000 0.5613000000
2.0050000000 1.4786000000 1.0997000000
2.0049000000 5.6074000000 0.1740000000
2.0048000000 1.8244000000 1.3485000000
2.0046000000 5.1183000000 0.5305000000
2.0045000000 0.8913000000 0.6625000000
2.0045000000 4.2903000000 1.1383000000
2.0044000000 4.4359000000 1.0337000000
2.0043000000 3.3661000000 1.7657000000
2.0041000000 2.9874000000 1.9122000000
2.0038000000 1.2043000000 0.8955000000
2.0038000000 3.3720000000 1.7566000000
2.0036000000 0.3132000000 0.2425000000
2.0035000000 0.0729000000 0.0725000000
2.0035000000 3.1193000000 1.8632000000
2.0034000000 1.5343000000 1.1319000000
2.0033000000 4.7631000000 0.7959000000
2.0033000000 3.4254000000 1.7412000000
2.0033000000 1.4316000000 1.0555000000
2.0032000000 4.8343000000 0.7433000000
2.0031000000 3.4122000000 1.7454000000
2.0030000000 4.4924000000 0.9928000000
2.0030000000 3.4932000000 1.7094000000
2.0029000000 1.5762000000 1.1633000000
2.0028000000 4.3191000000 1.1143000000
2.0028000000 1.7756000000 1.3121000000
2.0027000000 3.6661000000 1.5913000000
2.0025000000 3.4268000000 1.7400000000
2.0025000000 0.1562000000 0.1263000000
2.0022000000 0.5967000000 0.4516000000
2.0021000000 5.7406000000 0.0809000000
2.0020000000 2.6753000000 1.8511000000
2.0018000000 2.4720000000 1.7722000000
2.0016000000 2.5025000000 1.7869000000
2.0015000000 2.2529000000 1.6518000000
2.0015000000 1.2722000000 0.9417000000
2.0014000000 2.2897000000 1.6736000000
2.0013000000 3.6806000000 1.5839000000
2.0011000000 0.1016000000 0.0881000000
2.0011000000 1.2145000000 0.9042000000
2.0010000000 1.8420000000 1.3548000000
2.0006000000 0.1277000000 0.1043000000
2.0005000000 2.9846000000 1.9097000000
2.0005000000 1.5492000000 1.1407000000
2.0001000000 0.4997000000 0.3758000000
2.0000000000 1.8083000000 1.3302000000
2.0000000000 1.1120000000 0.8259000000
1.9999000000 0.9976000000 0.7445000000
1.9992000000 1.7849000000 1.3187000000
1.9990000000 5.3262000000 0.3819000000
1.9983000000 3.4960000000 1.7067000000
1.9972000000 4.5250000000 0.9636000000
1.9970000000 2.7353000000 1.8742000000
1.9965000000 1.2235000000 0.9087000000
1.7629000000 2.6268000000 1.9327000000
1.7623000000 4.7890000000 0.7697000000
1.7610000000 0.3432000000 0.2655000000
1.7601000000 1.1364000000 0.8444000000
1.7599000000 3.3238000000 1.8376000000
1.7597000000 2.8834000000 2.0350000000
1.7594000000 4.6634000000 0.8615000000
1.7592000000 5.4948000000 0.2532000000
1.7589000000 4.3686000000 1.0809000000
1.7586000000 3.7018000000 1.5618000000
1.7583000000 4.8341000000 0.7403000000
1.7582000000 3.8600000000 1.4492000000
1.7581000000 2.2674000000 1.6725000000
1.7575000000 2.4065000000 1.7717000000
1.7575000000 0.8550000000 0.6362000000
1.7573000000 1.0321000000 0.7682000000
1.7570000000 0.5682000000 0.4256000000
1.7568000000 5.4092000000 0.3183000000
1.7567000000 3.0816000000 2.0072000000
1.7566000000 2.1874000000 1.6104000000
1.7565000000 1.9788000000 1.4634000000
1.7561000000 3.1608000000 1.9643000000
1.7560000000 5.1036000000 0.5442000000
1.7558000000 3.0490000000 2.0318000000
1.7557000000 1.7834000000 1.3130000000
1.7555000000 2.4335000000 1.7920000000
1.7552000000 2.9487000000 2.0353000000
1.7553000000 4.1544000000 1.2355000000
1.7550000000 0.9352000000 0.7006000000
1.7549000000 3.3964000000 1.7949000000
1.7548000000 5.6263000000 0.1628000000
1.7548000000 4.1027000000 1.2774000000
1.7548000000 2.6611000000 1.9565000000
1.7546000000 0.1178000000 0.1060000000
1.7546000000 3.6731000000 1.5834000000
1.7545000000 4.5021000000 0.9854000000
1.7544000000 2.5030000000 1.8427000000
1.7544000000 1.1463000000 0.8508000000
1.7543000000 2.5000000000 1.8447000000
1.7543000000 5.0942000000 0.5521000000
1.7542000000 2.9999000000 2.0406000000
1.7540000000 3.4953000000 1.7161000000
1.7539000000 5.4384000000 0.3025000000
1.7537000000 2.9119000000 2.0250000000
1.7533000000 4.7548000000 0.7959000000
1.7532000000 3.1748000000 1.9594000000
1.7531000000 1.2472000000 0.9233000000
1.7529000000 5.1456000000 0.5128000000
1.7528000000 2.1754000000 1.6078000000
1.7526000000 4.3945000000 1.0662000000
1.7525000000 0.2170000000 0.1733000000
1.7523000000 3.5609000000 1.6700000000
1.7521000000 5.2052000000 0.4689000000
1.7523000000 0.6316000000 0.4731000000
1.7522000000 5.4744000000 0.2712000000
1.7521000000 0.3155000000 0.2400000000
1.7519000000 5.1200000000 0.5223000000
1.7518000000 0.5954000000 0.4477000000
1.7516000000 5.5486000000 0.2169000000
1.7516000000 1.4235000000 1.0525000000
1.7515000000 1.5096000000 1.1202000000
1.7513000000 2.1606000000 1.5909000000
1.7512000000 3.5737000000 1.6632000000
1.7511000000 3.1815000000 1.9462000000
1.7511000000 3.5453000000 1.6788000000
1.7510000000 4.6213000000 0.8947000000
1.7510000000 0.4647000000 0.3535000000
1.7510000000 4.7557000000 0.7959000000
1.7509000000 4.2134000000 1.1947000000
1.7505000000 1.7792000000 1.3146000000
1.7503000000 2.8654000000 2.0346000000
1.7503000000 3.9382000000 1.3951000000
1.7502000000 0.7242000000 0.5433000000
1.7497000000 1.6148000000 1.1959000000
1.7496000000 4.8963000000 0.6903000000
1.7495000000 4.8847000000 0.7079000000
1.7495000000 0.7979000000 0.5983000000
1.7494000000 5.6480000000 0.1440000000
1.7493000000 1.8125000000 1.3336000000
1.7491000000 1.8165000000 1.3437000000
1.7485000000 0.6016000000 0.4560000000
1.7475000000 1.4807000000 1.0900000000
1.7474000000 0.1136000000 0.0995000000
1.7472000000 2.3303000000 1.7193000000
1.7471000000 2.5556000000 1.8821000000
1.7463000000 4.8102000000 0.7601000000
1.7448000000 0.9505000000 0.7083000000
1.7444000000 3.0170000000 2.0534000000
1.5114000000 4.7490000000 0.8008000000
1.5104000000 4.5724000000 0.9310000000
1.5102000000 3.2236000000 1.9038000000
1.5101000000 2.3277000000 1.7138000000
1.5094000000 5.4269000000 0.3039000000
1.5092000000 4.0600000000 1.3024000000
1.5090000000 3.2707000000 1.8686000000
1.5081000000 3.6992000000 1.5660000000
1.5078000000 0.6307000000 0.4743000000
1.5078000000 5.5743000000 0.2019000000
1.5075000000 2.0307000000 1.4926000000
1.5075000000 0.3718000000 0.2861000000
1.5073000000 2.1436000000 1.5824000000
1.5072000000 4.7015000000 0.8327000000
1.5072000000 0.5970000000 0.4443000000
1.5069000000 1.9325000000 1.4187000000
1.5069000000 3.5771000000 1.6573000000
1.5068000000 3.5917000000 1.6477000000
1.5065000000 2.9645000000 2.0112000000
1.5063000000 3.5877000000 1.6509000000
1.5061000000 2.7188000000 1.9520000000
1.5058000000 5.7652000000 0.0573000000
1.5056000000 4.2547000000 1.1635000000
1.5057000000 2.8099000000 1.9904000000
1.5056000000 0.2956000000 0.2327000000
1.5054000000 1.5488000000 1.1404000000
1.5053000000 2.5862000000 1.8905000000
1.5053000000 4.8291000000 0.7471000000
1.5051000000 3.4521000000 1.7510000000
1.5050000000 4.8014000000 0.7647000000
1.5048000000 2.8715000000 2.0030000000
1.5045000000 1.0726000000 0.7990000000
1.5043000000 2.0109000000 1.4833000000
1.5042000000 4.8430000000 0.7272000000
1.5040000000 0.4917000000 0.3725000000
1.5040000000 2.4695000000 1.8185000000
1.5039000000 4.2669000000 1.1524000000
1.5039000000 4.8337000000 0.7412000000
1.5038000000 2.2610000000 1.6623000000
1.5037000000 0.9518000000 0.7058000000
1.5036000000 5.2969000000 0.4000000000
1.5036000000 1.9812000000 1.4620000000
1.5035000000 1.6822000000 1.2429000000
1.5035000000 0.1354000000 0.1115000000
1.5033000000 1.0710000000 0.7967000000
1.5031000000 5.4354000000 0.2948000000
1.5030000000 2.1601000000 1.5915000000
1.5028000000 0.6599000000 0.4919000000
1.5026000000 5.0431000000 0.5951000000
1.5025000000 3.1519000000 1.9259000000
1.5026000000 0.9944000000 0.7368000000
1.5025000000 2.3848000000 1.7523000000
1.5024000000 1.6283000000 1.2039000000
1.5023000000 3.8316000000 1.4746000000
1.5021000000 5.5776000000 0.1927000000
1.5019000000 3.3401000000 1.8288000000
1.5019000000 2.7447000000 1.9673000000
1.5018000000 3.8216000000 1.4715000000
1.5018000000 3.5941000000 1.6458000000
1.5018000000 2.6158000000 1.9055000000
1.5017000000 4.3041000000 1.1262000000
1.5017000000 3.4487000000 1.7527000000
1.5014000000 4.5689000000 0.9351000000
1.5010000000 1.0812000000 0.8043000000
1.5008000000 1.4613000000 1.0840000000
1.5008000000 1.7501000000 1.2906000000
1.5006000000 4.5658000000 0.9316000000
1.5005000000 4.4535000000 1.0163000000
1.5004000000 0.5910000000 0.4458000000
1.5002000000 4.2505000000 1.1657000000
1.5003000000 1.6707000000 1.2353000000
1.5001000000 3.9779000000 1.3639000000
1.5000000000 0.0630000000 0.0590000000
1.4999000000 2.5528000000 1.8652000000
1.4998000000 0.8871000000 0.6607000000
1.4996000000 2.3660000000 1.7374000000
1.4994000000 0.4443000000 0.3363000000
1.4989000000 1.3076000000 0.9700000000
1.4988000000 2.2316000000 1.6369000000
1.4986000000 2.8062000000 1.9844000000
1.4983000000 0.7996000000 0.6087000000
1.4983000000 0.0368000000 0.0391000000
1.4979000000 0.8672000000 0.6514000000
1.4978000000 2.1778000000 1.6028000000
1.4978000000 4.7354000000 0.8077000000
1.4977000000 4.1137000000 1.2659000000
1.4976000000 1.3340000000 0.9890000000
1.4976000000 1.2321000000 0.9067000000
1.4972000000 0.1171000000 0.1026000000
1.4969000000 0.0008000000 0.0156000000
1.2628000000 3.9874000000 1.3576000000
1.2604000000 1.6768000000 1.2366000000
1.2595000000 5.1624000000 0.4987000000
1.2594000000 3.4975000000 1.6593000000
1.2592000000 4.3467000000 1.0961000000
1.2592000000 3.1356000000 1.7913000000
1.2585000000 1.1166000000 0.8254000000
1.2578000000 2.7946000000 1.8378000000
1.2577000000 0.2295000000 0.1782000000
1.2569000000 2.7718000000 1.8223000000
1.2568000000 4.5151000000 0.9752000000
1.2566000000 2.6466000000 1.7744000000
1.2565000000 2.6484000000 1.7727000000
1.2563000000 1.6296000000 1.2008000000
1.2562000000 4.5118000000 0.9689000000
1.2558000000 3.8404000000 1.4625000000
1.2558000000 3.5798000000 1.6179000000
1.2555000000 5.0763000000 0.5628000000
1.2554000000 0.2281000000 0.1812000000
1.2553000000 3.1911000000 1.7716000000
1.2550000000 1.6125000000 1.1868000000
1.2549000000 1.0658000000 0.7915000000
1.2548000000 4.1576000000 1.2351000000
1.2547000000 0.7748000000 0.5782000000
1.2545000000 5.5165000000 0.2442000000
1.2544000000 3.4817000000 1.6622000000
1.2543000000 2.0473000000 1.5083000000
1.2542000000 4.4488000000 1.0240000000
1.2542000000 0.0703000000 0.0656000000
1.2540000000 3.3536000000 1.7120000000
1.2539000000 2.5980000000 1.7580000000
1.2538000000 4.2448000000 1.1725000000
1.2537000000 1.8842000000 1.3918000000
1.2536000000 1.6029000000 1.1810000000
1.2535000000 5.7870000000 0.0427000000
1.2534000000 3.2038000000 1.7673000000
1.2533000000 2.5184000000 1.7277000000
1.2533000000 1.6633000000 1.2235000000
1.2530000000 0.3607000000 0.2778000000
1.2529000000 0.6969000000 0.5243000000
1.2528000000 1.6148000000 1.1935000000
1.2527000000 2.4668000000 1.7068000000
1.2526000000 1.7167000000 1.2713000000
1.2524000000 1.6342000000 1.2055000000
1.2523000000 5.0116000000 0.6108000000
1.2523000000 1.5773000000 1.1643000000
1.2520000000 1.5445000000 1.1403000000
1.2518000000 3.7576000000 1.5219000000
1.2514000000 1.8946000000 1.3938000000
1.2512000000 3.0876000000 1.8099000000
1.2508000000 1.5248000000 1.1265000000
1.2508000000 0.7700000000 0.5787000000
1.2505000000 2.1449000000 1.5684000000
1.2500000000 0.5770000000 0.4352000000
1.2495000000 2.9857000000 1.8381000000
1.2495000000 3.1545000000 1.7804000000
1.2494000000 4.6092000000 0.9005000000
1.2489000000 3.2445000000 1.7537000000
1.2489000000 2.5363000000 1.7260000000
1.2486000000 1.9795000000 1.4574000000
1.2485000000 0.0252000000 0.0269000000
1.2478000000 1.9943000000 1.4715000000
1.2472000000 1.5421000000 1.1410000000
1.2457000000 0.7598000000 0.5736000000
1.0144000000 4.7475000000 0.8045000000
1.0112000000 4.6889000000 0.8426000000
1.0105000000 3.9728000000 1.3235000000
1.0105000000 3.4096000000 1.5347000000
1.0101000000 5.6284000000 0.1626000000
1.0097000000 1.9300000000 1.3580000000
1.0096000000 0.1717000000 0.1470000000
1.0094000000 4.7177000000 0.8247000000
1.0091000000 2.0566000000 1.4025000000
1.0090000000 1.5950000000 1.1817000000
1.0088000000 5.6930000000 0.1157000000
1.0084000000 1.8648000000 1.3276000000
1.0074000000 4.7963000000 0.7745000000
1.0068000000 2.4237000000 1.5380000000
1.0065000000 3.4135000000 1.5308000000
1.0064000000 4.5324000000 0.9596000000
1.0064000000 4.0561000000 1.2864000000
1.0062000000 5.7391000000 0.0797000000
1.0060000000 0.1180000000 0.0987000000
1.0059000000 4.1073000000 1.2607000000
1.0056000000 1.6253000000 1.1972000000
1.0055000000 1.2581000000 0.9323000000
1.0054000000 2.0706000000 1.4075000000
1.0054000000 4.4799000000 0.9969000000
1.0050000000 2.8428000000 1.6862000000
1.0049000000 3.3673000000 1.5474000000
1.0050000000 1.2856000000 0.9538000000
1.0048000000 1.8610000000 1.3244000000
1.0048000000 4.5171000000 0.9727000000
1.0047000000 2.4408000000 1.5371000000
1.0045000000 5.5801000000 0.1994000000
1.0045000000 3.3233000000 1.5679000000
1.0044000000 4.5081000000 0.9766000000
1.0043000000 2.5690000000 1.5857000000
1.0041000000 0.7297000000 0.5478000000
1.0040000000 5.2186000000 0.4632000000
1.0040000000 4.8369000000 0.7373000000
1.0039000000 4.9522000000 0.6556000000
1.0038000000 2.8712000000 1.6801000000
1.0037000000 4.5451000000 0.9523000000
1.0037000000 3.9527000000 1.3297000000
1.0035000000 0.3489000000 0.2691000000
1.0033000000 2.6852000000 1.6254000000
1.0031000000 0.4518000000 0.3450000000
1.0030000000 4.3510000000 1.0953000000
1.0029000000 2.4999000000 1.5620000000
1.0028000000 0.8618000000 0.6443000000
1.0028000000 4.0671000000 1.2786000000
1.0027000000 4.7545000000 0.7946000000
1.0027000000 5.0137000000 0.6128000000
1.0026000000 3.2417000000 1.5986000000
1.0025000000 3.7462000000 1.4050000000
1.0024000000 2.8615000000 1.6899000000
1.0021000000 1.0602000000 0.7899000000
1.0020000000 1.7449000000 1.2782000000
1.0019000000 2.8650000000 1.6831000000
1.0019000000 2.2867000000 1.4811000000
1.0018000000 3.7300000000 1.4117000000
1.0017000000 2.8832000000 1.6823000000
1.0015000000 0.6954000000 0.5194000000
1.0014000000 2.6865000000 1.6318000000
1.0013000000 5.3967000000 0.3303000000
1.0012000000 5.6002000000 0.1820000000
1.0008000000 3.0103000000 1.6779000000
1.0005000000 3.2918000000 1.5697000000
1.0003000000 2.3088000000 1.4940000000
1.0003000000 2.7091000000 1.6379000000
1.0002000000 0.0049000000 0.0110000000
1.0001000000 2.2817000000 1.4798000000
1.0000000000 2.0752000000 1.4046000000
1.0000000000 0.2877000000 0.2211000000
0.9998000000 1.6802000000 1.2262000000
0.9997000000 1.8336000000 1.3057000000
0.9994000000 1.0335000000 0.7728000000
0.9992000000 1.3382000000 0.9919000000
0.9991000000 0.7093000000 0.5333000000
0.9988000000 1.8233000000 1.3060000000
0.9987000000 1.1957000000 0.8895000000
0.9986000000 1.9225000000 1.3458000000
0.9985000000 2.1561000000 1.4352000000
0.9979000000 3.8942000000 1.3565000000
0.9978000000 4.1887000000 1.2001000000
0.9975000000 3.2287000000 1.5911000000
0.9973000000 2.7500000000 1.6466000000
0.9967000000 1.1731000000 0.8673000000
0.9966000000 2.0729000000 1.4039000000
0.9951000000 2.6516000000 1.6115000000
0.7625000000 3.8330000000 1.2288000000
0.7610000000 4.1318000000 1.1140000000
0.7607000000 5.3927000000 0.3325000000
0.7601000000 5.4440000000 0.2973000000
0.7599000000 3.2398000000 1.4392000000
0.7596000000 4.4887000000 0.9709000000
0.7595000000 2.5542000000 1.4287000000
0.7592000000 2.1899000000 1.2925000000
0.7588000000 3.1756000000 1.4602000000
0.7588000000 5.1559000000 0.5018000000
0.7576000000 4.7261000000 0.8140000000
0.7569000000 3.0815000000 1.4940000000
0.7569000000 2.0616000000 1.2454000000
0.7568000000 0.2392000000 0.1894000000
0.7564000000 5.4205000000 0.3070000000
0.7564000000 2.2282000000 1.3050000000
0.7560000000 2.8827000000 1.5348000000
0.7560000000 0.9351000000 0.6935000000
0.7557000000 4.8672000000 0.7142000000
0.7557000000 1.3979000000 0.9883000000
0.7553000000 1.7575000000 1.1325000000
0.7553000000 2.6817000000 1.4742000000
0.7554000000 0.0771000000 0.0712000000
0.7551000000 4.5230000000 0.9534000000
0.7549000000 4.0785000000 1.1320000000
0.7550000000 2.5813000000 1.4329000000
0.7546000000 2.6026000000 1.4461000000
0.7545000000 5.1933000000 0.4779000000
0.7543000000 4.3981000000 1.0132000000
0.7543000000 4.8852000000 0.6977000000
0.7543000000 2.0343000000 1.2298000000
0.7541000000 2.0135000000 1.2226000000
0.7539000000 0.9972000000 0.7432000000
0.7538000000 5.1149000000 0.5315000000
0.7538000000 0.5296000000 0.4005000000
0.7537000000 1.8002000000 1.1504000000
0.7536000000 3.0316000000 1.5121000000
0.7535000000 4.5242000000 0.9569000000
0.7535000000 3.9513000000 1.1684000000
0.7534000000 2.9851000000 1.5263000000
0.7533000000 5.6365000000 0.1566000000
0.7528000000 3.0301000000 1.5072000000
0.7523000000 3.5894000000 1.3111000000
0.7522000000 4.1030000000 1.1187000000
0.7520000000 1.9409000000 1.2040000000
0.7519000000 4.9534000000 0.6534000000
0.7518000000 1.1826000000 0.8748000000
0.7518000000 3.8666000000 1.2048000000
0.7518000000 3.2597000000 1.4300000000
0.7516000000 4.0486000000 1.1394000000
0.7515000000 0.4130000000 0.3133000000
0.7515000000 4.4600000000 0.9710000000
0.7515000000 1.1624000000 0.8611000000
0.7514000000 3.3152000000 1.4061000000
0.7513000000 2.1347000000 1.2726000000
0.7512000000 0.4165000000 0.3157000000
0.7510000000 5.4431000000 0.2926000000
0.7510000000 3.1682000000 1.4599000000
0.7504000000 4.1176000000 1.1127000000
0.7503000000 4.2490000000 1.0633000000
0.7503000000 3.4167000000 1.3724000000
0.7501000000 3.4632000000 1.3530000000
0.7499000000 1.9660000000 1.2028000000
0.7499000000 0.8604000000 0.6447000000
0.7496000000 1.6241000000 1.0816000000
0.7495000000 1.3548000000 0.9659000000
0.7492000000 4.4724000000 0.9721000000
0.7490000000 3.8034000000 1.2317000000
0.7485000000 5.4945000000 0.2541000000
0.7483000000 1.8407000000 1.1596000000
0.7482000000 0.3219000000 0.2456000000
0.7479000000 0.8136000000 0.6061000000
0.7476000000 5.6693000000 0.1284000000
0.7475000000 1.8842000000 1.1717000000
0.7472000000 2.6117000000 1.4412000000
0.7467000000 2.2990000000 1.3273000000
0.7456000000 2.8394000000 1.5276000000
0.7452000000 3.6956000000 1.2610000000
0.7450000000 0.1497000000 0.1232000000
0.7436000000 0.8503000000 0.6332000000
0.7435000000 2.7554000000 1.4917000000
0.5158000000 4.2771000000 0.9064000000
0.5103000000 5.6547000000 0.1434000000
0.5099000000 5.0911000000 0.5558000000
0.5097000000 5.4760000000 0.2694000000
0.5096000000 4.7667000000 0.7270000000
0.5090000000 2.9213000000 1.3838000000
0.5089000000 4.1450000000 0.9446000000
0.5087000000 0.9942000000 0.6970000000
0.5082000000 5.5460000000 0.2159000000
0.5080000000 3.9588000000 1.0158000000
0.5080000000 4.7982000000 0.7137000000
0.5078000000 1.2158000000 0.7849000000
0.5073000000 4.9821000000 0.6168000000
0.5071000000 4.2643000000 0.9012000000
0.5070000000 3.2488000000 1.2778000000
0.5068000000 1.0218000000 0.7095000000
0.5065000000 5.8121000000 0.0248000000
0.5066000000 3.9716000000 1.0143000000
0.5065000000 1.5966000000 0.9116000000
0.5063000000 0.6028000000 0.4478000000
0.5062000000 5.7524000000 0.0685000000
0.5060000000 5.8091000000 0.0265000000
0.5059000000 2.6314000000 1.2962000000
0.5058000000 5.5036000000 0.2493000000
0.5058000000 4.7537000000 0.7257000000
0.5057000000 1.4806000000 0.8756000000
0.5055000000 4.9016000000 0.6585000000
0.5055000000 1.0931000000 0.7307000000
0.5054000000 5.8088000000 0.0215000000
0.5054000000 4.9817000000 0.6190000000
0.5053000000 3.1928000000 1.2902000000
0.5053000000 3.2411000000 1.2818000000
0.5047000000 1.0385000000 0.7166000000
0.5045000000 4.0231000000 0.9947000000
0.5044000000 2.5248000000 1.2554000000
0.5044000000 0.9801000000 0.6843000000
0.5043000000 5.4282000000 0.2987000000
0.5043000000 1.5833000000 0.9100000000
0.5042000000 0.9393000000 0.6631000000
0.5040000000 0.0406000000 0.0455000000
0.5040000000 2.4247000000 1.2159000000
0.5040000000 5.1551000000 0.5035000000
0.5039000000 5.0535000000 0.5744000000
0.5038000000 5.0065000000 0.6024000000
0.5037000000 2.7090000000 1.3212000000
0.5037000000 4.7116000000 0.7392000000
0.5036000000 0.1455000000 0.1163000000
0.5036000000 5.4927000000 0.2601000000
0.5035000000 1.3640000000 0.8259000000
0.5035000000 4.8367000000 0.6901000000
0.5034000000 3.4670000000 1.1954000000
0.5033000000 0.4030000000 0.3064000000
0.5032000000 4.9523000000 0.6360000000
0.5031000000 3.7219000000 1.0985000000
0.5030000000 5.7513000000 0.0709000000
0.5029000000 5.7239000000 0.0910000000
0.5025000000 0.3669000000 0.2847000000
0.5025000000 1.3468000000 0.8263000000
0.5022000000 5.2230000000 0.4545000000
0.5021000000 4.4197000000 0.8488000000
0.5020000000 0.3042000000 0.2352000000
0.5018000000 4.7609000000 0.7252000000
0.5016000000 4.4803000000 0.8263000000
0.5015000000 3.2265000000 1.2865000000
0.5014000000 0.4939000000 0.3744000000
0.5014000000 0.3486000000 0.2660000000
0.5011000000 4.4003000000 0.8500000000
0.5008000000 0.6756000000 0.5044000000
0.5007000000 1.1808000000 0.7551000000
0.5005000000 0.7664000000 0.5659000000
0.5006000000 3.6043000000 1.1418000000
0.5004000000 0.2001000000 0.1588000000
0.5003000000 1.5339000000 0.8864000000
0.5001000000 0.0043000000 0.0116000000
0.4999000000 4.0565000000 0.9796000000
0.4998000000 2.5373000000 1.2576000000
0.4998000000 0.5803000000 0.4386000000
0.4996000000 2.2044000000 1.1294000000
0.4996000000 0.2315000000 0.1849000000
0.4995000000 1.9302000000 1.0381000000
0.4995000000 0.6312000000 0.4704000000
0.4994000000 0.2127000000 0.1716000000
0.4993000000 0.5199000000 0.3911000000
0.4991000000 0.0807000000 0.0689000000
0.4989000000 2.8604000000 1.3661000000
0.4989000000 3.6785000000 1.1171000000
0.4988000000 3.4748000000 1.1896000000
0.4983000000 0.7395000000 0.5512000000
0.4981000000 4.7359000000 0.7279000000
0.4978000000 5.6107000000 0.1750000000
0.4971000000 0.1274000000 0.1111000000
0.4969000000 0.1235000000 0.1057000000
0.4966000000 2.9724000000 1.3753000000
0.4955000000 1.2207000000 0.7751000000
0.4949000000 2.2076000000 1.1278000000
0.2630000000 5.8036000000 0.0313000000
0.2605000000 5.7356000000 0.0831000000
0.2605000000 3.7294000000 0.9404000000
0.2602000000 4.6399000000 0.6148000000
0.2600000000 5.5041000000 0.2487000000
0.2601000000 2.7953000000 1.1932000000
0.2596000000 2.9168000000 1.2344000000
0.2590000000 4.2236000000 0.7667000000
0.2587000000 0.6561000000 0.4192000000
0.2586000000 4.2889000000 0.7414000000
0.2585000000 3.5313000000 1.0150000000
0.2584000000 0.4546000000 0.3285000000
0.2583000000 4.3984000000 0.6974000000
0.2583000000 5.3590000000 0.3345000000
0.2582000000 0.4991000000 0.3451000000
0.2580000000 4.8543000000 0.5347000000
0.2580000000 3.3490000000 1.0795000000
0.2578000000 0.7992000000 0.4675000000
0.2576000000 3.9447000000 0.8629000000
0.2575000000 1.3276000000 0.6612000000
0.2574000000 5.6413000000 0.1487000000
0.2572000000 0.1185000000 0.1014000000
0.2572000000 0.1862000000 0.1484000000
0.2571000000 5.3384000000 0.3439000000
0.2569000000 2.6426000000 1.1350000000
0.2564000000 5.2629000000 0.3749000000
0.2563000000 5.6976000000 0.1107000000
0.2563000000 3.7132000000 0.9501000000
0.2560000000 4.2459000000 0.7524000000
0.2558000000 3.8761000000 0.8855000000
0.2558000000 5.5634000000 0.2065000000
0.2557000000 1.5271000000 0.7343000000
0.2556000000 1.5226000000 0.7290000000
0.2555000000 5.1518000000 0.4184000000
0.2553000000 2.0984000000 0.9372000000
0.2552000000 4.6428000000 0.6068000000
0.2552000000 1.0557000000 0.5559000000
0.2550000000 2.9153000000 1.2227000000
0.2549000000 3.0298000000 1.1995000000
0.2548000000 1.1938000000 0.6104000000
0.2548000000 1.6398000000 0.7659000000
0.2546000000 5.3682000000 0.3284000000
0.2545000000 5.7619000000 0.0612000000
0.2544000000 0.7649000000 0.4571000000
0.2543000000 4.3377000000 0.7202000000
0.2542000000 4.8308000000 0.5368000000
0.2543000000 2.6535000000 1.1380000000
0.2540000000 2.2050000000 0.9813000000
0.2539000000 1.2957000000 0.6458000000
0.2538000000 4.1058000000 0.8004000000
0.2536000000 5.3794000000 0.3317000000
0.2535000000 5.5520000000 0.2179000000
0.2534000000 4.2200000000 0.7619000000
0.2533000000 2.3209000000 1.0216000000
0.2532000000 0.8579000000 0.4842000000
0.2532000000 3.6609000000 0.9650000000
0.2531000000 1.6631000000 0.7810000000
0.2530000000 4.6924000000 0.5923000000
0.2529000000 5.7662000000 0.0580000000
0.2528000000 2.1935000000 0.9731000000
0.2528000000 4.3213000000 0.7227000000
0.2528000000 0.1881000000 0.1474000000
0.2527000000 2.3919000000 1.0592000000
0.2526000000 2.1015000000 0.9434000000
0.2525000000 4.1490000000 0.7834000000
0.2524000000 3.2964000000 1.1011000000
0.2523000000 1.1053000000 0.5749000000
0.2522000000 3.8291000000 0.9010000000
0.2521000000 3.7750000000 0.9215000000
0.2520000000 3.0179000000 1.1957000000
0.2520000000 3.5211000000 1.0154000000
0.2520000000 0.7951000000 0.4586000000
0.2519000000 5.7973000000 0.0327000000
0.2518000000 4.7040000000 0.5859000000
0.2518000000 0.9931000000 0.5325000000
0.2518000000 4.7349000000 0.5692000000
0.2514000000 3.6819000000 0.9604000000
0.2513000000 3.1260000000 1.1572000000
0.2512000000 2.5327000000 1.1020000000
0.2508000000 4.2250000000 0.7628000000
0.2507000000 2.4421000000 1.0667000000
0.2505000000 0.7548000000 0.4485000000
0.2503000000 1.1755000000 0.6003000000
0.2502000000 0.2882000000 0.2262000000
0.2499000000 3.8433000000 0.8988000000
0.2494000000 0.4331000000 0.3219000000
0.2493000000 1.2246000000 0.6222000000
0.2492000000 3.1246000000 1.1568000000
0.2488000000 5.3169000000 0.3438000000
0.2484000000 3.2885000000 1.0909000000
0.2480000000 1.9308000000 0.8770000000
0.2479000000 3.1650000000 1.1433000000
0.2479000000 1.8114000000 0.8336000000
0.2473000000 1.6476000000 0.7748000000
0.2471000000 0.6701000000 0.4137000000
0.2460000000 2.0373000000 0.9134000000
0.2445000000 2.2213000000 0.9834000000
0.2433000000 3.3598000000 1.0637000000
0.2420000000 2.1849000000 0.9603000000
0.0104000000 4.9050000000 0.3524000000
0.0101000000 4.4208000000 0.5331000000
0.0100000000 4.8305000000 0.3860000000
0.0098000000 2.0679000000 0.7775000000
0.0097000000 0.7598000000 0.2936000000
0.0095000000 5.4003000000 0.1776000000
0.0093000000 4.5278000000 0.4958000000
0.0092000000 4.1238000000 0.6381000000
0.0088000000 5.1809000000 0.2524000000
0.0087000000 4.6445000000 0.4542000000
0.0084000000 0.6847000000 0.2703000000
0.0076000000 4.6953000000 0.4274000000
0.0075000000 5.7081000000 0.0586000000
0.0073000000 4.6974000000 0.4264000000
0.0071000000 1.0089000000 0.3882000000
0.0070000000 3.3187000000 0.9350000000
0.0068000000 4.7988000000 0.3916000000
0.0066000000 3.6081000000 0.8279000000
0.0065000000 1.9092000000 0.7123000000
0.0063000000 4.6726000000 0.4389000000
0.0062000000 5.7998000000 0.0177000000
0.0061000000 1.5145000000 0.5721000000
0.0059000000 3.3814000000 0.9094000000
0.0058000000 2.4736000000 0.9203000000
0.0055000000 4.0928000000 0.6552000000
0.0053000000 4.5523000000 0.4846000000
0.0053000000 0.2575000000 0.1077000000
0.0052000000 3.4610000000 0.8848000000
0.0050000000 4.0010000000 0.6842000000
0.0050000000 4.5651000000 0.4788000000
0.0048000000 1.0442000000 0.3985000000
0.0047000000 1.7450000000 0.6544000000
0.0045000000 4.7399000000 0.4160000000
0.0045000000 0.2558000000 0.1073000000
0.0044000000 4.5753000000 0.4716000000
0.0041000000 3.3314000000 0.9233000000
0.0039000000 3.2332000000 0.9594000000
0.0039000000 3.6469000000 0.8108000000
0.0038000000 2.2298000000 0.8306000000
0.0036000000 0.7039000000 0.2731000000
0.0036000000 4.2779000000 0.5846000000
0.0031000000 1.2357000000 0.4642000000
0.0030000000 2.5898000000 0.9574000000
0.0030000000 3.9626000000 0.6903000000
0.0030000000 0.3924000000 0.1557000000
0.0028000000 1.5604000000 0.5887000000
0.0026000000 3.8641000000 0.7379000000
0.0024000000 0.1518000000 0.0695000000
0.0024000000 1.9002000000 0.7130000000
0.0021000000 0.6634000000 0.2548000000
0.0020000000 1.1571000000 0.4386000000
0.0019000000 3.6713000000 0.8016000000
0.0018000000 0.0534000000 0.0230000000
0.0018000000 1.2886000000 0.4872000000
0.0017000000 0.0964000000 0.0404000000
0.0015000000 3.6275000000 0.8190000000
0.0013000000 2.4265000000 0.8997000000
0.0012000000 3.2035000000 0.9718000000
0.0011000000 5.6241000000 0.0877000000
0.0011000000 3.1317000000 0.9929000000
0.0004000000 5.7853000000 0.0182000000
0.0005000000 1.9307000000 0.7179000000
0.0003000000 3.0123000000 1.0377000000
0.0003000000 4.8112000000 0.3860000000
0.0002000000 0.6874000000 0.2639000000
0.0000000000 3.4849000000 0.8657000000
-0.0001000000 1.3453000000 0.5023000000
-0.0001000000 0.4093000000 0.1630000000
-0.0002000000 1.9272000000 0.7184000000
-0.0002000000 5.0463000000 0.3034000000
-0.0005000000 4.6528000000 0.4389000000
-0.0008000000 2.6430000000 0.9768000000
-0.0009000000 2.5676000000 0.9489000000
-0.0012000000 3.5659000000 0.8434000000
-0.0013000000 3.2127000000 0.9689000000
-0.0015000000 4.8040000000 0.3890000000
-0.0017000000 0.3176000000 0.1349000000
-0.0023000000 1.0231000000 0.3847000000
-0.0026000000 1.3987000000 0.5213000000
-0.0025000000 5.3135000000 0.1987000000
-0.2395000000 5.5398000000 0.0431000000
-0.2413000000 5.2145000000 0.0879000000
-0.2420000000 4.4323000000 0.3666000000
-0.2425000000 1.4224000000 0.3812000000
-0.2430000000 4.2625000000 0.4287000000
-0.2431000000 4.9492000000 0.1811000000
-0.2432000000 2.1300000000 0.6362000000
-0.2433000000 0.7601000000 0.1401000000
-0.2434000000 1.2681000000 0.3224000000
-0.2437000000 4.9745000000 0.1739000000
-0.2440000000 4.6976000000 0.2688000000
-0.2444000000 1.6915000000 0.4798000000
-0.2444000000 2.5678000000 0.8007000000
-0.2445000000 1.5774000000 0.4323000000
-0.2447000000 5.2437000000 0.0701000000
-0.2448000000 5.2810000000 0.0577000000
-0.2450000000 5.1212000000 0.1210000000
-0.2451000000 5.3404000000 0.0346000000
-0.2451000000 3.6341000000 0.6629000000
-0.2452000000 2.8548000000 0.9017000000
-0.2453000000 2.4653000000 0.7569000000
-0.2454000000 1.7018000000 0.4760000000
-0.2455000000 5.4811000000 0.0638000000
-0.2455000000 4.1514000000 0.4718000000
