6.5032000000 4.2419000000 0.9554000000
6.5029000000 4.5096000000 0.9037000000
6.5023000000 2.4810000000 0.0728000000
6.5012000000 4.4810000000 0.9222000000
6.5001000000 4.9475000000 0.6454000000
6.4993000000 3.0288000000 0.2419000000
6.4981000000 3.2524000000 0.3812000000
6.2645000000 5.9185000000 0.3196000000
6.2604000000 4.7842000000 0.9872000000
6.2589000000 6.3099000000 0.0902000000
6.2582000000 6.2316000000 0.1316000000
6.2578000000 3.5435000000 0.7879000000
6.2577000000 4.1528000000 1.1484000000
6.2571000000 3.4131000000 0.7178000000
6.2568000000 6.3154000000 0.0900000000
6.2567000000 5.7456000000 0.4275000000
6.2563000000 3.1127000000 0.5362000000
6.2560000000 5.1895000000 0.7554000000
6.2558000000 5.6256000000 0.4922000000
6.2555000000 4.1255000000 1.1370000000
6.2548000000 5.4622000000 0.5971000000
6.2546000000 2.7802000000 0.3450000000
6.2543000000 3.5737000000 0.8140000000
6.2537000000 4.3633000000 1.2193000000
6.2535000000 4.4189000000 1.2147000000
6.2533000000 3.7482000000 0.9172000000
6.2528000000 3.5037000000 0.7748000000
6.2525000000 5.1861000000 0.7568000000
6.2518000000 5.6147000000 0.5108000000
6.2514000000 2.6816000000 0.2899000000
6.2503000000 2.4910000000 0.1845000000
6.2495000000 5.4453000000 0.6113000000
6.2454000000 2.7484000000 0.3368000000
6.0110000000 6.5378000000 0.2109000000
6.0105000000 7.1402000000 0.0051000000
6.0094000000 5.5696000000 0.7863000000
6.0091000000 2.3303000000 0.3369000000
6.0083000000 4.9889000000 1.1212000000
6.0080000000 5.0099000000 1.1108000000
6.0075000000 4.3277000000 1.4934000000
6.0073000000 1.6718000000 0.0991000000
6.0068000000 4.2859000000 1.4670000000
6.0065000000 4.9837000000 1.1271000000
6.0061000000 5.3939000000 0.8901000000
6.0057000000 4.8500000000 1.2020000000
6.0053000000 4.5676000000 1.3674000000
6.0050000000 4.7497000000 1.2623000000
6.0048000000 5.4997000000 0.8220000000
6.0045000000 4.0469000000 1.3490000000
6.0043000000 4.4693000000 1.4320000000
6.0040000000 2.0751000000 0.1901000000
6.0037000000 3.4071000000 0.9666000000
6.0035000000 5.4199000000 0.8743000000
6.0027000000 1.9408000000 0.1058000000
6.0022000000 3.7507000000 1.1707000000
6.0019000000 3.2792000000 0.8974000000
6.0015000000 3.8695000000 1.2436000000
6.0012000000 3.0955000000 0.7818000000
5.9998000000 3.2955000000 0.9123000000
5.9983000000 5.6850000000 0.7199000000
5.7637000000 3.9414000000 1.5334000000
5.7620000000 7.1754000000 0.0903000000
5.7612000000 2.2410000000 0.5289000000
5.7603000000 3.2982000000 1.1492000000
5.7599000000 5.1200000000 1.2940000000
5.7593000000 7.0102000000 0.1857000000
5.7587000000 7.0838000000 0.1510000000
5.7584000000 3.9881000000 1.5629000000
5.7579000000 7.4681000000 0.0667000000
5.7575000000 7.1439000000 0.1119000000
5.7572000000 4.2308000000 1.7046000000
5.7568000000 5.3068000000 1.1970000000
5.7566000000 3.1202000000 1.0574000000
5.7565000000 1.8017000000 0.2816000000
5.7558000000 3.9322000000 1.5304000000
5.7557000000 4.2409000000 1.7080000000
5.7553000000 6.1626000000 0.6975000000
5.7546000000 2.7904000000 0.8544000000
5.7543000000 1.8705000000 0.3131000000
5.7540000000 6.8341000000 0.2973000000
5.7539000000 2.6691000000 0.7900000000
5.7535000000 1.8347000000 0.3025000000
5.7531000000 4.6228000000 1.5921000000
5.7528000000 2.8106000000 0.8762000000
5.7527000000 5.6409000000 1.0013000000
5.7525000000 6.4040000000 0.5545000000
5.7522000000 5.3449000000 1.1712000000
5.7519000000 4.0086000000 1.5802000000
5.7516000000 1.4232000000 0.0648000000
5.7513000000 1.2899000000 0.0623000000
5.7511000000 6.2572000000 0.6433000000
5.7524000000 5.3405000000 1.1760000000
5.7501000000 1.4867000000 0.1020000000
5.7495000000 2.5154000000 0.7056000000
5.7491000000 2.8001000000 0.8685000000
5.7479000000 2.5570000000 0.7285000000
5.7458000000 6.5871000000 0.4548000000
5.5120000000 4.0722000000 1.8660000000
5.5110000000 4.7955000000 1.7383000000
5.5105000000 1.4972000000 0.3518000000
5.5105000000 6.3175000000 0.8492000000
5.5098000000 5.1044000000 1.5645000000
5.5090000000 5.9831000000 1.0415000000
5.5088000000 3.9977000000 1.8213000000
5.5078000000 6.5505000000 0.7110000000
5.5074000000 0.9278000000 0.0924000000
5.5073000000 5.4537000000 1.3595000000
5.5070000000 3.3461000000 1.4332000000
5.5068000000 2.7357000000 1.0789000000
5.5066000000 7.2005000000 0.3273000000
5.5060000000 7.1227000000 0.3799000000
5.5058000000 3.7937000000 1.7007000000
5.5055000000 5.2376000000 1.4934000000
5.5048000000 1.7881000000 0.5259000000
5.5045000000 2.3278000000 0.8445000000
5.5043000000 3.9719000000 1.8106000000
5.5041000000 5.9291000000 1.0781000000
5.5038000000 6.4688000000 0.7609000000
5.5028000000 0.8637000000 0.0613000000
5.5028000000 2.5633000000 0.9852000000
5.5025000000 3.9038000000 1.7702000000
5.5016000000 2.3709000000 0.8682000000
5.5015000000 5.0201000000 1.6117000000
5.5010000000 1.6210000000 0.4324000000
5.5007000000 2.6149000000 1.0188000000
5.5001000000 4.0883000000 1.8758000000
5.4998000000 2.6524000000 1.0387000000
5.4980000000 3.2655000000 1.3976000000
5.4953000000 2.2822000000 0.8283000000
5.2637000000 7.4788000000 0.4170000000
5.2624000000 3.1885000000 1.5926000000
5.2618000000 5.5908000000 1.5284000000
5.2611000000 7.1612000000 0.6106000000
5.2603000000 1.3434000000 0.5115000000
5.2595000000 7.2313000000 0.5681000000
5.2587000000 2.9420000000 1.4558000000
5.2581000000 4.3492000000 2.2391000000
5.2576000000 4.7797000000 2.0175000000
5.2574000000 8.3616000000 0.0591000000
5.2572000000 7.2906000000 0.5359000000
5.2570000000 3.9949000000 2.0705000000
5.2566000000 2.4305000000 1.1555000000
5.2564000000 8.1010000000 0.1361000000
5.2563000000 6.9581000000 0.7263000000
5.2559000000 6.3617000000 1.0821000000
5.2556000000 4.6732000000 2.0705000000
5.2554000000 0.4852000000 0.0883000000
5.2551000000 6.4149000000 1.0509000000
5.2550000000 0.6692000000 0.1222000000
5.2548000000 5.2662000000 1.7227000000
5.2544000000 5.0058000000 1.8787000000
5.2541000000 3.3474000000 1.6929000000
5.2539000000 2.5518000000 1.2274000000
5.2536000000 1.6231000000 0.6862000000
5.2533000000 4.4372000000 2.2162000000
5.2532000000 2.9181000000 1.4452000000
5.2528000000 1.3154000000 0.5084000000
5.2526000000 5.1098000000 1.8167000000
5.2521000000 0.9491000000 0.2932000000
5.2520000000 6.8686000000 0.7887000000
5.2518000000 1.6763000000 0.7181000000
5.2510000000 2.5721000000 1.2506000000
5.2508000000 4.6220000000 2.1084000000
5.2500000000 2.4861000000 1.1991000000
5.2493000000 3.9654000000 2.0693000000
5.2483000000 0.2394000000 0.0330000000
5.0160000000 7.6443000000 0.5669000000
5.0125000000 6.8900000000 1.0195000000
5.0121000000 7.1658000000 0.8502000000
5.0108000000 7.1103000000 0.8914000000
5.0103000000 7.6648000000 0.5690000000
5.0095000000 8.0245000000 0.3538000000
5.0093000000 1.9449000000 1.1201000000
5.0089000000 6.5741000000 1.2135000000
5.0087000000 1.4104000000 0.8133000000
5.0083000000 7.3955000000 0.7232000000
5.0081000000 4.2125000000 2.4571000000
5.0079000000 8.6004000000 0.0800000000
5.0077000000 3.7234000000 2.1614000000
5.0074000000 1.0624000000 0.6056000000
5.0072000000 6.4835000000 1.2660000000
5.0070000000 7.1614000000 0.8712000000
5.0068000000 6.7731000000 1.0959000000
5.0067000000 6.7232000000 1.1268000000
5.0063000000 6.5418000000 1.2351000000
5.0060000000 2.6525000000 1.5379000000
5.0057000000 4.9033000000 2.1953000000
5.0051000000 0.9101000000 0.5238000000
5.0049000000 5.5430000000 1.8190000000
5.0048000000 3.1348000000 1.8300000000
5.0046000000 8.6000000000 0.0790000000
5.0044000000 4.8577000000 2.2217000000
5.0042000000 3.5764000000 2.0863000000
5.0038000000 6.0221000000 1.5358000000
5.0035000000 2.0099000000 1.1684000000
5.0031000000 7.6652000000 0.5756000000
5.0028000000 5.6278000000 1.7647000000
5.0024000000 5.2229000000 2.0080000000
5.0021000000 2.1664000000 1.2586000000
5.0019000000 3.2851000000 1.9188000000
5.0015000000 0.4796000000 0.2655000000
5.0010000000 0.6476000000 0.3717000000
5.0009000000 1.0228000000 0.5875000000
4.9998000000 5.1006000000 2.0852000000
4.9996000000 0.9762000000 0.5665000000
4.9992000000 3.3684000000 1.9734000000
4.9985000000 2.5426000000 1.4832000000
4.9962000000 1.4099000000 0.8262000000
4.7625000000 4.6228000000 2.6013000000
4.7616000000 7.3420000000 1.0092000000
4.7612000000 0.0575000000 0.1382000000
4.7601000000 8.4001000000 0.3034000000
4.7597000000 4.9413000000 2.4197000000
4.7588000000 2.4743000000 1.6878000000
4.7585000000 8.0636000000 0.5895000000
4.7583000000 7.6207000000 0.8447000000
4.7580000000 5.7829000000 1.9245000000
4.7577000000 6.5933000000 1.4540000000
4.7573000000 7.3655000000 1.0013000000
4.7570000000 2.9011000000 1.9342000000
4.7567000000 6.0999000000 1.7394000000
4.7563000000 1.8838000000 1.3466000000
4.7561000000 5.7224000000 1.9635000000
4.7559000000 6.1700000000 1.7001000000
4.7557000000 3.9869000000 2.5840000000
4.7553000000 0.7661000000 0.6956000000
4.7551000000 7.2370000000 1.0776000000
4.7550000000 5.8405000000 1.8935000000
4.7548000000 0.7464000000 0.6801000000
4.7545000000 1.4695000000 1.1074000000
4.7544000000 3.3684000000 2.2140000000
4.7541000000 6.5974000000 1.4542000000
4.7539000000 2.1678000000 1.5107000000
4.7536000000 1.9680000000 1.4009000000
4.7535000000 5.5407000000 2.0774000000
4.7533000000 4.9226000000 2.4410000000
4.7530000000 2.0901000000 1.4690000000
4.7528000000 5.9787000000 1.8210000000
4.7525000000 8.0318000000 0.6150000000
4.7524000000 2.3831000000 1.6408000000
4.7520000000 1.5764000000 1.1630000000
4.7518000000 1.9772000000 1.4002000000
4.7513000000 5.8517000000 1.8951000000
4.7508000000 0.5487000000 0.5685000000
4.7505000000 8.1999000000 0.4972000000
4.7500000000 0.4657000000 0.4937000000
4.7490000000 6.9759000000 1.2358000000
4.7488000000 2.0732000000 1.4618000000
4.7479000000 0.1884000000 0.2099000000
4.7476000000 4.6446000000 2.6095000000
4.5123000000 4.0976000000 2.8951000000
4.5110000000 4.3585000000 2.9952000000
4.5104000000 5.6313000000 2.2720000000
4.5096000000 4.7689000000 2.7759000000
4.5090000000 7.8914000000 0.8845000000
4.5088000000 6.3860000000 1.8346000000
4.5085000000 4.3470000000 2.9970000000
4.5080000000 7.9527000000 0.8233000000
4.5077000000 7.0989000000 1.4128000000
4.5075000000 7.4594000000 1.1934000000
4.5074000000 4.9039000000 2.6941000000
4.5072000000 7.7056000000 1.0473000000
4.5068000000 2.0780000000 1.7095000000
4.5065000000 8.2822000000 0.4352000000
4.5060000000 6.4066000000 1.8152000000
4.5058000000 6.9749000000 1.4834000000
4.5056000000 8.1119000000 0.6390000000
4.5054000000 4.8148000000 2.7511000000
4.5052000000 6.4868000000 1.7709000000
4.5049000000 3.8286000000 2.7443000000
4.5048000000 4.6789000000 2.8306000000
4.5044000000 6.1143000000 1.9907000000
4.5042000000 6.3006000000 1.8775000000
4.5043000000 6.3067000000 1.8788000000
4.5038000000 4.1274000000 2.9152000000
4.5036000000 6.7411000000 1.6292000000
4.5033000000 2.6982000000 2.0798000000
4.5030000000 4.5826000000 2.8949000000
4.5028000000 2.8428000000 2.1645000000
4.5026000000 1.8737000000 1.5895000000
4.5024000000 2.8301000000 2.1580000000
4.5021000000 0.2756000000 0.3134000000
4.5019000000 0.1122000000 0.1247000000
4.5017000000 0.4554000000 0.5247000000
4.5015000000 2.4268000000 1.9207000000
4.5011000000 8.1692000000 0.5761000000
4.5003000000 6.2859000000 1.8938000000
4.4998000000 4.3568000000 3.0112000000
4.4989000000 2.1589000000 1.7677000000
4.4982000000 7.1741000000 1.3729000000
4.4965000000 0.8357000000 0.9541000000
4.4951000000 5.2165000000 2.5248000000
4.2624000000 6.8892000000 1.7834000000
4.2621000000 5.9159000000 2.3534000000
4.2612000000 7.3419000000 1.4977000000
4.2608000000 5.0609000000 2.8576000000
4.2604000000 2.5097000000 2.2118000000
4.2600000000 6.5235000000 2.0006000000
4.2594000000 7.5024000000 1.3561000000
4.2590000000 4.2855000000 3.2490000000
4.2587000000 8.1574000000 0.5879000000
4.2584000000 3.5191000000 2.8120000000
4.2583000000 6.6498000000 1.9273000000
4.2579000000 0.8950000000 1.0389000000
4.2575000000 0.7002000000 0.8111000000
4.2569000000 7.5654000000 1.2807000000
4.2568000000 6.1341000000 2.2320000000
4.2564000000 6.7238000000 1.8886000000
4.2563000000 6.0598000000 2.2742000000
4.2560000000 3.4550000000 2.7744000000
4.2559000000 8.1466000000 0.5982000000
4.2556000000 1.5792000000 1.6778000000
4.2554000000 6.1563000000 2.2212000000
4.2551000000 5.4377000000 2.6389000000
4.2550000000 3.6166000000 2.8676000000
4.2547000000 5.3920000000 2.6686000000
4.2545000000 5.8460000000 2.3981000000
4.2543000000 8.1073000000 0.6432000000
4.2541000000 6.6491000000 1.9313000000
4.2539000000 4.2805000000 3.2478000000
4.2536000000 7.3149000000 1.5266000000
4.2533000000 5.5736000000 2.5660000000
4.2533000000 3.1497000000 2.5983000000
4.2531000000 2.7482000000 2.3613000000
4.2528000000 2.1539000000 2.0059000000
4.2525000000 1.2568000000 1.4534000000
4.2523000000 6.0877000000 2.2623000000
4.2520000000 5.5984000000 2.5503000000
4.2518000000 1.2290000000 1.4168000000
4.2516000000 0.9056000000 1.0542000000
4.2512000000 4.2149000000 3.2247000000
4.2508000000 3.7343000000 2.9391000000
4.2506000000 0.4417000000 0.5095000000
4.2501000000 3.2293000000 2.6456000000
4.2495000000 1.3190000000 1.5035000000
4.2488000000 1.3083000000 1.5046000000
4.2458000000 0.8838000000 1.0289000000
4.2441000000 3.5551000000 2.8436000000
4.0119000000 3.9520000000 3.3138000000
4.0108000000 7.8202000000 0.9833000000
4.0103000000 4.5117000000 3.4357000000
4.0099000000 5.5011000000 2.8543000000
4.0097000000 8.1411000000 0.6063000000
4.0094000000 3.5504000000 3.0748000000
4.0090000000 1.3391000000 1.5640000000
4.0087000000 5.1777000000 3.0448000000
4.0082000000 5.4957000000 2.8554000000
4.0080000000 7.1563000000 1.7628000000
4.0078000000 2.7825000000 2.6357000000
4.0075000000 5.8995000000 2.6239000000
4.0072000000 3.5713000000 3.0933000000
4.0070000000 3.0988000000 2.8225000000
4.0067000000 7.9579000000 0.8205000000
4.0062000000 7.0723000000 1.8583000000
4.0060000000 5.7817000000 2.6956000000
4.0058000000 6.2969000000 2.3893000000
4.0055000000 4.9202000000 3.2012000000
4.0054000000 7.6918000000 1.1275000000
4.0046000000 0.9741000000 1.1363000000
4.0045000000 0.8170000000 0.9480000000
4.0042000000 6.1825000000 2.4651000000
4.0038000000 8.7186000000 0.0725000000
4.0038000000 3.9268000000 3.3070000000
4.0033000000 3.4116000000 3.0048000000
4.0033000000 2.1324000000 2.2634000000
4.0028000000 4.2031000000 3.4707000000
4.0024000000 2.8225000000 2.6633000000
4.0023000000 3.6071000000 3.1231000000
4.0021000000 5.6604000000 2.7653000000
4.0019000000 1.6720000000 1.9359000000
4.0016000000 7.7671000000 1.0438000000
4.0014000000 2.9596000000 2.7427000000
4.0019000000 1.3672000000 1.5987000000
4.0010000000 3.7418000000 3.2001000000
4.0005000000 0.2160000000 0.2400000000
4.0000000000 5.8379000000 2.6665000000
3.9989000000 1.9249000000 2.1329000000
3.9986000000 5.6874000000 2.7600000000
3.9983000000 3.3858000000 2.9980000000
3.9973000000 2.5966000000 2.5355000000
3.9966000000 5.4078000000 2.9230000000
3.9955000000 5.8938000000 2.6393000000
3.7645000000 3.9987000000 3.5970000000
3.7613000000 4.5776000000 3.6474000000
3.7605000000 8.2965000000 0.4244000000
3.7597000000 8.6587000000 0.0714000000
3.7592000000 8.2240000000 0.5060000000
3.7588000000 5.6804000000 3.0090000000
3.7583000000 7.1443000000 1.7739000000
3.7581000000 5.8387000000 2.9130000000
3.7575000000 6.0842000000 2.7755000000
3.7573000000 6.3440000000 2.6193000000
3.7570000000 5.2183000000 3.2718000000
3.7566000000 4.8700000000 3.4833000000
3.7563000000 3.3072000000 3.1929000000
3.7561000000 4.5616000000 3.6619000000
3.7558000000 4.4948000000 3.7036000000
3.7557000000 2.5176000000 2.7331000000
3.7555000000 7.2435000000 1.6589000000
3.7553000000 8.4931000000 0.1916000000
3.7551000000 0.5897000000 0.6864000000
3.7549000000 2.4641000000 2.7058000000
3.7547000000 0.6639000000 0.7751000000
3.7544000000 1.0585000000 1.2378000000
3.7540000000 1.9061000000 2.2248000000
3.7538000000 5.8412000000 2.9142000000
3.7534000000 4.6048000000 3.6418000000
3.7533000000 4.8239000000 3.5083000000
3.7530000000 0.7179000000 0.8320000000
3.7527000000 2.2648000000 2.5789000000
3.7524000000 5.5779000000 3.0675000000
3.7523000000 5.1116000000 3.3443000000
3.7520000000 4.2037000000 3.7291000000
3.7518000000 1.2452000000 1.4547000000
3.7516000000 1.4886000000 1.7318000000
3.7514000000 0.2780000000 0.3139000000
3.7510000000 4.8239000000 3.5124000000
3.7504000000 6.0292000000 2.8131000000
3.7499000000 6.5263000000 2.4764000000
3.7493000000 1.4916000000 1.7423000000
3.7472000000 2.7851000000 2.8949000000
3.7460000000 0.1678000000 0.1885000000
3.5138000000 6.7542000000 2.2321000000
3.5126000000 4.1428000000 3.9359000000
3.5109000000 4.8226000000 3.7511000000
3.5100000000 5.5209000000 3.3480000000
3.5095000000 3.3192000000 3.4559000000
3.5093000000 6.2688000000 2.7985000000
3.5085000000 4.9391000000 3.6940000000
3.5082000000 4.7668000000 3.7943000000
3.5079000000 4.8742000000 3.7324000000
3.5075000000 6.8463000000 2.1222000000
3.5072000000 3.6623000000 3.6554000000
3.5069000000 7.2959000000 1.5963000000
3.5067000000 3.1122000000 3.3403000000
3.5063000000 1.0237000000 1.1917000000
3.5059000000 2.1864000000 2.5618000000
3.5057000000 7.8735000000 0.9169000000
3.5053000000 1.3457000000 1.5723000000
3.5050000000 3.4620000000 3.5399000000
3.5048000000 2.2742000000 2.6582000000
3.5048000000 5.4313000000 3.4136000000
3.5044000000 3.4845000000 3.5565000000
3.5040000000 4.3187000000 4.0311000000
3.5038000000 2.5450000000 2.9611000000
3.5035000000 1.7771000000 2.0736000000
3.5033000000 4.5745000000 3.9120000000
3.5030000000 3.6902000000 3.6771000000
3.5025000000 4.9482000000 3.6956000000
3.5021000000 0.3509000000 0.4068000000
3.5017000000 2.7550000000 3.1312000000
3.5013000000 4.1152000000 3.9378000000
3.5008000000 4.5128000000 3.9534000000
3.5005000000 1.4553000000 1.6978000000
3.5002000000 3.7341000000 3.7051000000
3.4997000000 3.2257000000 3.4101000000
3.4977000000 4.9392000000 3.7045000000
3.4971000000 6.2400000000 2.8315000000
3.2648000000 5.4787000000 3.6239000000
3.2640000000 6.7556000000 2.2281000000
3.2622000000 3.6207000000 3.8843000000
3.2617000000 2.6681000000 3.1211000000
3.2604000000 7.3902000000 1.4869000000
3.2601000000 2.8176000000 3.2965000000
3.2598000000 2.1728000000 2.5393000000
3.2593000000 8.0868000000 0.6667000000
3.2586000000 0.6508000000 0.7579000000
3.2584000000 8.3858000000 0.3106000000
3.2577000000 6.5179000000 2.5049000000
3.2576000000 6.8233000000 2.1564000000
3.2574000000 2.2416000000 2.6233000000
3.2570000000 4.9295000000 3.9567000000
3.2568000000 4.0481000000 4.1395000000
3.2565000000 7.8367000000 0.9616000000
3.2563000000 7.3721000000 1.5054000000
3.2560000000 8.4901000000 0.1979000000
3.2558000000 5.4696000000 3.6391000000
3.2555000000 6.7549000000 2.2324000000
3.2552000000 5.7753000000 3.3854000000
3.2549000000 2.6364000000 3.0871000000
3.2548000000 6.5574000000 2.4580000000
3.2545000000 0.2867000000 0.3320000000
3.2543000000 0.6527000000 0.7505000000
3.2539000000 0.6878000000 0.8025000000
3.2537000000 3.5570000000 3.8529000000
3.2535000000 7.1618000000 1.7507000000
3.2531000000 6.5598000000 2.4582000000
3.2528000000 5.8933000000 3.2376000000
3.2525000000 1.6541000000 1.9302000000
3.2520000000 5.4736000000 3.6403000000
3.2518000000 2.7885000000 3.2621000000
3.2515000000 0.2670000000 0.2999000000
3.2513000000 1.4024000000 1.6368000000
3.2509000000 4.3969000000 4.2735000000
3.2506000000 5.8137000000 3.3381000000
3.2503000000 2.4423000000 2.8599000000
3.2498000000 8.5475000000 0.1292000000
3.2493000000 0.1760000000 0.1985000000
3.2486000000 1.0156000000 1.1811000000
3.2483000000 2.5873000000 3.0306000000
3.2479000000 2.3126000000 2.7058000000
3.2469000000 8.3244000000 0.3887000000
3.0133000000 8.4747000000 0.2110000000
3.0097000000 4.9322000000 4.2115000000
3.0093000000 5.5175000000 3.6807000000
3.0083000000 7.6794000000 1.1449000000
3.0080000000 3.7290000000 4.2091000000
3.0075000000 8.6933000000 0.1028000000
3.0070000000 7.6986000000 1.1283000000
3.0068000000 2.2908000000 2.6798000000
3.0067000000 4.6713000000 4.3591000000
3.0065000000 0.0560000000 0.1310000000
3.0063000000 3.7603000000 4.2300000000
3.0058000000 8.3119000000 0.4071000000
3.0057000000 5.3714000000 3.8536000000
3.0055000000 4.8186000000 4.2733000000
3.0050000000 1.9579000000 2.2884000000
3.0049000000 2.2513000000 2.6344000000
3.0045000000 6.7057000000 2.2920000000
3.0043000000 7.3415000000 1.5422000000
3.0038000000 4.0566000000 4.4051000000
3.0036000000 4.1561000000 4.4561000000
3.0034000000 5.6673000000 3.5090000000
3.0032000000 6.7674000000 2.2136000000
3.0031000000 3.4300000000 3.9957000000
3.0028000000 3.1912000000 3.7333000000
3.0025000000 2.4542000000 2.8771000000
3.0023000000 7.0363000000 1.9031000000
3.0022000000 2.5023000000 2.9262000000
3.0020000000 1.4612000000 1.7076000000
3.0015000000 6.1733000000 2.9144000000
3.0013000000 5.8619000000 3.2812000000
3.0009000000 7.7415000000 1.0773000000
3.0006000000 6.0607000000 3.0478000000
3.0002000000 6.4711000000 2.5624000000
2.9997000000 0.5377000000 0.6281000000
2.9992000000 2.6966000000 3.1554000000
2.9976000000 0.8234000000 0.9592000000
2.9968000000 1.2100000000 1.4139000000
2.9949000000 1.1096000000 1.2907000000
2.7633000000 7.2680000000 1.6321000000
2.7609000000 6.6812000000 2.3261000000
2.7599000000 7.1203000000 1.8007000000
2.7593000000 1.6944000000 1.9783000000
2.7588000000 6.2497000000 2.8221000000
2.7582000000 8.2168000000 0.5121000000
2.7579000000 2.0489000000 2.3982000000
2.7578000000 7.8596000000 0.9351000000
2.7574000000 8.5890000000 0.0745000000
2.7572000000 3.5476000000 4.1580000000
2.7570000000 0.9174000000 1.0704000000
2.7567000000 6.9487000000 2.0045000000
2.7565000000 3.9940000000 4.6088000000
2.7560000000 8.4012000000 0.2978000000
2.7558000000 4.6893000000 4.5829000000
2.7555000000 2.6165000000 3.0591000000
2.7553000000 2.8102000000 3.2922000000
2.7549000000 5.7464000000 3.4122000000
2.7547000000 4.8266000000 4.4766000000
2.7545000000 6.8112000000 2.1675000000
2.7540000000 4.0693000000 4.6635000000
2.7538000000 1.3578000000 1.5873000000
2.7536000000 5.3433000000 3.8884000000
2.7535000000 2.1576000000 2.5235000000
2.7530000000 1.2740000000 1.4884000000
2.7529000000 4.6110000000 4.6523000000
2.7528000000 3.1532000000 3.6969000000
2.7525000000 7.0400000000 1.8983000000
2.7523000000 3.2797000000 3.8386000000
2.7520000000 6.4346000000 2.6091000000
2.7519000000 7.6196000000 1.2139000000
2.7515000000 8.3965000000 0.3031000000
2.7512000000 1.0257000000 1.1974000000
2.7506000000 5.6530000000 3.5217000000
2.7503000000 4.5573000000 4.6875000000
2.7495000000 7.7451000000 1.0744000000
2.7488000000 0.2216000000 0.2487000000
2.7480000000 3.2112000000 3.7629000000
2.7465000000 0.1341000000 0.1503000000
2.5118000000 8.2225000000 0.5128000000
2.5109000000 7.8784000000 0.9117000000
2.5095000000 8.7171000000 0.0751000000
2.5093000000 2.4001000000 2.8049000000
2.5091000000 8.5176000000 0.1637000000
2.5085000000 2.8156000000 3.2921000000
2.5081000000 7.8528000000 0.9484000000
2.5078000000 6.6722000000 2.3244000000
2.5076000000 5.7978000000 3.3537000000
2.5071000000 5.4086000000 3.8082000000
2.5068000000 7.4505000000 1.4129000000
2.5067000000 1.3164000000 1.5361000000
2.5063000000 1.0636000000 1.2407000000
2.5060000000 4.5553000000 4.8097000000
2.5058000000 4.3766000000 4.9898000000
2.5056000000 8.5366000000 0.1417000000
2.5053000000 0.0352000000 0.1037000000
2.5050000000 0.7046000000 0.8252000000
2.5048000000 4.1652000000 4.8777000000
2.5046000000 5.8625000000 3.2754000000
2.5045000000 8.5960000000 0.0719000000
2.5042000000 5.1577000000 4.1137000000
2.5040000000 8.1600000000 0.5820000000
2.5039000000 2.7674000000 3.2354000000
2.5035000000 3.6826000000 4.3139000000
2.5033000000 8.3598000000 0.3483000000
2.5030000000 4.0983000000 4.7997000000
2.5028000000 1.7168000000 2.0076000000
2.5025000000 5.7872000000 3.3670000000
2.5023000000 6.5842000000 2.4306000000
2.5019000000 7.0425000000 1.8879000000
2.5015000000 2.6107000000 3.0526000000
2.5010000000 0.2310000000 0.2580000000
2.5006000000 2.1789000000 2.5460000000
2.5003000000 1.4795000000 1.7275000000
2.4999000000 5.9730000000 3.1495000000
2.4997000000 0.7753000000 0.9057000000
2.4991000000 4.1557000000 4.8713000000
2.4989000000 2.9210000000 3.4234000000
2.4985000000 1.7341000000 2.0274000000
2.4965000000 0.8355000000 0.9759000000
2.4961000000 0.1088000000 0.1257000000
2.4910000000 1.4043000000 1.6331000000
2.2626000000 8.5179000000 0.1639000000
2.2612000000 4.0655000000 4.6707000000
2.2603000000 6.0160000000 3.0994000000
2.2600000000 4.6159000000 4.6618000000
2.2592000000 4.6107000000 4.6681000000
2.2590000000 6.3023000000 2.7648000000
2.2586000000 3.0050000000 3.5190000000
2.2583000000 1.3239000000 1.5416000000
2.2579000000 8.2098000000 0.5259000000
2.2576000000 6.9269000000 2.0307000000
2.2574000000 6.2564000000 2.8167000000
2.2572000000 5.6940000000 3.4787000000
2.2570000000 0.0512000000 0.1289000000
2.2567000000 4.5303000000 4.7069000000
2.2564000000 0.4030000000 0.4637000000
2.2562000000 8.1580000000 0.5808000000
2.2561000000 3.2574000000 3.8128000000
2.2558000000 7.4857000000 1.3717000000
2.2554000000 7.1924000000 1.7152000000
2.2551000000 6.4745000000 2.5572000000
2.2549000000 3.7915000000 4.4426000000
2.2546000000 2.0808000000 2.4349000000
2.2543000000 8.2841000000 0.4366000000
2.2542000000 8.4475000000 0.2491000000
2.2541000000 6.6082000000 2.4027000000
2.2539000000 5.8309000000 3.3160000000
2.2537000000 1.2279000000 1.4350000000
2.2533000000 3.3698000000 3.9440000000
2.2531000000 4.8934000000 4.4114000000
2.2529000000 7.6910000000 1.1275000000
2.2525000000 7.1932000000 1.7205000000
2.2521000000 2.8047000000 3.2830000000
2.2521000000 4.5848000000 4.6754000000
2.2516000000 3.6583000000 4.2809000000
2.2515000000 2.5125000000 2.9446000000
2.2511000000 0.6757000000 0.7813000000
2.2509000000 5.2055000000 4.0495000000
2.2505000000 4.7465000000 4.5599000000
2.2502000000 7.5121000000 1.3453000000
2.2494000000 3.6945000000 4.3337000000
2.2488000000 7.5195000000 1.3300000000
2.2477000000 4.6424000000 4.6385000000
2.2472000000 1.0318000000 1.1975000000
2.2470000000 4.0192000000 4.6341000000
2.2461000000 1.8386000000 2.1522000000
2.2440000000 4.6743000000 4.6060000000
2.0111000000 6.2381000000 2.8400000000
2.0099000000 8.0114000000 0.7618000000
2.0095000000 6.3281000000 2.7349000000
2.0091000000 7.5610000000 1.2819000000
2.0083000000 5.1269000000 4.0880000000
2.0081000000 2.4410000000 2.8603000000
2.0077000000 0.9911000000 1.1522000000
2.0075000000 5.7624000000 3.3912000000
2.0073000000 5.5876000000 3.5974000000
2.0070000000 5.9987000000 3.1175000000
2.0065000000 4.0189000000 4.3908000000
2.0062000000 6.8746000000 2.0876000000
2.0058000000 3.2558000000 3.8137000000
2.0057000000 0.9753000000 1.1361000000
2.0053000000 3.2843000000 3.8426000000
2.0052000000 2.4230000000 2.8353000000
2.0051000000 7.7893000000 1.0153000000
2.0048000000 8.4015000000 0.2983000000
2.0046000000 2.0841000000 2.4388000000
2.0046000000 2.8693000000 3.3586000000
2.0041000000 8.3622000000 0.3407000000
2.0040000000 2.4716000000 2.8934000000
2.0038000000 5.8832000000 3.2575000000
2.0033000000 7.7182000000 1.1004000000
2.0028000000 4.6247000000 4.4068000000
2.0026000000 6.3520000000 2.7053000000
2.0025000000 0.0145000000 0.0860000000
2.0023000000 4.6855000000 4.3644000000
2.0021000000 3.0745000000 3.5984000000
2.0018000000 0.1947000000 0.2179000000
2.0016000000 1.8497000000 2.1627000000
2.0013000000 2.1073000000 2.4669000000
2.0008000000 0.5232000000 0.6067000000
2.0007000000 5.3754000000 3.8528000000
2.0003000000 1.7162000000 2.0077000000
2.0000000000 1.9804000000 2.3180000000
1.9996000000 1.4717000000 1.7176000000
1.9991000000 6.3282000000 2.7266000000
1.9985000000 2.5972000000 3.0396000000
1.9979000000 4.3344000000 4.5469000000
1.9947000000 1.1917000000 1.3900000000
1.7613000000 7.6491000000 1.1826000000
1.7604000000 8.2929000000 0.4241000000
1.7596000000 8.7286000000 0.0616000000
1.7586000000 3.9329000000 4.0870000000
1.7583000000 7.3183000000 1.5681000000
1.7579000000 2.6651000000 3.1198000000
1.7578000000 1.8153000000 2.1190000000
1.7576000000 8.5881000000 0.0816000000
1.7573000000 1.6255000000 1.9016000000
1.7570000000 1.4367000000 1.6746000000
1.7566000000 7.1573000000 1.7613000000
1.7563000000 7.3219000000 1.5629000000
1.7561000000 4.0462000000 4.1473000000
1.7560000000 3.8411000000 4.0280000000
1.7557000000 5.8705000000 3.2716000000
1.7554000000 6.5279000000 2.4947000000
1.7553000000 4.5750000000 4.1754000000
1.7551000000 1.6088000000 1.8797000000
1.7550000000 2.8244000000 3.3021000000
1.7548000000 7.4488000000 1.4136000000
1.7545000000 0.1723000000 0.1937000000
1.7544000000 6.2425000000 2.8298000000
1.7542000000 0.6734000000 0.7808000000
1.7540000000 2.1609000000 2.5260000000
1.7538000000 1.0054000000 1.1683000000
1.7536000000 7.6060000000 1.2316000000
1.7533000000 2.0712000000 2.4184000000
1.7530000000 4.4835000000 4.2249000000
1.7526000000 4.1216000000 4.1951000000
1.7523000000 5.2937000000 3.7471000000
1.7521000000 2.8229000000 3.3034000000
1.7520000000 1.1944000000 1.3867000000
1.7517000000 0.2188000000 0.2461000000
1.7515000000 3.3828000000 3.7587000000
1.7513000000 1.5676000000 1.8314000000
1.7510000000 4.6265000000 4.1398000000
1.7504000000 1.0662000000 1.2478000000
1.7501000000 1.5179000000 1.7677000000
1.7496000000 1.0732000000 1.2506000000
1.7493000000 1.6055000000 1.8744000000
1.7481000000 0.9590000000 1.1166000000
1.5124000000 7.3290000000 1.5525000000
1.5117000000 5.5199000000 3.3755000000
1.5110000000 4.1492000000 3.9626000000
1.5103000000 1.1308000000 1.3149000000
1.5099000000 2.9749000000 3.2757000000
1.5094000000 4.5913000000 3.9180000000
1.5084000000 4.2973000000 4.0277000000
1.5079000000 1.7910000000 2.0932000000
1.5075000000 8.6037000000 0.1342000000
1.5073000000 5.5978000000 3.3224000000
1.5068000000 8.0776000000 0.6802000000
1.5063000000 4.9171000000 3.7251000000
1.5059000000 4.6849000000 3.8573000000
1.5056000000 1.5931000000 1.8662000000
1.5052000000 3.5486000000 3.6046000000
1.5048000000 4.5777000000 3.9198000000
1.5046000000 8.6665000000 0.0596000000
1.5045000000 2.8482000000 3.1943000000
1.5042000000 1.1153000000 1.2962000000
1.5040000000 0.0313000000 0.1081000000
1.5039000000 2.8123000000 3.1651000000
1.5034000000 2.5748000000 2.9938000000
1.5032000000 0.4206000000 0.4882000000
1.5030000000 5.9679000000 3.0787000000
1.5025000000 0.7046000000 0.8200000000
1.5020000000 3.4446000000 3.5397000000
1.5016000000 2.4190000000 2.8308000000
1.5015000000 5.1875000000 3.5558000000
1.5011000000 1.9037000000 2.2226000000
1.5009000000 4.7041000000 3.8447000000
1.5007000000 3.3175000000 3.4656000000
1.5001000000 0.9378000000 1.0965000000
1.4993000000 1.1266000000 1.3120000000
1.4982000000 0.3569000000 0.4093000000
1.4978000000 1.9478000000 2.2721000000
1.4971000000 3.9104000000 3.8060000000
1.4968000000 1.2640000000 1.4746000000
1.2618000000 6.4806000000 2.5373000000
1.2609000000 5.0103000000 3.4134000000
1.2604000000 7.0994000000 1.8285000000
1.2598000000 0.9366000000 1.0898000000
1.2591000000 7.8469000000 0.9534000000
1.2586000000 1.8001000000 2.1016000000
1.2582000000 3.5238000000 3.3377000000
1.2575000000 8.1850000000 0.5553000000
1.2575000000 7.5644000000 1.2869000000
1.2573000000 5.4582000000 3.1522000000
1.2570000000 3.9548000000 3.5890000000
1.2567000000 6.2562000000 2.6777000000
1.2566000000 6.0061000000 2.8231000000
1.2564000000 0.0330000000 0.1032000000
1.2562000000 4.9835000000 3.4307000000
1.2560000000 3.9127000000 3.5702000000
1.2558000000 3.3134000000 3.2119000000
1.2556000000 3.0954000000 3.0873000000
1.2554000000 5.9028000000 2.8846000000
1.2551000000 5.2553000000 3.2636000000
1.2549000000 6.1942000000 2.7182000000
1.2546000000 6.1089000000 2.7624000000
1.2542000000 3.8250000000 3.5106000000
1.2540000000 1.3215000000 1.5434000000
1.2538000000 7.0457000000 1.8894000000
1.2535000000 4.6351000000 3.6326000000
1.2532000000 3.7223000000 3.4485000000
1.2528000000 2.6744000000 2.8295000000
1.2528000000 4.1107000000 3.6758000000
1.2524000000 5.9610000000 2.8499000000
1.2521000000 6.8122000000 2.1660000000
1.2519000000 1.9496000000 2.2790000000
1.2513000000 2.1529000000 2.5006000000
1.2510000000 1.2756000000 1.4913000000
1.2508000000 7.1208000000 1.7998000000
1.2506000000 4.9522000000 3.4392000000
1.2495000000 1.9103000000 2.2325000000
1.2495000000 8.4917000000 0.1987000000
1.2488000000 5.0960000000 3.3557000000
1.2483000000 0.6747000000 0.7806000000
1.2477000000 1.0462000000 1.2194000000
1.2474000000 2.0962000000 2.4354000000
1.2420000000 3.5410000000 3.3319000000
1.0120000000 1.3921000000 1.6184000000
1.0110000000 8.2468000000 0.4874000000
1.0101000000 5.5809000000 2.8257000000
1.0091000000 6.1678000000 2.4829000000
1.0090000000 8.2661000000 0.4532000000
1.0086000000 0.1040000000 0.1048000000
1.0083000000 2.7077000000 2.6007000000
1.0081000000 1.9992000000 2.1895000000
1.0078000000 7.8008000000 1.0039000000
1.0068000000 7.9018000000 0.8820000000
1.0066000000 2.8314000000 2.6788000000
1.0063000000 7.5358000000 1.3114000000
1.0060000000 7.4530000000 1.4116000000
1.0055000000 0.2904000000 0.3332000000
1.0053000000 1.2598000000 1.4691000000
1.0050000000 0.0566000000 0.1316000000
1.0048000000 3.0275000000 2.7892000000
1.0045000000 8.5683000000 0.1048000000
1.0044000000 6.3834000000 2.3505000000
1.0042000000 4.9127000000 3.2096000000
1.0041000000 7.0821000000 1.8467000000
1.0038000000 1.0207000000 1.1941000000
1.0036000000 6.5936000000 2.2250000000
1.0034000000 2.0904000000 2.2374000000
1.0032000000 4.4441000000 3.4861000000
1.0030000000 4.9788000000 3.1721000000
1.0027000000 7.9510000000 0.8263000000
1.0024000000 4.3340000000 3.5350000000
1.0022000000 1.6026000000 1.8784000000
1.0019000000 8.2891000000 0.4271000000
1.0015000000 0.6911000000 0.8012000000
1.0008000000 8.7237000000 0.0700000000
1.0006000000 2.5854000000 2.5289000000
1.0003000000 2.3100000000 2.3657000000
1.0002000000 3.0148000000 2.7767000000
0.9997000000 2.0116000000 2.1885000000
0.9993000000 1.1215000000 1.3099000000
0.9988000000 2.9737000000 2.7506000000
0.9982000000 4.5630000000 3.4085000000
0.9976000000 3.9387000000 3.3163000000
0.9964000000 1.6932000000 1.9606000000
0.7630000000 3.9624000000 3.0974000000
0.7610000000 2.6352000000 2.3059000000
0.7602000000 8.6014000000 0.1395000000
0.7593000000 5.0122000000 2.9053000000
0.7591000000 2.8425000000 2.4316000000
0.7590000000 5.7232000000 2.4902000000
0.7587000000 6.2938000000 2.1562000000
0.7583000000 7.2936000000 1.5461000000
0.7581000000 8.6113000000 0.1228000000
0.7579000000 1.6374000000 1.7290000000
0.7578000000 2.5284000000 2.2419000000
0.7575000000 6.1929000000 2.2076000000
0.7572000000 6.6470000000 1.9476000000
0.7571000000 2.7282000000 2.3619000000
0.7568000000 7.9408000000 0.8382000000
0.7563000000 1.8232000000 1.8272000000
0.7560000000 7.5040000000 1.3549000000
0.7559000000 0.2073000000 0.2367000000
0.7557000000 2.5923000000 2.2805000000
0.7553000000 4.6242000000 3.1301000000
0.7551000000 5.2498000000 2.7622000000
0.7549000000 0.3644000000 0.4199000000
0.7545000000 4.5091000000 3.1930000000
0.7544000000 4.3917000000 3.2592000000
0.7543000000 4.3236000000 3.2767000000
0.7540000000 1.6953000000 1.7525000000
0.7538000000 5.7053000000 2.4963000000
0.7535000000 2.7906000000 2.3995000000
0.7534000000 2.2232000000 2.0613000000
0.7531000000 3.9967000000 3.1006000000
0.7528000000 1.4844000000 1.6298000000
0.7526000000 0.5188000000 0.6018000000
0.7524000000 8.4125000000 0.2927000000
0.7521000000 1.8711000000 1.8556000000
0.7520000000 7.1243000000 1.6571000000
0.7518000000 2.6662000000 2.3227000000
0.7516000000 0.9023000000 1.0534000000
0.7513000000 2.0219000000 1.9394000000
0.7510000000 5.8232000000 2.4213000000
0.7508000000 1.4410000000 1.5974000000
0.7506000000 8.4723000000 0.2161000000
0.7497000000 1.2311000000 1.4188000000
0.7491000000 4.6838000000 3.0903000000
0.7487000000 3.4541000000 2.7801000000
0.7475000000 2.4646000000 2.1965000000
0.7463000000 2.2172000000 2.0517000000
0.7518000000 5.6292000000 2.5382000000
0.5115000000 7.6865000000 1.0687000000
0.5108000000 8.2445000000 0.4787000000
0.5100000000 6.9961000000 1.4887000000
0.5099000000 6.2650000000 1.9180000000
0.5095000000 5.3251000000 2.4700000000
0.5091000000 8.5266000000 0.1550000000
0.5088000000 6.7066000000 1.6546000000
0.5085000000 6.7096000000 1.6518000000
0.5081000000 0.2532000000 0.2862000000
0.5078000000 7.7177000000 1.0433000000
0.5077000000 3.3781000000 2.4927000000
0.5073000000 8.6550000000 0.0765000000
0.5070000000 5.8101000000 2.1813000000
0.5066000000 0.7740000000 0.8889000000
0.5063000000 6.2870000000 1.9061000000
0.5057000000 3.9496000000 2.8277000000
0.5055000000 3.0720000000 2.3083000000
0.5053000000 3.9281000000 2.8113000000
0.5050000000 7.3587000000 1.2736000000
0.5048000000 4.2069000000 2.9705000000
0.5047000000 3.8037000000 2.7384000000
0.5045000000 5.8405000000 2.1575000000
0.5042000000 8.2618000000 0.4621000000
0.5041000000 1.5318000000 1.3994000000
0.5039000000 1.7277000000 1.5162000000
0.5036000000 6.3701000000 1.8500000000
0.5033000000 5.8223000000 2.1659000000
0.5029000000 0.7297000000 0.8507000000
0.5027000000 0.0534000000 0.1309000000
0.5026000000 3.5467000000 2.5877000000
0.5024000000 0.9093000000 1.0134000000
0.5021000000 7.0945000000 1.4217000000
0.5019000000 2.3840000000 1.8999000000
0.5015000000 2.7189000000 2.0999000000
0.5013000000 2.8124000000 2.1502000000
0.5011000000 4.4495000000 2.9712000000
0.5002000000 1.8112000000 1.5626000000
0.4996000000 1.1094000000 1.1528000000
0.4989000000 3.7125000000 2.6730000000
0.4984000000 1.2533000000 1.2343000000
0.4978000000 7.8159000000 0.9635000000
0.4935000000 1.3404000000 1.2806000000
0.2639000000 7.8612000000 0.7274000000
0.2618000000 0.1473000000 0.1614000000
0.2610000000 4.2972000000 2.7566000000
0.2606000000 4.3288000000 2.7775000000
0.2598000000 5.7543000000 1.9669000000
0.2596000000 8.1050000000 0.5726000000
0.2594000000 6.6148000000 1.4543000000
0.2592000000 3.8538000000 2.5137000000
0.2588000000 1.1049000000 0.9037000000
0.2585000000 8.2599000000 0.4464000000
0.2579000000 0.7752000000 0.7111000000
0.2577000000 6.4583000000 1.5495000000
0.2575000000 2.4117000000 1.6657000000
0.2571000000 5.9808000000 1.8253000000
0.2568000000 3.3045000000 2.1982000000
0.2564000000 4.2227000000 2.7328000000
0.2563000000 3.8573000000 2.5124000000
0.2560000000 5.7378000000 1.9672000000
0.2556000000 2.8462000000 1.9226000000
0.2553000000 6.9639000000 1.2470000000
0.2552000000 2.4575000000 1.6898000000
0.2550000000 6.6804000000 1.4190000000
0.2548000000 8.7323000000 0.0565000000
0.2546000000 4.4844000000 2.7059000000
0.2548000000 4.4210000000 2.7450000000
0.2543000000 3.4080000000 2.2521000000
0.2540000000 5.3162000000 2.2100000000
0.2537000000 8.3224000000 0.3771000000
0.2535000000 2.9779000000 1.9973000000
0.2533000000 8.3936000000 0.3094000000
0.2530000000 6.2654000000 1.6536000000
0.2529000000 8.3241000000 0.3721000000
0.2528000000 3.1037000000 2.0672000000
0.2525000000 5.9322000000 1.8465000000
0.2523000000 0.0679000000 0.0678000000
0.2520000000 3.7829000000 2.4705000000
0.2516000000 6.0116000000 1.8021000000
0.2514000000 0.5783000000 0.5880000000
0.2510000000 0.1905000000 0.2130000000
0.2506000000 3.1507000000 2.0952000000
0.2501000000 4.3181000000 2.7592000000
0.2498000000 2.6402000000 1.7990000000
0.2495000000 1.0266000000 0.8475000000
0.2490000000 8.0324000000 0.6182000000
0.2487000000 0.0897000000 0.0911000000
0.2483000000 5.3381000000 2.1939000000
0.2469000000 5.8929000000 1.8727000000
0.2452000000 2.9178000000 1.9461000000
0.0132000000 8.3117000000 0.2135000000
0.0110000000 5.8127000000 1.6747000000
0.0100000000 3.2980000000 1.9391000000
0.0093000000 6.3638000000 1.3480000000
0.0086000000 8.3909000000 0.1546000000
0.0083000000 0.1290000000 0.0709000000
0.0080000000 3.6059000000 2.1123000000
0.0079000000 7.6647000000 0.5828000000
0.0076000000 6.7667000000 1.1087000000
0.0072000000 7.6155000000 0.6163000000
0.0070000000 7.3810000000 0.7562000000
0.0067000000 0.4630000000 0.2701000000
0.0062000000 5.7276000000 1.7212000000
0.0060000000 6.8111000000 1.0864000000
0.0057000000 2.3600000000 1.3827000000
0.0051000000 2.4260000000 1.4158000000
0.0048000000 0.4102000000 0.2333000000
0.0045000000 5.6909000000 1.7349000000
0.0043000000 4.6177000000 2.3717000000
0.0040000000 5.1022000000 2.0876000000
0.0039000000 3.2933000000 1.9237000000
0.0037000000 6.3617000000 1.3416000000
0.0035000000 7.7448000000 0.5380000000
0.0033000000 0.4933000000 0.2850000000
0.0030000000 0.1462000000 0.0787000000
0.0027000000 0.9240000000 0.5364000000
0.0025000000 4.1234000000 2.4083000000
0.0023000000 2.6710000000 1.5634000000
0.0020000000 2.4901000000 1.4533000000
0.0018000000 6.3750000000 1.3387000000
0.0016000000 1.9070000000 1.1094000000
0.0013000000 5.6295000000 1.7724000000
0.0007000000 3.9451000000 2.3044000000
0.0003000000 0.5597000000 0.3220000000
-0.0001000000 0.1386000000 0.0705000000
-0.0002000000 0.5319000000 0.3053000000
-0.0008000000 1.4562000000 0.8452000000
-0.0010000000 1.1744000000 0.6744000000
-0.0017000000 2.7447000000 1.5983000000
-0.0019000000 3.6170000000 2.1102000000
-0.0021000000 2.2821000000 1.3291000000
-0.0032000000 1.8218000000 1.0535000000
-0.2367000000 2.5635000000 1.2561000000
-0.2381000000 8.2982000000 0.0407000000
-0.2395000000 6.6960000000 0.9038000000
-0.2398000000 0.8570000000 0.2494000000
-0.2402000000 1.1670000000 0.4318000000
-0.2410000000 5.3035000000 1.7160000000
-0.2415000000 4.7244000000 2.0594000000
-0.2420000000 8.3077000000 0.0985000000
-0.2423000000 6.9663000000 0.7463000000
-0.2429000000 0.7357000000 0.1819000000
-0.2431000000 6.9208000000 0.7667000000
-0.2433000000 7.4413000000 0.4599000000
-0.2436000000 4.8709000000 1.9664000000
-0.2442000000 1.3598000000 0.5401000000
-0.2445000000 8.4670000000 0.0114000000
-0.2448000000 5.0145000000 1.8818000000
-0.2449000000 4.4690000000 2.1998000000
-0.2451000000 8.2707000000 0.0465000000
-0.2453000000 7.2282000000 0.5867000000
-0.2455000000 1.4852000000 0.6102000000
-0.2457000000 3.9534000000 2.0582000000
-0.2458000000 1.5601000000 0.6574000000
-0.2460000000 5.3775000000 1.6706000000
-0.2461000000 2.1785000000 1.0191000000
-0.2463000000 4.3420000000 2.2552000000
-0.2465000000 3.7631000000 1.9467000000
-0.2467000000 3.1790000000 1.6086000000
-0.2470000000 3.4688000000 1.7733000000
-0.2473000000 0.3823000000 0.0390000000
-0.2476000000 2.8946000000 1.4394000000
-0.2480000000 6.9721000000 0.7325000000
-0.2482000000 1.8104000000 0.7987000000
-0.2486000000 1.3954000000 0.5536000000
-0.2488000000 0.5621000000 0.0692000000
-0.2490000000 2.8005000000 1.3841000000
-0.2492000000 8.0963000000 0.0710000000
-0.2497000000 5.4329000000 1.6342000000
-0.2501000000 2.8071000000 1.3839000000
-0.2507000000 0.3837000000 0.0348000000
-0.2509000000 1.4958000000 0.6129000000
-0.2514000000 8.1369000000 0.1235000000
-0.2522000000 8.3685000000 0.0578000000
-0.2529000000 3.3415000000 1.6983000000
-0.2550000000 7.8082000000 0.2344000000
-0.4886000000 7.7009000000 0.1368000000
-0.4899000000 5.7133000000 1.2254000000
-0.4910000000 3.2215000000 1.3832000000
-0.4914000000 2.0374000000 0.6828000000
-0.4917000000 5.0502000000 1.6149000000
-0.4922000000 6.8342000000 0.5661000000
-0.4926000000 1.0979000000 0.1317000000
-0.4927000000 3.5432000000 1.5666000000
-0.4931000000 7.7483000000 0.1018000000
-0.4940000000 2.6712000000 1.0531000000
-0.4942000000 7.6592000000 0.0799000000
-0.4946000000 7.1603000000 0.3692000000
-0.4948000000 2.5547000000 0.9864000000
-0.4950000000 2.3321000000 0.8557000000
-0.4952000000 1.9007000000 0.6063000000
-0.4953000000 1.3314000000 0.2650000000
-0.4955000000 6.8803000000 0.5387000000
-0.4957000000 5.8178000000 1.1586000000
-0.4963000000 5.6154000000 1.2762000000
-0.4965000000 7.0884000000 0.4122000000
-0.4973000000 1.3741000000 0.2890000000
-0.4976000000 5.1528000000 1.5474000000
-0.4980000000 7.5177000000 0.1595000000
-0.4984000000 1.3379000000 0.2701000000
-0.4985000000 4.1587000000 1.9266000000
-0.4990000000 1.1532000000 0.1573000000
-0.4993000000 4.1684000000 1.9250000000
-0.4996000000 3.8031000000 1.7127000000
-0.5000000000 7.9985000000 0.0251000000
-0.5009000000 6.4143000000 0.7996000000
-0.5014000000 4.6180000000 1.8502000000
-0.5019000000 3.4463000000 1.5019000000
-0.5027000000 6.5863000000 0.6989000000
-0.7349000000 4.7902000000 1.5162000000
-0.7382000000 7.2592000000 0.0620000000
-0.7405000000 2.2834000000 0.5796000000
-0.7409000000 1.8884000000 0.3462000000
-0.7412000000 7.0572000000 0.1813000000
-0.7427000000 4.9522000000 1.4159000000
-0.7431000000 3.7528000000 1.4349000000
-0.7432000000 2.3487000000 0.6170000000
-0.7440000000 7.4717000000 0.0823000000
-0.7443000000 4.6573000000 1.5859000000
-0.7446000000 6.1352000000 0.7217000000
-0.7449000000 1.3458000000 0.0971000000
-0.7454000000 6.3072000000 0.6146000000
-0.7457000000 3.1805000000 1.0956000000
-0.7460000000 5.1460000000 1.2981000000
-0.7462000000 4.7048000000 1.5548000000
-0.7467000000 5.5431000000 1.0653000000
-0.7473000000 6.4456000000 0.5344000000
-0.7476000000 4.1294000000 1.6552000000
-0.7481000000 5.7860000000 0.9181000000
-0.7485000000 3.9712000000 1.5582000000
-0.7489000000 4.2062000000 1.6941000000
-0.7498000000 3.0232000000 1.0035000000
-0.7492000000 1.5162000000 0.1191000000
-0.7508000000 5.4732000000 1.1007000000
-0.7515000000 3.3250000000 1.1775000000
-0.7572000000 2.6081000000 0.7492000000
-0.9895000000 4.0469000000 1.3657000000
-0.9910000000 6.2358000000 0.4079000000
-0.9913000000 4.8969000000 1.1939000000
-0.9920000000 2.3493000000 0.3649000000
-0.9928000000 2.0974000000 0.2153000000
-0.9934000000 5.0693000000 1.0911000000
-0.9941000000 1.5594000000 0.0440000000
-0.9943000000 4.3223000000 1.5010000000
-0.9945000000 6.6770000000 0.1379000000
-0.9948000000 1.9558000000 0.1245000000
-0.9951000000 2.5480000000 0.4740000000
-0.9955000000 6.0828000000 0.4997000000
-0.9957000000 5.3260000000 0.9387000000
-0.9961000000 6.0781000000 0.4961000000
-0.9963000000 5.5400000000 0.8121000000
-0.9967000000 1.5535000000 0.0406000000
-0.9969000000 3.5444000000 1.0591000000
-0.9972000000 2.9892000000 0.7320000000
-0.9975000000 6.1491000000 0.4471000000
-0.9978000000 2.6188000000 0.5161000000
-0.9987000000 6.8257000000 0.1293000000
-0.9992000000 5.6500000000 0.7415000000
-0.9997000000 1.5592000000 0.0373000000
-1.0006000000 1.5220000000 0.0185000000
-1.0009000000 5.5579000000 0.7958000000
-1.0022000000 3.4805000000 1.0177000000
-1.0061000000 3.5239000000 1.0365000000
-1.2395000000 6.3923000000 0.1407000000
-1.2412000000 4.4844000000 1.1805000000
-1.2422000000 5.4033000000 0.6386000000
-1.2428000000 3.6287000000 0.8584000000
-1.2435000000 5.1138000000 0.8087000000
-1.2441000000 4.6940000000 1.0544000000
-1.2443000000 2.2736000000 0.1324000000
-1.2445000000 6.6954000000 0.0324000000
-1.2447000000 6.0956000000 0.2299000000
-1.2453000000 6.5202000000 0.0557000000
-1.2455000000 2.9722000000 0.4727000000
-1.2457000000 6.0682000000 0.2525000000
-1.2462000000 5.6366000000 0.4995000000
-1.2467000000 3.5664000000 0.8142000000
-1.2470000000 3.9311000000 1.0263000000
-1.2476000000 5.4558000000 0.6055000000
-1.2481000000 3.5294000000 0.7945000000
-1.2486000000 1.9633000000 0.0263000000
-1.2489000000 4.2151000000 1.1881000000
-1.2495000000 5.2911000000 0.7006000000
-1.2497000000 6.0341000000 0.2648000000
-1.2527000000 4.7301000000 1.0250000000
-1.2551000000 2.0100000000 0.0429000000
-1.4915000000 5.6218000000 0.2587000000
-1.4930000000 5.1101000000 0.5576000000
-1.4941000000 6.2671000000 0.0275000000
-1.4943000000 3.9492000000 0.7867000000
-1.4953000000 4.9768000000 0.6302000000
-1.4957000000 2.6432000000 0.0948000000
-1.4964000000 2.7480000000 0.0843000000
-1.4965000000 4.1692000000 0.9146000000
-1.4974000000 3.3765000000 0.4483000000
-1.4975000000 2.6509000000 0.0976000000
-1.4981000000 4.7846000000 0.7451000000
-1.4983000000 5.4276000000 0.3668000000
-1.4991000000 2.7798000000 0.1013000000
-1.4998000000 2.8783000000 0.1529000000
-1.5009000000 3.7699000000 0.6735000000
-1.5027000000 3.4344000000 0.4780000000
-1.7371000000 4.2811000000 0.7297000000
-1.7415000000 5.1637000000 0.2742000000
-1.7427000000 5.8264000000 0.0329000000
-1.7431000000 5.4232000000 0.1213000000
-1.7437000000 5.0432000000 0.3405000000
-1.7452000000 5.6034000000 0.0882000000
