4.2503000000 3.9270000000 0.1946000000
4.2500000000 1.8799000000 0.1591000000
4.2497000000 1.6497000000 0.1177000000
4.2492000000 1.6459000000 0.1174000000
4.2487000000 4.0099000000 0.1545000000
4.2484000000 3.1428000000 0.5851000000
4.0125000000 4.7058000000 0.0864000000
4.0104000000 1.1644000000 0.0901000000
4.0100000000 3.8658000000 0.4285000000
4.0100000000 4.9443000000 0.0479000000
4.0095000000 2.6557000000 0.7505000000
4.0081000000 4.2600000000 0.2369000000
4.0081000000 3.0237000000 0.8458000000
4.0079000000 3.0557000000 0.8302000000
4.0074000000 4.8599000000 0.0162000000
4.0073000000 5.0235000000 0.0151000000
4.0071000000 3.2070000000 0.7557000000
4.0070000000 4.8910000000 0.0730000000
4.0063000000 4.0977000000 0.3130000000
4.0063000000 3.2610000000 0.7273000000
4.0060000000 4.7383000000 0.0787000000
4.0060000000 4.4368000000 0.1496000000
4.0059000000 3.0941000000 0.8171000000
4.0058000000 4.6020000000 0.0718000000
4.0055000000 2.3343000000 0.5932000000
4.0055000000 1.8517000000 0.3580000000
4.0054000000 3.1580000000 0.7807000000
4.0052000000 1.5491000000 0.2039000000
4.0050000000 4.5698000000 0.0832000000
4.0048000000 1.2605000000 0.1359000000
4.0048000000 3.1117000000 0.8091000000
4.0048000000 5.0312000000 0.0112000000
4.0045000000 4.8364000000 0.0353000000
4.0045000000 3.1281000000 0.7989000000
4.0043000000 1.3129000000 0.0908000000
4.0043000000 2.9712000000 0.8499000000
4.0042000000 1.0232000000 0.0215000000
4.0041000000 3.4338000000 0.6491000000
4.0040000000 2.1625000000 0.5081000000
4.0039000000 3.9303000000 0.4038000000
4.0040000000 4.6445000000 0.1266000000
4.0037000000 1.6950000000 0.2839000000
4.0037000000 2.7099000000 0.7833000000
4.0036000000 3.1046000000 0.8043000000
4.0035000000 2.1968000000 0.5240000000
4.0034000000 4.6668000000 0.1129000000
4.0032000000 4.1547000000 0.2919000000
4.0031000000 4.2201000000 0.2586000000
4.0029000000 2.1924000000 0.5240000000
4.0028000000 4.2166000000 0.2616000000
4.0026000000 1.5042000000 0.1917000000
4.0023000000 4.7025000000 0.0968000000
4.0024000000 1.8815000000 0.3674000000
4.0022000000 2.1356000000 0.4982000000
4.0020000000 4.1638000000 0.2895000000
4.0021000000 2.4143000000 0.6373000000
4.0020000000 2.9031000000 0.8603000000
4.0019000000 3.6159000000 0.5633000000
4.0019000000 3.0226000000 0.8539000000
4.0011000000 3.5223000000 0.6037000000
4.0009000000 3.4471000000 0.6439000000
4.0010000000 2.4349000000 0.6443000000
4.0008000000 2.5277000000 0.6950000000
4.0006000000 2.7233000000 0.7882000000
4.0005000000 2.8565000000 0.8536000000
4.0004000000 3.3146000000 0.7084000000
4.0002000000 4.6520000000 0.1234000000
4.0000000000 1.2593000000 0.1418000000
3.9998000000 2.1873000000 0.5237000000
3.9989000000 0.9461000000 0.0608000000
3.9988000000 3.3342000000 0.7000000000
3.9965000000 0.8904000000 0.0393000000
3.9962000000 1.4714000000 0.1789000000
3.9947000000 0.8569000000 0.0252000000
3.9940000000 1.3330000000 0.1122000000
3.7648000000 4.2354000000 0.4577000000
3.7638000000 5.3166000000 0.0752000000
3.7608000000 3.5095000000 0.8206000000
3.7605000000 0.7299000000 0.0878000000
3.7602000000 4.1219000000 0.5194000000
3.7600000000 5.0421000000 0.1422000000
3.7589000000 4.9200000000 0.1260000000
3.7588000000 3.7668000000 0.6956000000
3.7588000000 5.0132000000 0.0831000000
3.7585000000 3.1980000000 0.9788000000
3.7585000000 4.1577000000 0.4978000000
3.7583000000 2.6229000000 0.9464000000
3.7580000000 2.6458000000 0.9655000000
3.7575000000 4.8886000000 0.1414000000
3.7576000000 1.5323000000 0.4152000000
3.7574000000 0.4187000000 0.0134000000
3.7569000000 1.1726000000 0.2381000000
3.7568000000 3.4597000000 0.8454000000
3.7567000000 3.6653000000 0.7455000000
3.7565000000 4.8135000000 0.1786000000
3.7566000000 1.1513000000 0.2272000000
3.7565000000 3.1109000000 1.0211000000
3.7563000000 0.3987000000 -0.0024000000
3.7562000000 5.3278000000 0.0780000000
3.7558000000 2.3921000000 0.8355000000
3.7558000000 0.4875000000 0.0501000000
3.7557000000 2.9766000000 1.0670000000
3.7556000000 2.6986000000 0.9906000000
3.7555000000 4.6529000000 0.2578000000
3.7556000000 1.1279000000 0.2164000000
3.7553000000 2.9614000000 1.0752000000
3.7552000000 3.3876000000 0.8838000000
3.7549000000 4.2857000000 0.4351000000
3.7548000000 3.7563000000 0.6961000000
3.7546000000 1.4493000000 0.3717000000
3.7547000000 2.4514000000 0.8673000000
3.7545000000 4.7924000000 0.1928000000
3.7544000000 5.3094000000 0.0853000000
3.7543000000 1.4190000000 0.3581000000
3.7541000000 1.2677000000 0.2782000000
3.7540000000 5.1948000000 0.0674000000
3.7538000000 1.0900000000 0.1970000000
3.7537000000 1.8688000000 0.5818000000
3.7537000000 1.0507000000 0.1748000000
3.7535000000 2.7948000000 1.0391000000
3.7532000000 3.6667000000 0.7471000000
3.7530000000 1.5991000000 0.4488000000
3.7528000000 2.5955000000 0.9336000000
3.7528000000 1.5274000000 0.4110000000
3.7525000000 2.5306000000 0.9059000000
3.7525000000 1.1632000000 0.2298000000
3.7524000000 5.2921000000 0.0205000000
3.7522000000 2.9505000000 1.0837000000
3.7522000000 1.8355000000 0.5607000000
3.7521000000 4.5227000000 0.3259000000
3.7520000000 3.7197000000 0.7201000000
3.7519000000 1.5916000000 0.4437000000
3.7518000000 1.4058000000 0.3504000000
3.7516000000 3.3296000000 0.9121000000
3.7515000000 3.8096000000 0.6776000000
3.7511000000 3.5850000000 0.7873000000
3.7512000000 1.8503000000 0.5695000000
3.7509000000 2.0456000000 0.6719000000
3.7508000000 4.5596000000 0.3118000000
3.7506000000 3.1143000000 1.0227000000
3.7505000000 1.6721000000 0.4859000000
3.7502000000 3.2009000000 0.9793000000
3.7499000000 0.7274000000 0.0976000000
3.7498000000 1.0055000000 0.1584000000
3.7495000000 1.2077000000 0.2568000000
3.7494000000 0.4908000000 0.0562000000
3.7492000000 1.9545000000 0.6227000000
3.7491000000 0.4534000000 0.0378000000
3.7486000000 1.7520000000 0.5221000000
3.7485000000 0.5186000000 0.0669000000
3.7482000000 0.7052000000 0.0881000000
3.7464000000 2.3665000000 0.8246000000
3.7453000000 2.2297000000 0.7653000000
3.5128000000 0.4311000000 0.1535000000
3.5127000000 4.3350000000 0.6275000000
3.5126000000 4.6866000000 0.4497000000
3.5099000000 3.9454000000 0.8155000000
3.5100000000 5.1855000000 0.2095000000
3.5097000000 3.4973000000 1.0349000000
3.5087000000 5.2428000000 0.1789000000
3.5085000000 1.3700000000 0.5413000000
3.5081000000 1.1575000000 0.4429000000
3.5079000000 5.4191000000 0.0926000000
3.5078000000 5.2539000000 0.1723000000
3.5077000000 1.7986000000 0.7579000000
3.5068000000 5.2826000000 0.1652000000
3.5064000000 5.6433000000 0.0569000000
3.5063000000 1.5579000000 0.6309000000
3.5060000000 4.2898000000 0.6503000000
3.5059000000 0.0237000000 0.0310000000
3.5059000000 4.1848000000 0.7003000000
3.5054000000 2.4273000000 1.0654000000
3.5053000000 5.1014000000 0.2570000000
3.5053000000 0.8191000000 0.2742000000
3.5050000000 1.1094000000 0.4164000000
3.5050000000 3.0021000000 1.2859000000
3.5049000000 3.4828000000 1.0528000000
3.5048000000 4.5391000000 0.5313000000
3.5047000000 0.5399000000 0.1332000000
3.5044000000 1.6244000000 0.6730000000
3.5043000000 1.9296000000 0.8251000000
3.5041000000 0.9093000000 0.3222000000
3.5041000000 3.7544000000 0.9132000000
3.5040000000 1.1927000000 0.4603000000
3.5039000000 5.8308000000 0.0436000000
3.5038000000 3.6014000000 0.9944000000
3.5036000000 2.9696000000 1.2889000000
3.5035000000 1.3810000000 0.5492000000
3.5034000000 2.1846000000 0.9495000000
3.5033000000 2.6133000000 1.1577000000
3.5033000000 0.3522000000 0.1234000000
3.5030000000 3.0345000000 1.2723000000
3.5028000000 0.5796000000 0.1586000000
3.5022000000 0.7181000000 0.2254000000
3.5020000000 3.4294000000 1.0798000000
3.5020000000 1.0869000000 0.4090000000
3.5019000000 4.5791000000 0.5127000000
3.5018000000 3.8055000000 0.8989000000
3.5015000000 0.4756000000 0.1109000000
3.5013000000 2.0875000000 0.8993000000
3.5011000000 4.2596000000 0.6762000000
3.5010000000 2.4513000000 1.0805000000
3.5008000000 2.2963000000 1.0071000000
3.5004000000 1.3687000000 0.5456000000
3.5002000000 0.2672000000 0.0788000000
3.4997000000 5.2919000000 0.1649000000
3.4995000000 0.3574000000 0.1212000000
3.4994000000 1.0215000000 0.3762000000
3.4983000000 4.0140000000 0.7926000000
3.4983000000 5.0868000000 0.2691000000
3.4981000000 0.2135000000 0.0612000000
3.4975000000 0.0764000000 0.0708000000
3.4968000000 4.4116000000 0.6036000000
3.4966000000 0.5447000000 0.1388000000
3.4960000000 2.1831000000 0.9599000000
3.4959000000 0.8101000000 0.2755000000
3.4945000000 0.8196000000 0.2829000000
3.2631000000 3.5730000000 1.2117000000
3.2626000000 1.6025000000 0.8667000000
3.2624000000 5.4078000000 0.3091000000
3.2606000000 5.4427000000 0.2873000000
3.2605000000 3.8119000000 1.0957000000
3.2597000000 4.5662000000 0.7246000000
3.2597000000 5.6770000000 0.1490000000
3.2594000000 3.7112000000 1.1485000000
3.2593000000 4.1739000000 0.9173000000
3.2591000000 1.9734000000 1.0480000000
3.2591000000 4.3945000000 0.8141000000
3.2588000000 3.0460000000 1.4778000000
3.2583000000 5.8628000000 0.0512000000
3.2583000000 2.0789000000 1.1049000000
3.2580000000 2.1221000000 1.1247000000
3.2576000000 1.9218000000 1.0272000000
3.2575000000 0.8408000000 0.4936000000
3.2574000000 3.4815000000 1.2633000000
3.2572000000 3.7720000000 1.1184000000
3.2570000000 4.2858000000 0.8610000000
3.2568000000 4.5257000000 0.7496000000
3.2567000000 5.0292000000 0.5005000000
3.2566000000 4.8159000000 0.6096000000
3.2558000000 3.9110000000 1.0478000000
3.2557000000 5.7449000000 0.0891000000
3.2553000000 4.0046000000 1.0018000000
3.2553000000 4.7740000000 0.6306000000
3.2550000000 5.0631000000 0.4885000000
3.2545000000 3.9971000000 1.0091000000
3.2544000000 4.7921000000 0.6157000000
3.2543000000 0.8107000000 0.4840000000
3.2543000000 0.6247000000 0.3911000000
3.2539000000 0.2337000000 0.1846000000
3.2539000000 0.0825000000 0.1277000000
3.2538000000 3.6529000000 1.1804000000
3.2538000000 3.4485000000 1.2783000000
3.2535000000 0.7871000000 0.4728000000
3.2533000000 1.0136000000 0.5880000000
3.2533000000 2.8946000000 1.4962000000
3.2530000000 0.2257000000 0.1743000000
3.2529000000 4.9886000000 0.5242000000
3.2528000000 1.6121000000 0.8797000000
3.2526000000 4.9068000000 0.5689000000
3.2523000000 0.7351000000 0.4413000000
3.2523000000 1.3889000000 0.7762000000
3.2521000000 4.1433000000 0.9421000000
3.2519000000 2.3183000000 1.2263000000
3.2518000000 3.9235000000 1.0479000000
3.2518000000 2.1485000000 1.1429000000
3.2518000000 0.2813000000 0.2123000000
3.2517000000 0.4045000000 0.2819000000
3.2516000000 4.9431000000 0.5449000000
3.2513000000 1.7026000000 0.9322000000
3.2509000000 1.1378000000 0.6463000000
3.2508000000 1.5545000000 0.8549000000
3.2507000000 5.3382000000 0.3572000000
3.2504000000 3.5024000000 1.2588000000
3.2503000000 3.3331000000 1.3430000000
3.2503000000 1.4910000000 0.8280000000
3.2500000000 4.1201000000 0.9500000000
3.2496000000 2.5203000000 1.3237000000
3.2494000000 3.9399000000 1.0456000000
3.2494000000 3.3449000000 1.3389000000
3.2490000000 0.9610000000 0.5619000000
3.2486000000 4.4925000000 0.7698000000
3.2471000000 2.5899000000 1.3679000000
3.2464000000 4.1693000000 0.9307000000
3.0125000000 5.2369000000 0.5787000000
3.0121000000 5.8114000000 0.0325000000
3.0100000000 4.4449000000 0.9987000000
3.0098000000 1.4459000000 1.0057000000
3.0090000000 3.6025000000 1.4138000000
3.0088000000 2.5031000000 1.5228000000
3.0085000000 0.9749000000 0.7734000000
3.0084000000 2.4361000000 1.4886000000
3.0084000000 4.6536000000 0.9002000000
3.0080000000 4.4897000000 0.9827000000
3.0080000000 5.3144000000 0.5085000000
3.0077000000 5.1837000000 0.6199000000
3.0077000000 3.8304000000 1.3038000000
3.0076000000 0.9373000000 0.7522000000
3.0073000000 0.5224000000 0.4858000000
3.0068000000 5.0068000000 0.7248000000
3.0062000000 0.0345000000 0.0761000000
3.0061000000 3.7362000000 1.3517000000
3.0058000000 1.9721000000 1.2668000000
3.0058000000 2.7249000000 1.6409000000
3.0055000000 5.0983000000 0.6731000000
3.0054000000 3.9070000000 1.2710000000
3.0055000000 5.8259000000 0.0873000000
3.0053000000 0.4976000000 0.4526000000
3.0052000000 3.0169000000 1.7097000000
3.0051000000 2.6047000000 1.5788000000
3.0051000000 5.8893000000 0.0291000000
3.0050000000 2.9895000000 1.7121000000
3.0049000000 2.9975000000 1.7207000000
3.0049000000 4.0139000000 1.2162000000
3.0047000000 2.8437000000 1.6952000000
3.0045000000 2.7175000000 1.6373000000
3.0045000000 0.0649000000 0.1084000000
3.0044000000 4.4193000000 1.0143000000
3.0042000000 0.9594000000 0.7658000000
3.0041000000 0.8752000000 0.7330000000
3.0040000000 1.8591000000 1.2163000000
3.0038000000 4.1480000000 1.1508000000
3.0035000000 1.0657000000 0.8272000000
3.0035000000 3.7369000000 1.3502000000
3.0033000000 5.5801000000 0.2582000000
3.0031000000 4.2499000000 1.1014000000
3.0027000000 5.5536000000 0.2842000000
3.0026000000 4.2140000000 1.1198000000
3.0025000000 3.4235000000 1.5075000000
3.0025000000 3.1896000000 1.6198000000
3.0021000000 4.3905000000 1.0274000000
3.0020000000 1.9582000000 1.2661000000
3.0019000000 0.6037000000 0.5470000000
3.0018000000 4.7260000000 0.8710000000
3.0018000000 0.9908000000 0.7859000000
3.0016000000 5.4131000000 0.4258000000
3.0015000000 2.0245000000 1.2931000000
3.0014000000 0.9337000000 0.7579000000
3.0013000000 3.5304000000 1.4558000000
3.0011000000 3.7374000000 1.3542000000
3.0010000000 2.9653000000 1.7081000000
3.0009000000 0.0299000000 0.0748000000
3.0009000000 2.0534000000 1.3118000000
3.0007000000 0.0650000000 0.1089000000
3.0005000000 4.6824000000 0.8860000000
3.0005000000 2.8762000000 1.7172000000
3.0002000000 3.3735000000 1.5339000000
3.0000000000 2.0564000000 1.3150000000
2.9997000000 2.8829000000 1.7116000000
2.9996000000 1.7657000000 1.1722000000
2.9994000000 1.9970000000 1.2862000000
2.9991000000 0.1215000000 0.0885000000
2.9990000000 3.1886000000 1.6307000000
2.9988000000 0.5807000000 0.5308000000
2.9987000000 0.3904000000 0.3510000000
2.9975000000 1.9560000000 1.2642000000
2.9966000000 1.7306000000 1.1588000000
2.9961000000 3.4832000000 1.4816000000
2.9927000000 0.1319000000 0.0997000000
2.7628000000 4.0229000000 1.4157000000
2.7615000000 5.7315000000 0.1074000000
2.7609000000 2.2338000000 1.6049000000
2.7608000000 1.9574000000 1.4661000000
2.7607000000 5.7392000000 0.1066000000
2.7605000000 5.3526000000 0.4821000000
2.7601000000 1.6280000000 1.3074000000
2.7598000000 4.2266000000 1.3212000000
2.7594000000 4.6225000000 1.1255000000
2.7590000000 5.1256000000 0.7078000000
2.7587000000 4.0320000000 1.4158000000
2.7587000000 2.4986000000 1.7372000000
2.7580000000 2.5650000000 1.7694000000
2.7579000000 2.9068000000 1.9276000000
2.7578000000 0.0705000000 0.1187000000
2.7577000000 2.0225000000 1.5013000000
2.7576000000 1.2767000000 1.1405000000
2.7575000000 4.6990000000 1.0767000000
2.7575000000 2.7081000000 1.8396000000
2.7574000000 4.1381000000 1.3679000000
2.7572000000 5.8954000000 0.0334000000
2.7570000000 5.2143000000 0.6189000000
2.7563000000 0.8679000000 0.8196000000
2.7558000000 4.0626000000 1.4012000000
2.7554000000 3.1621000000 1.8456000000
2.7554000000 5.2718000000 0.5688000000
2.7553000000 3.9056000000 1.4823000000
2.7552000000 1.0449000000 0.9793000000
2.7551000000 3.5300000000 1.6641000000
2.7550000000 2.1433000000 1.5575000000
2.7550000000 0.0173000000 0.0623000000
2.7549000000 4.8713000000 0.9475000000
2.7548000000 0.4873000000 0.4459000000
2.7548000000 4.2977000000 1.2896000000
2.7546000000 3.7062000000 1.5744000000
2.7545000000 4.1947000000 1.3401000000
2.7543000000 5.0558000000 0.7742000000
2.7543000000 3.5431000000 1.6596000000
2.7542000000 3.7287000000 1.5675000000
2.7541000000 2.7565000000 1.8695000000
2.7538000000 3.8774000000 1.4965000000
2.7538000000 4.2496000000 1.3106000000
2.7537000000 0.8779000000 0.8364000000
2.7535000000 0.9458000000 0.8957000000
2.7534000000 1.3921000000 1.1973000000
2.7533000000 1.7887000000 1.3927000000
2.7531000000 0.1263000000 0.0917000000
2.7530000000 4.1785000000 1.3456000000
2.7529000000 1.8529000000 1.4253000000
2.7528000000 5.7588000000 0.0845000000
2.7525000000 2.8711000000 1.9267000000
2.7521000000 5.2249000000 0.6059000000
2.7520000000 3.7478000000 1.5615000000
2.7516000000 4.5446000000 1.1738000000
2.7515000000 3.8126000000 1.5257000000
2.7514000000 3.3652000000 1.7492000000
2.7510000000 2.6268000000 1.8050000000
2.7508000000 1.8343000000 1.4109000000
2.7507000000 0.7835000000 0.7388000000
2.7506000000 2.9438000000 1.9401000000
2.7505000000 1.2690000000 1.1440000000
2.7505000000 0.0372000000 0.0801000000
2.7504000000 5.3339000000 0.5036000000
2.7500000000 3.5396000000 1.6624000000
2.7500000000 0.0522000000 0.0982000000
2.7496000000 4.4621000000 1.2105000000
2.7494000000 0.9655000000 0.9222000000
2.7493000000 4.5272000000 1.1756000000
2.7487000000 0.5153000000 0.4783000000
2.7485000000 2.2915000000 1.6495000000
2.7481000000 1.8277000000 1.4149000000
2.7473000000 2.5378000000 1.7672000000
2.7469000000 2.1269000000 1.5683000000
2.7461000000 3.5734000000 1.6515000000
2.7443000000 2.5060000000 1.7537000000
2.5114000000 5.6687000000 0.1757000000
2.5103000000 3.6583000000 1.8112000000
2.5101000000 2.8913000000 2.1314000000
2.5101000000 1.8326000000 1.6225000000
2.5099000000 5.4516000000 0.3850000000
2.5091000000 2.3970000000 1.9011000000
2.5091000000 5.6191000000 0.2121000000
2.5090000000 3.7068000000 1.7861000000
2.5086000000 4.8768000000 0.9501000000
2.5085000000 2.1907000000 1.7963000000
2.5085000000 0.4540000000 0.4132000000
2.5083000000 2.2336000000 1.8197000000
2.5082000000 3.5089000000 1.8900000000
2.5081000000 5.5124000000 0.3279000000
2.5081000000 5.1798000000 0.6505000000
2.5076000000 4.1928000000 1.5572000000
2.5075000000 4.5531000000 1.2713000000
2.5075000000 5.2393000000 0.5937000000
2.5073000000 2.2937000000 1.8535000000
2.5071000000 5.1809000000 0.6532000000
2.5070000000 3.2641000000 2.0085000000
2.5068000000 3.4040000000 1.9381000000
2.5065000000 5.0680000000 0.7600000000
2.5061000000 3.7951000000 1.7508000000
2.5055000000 5.3849000000 0.4522000000
2.5057000000 0.0948000000 0.1370000000
2.5054000000 3.3653000000 1.9608000000
2.5053000000 1.0032000000 0.9542000000
2.5052000000 5.6331000000 0.2129000000
2.5051000000 2.9322000000 2.1519000000
2.5051000000 1.2391000000 1.1886000000
2.5050000000 4.5518000000 1.2673000000
2.5049000000 2.9150000000 2.1440000000
2.5048000000 2.8612000000 2.1303000000
2.5046000000 2.8042000000 2.1065000000
2.5045000000 3.0202000000 2.1294000000
2.5045000000 2.0535000000 1.7393000000
2.5043000000 4.4279000000 1.3823000000
2.5040000000 0.8713000000 0.8290000000
2.5039000000 2.2435000000 1.8325000000
2.5038000000 3.3141000000 1.9886000000
2.5035000000 3.6616000000 1.8177000000
2.5035000000 3.4046000000 1.9390000000
2.5034000000 0.4872000000 0.4473000000
2.5034000000 3.8256000000 1.7355000000
2.5033000000 4.8137000000 1.0151000000
2.5033000000 3.9935000000 1.6529000000
2.5031000000 4.1596000000 1.5775000000
2.5030000000 0.1283000000 0.0971000000
2.5032000000 1.1589000000 1.1051000000
2.5029000000 4.3779000000 1.4262000000
2.5029000000 5.4194000000 0.4172000000
2.5027000000 1.5606000000 1.4749000000
2.5028000000 3.1872000000 2.0513000000
2.5022000000 4.1500000000 1.5688000000
2.5021000000 1.1343000000 1.0852000000
2.5019000000 5.5256000000 0.3093000000
2.5017000000 3.0719000000 2.0996000000
2.5017000000 0.3593000000 0.3220000000
2.5016000000 2.6520000000 2.0282000000
2.5015000000 2.3401000000 1.8751000000
2.5013000000 5.3608000000 0.4782000000
2.5013000000 2.8333000000 2.1201000000
2.5010000000 1.4166000000 1.3653000000
2.5007000000 1.3192000000 1.2663000000
2.5005000000 1.8402000000 1.6322000000
2.5004000000 1.8767000000 1.6523000000
2.5000000000 2.7660000000 2.0895000000
2.4999000000 5.0809000000 0.7521000000
2.4998000000 0.0488000000 0.0898000000
2.4998000000 0.7879000000 0.7423000000
2.4996000000 0.1356000000 0.1044000000
2.4992000000 0.4292000000 0.3931000000
2.4989000000 1.9937000000 1.7040000000
2.4985000000 1.6652000000 1.5465000000
2.4984000000 0.7875000000 0.7442000000
2.4981000000 0.6653000000 0.6257000000
2.4966000000 2.9810000000 2.1439000000
2.4965000000 0.1229000000 0.0968000000
2.4908000000 1.4562000000 1.3928000000
2.2645000000 2.7050000000 2.2568000000
2.2632000000 4.9617000000 0.8648000000
2.2626000000 4.5867000000 1.2421000000
2.2616000000 4.4832000000 1.3402000000
2.2598000000 4.3806000000 1.4430000000
2.2590000000 2.3101000000 2.0687000000
2.2581000000 1.4935000000 1.4342000000
2.2580000000 2.7773000000 2.2981000000
2.2578000000 4.7849000000 1.0382000000
2.2576000000 1.5557000000 1.5018000000
2.2575000000 4.6654000000 1.1630000000
2.2575000000 4.2568000000 1.5597000000
2.2571000000 4.1750000000 1.6388000000
2.2570000000 4.3726000000 1.4458000000
2.2568000000 4.9412000000 0.8902000000
2.2567000000 4.4503000000 1.3739000000
2.2566000000 0.1637000000 0.1303000000
2.2563000000 3.5749000000 2.0703000000
2.2562000000 3.0484000000 2.3291000000
2.2559000000 5.6266000000 0.2112000000
2.2558000000 0.7639000000 0.7214000000
2.2558000000 2.4384000000 2.1371000000
2.2555000000 0.0636000000 0.1096000000
2.2556000000 4.2144000000 1.6056000000
2.2555000000 3.0721000000 2.3161000000
2.2554000000 5.8056000000 0.0381000000
2.2554000000 3.7094000000 2.0039000000
2.2553000000 5.7502000000 0.0988000000
2.2550000000 0.5175000000 0.4767000000
2.2548000000 1.2897000000 1.2409000000
2.2548000000 3.0955000000 2.3050000000
2.2546000000 0.7852000000 0.7443000000
2.2546000000 5.2888000000 0.5470000000
2.2545000000 3.4374000000 2.1337000000
2.2543000000 5.0905000000 0.7392000000
2.2541000000 3.8116000000 1.9400000000
2.2540000000 5.7852000000 0.0587000000
2.2540000000 2.7777000000 2.3041000000
2.2540000000 4.6515000000 1.1759000000
2.2539000000 2.7132000000 2.2698000000
2.2538000000 4.1263000000 1.6911000000
2.2537000000 5.6531000000 0.1919000000
2.2536000000 2.9086000000 2.3544000000
2.2535000000 1.8552000000 1.7889000000
2.2535000000 5.7629000000 0.0823000000
2.2534000000 1.1822000000 1.1286000000
2.2533000000 5.5613000000 0.2818000000
2.2532000000 4.8635000000 0.9665000000
2.2531000000 0.0438000000 0.0813000000
2.2531000000 5.2708000000 0.5622000000
2.2530000000 0.4477000000 0.4119000000
2.2528000000 0.9276000000 0.8780000000
2.2527000000 5.7598000000 0.0825000000
2.2528000000 0.7613000000 0.7146000000
2.2526000000 1.8018000000 1.7438000000
2.2525000000 5.8942000000 0.0245000000
2.2522000000 1.9173000000 1.8424000000
2.2523000000 1.5213000000 1.4647000000
2.2522000000 1.2556000000 1.2033000000
2.2521000000 2.8349000000 2.3365000000
2.2515000000 0.6399000000 0.5973000000
2.2515000000 0.9104000000 0.8629000000
2.2514000000 1.2394000000 1.1932000000
2.2513000000 4.3044000000 1.5113000000
2.2511000000 3.3529000000 2.1841000000
2.2511000000 1.1639000000 1.1124000000
2.2508000000 4.0111000000 1.7988000000
2.2507000000 1.0373000000 0.9895000000
2.2506000000 1.2805000000 1.2311000000
2.2505000000 0.4625000000 0.4275000000
2.2503000000 0.6817000000 0.6310000000
2.2502000000 3.1845000000 2.2674000000
2.2502000000 0.6025000000 0.5658000000
2.2501000000 4.8204000000 1.0102000000
2.2500000000 1.4006000000 1.3550000000
2.2498000000 1.4329000000 1.3775000000
2.2495000000 1.7978000000 1.7394000000
2.2494000000 2.9522000000 2.3674000000
2.2494000000 3.8493000000 1.9268000000
2.2490000000 5.3287000000 0.5119000000
2.2488000000 1.2170000000 1.1673000000
2.2486000000 3.4130000000 2.1580000000
2.2485000000 0.0249000000 0.0669000000
2.2483000000 1.9472000000 1.8665000000
2.2480000000 5.3478000000 0.4854000000
2.2479000000 1.3998000000 1.3475000000
2.2478000000 0.1796000000 0.1414000000
2.2477000000 0.2202000000 0.1859000000
2.2474000000 0.2641000000 0.2295000000
2.2471000000 2.1161000000 1.9880000000
2.2470000000 0.0691000000 0.1160000000
2.2468000000 0.2473000000 0.2145000000
2.2463000000 0.7368000000 0.6938000000
2.0107000000 4.8199000000 1.0088000000
2.0104000000 1.6514000000 1.5909000000
2.0097000000 5.6182000000 0.2240000000
2.0098000000 3.9476000000 1.8657000000
2.0096000000 3.5105000000 2.2768000000
2.0093000000 4.2669000000 1.5497000000
2.0090000000 5.1529000000 0.6776000000
2.0088000000 3.8497000000 1.9583000000
2.0088000000 0.1574000000 0.1248000000
2.0086000000 1.0782000000 1.0309000000
2.0085000000 5.6428000000 0.1950000000
2.0084000000 4.0232000000 1.7916000000
2.0082000000 3.4218000000 2.3431000000
2.0080000000 0.7731000000 0.7348000000
2.0078000000 1.5678000000 1.5097000000
2.0077000000 4.9916000000 0.8411000000
2.0075000000 3.0853000000 2.5249000000
2.0075000000 0.3708000000 0.3305000000
2.0071000000 4.6831000000 1.1378000000
2.0070000000 0.2044000000 0.1692000000
2.0070000000 4.1865000000 1.6272000000
2.0068000000 4.6897000000 1.1434000000
2.0065000000 2.2017000000 2.1335000000
2.0061000000 2.6645000000 2.4570000000
2.0059000000 2.8214000000 2.5327000000
2.0057000000 4.9551000000 0.8781000000
2.0055000000 3.9566000000 1.8578000000
2.0055000000 5.0966000000 0.7365000000
2.0054000000 1.1298000000 1.0852000000
2.0054000000 2.4245000000 2.3221000000
2.0052000000 1.8235000000 1.7623000000
2.0051000000 5.0637000000 0.7733000000
2.0050000000 4.5026000000 1.3216000000
2.0046000000 2.1900000000 2.1236000000
2.0045000000 5.8749000000 0.0450000000
2.0044000000 5.3557000000 0.4808000000
2.0044000000 3.3968000000 2.3555000000
2.0043000000 4.5823000000 1.2411000000
2.0043000000 2.7215000000 2.4923000000
2.0041000000 2.6395000000 2.4525000000
2.0041000000 4.5566000000 1.2677000000
2.0040000000 3.2986000000 2.4257000000
2.0038000000 1.8233000000 1.7651000000
2.0039000000 0.2529000000 0.2233000000
2.0038000000 3.3414000000 2.4003000000
2.0035000000 2.2588000000 2.1910000000
2.0034000000 5.3527000000 0.4784000000
2.0034000000 5.7220000000 0.1223000000
2.0033000000 3.7981000000 2.0130000000
2.0033000000 1.5675000000 1.5111000000
2.0032000000 0.4513000000 0.4153000000
2.0032000000 3.7623000000 2.0517000000
2.0031000000 0.1463000000 0.1147000000
2.0030000000 0.5859000000 0.5436000000
2.0029000000 0.5016000000 0.4634000000
2.0027000000 1.4659000000 1.4111000000
2.0026000000 4.0135000000 1.8022000000
2.0025000000 1.9015000000 1.8423000000
2.0027000000 2.4379000000 2.3322000000
2.0023000000 3.9783000000 1.8398000000
2.0022000000 0.7244000000 0.6808000000
2.0020000000 3.8706000000 1.9421000000
2.0019000000 0.1263000000 0.0911000000
2.0018000000 2.6332000000 2.4471000000
2.0018000000 0.6800000000 0.6363000000
2.0016000000 1.7502000000 1.6897000000
2.0015000000 5.5059000000 0.3348000000
2.0012000000 0.1045000000 0.1462000000
2.0010000000 2.6866000000 2.4730000000
2.0010000000 3.0052000000 2.5657000000
2.0009000000 3.6104000000 2.1954000000
2.0007000000 0.0137000000 0.0606000000
2.0008000000 1.4021000000 1.3475000000
2.0006000000 0.6718000000 0.6312000000
2.0005000000 4.5051000000 1.3176000000
2.0005000000 5.5313000000 0.3082000000
2.0003000000 5.5217000000 0.3157000000
2.0003000000 2.0671000000 2.0034000000
2.0002000000 0.0645000000 0.1049000000
2.0001000000 1.6638000000 1.6031000000
2.0000000000 5.0334000000 0.7965000000
1.9996000000 0.1720000000 0.1376000000
1.9994000000 1.6250000000 1.5669000000
1.9989000000 0.7946000000 0.7496000000
1.9988000000 5.0075000000 0.8289000000
1.9985000000 4.2078000000 1.6070000000
1.9983000000 4.9623000000 0.8627000000
1.9979000000 5.7060000000 0.1298000000
1.9973000000 1.9574000000 1.8967000000
1.9971000000 4.1270000000 1.6893000000
1.9968000000 1.2156000000 1.1619000000
1.9968000000 4.1970000000 1.6221000000
1.9960000000 3.5190000000 2.2734000000
1.9957000000 2.4439000000 2.3471000000
1.9941000000 3.9994000000 1.8132000000
1.7631000000 4.2741000000 1.5464000000
1.7615000000 3.3925000000 2.4138000000
1.7613000000 5.3515000000 0.4841000000
1.7611000000 4.0929000000 1.7267000000
1.7609000000 2.1040000000 2.0412000000
1.7599000000 3.6224000000 2.1907000000
1.7595000000 3.4046000000 2.4036000000
1.7587000000 5.7457000000 0.0961000000
1.7583000000 1.1257000000 1.0746000000
1.7581000000 5.1807000000 0.6501000000
1.7571000000 4.2248000000 1.5964000000
1.7570000000 3.5953000000 2.2139000000
1.7570000000 5.2724000000 0.5553000000
1.7567000000 5.0252000000 0.8049000000
1.7565000000 3.1553000000 2.6474000000
1.7563000000 2.6007000000 2.5257000000
1.7563000000 4.5906000000 1.2329000000
1.7560000000 2.9446000000 2.7962000000
1.7559000000 5.1701000000 0.6651000000
1.7559000000 3.8413000000 1.9688000000
1.7558000000 0.9316000000 0.8903000000
1.7557000000 1.4538000000 1.3975000000
1.7557000000 3.2856000000 2.5155000000
1.7556000000 2.1990000000 2.1369000000
1.7555000000 2.3918000000 2.3243000000
1.7555000000 0.6772000000 0.6337000000
1.7554000000 4.7740000000 1.0519000000
1.7553000000 0.7240000000 0.6762000000
1.7551000000 3.4415000000 2.3658000000
1.7550000000 4.6777000000 1.1441000000
1.7549000000 1.0024000000 0.9545000000
1.7547000000 2.1328000000 2.0683000000
1.7546000000 2.9882000000 2.7938000000
1.7545000000 4.9199000000 0.9102000000
1.7545000000 3.7674000000 2.0440000000
1.7544000000 3.0018000000 2.7844000000
1.7543000000 2.4579000000 2.3857000000
1.7542000000 1.5080000000 1.4527000000
1.7542000000 3.9400000000 1.8697000000
1.7541000000 1.5341000000 1.4783000000
1.7540000000 0.0497000000 0.0926000000
1.7541000000 3.6738000000 2.1371000000
1.7538000000 4.0261000000 1.7912000000
1.7537000000 1.1609000000 1.1118000000
1.7538000000 5.4070000000 0.4295000000
1.7535000000 1.2705000000 1.2207000000
1.7535000000 3.6619000000 2.1467000000
1.7533000000 0.2044000000 0.1687000000
1.7528000000 5.3468000000 0.4892000000
1.7525000000 0.2820000000 0.2525000000
1.7524000000 3.4939000000 2.3087000000
1.7522000000 0.6640000000 0.6181000000
1.7520000000 3.9547000000 1.8637000000
1.7519000000 3.6712000000 2.1333000000
1.7518000000 0.5079000000 0.4647000000
1.7517000000 2.1831000000 2.1172000000
1.7516000000 2.0417000000 1.9763000000
1.7511000000 5.8591000000 0.0626000000
1.7511000000 4.8378000000 0.9869000000
1.7509000000 5.8469000000 0.0696000000
1.7508000000 1.8019000000 1.7443000000
1.7506000000 0.8355000000 0.7925000000
1.7505000000 5.1494000000 0.6806000000
1.7503000000 2.6163000000 2.5429000000
1.7499000000 1.8851000000 1.8257000000
1.7498000000 0.0920000000 0.1397000000
1.7496000000 4.5780000000 1.2445000000
1.7495000000 1.1530000000 1.1025000000
1.7494000000 5.4276000000 0.4117000000
1.7490000000 0.0013000000 0.0418000000
1.7489000000 5.0753000000 0.7518000000
1.7482000000 5.2700000000 0.5664000000
1.7481000000 1.4722000000 1.4159000000
1.7480000000 1.1967000000 1.1471000000
1.7478000000 3.3640000000 2.4371000000
1.7477000000 1.3422000000 1.2893000000
1.7468000000 0.5890000000 0.5490000000
1.7455000000 0.8183000000 0.7766000000
1.5120000000 0.4345000000 0.3940000000
1.5118000000 3.0179000000 2.6565000000
1.5103000000 4.7029000000 1.1225000000
1.5095000000 0.8506000000 0.8074000000
1.5088000000 4.7166000000 1.1025000000
1.5088000000 3.8167000000 1.9971000000
1.5084000000 1.4988000000 1.4390000000
1.5078000000 3.2435000000 2.5335000000
1.5076000000 2.1058000000 2.0400000000
1.5070000000 3.4553000000 2.3516000000
1.5070000000 2.5441000000 2.4564000000
1.5069000000 4.1950000000 1.6216000000
1.5069000000 3.2703000000 2.5175000000
1.5067000000 0.0866000000 0.1275000000
1.5065000000 0.8309000000 0.7863000000
1.5064000000 4.7156000000 1.1130000000
1.5063000000 4.1829000000 1.6362000000
1.5061000000 1.3266000000 1.2785000000
1.5060000000 3.1591000000 2.5861000000
1.5056000000 0.9697000000 0.9231000000
1.5054000000 3.7319000000 2.0777000000
1.5052000000 4.8679000000 0.9670000000
1.5050000000 5.2764000000 0.5544000000
1.5049000000 0.8658000000 0.8183000000
1.5049000000 1.2514000000 1.2072000000
1.5050000000 2.1177000000 2.0583000000
1.5048000000 4.1300000000 1.6892000000
1.5047000000 5.6969000000 0.1433000000
1.5044000000 5.7873000000 0.0586000000
1.5044000000 0.4432000000 0.4034000000
1.5043000000 4.1201000000 1.6950000000
1.5042000000 5.8223000000 0.0966000000
1.5041000000 0.8150000000 0.7679000000
1.5040000000 5.4052000000 0.4374000000
1.5038000000 0.2696000000 0.2290000000
1.5036000000 4.9720000000 0.8631000000
1.5036000000 4.8845000000 0.9427000000
1.5034000000 4.5339000000 1.2895000000
1.5034000000 3.9859000000 1.8316000000
1.5033000000 2.5351000000 2.4476000000
1.5033000000 3.4682000000 2.3435000000
1.5031000000 4.8419000000 0.9855000000
1.5030000000 5.1950000000 0.6364000000
1.5029000000 4.1064000000 1.7099000000
1.5029000000 5.2914000000 0.5435000000
1.5028000000 4.4385000000 1.3891000000
1.5028000000 5.6882000000 0.1535000000
1.5026000000 4.6027000000 1.2191000000
1.5024000000 0.6056000000 0.5696000000
1.5023000000 1.9877000000 1.9291000000
1.5022000000 4.6256000000 1.2033000000
1.5020000000 3.7393000000 2.0753000000
1.5018000000 1.1408000000 1.0902000000
1.5017000000 1.3398000000 1.2888000000
1.5015000000 0.4734000000 0.4372000000
1.5014000000 3.2543000000 2.5279000000
1.5009000000 0.5665000000 0.5271000000
1.5008000000 5.4693000000 0.3697000000
1.5006000000 2.7977000000 2.6283000000
1.5006000000 2.5064000000 2.4241000000
1.5007000000 0.4244000000 0.3897000000
1.5005000000 0.8488000000 0.8012000000
1.5004000000 1.1964000000 1.1445000000
1.5004000000 2.3579000000 2.2946000000
1.5003000000 1.9169000000 1.8546000000
1.4997000000 3.9156000000 1.8970000000
1.4996000000 3.1200000000 2.6034000000
1.4993000000 0.8219000000 0.7732000000
1.4990000000 2.9991000000 2.6614000000
1.4982000000 5.7052000000 0.1399000000
1.4975000000 4.3195000000 1.5034000000
1.4974000000 2.7746000000 2.6135000000
1.4971000000 0.5467000000 0.5023000000
1.4970000000 3.6907000000 2.1190000000
1.4969000000 0.2131000000 0.1825000000
1.4959000000 1.2110000000 1.1590000000
1.4949000000 4.0549000000 1.7592000000
1.2645000000 3.9590000000 1.8583000000
1.2640000000 4.3090000000 1.5104000000
1.2605000000 5.0906000000 0.7388000000
1.2589000000 3.0067000000 2.4526000000
1.2586000000 2.1424000000 2.0644000000
1.2587000000 4.2534000000 1.5709000000
1.2583000000 5.1756000000 0.6564000000
1.2578000000 2.3520000000 2.2019000000
1.2577000000 4.4049000000 1.4139000000
1.2574000000 1.6643000000 1.6040000000
1.2573000000 4.4526000000 1.3703000000
1.2565000000 0.2678000000 0.2329000000
1.2564000000 0.4700000000 0.4347000000
1.2564000000 5.1705000000 0.6570000000
1.2562000000 2.6212000000 2.3242000000
1.2561000000 2.2023000000 2.1093000000
1.2559000000 4.2575000000 1.5593000000
1.2558000000 1.1464000000 1.0973000000
1.2553000000 3.4837000000 2.2154000000
1.2554000000 4.4028000000 1.4205000000
1.2553000000 4.7884000000 1.0325000000
1.2550000000 5.4205000000 0.4147000000
1.2549000000 3.1748000000 2.3664000000
1.2547000000 5.3593000000 0.4741000000
1.2547000000 3.4054000000 2.2563000000
1.2545000000 1.3798000000 1.3270000000
1.2544000000 5.8230000000 0.0947000000
1.2545000000 4.8030000000 1.0219000000
1.2543000000 4.2233000000 1.5934000000
1.2540000000 2.3066000000 2.1691000000
1.2539000000 2.2924000000 2.1682000000
1.2538000000 2.9664000000 2.4562000000
1.2535000000 4.1136000000 1.7011000000
1.2530000000 3.8102000000 1.9935000000
1.2530000000 4.3938000000 1.4264000000
1.2528000000 1.4872000000 1.4319000000
1.2529000000 2.9701000000 2.4491000000
1.2527000000 4.0249000000 1.7833000000
1.2526000000 3.0235000000 2.4378000000
1.2526000000 1.6346000000 1.5759000000
1.2525000000 2.6898000000 2.3580000000
1.2525000000 1.8490000000 1.7863000000
1.2524000000 3.7753000000 2.0259000000
1.2523000000 5.8936000000 0.0272000000
1.2524000000 3.9374000000 1.8759000000
1.2521000000 1.7685000000 1.7055000000
1.2521000000 2.6635000000 2.3459000000
1.2517000000 2.9747000000 2.4454000000
1.2516000000 3.0992000000 2.4039000000
1.2515000000 3.3777000000 2.2622000000
1.2514000000 0.4084000000 0.3692000000
1.2514000000 0.9778000000 0.9263000000
1.2513000000 1.3019000000 1.2487000000
1.2512000000 2.3466000000 2.1923000000
1.2511000000 5.8480000000 0.0708000000
1.2508000000 1.5895000000 1.5343000000
1.2505000000 2.2535000000 2.1254000000
1.2505000000 4.4654000000 1.3550000000
1.2503000000 3.3815000000 2.2606000000
1.2502000000 0.9898000000 0.9428000000
1.2501000000 4.3623000000 1.4635000000
1.2502000000 2.9929000000 2.4467000000
1.2500000000 1.7920000000 1.7306000000
1.2500000000 0.2188000000 0.1835000000
1.2499000000 2.2410000000 2.1241000000
1.2494000000 0.4329000000 0.3945000000
1.2493000000 0.5027000000 0.4670000000
1.2491000000 1.8061000000 1.7491000000
1.2486000000 5.1279000000 0.7041000000
1.2484000000 2.4562000000 2.2389000000
1.2482000000 3.7771000000 2.0174000000
1.2480000000 2.2110000000 2.1097000000
1.2477000000 0.3098000000 0.2762000000
1.2465000000 1.1867000000 1.1398000000
1.2459000000 1.3135000000 1.2612000000
1.0120000000 4.3018000000 1.5223000000
1.0119000000 2.8907000000 2.2401000000
1.0112000000 3.5907000000 1.9560000000
1.0105000000 1.9930000000 1.8100000000
1.0096000000 2.5614000000 2.0870000000
1.0094000000 2.1508000000 1.8879000000
1.0090000000 0.6330000000 0.5911000000
1.0084000000 2.7184000000 2.1682000000
1.0082000000 2.6205000000 2.1158000000
1.0081000000 2.0652000000 1.8451000000
1.0080000000 4.1191000000 1.6800000000
1.0078000000 4.8786000000 0.9537000000
1.0078000000 2.2994000000 1.9577000000
1.0077000000 4.8737000000 0.9509000000
1.0076000000 4.0403000000 1.7144000000
1.0072000000 3.9701000000 1.7708000000
1.0071000000 2.2765000000 1.9456000000
1.0068000000 3.2357000000 2.1298000000
1.0065000000 3.8240000000 1.8319000000
1.0063000000 1.6636000000 1.5875000000
1.0062000000 0.8922000000 0.8458000000
1.0062000000 3.5521000000 1.9641000000
1.0060000000 3.5534000000 1.9716000000
1.0060000000 0.0595000000 0.0947000000
1.0059000000 4.4259000000 1.3963000000
1.0058000000 5.5564000000 0.2877000000
1.0057000000 1.3509000000 1.2926000000
1.0054000000 4.9733000000 0.8566000000
1.0054000000 1.8168000000 1.7056000000
1.0053000000 1.3091000000 1.2570000000
1.0053000000 4.5433000000 1.2764000000
1.0050000000 3.1791000000 2.1533000000
1.0048000000 5.8619000000 0.0583000000
1.0049000000 4.5968000000 1.2322000000
1.0048000000 2.5220000000 2.0622000000
1.0047000000 1.6923000000 1.6168000000
1.0046000000 3.7245000000 1.8868000000
1.0045000000 4.6300000000 1.1966000000
1.0045000000 5.3913000000 0.4435000000
1.0044000000 1.1360000000 1.0889000000
1.0043000000 2.3768000000 1.9977000000
1.0042000000 2.0750000000 1.8460000000
1.0042000000 4.1603000000 1.6426000000
1.0047000000 3.9735000000 1.7611000000
1.0041000000 4.2577000000 1.5584000000
1.0040000000 4.1772000000 1.6243000000
1.0039000000 1.9466000000 1.7818000000
1.0038000000 1.5819000000 1.5267000000
1.0038000000 0.5434000000 0.5084000000
1.0036000000 5.0449000000 0.7837000000
1.0036000000 1.0801000000 1.0258000000
1.0035000000 3.8642000000 1.8137000000
1.0033000000 0.6970000000 0.6548000000
1.0032000000 5.4043000000 0.4354000000
1.0031000000 1.0945000000 1.0471000000
1.0028000000 5.7377000000 0.1069000000
1.0027000000 5.5278000000 0.3125000000
1.0028000000 4.8068000000 1.0153000000
1.0026000000 4.1901000000 1.6096000000
1.0023000000 4.0685000000 1.6979000000
1.0022000000 4.9401000000 0.8878000000
1.0022000000 2.6903000000 2.1487000000
1.0020000000 5.7416000000 0.0992000000
1.0020000000 1.7107000000 1.6352000000
1.0019000000 4.2736000000 1.5464000000
1.0018000000 2.1076000000 1.8624000000
1.0018000000 2.8966000000 2.2292000000
1.0013000000 0.9536000000 0.9050000000
1.0013000000 3.4572000000 2.0095000000
1.0012000000 0.5670000000 0.5255000000
1.0011000000 0.2181000000 0.1831000000
1.0010000000 0.6419000000 0.5947000000
1.0010000000 0.1151000000 0.1566000000
1.0008000000 3.0588000000 2.2077000000
1.0005000000 2.1287000000 1.8673000000
1.0007000000 4.7555000000 1.0706000000
1.0004000000 2.6595000000 2.1288000000
1.0003000000 0.4188000000 0.3757000000
1.0002000000 2.1855000000 1.8960000000
0.9999000000 4.0474000000 1.7066000000
0.9997000000 3.4122000000 2.0281000000
0.9995000000 3.0805000000 2.1914000000
0.9992000000 1.4863000000 1.4337000000
0.9986000000 2.8800000000 2.2409000000
0.9983000000 5.8426000000 0.0800000000
0.9980000000 0.2045000000 0.1734000000
0.9976000000 2.0868000000 1.8463000000
0.9974000000 2.8361000000 2.2096000000
0.9971000000 1.7993000000 1.6880000000
0.9970000000 0.6110000000 0.5693000000
0.9969000000 4.7895000000 1.0343000000
0.9966000000 1.7766000000 1.6782000000
0.9938000000 0.8857000000 0.8403000000
0.7610000000 1.6811000000 1.4424000000
0.7608000000 0.5568000000 0.5160000000
0.7603000000 5.5837000000 0.2612000000
0.7600000000 1.7501000000 1.4777000000
0.7599000000 1.0241000000 0.9741000000
0.7594000000 5.8771000000 0.0362000000
0.7595000000 1.6309000000 1.4193000000
0.7593000000 2.5824000000 1.8895000000
0.7591000000 5.6820000000 0.1592000000
0.7589000000 1.4970000000 1.3545000000
0.7587000000 5.6665000000 0.1745000000
0.7586000000 4.7609000000 1.0637000000
0.7585000000 5.5291000000 0.3080000000
0.7585000000 3.9043000000 1.5849000000
0.7578000000 2.5413000000 1.8705000000
0.7575000000 4.7717000000 1.0606000000
0.7574000000 1.1235000000 1.0728000000
0.7571000000 2.9130000000 2.0329000000
0.7570000000 2.9356000000 2.0416000000
0.7568000000 5.1730000000 0.6615000000
0.7570000000 0.3654000000 0.3273000000
0.7567000000 5.8829000000 0.0362000000
0.7563000000 1.0285000000 0.9816000000
0.7561000000 2.2108000000 1.7016000000
0.7561000000 4.9026000000 0.9308000000
0.7559000000 4.5321000000 1.2587000000
0.7558000000 1.3171000000 1.2521000000
0.7555000000 1.6539000000 1.4330000000
0.7553000000 4.0179000000 1.5271000000
0.7551000000 1.3057000000 1.2409000000
0.7550000000 5.3120000000 0.5234000000
0.7548000000 5.7189000000 0.1249000000
0.7549000000 2.4894000000 1.8389000000
0.7548000000 1.4544000000 1.3266000000
0.7547000000 2.9118000000 2.0239000000
0.7546000000 3.5019000000 1.7819000000
0.7546000000 3.7209000000 1.6716000000
0.7545000000 5.5599000000 0.2818000000
0.7545000000 5.0326000000 0.7950000000
0.7544000000 1.1138000000 1.0621000000
0.7541000000 1.6266000000 1.4081000000
0.7540000000 4.6108000000 1.1941000000
0.7540000000 1.0954000000 1.0471000000
0.7539000000 3.7589000000 1.6610000000
0.7537000000 0.8790000000 0.8342000000
0.7536000000 2.1113000000 1.6493000000
0.7535000000 0.1088000000 0.1504000000
0.7535000000 3.1564000000 1.9513000000
0.7534000000 3.6968000000 1.6825000000
0.7533000000 4.8795000000 0.9479000000
0.7532000000 4.5020000000 1.2714000000
0.7532000000 0.1536000000 0.1140000000
0.7531000000 2.9204000000 2.0347000000
0.7531000000 3.5172000000 1.7698000000
0.7526000000 0.3502000000 0.3122000000
0.7526000000 3.4567000000 1.8065000000
0.7525000000 5.2910000000 0.5479000000
0.7525000000 1.5104000000 1.3532000000
0.7524000000 3.5416000000 1.7566000000
0.7523000000 4.3859000000 1.3465000000
0.7522000000 0.6751000000 0.6319000000
0.7521000000 4.9237000000 0.9057000000
0.7520000000 1.6414000000 1.4165000000
0.7515000000 4.8533000000 0.9776000000
0.7512000000 3.7129000000 1.6712000000
0.7512000000 4.0236000000 1.5201000000
0.7510000000 0.4058000000 0.3581000000
0.7509000000 4.5496000000 1.2497000000
0.7508000000 0.1015000000 0.1401000000
0.7506000000 3.6842000000 1.6848000000
0.7504000000 3.7998000000 1.6316000000
0.7502000000 1.9687000000 1.5752000000
0.7500000000 4.8923000000 0.9417000000
0.7501000000 1.6684000000 1.4356000000
0.7496000000 5.3967000000 0.4418000000
0.7494000000 3.9535000000 1.5545000000
0.7493000000 0.5173000000 0.4685000000
0.7490000000 4.0705000000 1.4974000000
0.7488000000 0.6875000000 0.6467000000
0.7485000000 2.0380000000 1.6005000000
0.7485000000 3.4828000000 1.7804000000
0.7483000000 0.0235000000 0.0631000000
0.7482000000 0.6511000000 0.6097000000
0.7477000000 1.4128000000 1.3047000000
0.7472000000 2.5989000000 1.8826000000
0.7464000000 4.3200000000 1.3705000000
0.7445000000 2.8527000000 2.0029000000
0.5156000000 5.4016000000 0.4310000000
0.5120000000 3.9645000000 1.3402000000
0.5117000000 3.9790000000 1.3387000000
0.5100000000 1.0022000000 0.8970000000
0.5093000000 2.6359000000 1.7008000000
0.5088000000 4.2514000000 1.1999000000
0.5086000000 0.1517000000 0.1188000000
0.5085000000 1.1043000000 0.9454000000
0.5078000000 2.7722000000 1.7649000000
0.5078000000 3.7431000000 1.4526000000
0.5078000000 2.2403000000 1.5085000000
0.5075000000 3.4392000000 1.6012000000
0.5072000000 3.9335000000 1.3577000000
0.5071000000 5.7649000000 0.0800000000
0.5070000000 5.3115000000 0.5240000000
0.5070000000 4.8974000000 0.8730000000
0.5068000000 3.6669000000 1.4836000000
0.5066000000 5.3375000000 0.4983000000
0.5065000000 3.9852000000 1.3344000000
0.5064000000 0.0064000000 0.0514000000
0.5065000000 3.8349000000 1.4094000000
0.5064000000 5.2574000000 0.5759000000
0.5063000000 3.2010000000 1.7150000000
0.5063000000 2.0788000000 1.4198000000
0.5060000000 3.6055000000 1.5169000000
0.5059000000 3.4542000000 1.5926000000
0.5060000000 4.2124000000 1.2209000000
0.5058000000 4.6578000000 0.9976000000
0.5058000000 4.0964000000 1.2707000000
0.5057000000 2.6665000000 1.7065000000
0.5055000000 5.2702000000 0.5684000000
0.5053000000 0.9104000000 0.8301000000
0.5051000000 4.5846000000 1.0333000000
0.5050000000 2.4121000000 1.5832000000
0.5048000000 5.4937000000 0.3411000000
0.5048000000 2.7034000000 1.7307000000
0.5047000000 5.0263000000 0.7909000000
0.5046000000 2.9065000000 1.8095000000
0.5046000000 2.3679000000 1.5658000000
0.5045000000 3.1550000000 1.7351000000
0.5044000000 5.8593000000 0.0539000000
0.5043000000 4.5579000000 1.0442000000
0.5042000000 2.8955000000 1.8053000000
0.5042000000 5.0426000000 0.7712000000
0.5040000000 3.8324000000 1.4082000000
0.5040000000 3.1738000000 1.7286000000
0.5039000000 3.2383000000 1.6954000000
0.5039000000 5.3639000000 0.4677000000
0.5038000000 0.8300000000 0.7718000000
0.5038000000 3.8897000000 1.3774000000
0.5037000000 4.3846000000 1.1265000000
0.5035000000 0.0733000000 0.1190000000
0.5033000000 2.8868000000 1.8118000000
0.5033000000 3.0217000000 1.8006000000
0.5032000000 5.6925000000 0.1510000000
0.5030000000 0.2303000000 0.1913000000
0.5029000000 2.0916000000 1.4271000000
0.5028000000 1.0484000000 0.9131000000
0.5026000000 0.2835000000 0.2490000000
0.5025000000 4.6967000000 0.9785000000
0.5024000000 1.6662000000 1.2206000000
0.5023000000 2.3425000000 1.5394000000
0.5023000000 2.7943000000 1.7671000000
0.5022000000 0.7815000000 0.7197000000
0.5020000000 4.8467000000 0.8975000000
0.5020000000 2.5507000000 1.6479000000
0.5019000000 1.0628000000 0.9211000000
0.5018000000 3.7790000000 1.4263000000
0.5018000000 5.2535000000 0.5849000000
0.5015000000 5.5009000000 0.3406000000
0.5015000000 4.8540000000 0.9043000000
0.5013000000 0.5948000000 0.5498000000
0.5013000000 0.3754000000 0.3347000000
0.5011000000 3.7390000000 1.4478000000
0.5010000000 2.4944000000 1.6232000000
0.5008000000 3.5034000000 1.5658000000
0.5007000000 5.4789000000 0.3602000000
0.5007000000 0.4465000000 0.4074000000
0.5005000000 1.3193000000 1.0369000000
0.5005000000 0.4494000000 0.4116000000
0.5004000000 1.1071000000 0.9385000000
0.5003000000 2.2994000000 1.5241000000
0.5002000000 3.2428000000 1.6912000000
0.5001000000 3.4591000000 1.5816000000
0.5000000000 4.6530000000 0.9991000000
0.4998000000 1.8429000000 1.3005000000
0.4997000000 1.0617000000 0.9185000000
0.4996000000 1.1626000000 0.9650000000
0.4994000000 4.1196000000 1.2602000000
0.4993000000 2.2235000000 1.4938000000
0.4993000000 0.3165000000 0.2822000000
0.4992000000 2.7186000000 1.7311000000
0.4988000000 4.7830000000 0.9277000000
0.4986000000 4.2158000000 1.2188000000
0.4986000000 2.6423000000 1.6895000000
0.4983000000 3.5553000000 1.5392000000
0.4975000000 3.2751000000 1.6747000000
0.4971000000 4.4952000000 1.0723000000
0.4967000000 0.1055000000 0.1492000000
0.4955000000 0.2065000000 0.1760000000
0.4955000000 0.4343000000 0.3908000000
0.4954000000 0.3291000000 0.2864000000
0.4953000000 2.3213000000 1.5352000000
0.4947000000 0.2649000000 0.2301000000
0.4945000000 1.0954000000 0.9292000000
0.4944000000 1.0655000000 0.9178000000
0.4940000000 1.7181000000 1.2403000000
0.2636000000 0.3795000000 0.3283000000
0.2635000000 5.2278000000 0.5142000000
0.2621000000 0.9549000000 0.6621000000
0.2602000000 5.5518000000 0.2898000000
0.2593000000 4.7781000000 0.7321000000
0.2590000000 2.9254000000 1.6136000000
0.2588000000 3.7908000000 1.2185000000
0.2583000000 1.8676000000 1.1066000000
0.2582000000 0.1906000000 0.1616000000
0.2582000000 0.8968000000 0.6291000000
0.2580000000 5.0656000000 0.5862000000
