6.5030000000 3.1661000000 0.3329000000
6.5017000000 4.3019000000 1.0575000000
6.5009000000 5.4115000000 0.2646000000
6.4998000000 3.1900000000 0.3488000000
6.4978000000 5.7180000000 0.1417000000
6.4969000000 3.3096000000 0.4335000000
6.2619000000 5.7308000000 0.3286000000
6.2594000000 2.6960000000 0.3060000000
6.2588000000 2.2951000000 0.0333000000
6.2582000000 2.2454000000 0.0756000000
6.2579000000 4.8804000000 0.9045000000
6.2574000000 2.1088000000 0.0600000000
6.2568000000 4.0633000000 1.2223000000
6.2565000000 5.1741000000 0.7092000000
6.2561000000 6.5056000000 0.0398000000
6.2559000000 3.4534000000 0.8059000000
6.2557000000 2.3552000000 0.0770000000
6.2553000000 2.2263000000 0.0674000000
6.2548000000 2.0397000000 0.0185000000
6.2544000000 2.1698000000 0.0288000000
6.2535000000 5.3804000000 0.5755000000
6.2532000000 5.6573000000 0.3899000000
6.2525000000 2.1534000000 0.0199000000
6.2523000000 3.0606000000 0.5583000000
6.2518000000 3.2780000000 0.6989000000
6.2515000000 5.9080000000 0.2272000000
6.2507000000 2.2288000000 0.0731000000
6.2505000000 2.2302000000 0.0721000000
6.2496000000 3.1865000000 0.6390000000
6.2460000000 3.8600000000 1.0940000000
6.0168000000 3.1854000000 0.9116000000
6.0139000000 2.2395000000 0.2851000000
6.0110000000 4.5845000000 1.3835000000
6.0100000000 4.0818000000 1.5152000000
6.0089000000 4.3421000000 1.6103000000
6.0083000000 4.1481000000 1.5600000000
6.0080000000 4.5009000000 1.4381000000
6.0076000000 3.8618000000 1.3672000000
6.0070000000 3.8952000000 1.3914000000
6.0068000000 5.5095000000 0.7705000000
6.0067000000 4.1888000000 1.5899000000
6.0063000000 6.6528000000 0.0866000000
6.0059000000 5.5466000000 0.7477000000
6.0056000000 5.7354000000 0.6236000000
6.0054000000 6.5869000000 0.1267000000
6.0052000000 4.4890000000 1.4489000000
6.0050000000 6.1340000000 0.3542000000
6.0048000000 5.7570000000 0.6137000000
6.0045000000 4.3085000000 1.6275000000
6.0043000000 5.9510000000 0.4850000000
6.0038000000 1.6805000000 0.0649000000
6.0031000000 2.7888000000 0.6592000000
6.0027000000 4.2755000000 1.6322000000
6.0024000000 2.8417000000 0.6978000000
6.0023000000 6.6306000000 0.1118000000
6.0009000000 4.8264000000 1.2355000000
6.0003000000 5.3774000000 0.8692000000
5.9971000000 2.7016000000 0.6085000000
5.7621000000 6.9044000000 0.1231000000
5.7613000000 2.6365000000 0.8363000000
5.7608000000 6.6048000000 0.3269000000
5.7601000000 4.9606000000 1.4243000000
5.7597000000 7.3323000000 0.0649000000
5.7591000000 5.4029000000 1.1286000000
5.7580000000 1.9476000000 0.3876000000
5.7575000000 5.9893000000 0.7385000000
5.7571000000 4.7763000000 1.5521000000
5.7568000000 4.0585000000 1.7936000000
5.7563000000 2.3202000000 0.6288000000
5.7559000000 1.9110000000 0.2865000000
5.7557000000 2.0387000000 0.4434000000
5.7553000000 5.6106000000 0.9930000000
5.7550000000 5.8803000000 0.8184000000
5.7548000000 5.4327000000 1.1164000000
5.7544000000 3.2606000000 1.2599000000
5.7543000000 4.9667000000 1.4221000000
5.7541000000 2.1213000000 0.4977000000
5.7535000000 3.0116000000 1.0932000000
5.7533000000 2.2230000000 0.5710000000
5.7529000000 4.2377000000 1.9058000000
5.7527000000 1.9100000000 0.3588000000
5.7524000000 5.5680000000 1.0273000000
5.7519000000 3.4858000000 1.4129000000
5.7517000000 4.9734000000 1.4197000000
5.7511000000 5.0977000000 1.3411000000
5.7498000000 4.6301000000 1.6537000000
5.7493000000 4.2177000000 1.9017000000
5.7489000000 6.9517000000 0.1130000000
5.7476000000 5.0324000000 1.3925000000
5.7465000000 2.5722000000 0.8128000000
5.5135000000 6.2834000000 0.8248000000
5.5123000000 4.0315000000 2.0555000000
5.5105000000 2.6539000000 1.1370000000
5.5097000000 6.3626000000 0.7758000000
5.5090000000 4.6145000000 1.9457000000
5.5085000000 2.3130000000 0.9133000000
5.5082000000 6.8256000000 0.4703000000
5.5079000000 5.5002000000 1.3578000000
5.5078000000 3.8175000000 1.9180000000
5.5073000000 4.9320000000 1.7388000000
5.5070000000 1.8584000000 0.6134000000
5.5066000000 4.0370000000 2.0628000000
5.5063000000 2.2590000000 0.8839000000
5.5058000000 3.7559000000 1.8782000000
5.5055000000 2.3195000000 0.9210000000
5.5053000000 3.0716000000 1.4201000000
5.5048000000 5.2473000000 1.5245000000
5.5045000000 4.1384000000 2.1343000000
5.5042000000 7.2235000000 0.2048000000
5.5040000000 4.1643000000 2.1544000000
5.5038000000 3.1486000000 1.4746000000
5.5034000000 2.8508000000 1.2804000000
5.5032000000 4.0742000000 2.0900000000
5.5027000000 6.6753000000 0.5778000000
5.5026000000 0.7461000000 0.0216000000
5.5018000000 1.4104000000 0.2439000000
5.5015000000 5.0226000000 1.6804000000
5.5012000000 7.4981000000 0.1094000000
5.5005000000 2.9410000000 1.3391000000
5.5002000000 4.9250000000 1.7471000000
5.4995000000 4.6267000000 1.9484000000
5.4980000000 4.3325000000 2.1957000000
5.4963000000 1.5917000000 0.4455000000
5.2635000000 6.0648000000 1.2629000000
5.2619000000 6.6217000000 0.8893000000
5.2606000000 2.9678000000 1.6372000000
5.2598000000 6.7591000000 0.8010000000
5.2594000000 2.8643000000 1.5676000000
5.2589000000 3.0898000000 1.7187000000
5.2588000000 0.3616000000 0.0530000000
5.2585000000 4.8817000000 2.0491000000
5.2582000000 0.8132000000 0.1313000000
5.2579000000 8.2906000000 0.0047000000
5.2575000000 7.3583000000 0.4039000000
5.2569000000 3.9608000000 2.2966000000
5.2564000000 7.3772000000 0.3881000000
5.2562000000 5.8422000000 1.4171000000
5.2560000000 6.3934000000 1.0485000000
5.2558000000 7.8629000000 0.1444000000
5.2557000000 4.6764000000 2.1967000000
5.2554000000 7.1211000000 0.5672000000
5.2548000000 1.8445000000 0.8965000000
5.2547000000 0.5428000000 0.0242000000
5.2545000000 1.6577000000 0.7694000000
5.2541000000 7.4169000000 0.3698000000
5.2538000000 1.1530000000 0.4308000000
5.2535000000 6.0344000000 1.2862000000
5.2532000000 3.2883000000 1.8570000000
5.2528000000 1.1835000000 0.4485000000
5.2526000000 0.4119000000 0.0158000000
5.2523000000 6.0348000000 1.2903000000
5.2521000000 5.4321000000 1.6886000000
5.2519000000 4.6022000000 2.2482000000
5.2510000000 2.1005000000 1.0703000000
5.2506000000 0.5160000000 0.0092000000
5.2489000000 5.0248000000 1.9667000000
5.2483000000 7.9646000000 0.0823000000
5.2466000000 1.4119000000 0.6141000000
5.0130000000 8.4926000000 0.0781000000
5.0109000000 2.2160000000 1.3516000000
5.0100000000 5.1179000000 2.1910000000
5.0095000000 3.0679000000 1.9942000000
5.0090000000 8.4316000000 0.0498000000
5.0088000000 8.6110000000 0.0617000000
5.0084000000 7.1794000000 0.8135000000
5.0080000000 2.0195000000 1.3002000000
5.0077000000 0.8543000000 0.5168000000
5.0073000000 4.5439000000 2.5686000000
5.0068000000 7.8505000000 0.3624000000
5.0065000000 1.5164000000 0.9584000000
5.0062000000 6.7637000000 1.0943000000
5.0058000000 1.7211000000 1.0988000000
5.0054000000 6.3059000000 1.3970000000
5.0052000000 1.2408000000 0.7784000000
5.0050000000 5.0916000000 2.2046000000
5.0048000000 0.2639000000 0.1309000000
5.0047000000 8.1172000000 0.1899000000
5.0045000000 2.5509000000 1.6548000000
5.0043000000 1.9641000000 1.2557000000
5.0040000000 2.2333000000 1.4394000000
5.0036000000 2.0138000000 1.3007000000
5.0033000000 2.3855000000 1.5442000000
5.0030000000 0.5666000000 0.2607000000
5.0026000000 2.7404000000 1.7786000000
5.0025000000 1.1555000000 0.7270000000
5.0025000000 3.1186000000 2.0356000000
5.0017000000 7.6941000000 0.4766000000
5.0016000000 0.2233000000 0.1041000000
5.0011000000 8.5205000000 0.0772000000
5.0008000000 1.3844000000 0.8757000000
4.9998000000 2.1901000000 1.4228000000
4.9994000000 3.8703000000 2.5367000000
4.9985000000 0.7335000000 0.3756000000
4.9980000000 0.3005000000 0.1645000000
4.9968000000 6.0163000000 1.5978000000
4.9947000000 0.7942000000 0.4933000000
4.7651000000 8.3597000000 0.2331000000
4.7628000000 6.4722000000 1.5682000000
4.7623000000 2.7450000000 2.0612000000
4.7620000000 7.8039000000 0.6795000000
4.7616000000 5.9173000000 1.9367000000
4.7603000000 0.5671000000 0.6101000000
4.7596000000 2.1920000000 1.6970000000
4.7592000000 7.0533000000 1.1821000000
4.7587000000 7.3400000000 0.9915000000
4.7585000000 4.2656000000 3.0627000000
4.7583000000 3.9031000000 2.8374000000
4.7580000000 5.7199000000 2.0772000000
4.7574000000 5.7420000000 2.0632000000
4.7571000000 8.1903000000 0.4823000000
4.7569000000 7.3984000000 0.9507000000
4.7565000000 1.4025000000 1.1738000000
4.7564000000 6.0733000000 1.8403000000
4.7562000000 6.0278000000 1.8675000000
4.7560000000 0.2729000000 0.3490000000
4.7558000000 7.8558000000 0.6514000000
4.7555000000 1.3242000000 1.1240000000
4.7554000000 1.6642000000 1.3516000000
4.7550000000 2.9458000000 2.2046000000
4.7548000000 8.1066000000 0.4839000000
4.7547000000 0.9980000000 0.9143000000
4.7546000000 0.1997000000 0.2032000000
4.7543000000 0.4283000000 0.5057000000
4.7541000000 0.9257000000 0.8644000000
4.7540000000 0.6188000000 0.6574000000
4.7537000000 4.1650000000 3.0208000000
4.7533000000 4.3833000000 2.9730000000
4.7529000000 3.1011000000 2.3174000000
4.7525000000 1.2247000000 1.0633000000
4.7523000000 4.9794000000 2.5759000000
4.7521000000 2.4597000000 1.8836000000
4.7520000000 0.1559000000 0.2197000000
4.7515000000 2.3231000000 1.7923000000
4.7506000000 2.8651000000 2.1520000000
4.7503000000 0.1998000000 0.1983000000
4.7498000000 6.1894000000 1.7703000000
4.7496000000 3.6680000000 2.6899000000
4.7490000000 1.5307000000 1.2682000000
4.7485000000 6.9824000000 1.2403000000
4.7479000000 0.3363000000 0.4383000000
4.7465000000 7.5272000000 0.8825000000
4.5128000000 0.9256000000 1.1379000000
4.5115000000 6.2638000000 1.9913000000
4.5107000000 5.1362000000 2.7457000000
4.5103000000 7.6538000000 1.0719000000
4.5098000000 7.8365000000 0.9830000000
4.5091000000 4.8407000000 2.9432000000
4.5089000000 8.6536000000 0.0615000000
4.5083000000 0.7794000000 1.0206000000
4.5080000000 0.8477000000 1.0709000000
4.5077000000 3.0687000000 2.5686000000
4.5073000000 5.4035000000 2.5764000000
4.5068000000 4.3982000000 3.2475000000
4.5066000000 8.2791000000 0.3479000000
4.5064000000 7.4330000000 1.2213000000
4.5060000000 7.7304000000 1.0845000000
4.5059000000 3.9448000000 3.1633000000
4.5056000000 7.7937000000 1.0357000000
4.5054000000 8.3808000000 0.2039000000
4.5051000000 0.5629000000 0.7629000000
4.5048000000 7.9693000000 0.7553000000
4.5045000000 6.8398000000 1.6196000000
4.5043000000 1.4306000000 1.4797000000
4.5041000000 5.1605000000 2.7387000000
4.5038000000 1.9591000000 1.8391000000
4.5034000000 1.8280000000 1.7478000000
4.5033000000 1.5227000000 1.5521000000
4.5029000000 8.4694000000 0.1689000000
4.5027000000 3.8987000000 3.1302000000
4.5025000000 0.8355000000 1.0685000000
4.5023000000 2.3027000000 2.0628000000
4.5015000000 4.7866000000 2.9938000000
4.5013000000 0.7076000000 0.9356000000
4.5008000000 5.4703000000 2.5348000000
4.5007000000 1.8977000000 1.8019000000
4.5001000000 7.9540000000 0.7789000000
4.4997000000 0.0365000000 0.0601000000
4.4989000000 6.0885000000 2.1254000000
4.4980000000 3.9857000000 3.1946000000
4.4939000000 0.6005000000 0.8087000000
4.2620000000 5.3763000000 2.8772000000
4.2603000000 4.9156000000 3.1829000000
4.2601000000 4.2313000000 3.5592000000
4.2595000000 4.9681000000 3.1503000000
4.2594000000 5.5430000000 2.7679000000
4.2588000000 1.8994000000 2.0849000000
4.2584000000 8.6298000000 0.0223000000
4.2583000000 6.5419000000 2.1013000000
4.2581000000 3.8191000000 3.3643000000
4.2578000000 4.5623000000 3.4224000000
4.2576000000 3.9957000000 3.4789000000
4.2572000000 7.8473000000 0.9237000000
4.2570000000 2.0087000000 2.1607000000
4.2568000000 3.0134000000 2.8204000000
4.2565000000 4.5152000000 3.4589000000
4.2561000000 8.5573000000 0.0522000000
4.2562000000 8.0391000000 0.6638000000
4.2556000000 5.1607000000 3.0221000000
4.2554000000 1.6046000000 1.8890000000
4.2552000000 6.9114000000 1.8626000000
4.2549000000 0.2396000000 0.3326000000
4.2548000000 6.4795000000 2.1517000000
4.2545000000 8.5854000000 0.0791000000
4.2541000000 3.9954000000 3.4853000000
4.2539000000 4.1142000000 3.5576000000
4.2537000000 1.5019000000 1.8196000000
4.2534000000 1.4083000000 1.7564000000
4.2531000000 3.5925000000 3.2127000000
4.2529000000 5.2947000000 2.9394000000
4.2528000000 8.5909000000 0.0744000000
4.2525000000 1.6540000000 1.9264000000
4.2520000000 3.4082000000 3.0902000000
4.2518000000 4.4492000000 3.5040000000
4.2516000000 4.8353000000 3.2486000000
4.2512000000 1.1122000000 1.4735000000
4.2509000000 2.4137000000 2.4364000000
4.2505000000 7.2943000000 1.6673000000
4.2502000000 8.3848000000 0.2023000000
4.2499000000 2.8779000000 2.7453000000
4.2491000000 0.8768000000 1.1794000000
4.2485000000 3.8823000000 3.4102000000
4.2471000000 1.2545000000 1.6467000000
4.0203000000 3.9401000000 3.7129000000
4.0138000000 8.6027000000 0.0589000000
4.0115000000 8.2710000000 0.3518000000
4.0106000000 4.8620000000 3.5156000000
4.0099000000 7.4354000000 1.4708000000
4.0097000000 5.7803000000 2.8986000000
4.0088000000 7.9445000000 0.7919000000
4.0085000000 1.9343000000 2.3961000000
4.0082000000 7.0547000000 2.0426000000
4.0077000000 6.3824000000 2.4959000000
4.0075000000 5.6754000000 2.9729000000
4.0073000000 7.5235000000 1.3524000000
4.0072000000 6.8891000000 2.2108000000
4.0070000000 6.8707000000 2.2325000000
4.0066000000 6.1571000000 2.6461000000
4.0065000000 7.7532000000 1.0467000000
4.0062000000 6.2195000000 2.6083000000
4.0061000000 2.9922000000 3.1010000000
4.0057000000 4.1462000000 3.8705000000
4.0055000000 1.2779000000 1.7105000000
4.0053000000 7.4529000000 1.4443000000
4.0050000000 5.8424000000 2.8607000000
4.0049000000 0.2552000000 0.3491000000
4.0046000000 0.6196000000 0.7634000000
4.0043000000 8.2710000000 0.3550000000
4.0042000000 3.2256000000 3.2627000000
4.0040000000 5.2001000000 3.2949000000
4.0035000000 3.2008000000 3.2426000000
4.0029000000 4.2802000000 3.9362000000
4.0027000000 2.4877000000 2.7687000000
4.0023000000 2.1759000000 2.5652000000
4.0022000000 3.5123000000 3.4562000000
4.0017000000 2.0184000000 2.4592000000
4.0014000000 3.9175000000 3.7218000000
4.0010000000 6.1600000000 2.6513000000
4.0006000000 1.5320000000 1.9756000000
4.0003000000 3.1516000000 3.2088000000
4.0000000000 3.1198000000 3.1898000000
3.9995000000 7.4459000000 1.4524000000
3.9990000000 5.4348000000 3.1365000000
3.9974000000 1.5153000000 2.0271000000
3.9962000000 1.0674000000 1.4339000000
3.7652000000 8.4526000000 0.1141000000
3.7622000000 1.8635000000 2.4946000000
3.7609000000 6.3496000000 2.8056000000
3.7600000000 5.8886000000 3.1144000000
3.7595000000 4.5454000000 4.0099000000
3.7591000000 5.4784000000 3.3885000000
3.7588000000 2.7359000000 3.2162000000
3.7583000000 6.7121000000 2.4353000000
3.7579000000 6.7458000000 2.3863000000
3.7577000000 8.3168000000 0.2968000000
3.7575000000 8.3306000000 0.2726000000
3.7572000000 3.8257000000 3.9444000000
3.7570000000 1.2595000000 1.6922000000
3.7569000000 4.6059000000 3.9719000000
3.7567000000 1.4900000000 1.9928000000
3.7564000000 6.9028000000 2.1773000000
3.7563000000 4.1544000000 4.1615000000
3.7561000000 6.6364000000 2.5345000000
3.7559000000 6.8363000000 2.2696000000
3.7557000000 5.7885000000 3.1899000000
3.7555000000 4.6872000000 3.9207000000
3.7552000000 3.9958000000 4.0592000000
3.7547000000 7.4453000000 1.4554000000
3.7546000000 5.3804000000 3.4588000000
3.7544000000 1.1214000000 1.5053000000
3.7543000000 2.6612000000 3.1681000000
3.7540000000 7.4882000000 1.4009000000
3.7539000000 4.6256000000 3.9661000000
3.7538000000 5.4087000000 3.4436000000
3.7533000000 4.5438000000 4.0236000000
3.7533000000 0.6091000000 0.8226000000
3.7531000000 4.8931000000 3.7842000000
3.7528000000 5.4121000000 3.4370000000
3.7527000000 2.0221000000 2.6902000000
3.7520000000 3.4044000000 3.6685000000
3.7517000000 1.5396000000 2.0665000000
3.7513000000 2.8886000000 3.3217000000
3.7511000000 0.1996000000 0.1986000000
3.7508000000 0.5783000000 0.7858000000
3.7503000000 6.6779000000 2.4745000000
3.7500000000 4.4314000000 4.0952000000
3.7494000000 1.6889000000 2.2594000000
3.7485000000 4.3108000000 4.2345000000
3.7475000000 1.9625000000 2.5518000000
3.7455000000 6.2445000000 2.8901000000
3.5125000000 4.0453000000 4.3700000000
3.5113000000 1.5582000000 2.0873000000
3.5098000000 7.2219000000 1.7502000000
3.5094000000 6.8016000000 2.3228000000
3.5090000000 2.3952000000 3.1185000000
3.5085000000 4.0149000000 4.3586000000
3.5078000000 6.9059000000 2.1804000000
3.5073000000 6.3549000000 2.9088000000
3.5070000000 8.2084000000 0.4454000000
3.5067000000 2.6954000000 3.4779000000
3.5064000000 8.4466000000 0.1248000000
3.5061000000 3.6606000000 4.1231000000
3.5060000000 4.5965000000 4.2652000000
3.5058000000 7.2736000000 1.6807000000
3.5057000000 5.8388000000 3.4402000000
3.5055000000 3.4730000000 3.9971000000
3.5053000000 2.4947000000 3.3123000000
3.5048000000 2.0971000000 2.8036000000
3.5047000000 5.1414000000 3.9043000000
3.5044000000 4.9673000000 4.0202000000
3.5043000000 3.6585000000 4.1279000000
3.5041000000 2.3952000000 3.1219000000
3.5036000000 6.0246000000 3.3750000000
3.5034000000 0.5482000000 0.7347000000
3.5032000000 0.6071000000 0.8235000000
3.5030000000 6.8144000000 2.3041000000
3.5027000000 1.0701000000 1.4319000000
3.5023000000 1.5900000000 2.1320000000
3.5022000000 0.2003000000 0.2085000000
3.5019000000 8.0753000000 0.6150000000
3.5015000000 1.6599000000 2.2207000000
3.5012000000 4.8616000000 4.0930000000
3.5009000000 2.8846000000 3.6134000000
3.5005000000 3.4838000000 4.0140000000
3.5000000000 5.3943000000 3.7419000000
3.4995000000 3.4196000000 3.9724000000
3.4991000000 2.8203000000 3.5742000000
3.4979000000 0.4936000000 0.6663000000
3.2635000000 8.5115000000 0.1140000000
3.2621000000 8.5738000000 0.0287000000
3.2604000000 2.2570000000 3.0175000000
3.2598000000 7.1451000000 1.8527000000
3.2593000000 6.0221000000 3.3585000000
3.2592000000 7.2960000000 1.6580000000
3.2585000000 7.4842000000 1.4005000000
3.2582000000 8.0522000000 0.6493000000
3.2579000000 1.5463000000 2.0728000000
3.2576000000 8.6618000000 0.0549000000
3.2575000000 3.6953000000 4.4306000000
3.2572000000 3.0073000000 3.9554000000
3.2568000000 1.4855000000 1.9952000000
3.2568000000 2.6677000000 3.5673000000
3.2564000000 4.5595000000 4.5809000000
3.2561000000 4.2104000000 4.7829000000
3.2558000000 8.1503000000 0.5138000000
3.2555000000 7.2254000000 1.7509000000
3.2553000000 7.7826000000 1.0064000000
3.2550000000 4.9638000000 4.3103000000
3.2548000000 0.6808000000 0.9189000000
3.2547000000 0.9924000000 1.3302000000
3.2546000000 1.4181000000 1.8971000000
3.2543000000 0.9330000000 1.2511000000
3.2540000000 4.9407000000 4.3292000000
3.2537000000 5.0294000000 4.2747000000
3.2535000000 0.9237000000 1.2395000000
3.2533000000 6.6065000000 2.5753000000
3.2531000000 4.9341000000 4.3300000000
3.2528000000 3.6784000000 4.4274000000
3.2526000000 7.5250000000 1.3517000000
3.2524000000 5.2353000000 4.1349000000
3.2522000000 5.2582000000 4.1229000000
3.2520000000 5.3474000000 4.0529000000
3.2519000000 8.0498000000 0.6492000000
3.2518000000 1.0011000000 1.3439000000
3.2514000000 0.7479000000 1.0047000000
3.2510000000 6.3473000000 2.9210000000
3.2504000000 1.8694000000 2.5049000000
3.2497000000 5.2659000000 4.1186000000
3.2493000000 1.7208000000 2.3040000000
3.2488000000 0.7772000000 1.0462000000
3.2484000000 0.5038000000 0.6796000000
3.2478000000 3.6114000000 4.3859000000
3.0126000000 8.1746000000 0.4835000000
3.0113000000 6.0232000000 3.3503000000
3.0102000000 4.6121000000 4.8343000000
3.0095000000 8.1185000000 0.5603000000
3.0093000000 6.1848000000 3.1368000000
3.0088000000 2.1605000000 2.8945000000
3.0085000000 8.2719000000 0.3578000000
3.0079000000 1.1268000000 1.5147000000
3.0076000000 6.9284000000 2.1405000000
3.0073000000 8.4167000000 0.1614000000
3.0070000000 3.8508000000 4.8290000000
3.0068000000 6.3833000000 2.8739000000
3.0063000000 4.8409000000 4.6771000000
3.0061000000 1.0774000000 1.4451000000
3.0060000000 8.4091000000 0.1755000000
3.0057000000 4.0152000000 4.9309000000
3.0055000000 5.2448000000 4.4388000000
3.0053000000 4.0943000000 4.9858000000
3.0051000000 4.3694000000 4.9956000000
3.0049000000 1.3987000000 1.8742000000
3.0043000000 0.6753000000 0.9144000000
3.0040000000 5.8022000000 3.6481000000
3.0036000000 0.0183000000 0.0378000000
3.0034000000 5.2136000000 4.4836000000
3.0031000000 7.4843000000 1.3990000000
3.0030000000 5.5966000000 3.9221000000
3.0027000000 2.5923000000 3.4648000000
3.0022000000 1.3960000000 1.8651000000
3.0019000000 7.5254000000 1.3482000000
3.0018000000 5.1739000000 4.5157000000
3.0014000000 2.2343000000 2.9932000000
3.0010000000 3.4142000000 4.5185000000
3.0007000000 1.7172000000 2.2976000000
3.0001000000 3.7372000000 4.7590000000
2.9990000000 3.9335000000 4.8928000000
2.9969000000 1.3346000000 1.7906000000
2.9965000000 1.1304000000 1.5155000000
2.7618000000 4.0164000000 5.2211000000
2.7616000000 8.4915000000 0.1368000000
2.7606000000 6.9189000000 2.1564000000
2.7593000000 3.1308000000 4.1868000000
2.7588000000 5.4948000000 4.0576000000
2.7583000000 7.5329000000 1.3404000000
2.7580000000 1.9240000000 2.5769000000
2.7578000000 2.1795000000 2.9184000000
2.7573000000 7.3644000000 1.5601000000
2.7569000000 5.7437000000 3.7217000000
2.7565000000 1.7003000000 2.2699000000
2.7563000000 3.9518000000 5.1877000000
2.7560000000 7.2005000000 1.7763000000
2.7557000000 0.7858000000 1.0523000000
2.7553000000 3.1228000000 4.1684000000
2.7551000000 4.8230000000 5.0041000000
2.7550000000 8.5880000000 0.0812000000
2.7547000000 5.8072000000 3.6451000000
2.7544000000 4.4978000000 5.2032000000
2.7542000000 4.9219000000 4.8154000000
2.7540000000 7.3298000000 1.6124000000
2.7539000000 2.5923000000 3.4676000000
2.7537000000 2.2032000000 2.9490000000
2.7533000000 0.7490000000 1.0106000000
2.7531000000 2.9138000000 3.8966000000
2.7528000000 0.5469000000 0.7362000000
2.7526000000 6.1586000000 3.1754000000
2.7524000000 2.8148000000 3.7638000000
2.7521000000 5.3010000000 4.3133000000
2.7517000000 4.5257000000 5.2580000000
2.7513000000 1.4395000000 1.9280000000
2.7510000000 2.0807000000 2.7781000000
2.7507000000 3.2399000000 4.3273000000
2.7499000000 5.0546000000 4.6415000000
2.7497000000 2.3695000000 3.1685000000
2.7495000000 5.9130000000 3.5021000000
2.7489000000 6.3590000000 2.9051000000
2.7484000000 6.0007000000 3.3792000000
2.7448000000 0.1919000000 0.1997000000
2.5123000000 5.6776000000 3.8149000000
2.5115000000 7.7406000000 1.0598000000
2.5106000000 3.1439000000 4.2029000000
2.5101000000 3.5906000000 4.7942000000
2.5095000000 7.1722000000 1.8226000000
2.5083000000 6.5926000000 2.5913000000
2.5079000000 1.4029000000 1.8780000000
2.5077000000 7.8334000000 0.9388000000
2.5076000000 8.5322000000 0.0783000000
2.5073000000 4.7379000000 5.0658000000
2.5070000000 4.3704000000 5.6011000000
2.5067000000 7.9888000000 0.7338000000
2.5065000000 5.9998000000 3.3839000000
2.5062000000 2.7202000000 3.6358000000
2.5060000000 6.3830000000 2.8741000000
2.5056000000 6.2443000000 3.0539000000
2.5054000000 6.4391000000 2.8001000000
2.5050000000 6.7086000000 2.4371000000
2.5047000000 1.0553000000 1.4178000000
2.5045000000 0.8430000000 1.1340000000
2.5043000000 0.6914000000 0.9325000000
2.5041000000 8.5029000000 0.1266000000
2.5040000000 8.6104000000 0.0542000000
2.5035000000 7.0031000000 2.0497000000
2.5032000000 3.2607000000 4.3554000000
2.5028000000 0.0007000000 0.0099000000
2.5027000000 2.3647000000 3.1634000000
2.5024000000 5.0139000000 4.6956000000
2.5020000000 7.9951000000 0.7178000000
2.5017000000 5.3276000000 4.2841000000
2.5014000000 1.2460000000 1.6693000000
2.5006000000 2.5550000000 3.4202000000
2.5005000000 3.2173000000 4.3003000000
2.4997000000 8.5353000000 0.0821000000
2.4993000000 0.9679000000 1.2981000000
2.4984000000 1.8809000000 2.5152000000
2.4974000000 0.3228000000 0.3626000000
2.4955000000 1.1206000000 1.5067000000
2.2677000000 8.4578000000 0.1051000000
2.2614000000 7.9433000000 0.7928000000
2.2610000000 6.1539000000 3.1840000000
2.2605000000 8.0126000000 0.7058000000
2.2596000000 2.9199000000 3.9058000000
2.2590000000 6.5747000000 2.6124000000
2.2584000000 5.5684000000 3.9623000000
2.2580000000 1.9561000000 2.6156000000
2.2578000000 1.6353000000 2.1907000000
2.2575000000 6.6967000000 2.4569000000
2.2572000000 0.0504000000 0.0754000000
2.2569000000 3.8525000000 5.1175000000
2.2568000000 0.8250000000 1.1101000000
2.2565000000 7.9193000000 0.8271000000
2.2559000000 5.8680000000 3.5597000000
2.2557000000 1.5963000000 2.1371000000
2.2553000000 1.7412000000 2.3315000000
2.2551000000 3.5674000000 4.7658000000
2.2549000000 7.1227000000 1.8886000000
2.2548000000 8.3114000000 0.3050000000
2.2547000000 1.2231000000 1.6410000000
2.2545000000 3.2956000000 4.4008000000
2.2543000000 3.8133000000 5.0811000000
2.2541000000 3.8103000000 5.0750000000
2.2539000000 1.0055000000 1.3488000000
2.2537000000 0.8537000000 1.1498000000
2.2535000000 7.5153000000 1.3638000000
2.2532000000 0.5212000000 0.7116000000
2.2530000000 1.8719000000 2.5057000000
2.2527000000 3.4434000000 4.5982000000
2.2525000000 6.4869000000 2.7368000000
2.2524000000 0.3958000000 0.5412000000
2.2522000000 0.2983000000 0.4061000000
2.2518000000 5.7699000000 3.6916000000
2.2515000000 0.1079000000 0.1527000000
2.2513000000 7.3284000000 1.6117000000
2.2510000000 2.9801000000 3.9849000000
2.2501000000 4.3131000000 5.4345000000
2.2498000000 4.0327000000 5.3000000000
2.2491000000 2.3769000000 3.1805000000
2.2480000000 2.6262000000 3.5084000000
2.2469000000 2.3906000000 3.1963000000
2.2458000000 5.0986000000 4.5823000000
2.0124000000 7.6028000000 1.2498000000
2.0109000000 3.7703000000 4.8482000000
2.0096000000 8.0348000000 0.6709000000
2.0094000000 8.2650000000 0.3665000000
2.0089000000 7.6894000000 1.1313000000
2.0086000000 0.2045000000 0.2805000000
2.0083000000 1.6312000000 2.1792000000
2.0082000000 4.1114000000 5.0686000000
2.0077000000 7.8679000000 0.8979000000
2.0074000000 0.6776000000 0.9129000000
2.0072000000 8.0511000000 0.6573000000
2.0069000000 1.6084000000 2.1535000000
2.0067000000 0.4279000000 0.5801000000
2.0065000000 7.8714000000 0.8927000000
2.0061000000 5.6797000000 3.8084000000
2.0059000000 4.2653000000 5.1456000000
2.0058000000 4.4534000000 5.0849000000
2.0054000000 5.2923000000 4.3300000000
2.0052000000 4.1391000000 5.0785000000
2.0050000000 4.3715000000 5.1382000000
2.0048000000 6.0666000000 3.2967000000
2.0044000000 1.9659000000 2.6318000000
2.0042000000 3.4211000000 4.5455000000
2.0040000000 8.2969000000 0.3260000000
2.0038000000 5.2833000000 4.3398000000
2.0035000000 6.2328000000 3.0794000000
2.0034000000 3.5029000000 4.6369000000
2.0031000000 4.3894000000 5.0491000000
2.0028000000 1.5551000000 2.0817000000
2.0027000000 1.3797000000 1.8487000000
2.0025000000 6.3666000000 2.8959000000
2.0021000000 2.1497000000 2.8760000000
2.0019000000 3.2584000000 4.3560000000
2.0016000000 0.4865000000 0.5831000000
2.0013000000 8.5049000000 0.1205000000
2.0007000000 5.5958000000 3.9263000000
2.0005000000 2.2027000000 2.9452000000
1.9996000000 3.0344000000 4.0517000000
1.9991000000 2.9067000000 3.8882000000
1.9983000000 3.9435000000 4.9445000000
1.9976000000 0.1054000000 0.1486000000
1.9967000000 1.2040000000 1.6145000000
1.7632000000 7.4243000000 1.4872000000
1.7618000000 8.3384000000 0.2708000000
1.7604000000 4.6552000000 4.5838000000
1.7601000000 6.3958000000 2.8593000000
1.7597000000 6.3288000000 2.9449000000
1.7592000000 0.0342000000 0.0539000000
1.7589000000 5.5955000000 3.9735000000
1.7588000000 7.0701000000 1.9586000000
1.7577000000 7.3276000000 1.6140000000
1.7573000000 5.7666000000 3.6901000000
1.7570000000 8.4921000000 0.1379000000
1.7567000000 3.9671000000 4.6827000000
1.7565000000 6.5549000000 2.6486000000
1.7564000000 6.0760000000 3.2796000000
1.7559000000 4.4170000000 4.7384000000
1.7553000000 3.6949000000 4.5002000000
1.7549000000 1.9108000000 2.5572000000
1.7547000000 6.5135000000 2.6959000000
1.7546000000 4.8615000000 4.4467000000
1.7542000000 4.4357000000 4.8013000000
1.7540000000 1.2524000000 1.6740000000
1.7539000000 6.9397000000 2.1327000000
1.7538000000 3.3237000000 4.2511000000
1.7535000000 6.6624000000 2.5035000000
1.7534000000 6.9859000000 2.0682000000
1.7533000000 1.5872000000 2.1312000000
1.7528000000 3.3839000000 4.2938000000
1.7527000000 7.1397000000 1.8657000000
1.7523000000 0.0312000000 0.0526000000
1.7518000000 6.1480000000 3.1852000000
1.7516000000 4.0544000000 4.7401000000
1.7512000000 1.0211000000 1.3709000000
1.7510000000 6.4432000000 2.7922000000
1.7507000000 2.7060000000 3.6148000000
1.7501000000 4.0472000000 4.7313000000
1.7494000000 2.6736000000 3.5758000000
1.7493000000 6.0931000000 3.2620000000
1.7553000000 3.5379000000 4.3960000000
1.7441000000 0.5655000000 0.7638000000
1.5130000000 5.1801000000 3.9536000000
1.5109000000 8.5895000000 0.0725000000
1.5100000000 8.0125000000 0.7027000000
1.5095000000 8.5669000000 0.0397000000
1.5091000000 2.9214000000 3.6970000000
1.5086000000 0.8123000000 1.0880000000
1.5082000000 3.5365000000 4.1090000000
1.5080000000 8.5875000000 0.0784000000
1.5075000000 4.9083000000 4.1255000000
1.5073000000 8.5550000000 0.0469000000
1.5066000000 5.2192000000 3.9198000000
1.5065000000 2.4120000000 3.2266000000
1.5063000000 5.2574000000 3.8916000000
1.5061000000 5.4814000000 3.7388000000
1.5055000000 3.5011000000 4.0766000000
1.5052000000 5.0632000000 4.0219000000
1.5045000000 5.5837000000 3.6742000000
1.5043000000 8.0891000000 0.5990000000
1.5041000000 3.4129000000 4.0215000000
1.5038000000 0.0285000000 0.0471000000
1.5038000000 7.2827000000 1.6746000000
1.5036000000 5.9332000000 3.4948000000
1.5034000000 3.5316000000 4.1013000000
1.5033000000 4.5046000000 4.3930000000
1.5031000000 7.5422000000 1.3254000000
1.5028000000 1.8187000000 2.4288000000
1.5026000000 0.8737000000 1.1827000000
1.5023000000 2.8314000000 3.6313000000
1.5021000000 2.9872000000 3.7365000000
1.5019000000 0.8110000000 1.0943000000
1.5016000000 1.7271000000 2.3161000000
1.5015000000 0.7574000000 1.0212000000
1.5012000000 4.1688000000 4.5199000000
1.5008000000 4.1126000000 4.4808000000
1.5002000000 0.2719000000 0.2950000000
1.4996000000 1.4283000000 1.9125000000
1.4992000000 3.3904000000 4.0022000000
1.4974000000 3.3166000000 3.9466000000
1.4962000000 0.5781000000 0.7820000000
1.4924000000 0.2126000000 0.2909000000
1.2635000000 8.3976000000 0.1856000000
1.2608000000 3.4504000000 3.7677000000
1.2606000000 5.4223000000 3.4954000000
1.2595000000 4.7367000000 3.9535000000
1.2592000000 6.7367000000 2.4038000000
1.2590000000 7.9715000000 0.7551000000
1.2580000000 5.8898000000 3.1901000000
1.2577000000 3.9844000000 4.1179000000
1.2572000000 0.8397000000 1.1331000000
1.2569000000 8.2160000000 0.4273000000
1.2567000000 5.4984000000 3.4442000000
1.2562000000 1.2668000000 1.6965000000
1.2560000000 3.1674000000 3.5717000000
1.2558000000 3.0623000000 3.5036000000
1.2555000000 5.5813000000 3.3874000000
1.2553000000 7.7578000000 1.0385000000
1.2551000000 7.6362000000 1.1975000000
1.2550000000 4.1467000000 4.2248000000
1.2547000000 8.3058000000 0.3083000000
1.2545000000 6.9467000000 2.1206000000
1.2542000000 4.6332000000 4.0148000000
1.2540000000 7.6405000000 1.1983000000
1.2537000000 2.4624000000 3.0934000000
1.2535000000 3.6763000000 3.9089000000
1.2532000000 6.0140000000 3.0993000000
1.2530000000 6.0966000000 3.0379000000
1.2528000000 2.0162000000 2.6986000000
1.2524000000 3.6508000000 3.8855000000
1.2520000000 1.3904000000 1.8655000000
1.2518000000 0.4539000000 0.6102000000
1.2518000000 1.2295000000 1.6483000000
1.2513000000 3.3374000000 3.6758000000
1.2510000000 8.4603000000 0.1755000000
1.2507000000 0.5409000000 0.7344000000
1.2505000000 0.0029000000 0.0151000000
1.2500000000 4.5687000000 4.0560000000
1.2495000000 0.6716000000 0.9060000000
1.2485000000 4.9074000000 3.8271000000
1.2479000000 0.4477000000 0.6049000000
1.2463000000 1.6844000000 2.2583000000
1.2451000000 0.1201000000 0.1681000000
1.0122000000 5.0898000000 3.4342000000
1.0102000000 6.5477000000 2.4621000000
1.0096000000 8.2616000000 0.3704000000
1.0089000000 3.3235000000 3.3887000000
1.0084000000 5.6353000000 3.0634000000
1.0077000000 7.5718000000 1.2878000000
1.0070000000 5.8967000000 2.8936000000
1.0068000000 8.3970000000 0.1898000000
1.0063000000 5.3050000000 3.2817000000
1.0060000000 0.0224000000 0.0413000000
1.0058000000 6.4031000000 2.5493000000
1.0054000000 7.5095000000 1.3716000000
1.0053000000 0.2643000000 0.3621000000
1.0050000000 6.1864000000 2.6895000000
1.0049000000 1.0786000000 1.4499000000
1.0047000000 4.1665000000 3.9416000000
1.0046000000 2.2451000000 2.6656000000
1.0045000000 6.6765000000 2.3694000000
1.0043000000 7.4199000000 1.4886000000
1.0040000000 0.9883000000 1.3285000000
1.0038000000 0.4338000000 0.5891000000
1.0037000000 8.4653000000 0.1683000000
1.0035000000 3.2681000000 3.3475000000
1.0032000000 0.1004000000 0.1430000000
1.0030000000 6.0801000000 2.7615000000
1.0028000000 3.6095000000 3.5752000000
1.0024000000 1.9938000000 2.4955000000
1.0022000000 1.8218000000 2.3630000000
1.0019000000 4.4591000000 3.9104000000
1.0014000000 0.6849000000 0.8527000000
1.0013000000 0.7016000000 0.9482000000
1.0010000000 2.8821000000 3.0863000000
1.0008000000 1.1275000000 1.5112000000
1.0003000000 5.0829000000 3.4253000000
0.9998000000 3.7020000000 3.6304000000
0.9988000000 7.7879000000 1.0042000000
0.9982000000 3.5947000000 3.5603000000
0.9973000000 1.9606000000 2.4679000000
0.9962000000 1.9437000000 2.4539000000
0.7630000000 7.4302000000 1.4722000000
0.7619000000 5.9848000000 2.5490000000
0.7613000000 6.6478000000 2.1082000000
0.7601000000 5.6347000000 2.7832000000
0.7597000000 8.5000000000 0.1221000000
0.7592000000 6.4571000000 2.2320000000
0.7586000000 7.7722000000 1.0194000000
0.7580000000 2.1817000000 2.3398000000
0.7575000000 6.4532000000 2.2341000000
0.7572000000 5.9421000000 2.5694000000
0.7569000000 2.6778000000 2.6737000000
0.7568000000 8.1179000000 0.5540000000
0.7564000000 5.3141000000 2.9895000000
0.7563000000 4.3128000000 3.7140000000
0.7559000000 0.4936000000 0.6696000000
0.7558000000 7.6081000000 1.2383000000
0.7555000000 8.0903000000 0.5944000000
0.7551000000 6.9048000000 1.9331000000
0.7550000000 0.6638000000 0.8161000000
0.7548000000 5.1971000000 3.0621000000
0.7547000000 7.5179000000 1.3591000000
0.7545000000 5.7342000000 2.7109000000
0.7543000000 5.8580000000 2.6272000000
0.7540000000 3.6870000000 3.3396000000
0.7538000000 2.1013000000 2.2815000000
0.7535000000 1.2636000000 1.6732000000
0.7534000000 0.3732000000 0.5050000000
0.7532000000 3.9859000000 3.5361000000
0.7530000000 1.4516000000 1.8412000000
0.7528000000 1.7729000000 2.0623000000
0.7525000000 3.4561000000 3.1806000000
0.7523000000 7.4950000000 1.3909000000
0.7521000000 0.1336000000 0.1891000000
0.7518000000 8.0657000000 0.6314000000
0.7514000000 4.2885000000 3.7161000000
0.7513000000 0.4827000000 0.6519000000
0.7511000000 4.3221000000 3.6993000000
0.7509000000 4.7198000000 3.3767000000
0.7505000000 7.4299000000 1.4780000000
0.7500000000 4.1113000000 3.6122000000
0.7495000000 0.7359000000 0.9905000000
0.7489000000 6.3002000000 2.3263000000
0.7486000000 0.9647000000 1.2934000000
0.7477000000 6.2438000000 2.3583000000
0.7457000000 1.1739000000 1.4994000000
0.7443000000 1.7600000000 2.0475000000
0.5129000000 2.3409000000 2.1638000000
0.5107000000 7.1076000000 1.5068000000
0.5100000000 8.5521000000 0.0583000000
0.5093000000 5.1160000000 2.8343000000
0.5089000000 6.1935000000 2.1172000000
0.5081000000 7.6544000000 1.1979000000
0.5079000000 6.5234000000 1.8951000000
0.5075000000 7.6413000000 1.2063000000
0.5070000000 1.3616000000 1.5002000000
0.5069000000 8.0984000000 0.5854000000
0.5066000000 0.8265000000 1.0911000000
0.5063000000 6.8143000000 1.7013000000
0.5060000000 7.1340000000 1.4871000000
0.5058000000 4.8209000000 3.0262000000
0.5055000000 3.8625000000 3.1638000000
0.5054000000 6.9543000000 1.6061000000
0.5052000000 0.4581000000 0.6197000000
0.5050000000 7.7694000000 1.0800000000
0.5048000000 5.2322000000 2.7514000000
0.5047000000 2.2104000000 2.0673000000
0.5045000000 6.8328000000 1.6881000000
0.5043000000 2.2764000000 2.1064000000
0.5040000000 5.5830000000 2.5171000000
0.5037000000 6.6482000000 1.8097000000
0.5033000000 4.4782000000 3.2582000000
0.5030000000 7.8843000000 0.8669000000
0.5029000000 4.8399000000 3.0137000000
0.5026000000 2.2763000000 2.1057000000
0.5025000000 2.7776000000 2.4441000000
0.5020000000 4.2862000000 3.4227000000
0.5019000000 3.3651000000 2.8384000000
0.5017000000 0.5548000000 0.7503000000
0.5013000000 4.1987000000 3.3843000000
0.5009000000 1.5372000000 1.6148000000
0.5005000000 4.2810000000 3.4219000000
0.5003000000 3.0099000000 2.5936000000
0.5000000000 3.2097000000 2.7259000000
0.4996000000 6.0886000000 2.1768000000
0.4985000000 4.9034000000 2.9634000000
0.4981000000 6.7789000000 1.7189000000
0.4971000000 0.2395000000 0.3324000000
0.4968000000 0.4355000000 0.5890000000
0.4954000000 0.0126000000 0.0255000000
0.2640000000 8.5012000000 0.1268000000
0.2618000000 8.3453000000 0.2601000000
0.2611000000 6.2185000000 1.8138000000
0.2608000000 7.1986000000 1.1576000000
0.2606000000 6.0079000000 1.9569000000
0.2598000000 3.4134000000 2.5896000000
0.2594000000 5.7898000000 2.1015000000
0.2589000000 5.2410000000 2.4705000000
0.2583000000 0.2784000000 0.3743000000
0.2581000000 5.5608000000 2.2453000000
0.2578000000 6.2023000000 1.8178000000
0.2576000000 4.6574000000 2.8540000000
0.2573000000 3.1232000000 2.3956000000
0.2569000000 1.8289000000 1.5239000000
0.2565000000 2.9511000000 2.2717000000
0.2561000000 8.5073000000 0.1136000000
0.2559000000 7.3405000000 1.0607000000
0.2558000000 4.0359000000 2.9939000000
0.2555000000 7.3043000000 1.0860000000
0.2551000000 6.0619000000 1.9126000000
0.2549000000 0.4614000000 0.5849000000
0.2546000000 7.5394000000 0.9231000000
0.2543000000 4.3442000000 3.1262000000
0.2539000000 2.6637000000 2.0784000000
0.2534000000 0.8517000000 0.8746000000
0.2532000000 2.5462000000 2.0010000000
0.2529000000 4.4333000000 2.9991000000
0.2528000000 0.7232000000 0.7861000000
0.2527000000 8.3175000000 0.2946000000
0.2525000000 3.1760000000 2.4173000000
0.2523000000 0.1196000000 0.1660000000
0.2522000000 2.3846000000 1.8884000000
0.2520000000 3.4285000000 2.5895000000
0.2518000000 3.8706000000 2.8834000000
0.2515000000 5.0260000000 2.5985000000
0.2511000000 5.1760000000 2.4974000000
0.2509000000 0.4327000000 0.5663000000
0.2508000000 6.0136000000 1.9425000000
0.2502000000 7.5954000000 0.8809000000
0.2498000000 0.7904000000 0.8225000000
0.2492000000 0.5176000000 0.6282000000
0.2478000000 3.6679000000 2.7408000000
0.2463000000 3.6354000000 2.7147000000
0.0185000000 7.7170000000 0.5416000000
0.0116000000 8.1880000000 0.2110000000
0.0109000000 4.5106000000 2.6623000000
0.0105000000 8.5572000000 0.0926000000
0.0098000000 1.5656000000 1.0668000000
0.0090000000 7.6190000000 0.5881000000
0.0088000000 3.0955000000 2.0855000000
0.0085000000 7.5131000000 0.6643000000
0.0080000000 3.5275000000 2.3717000000
0.0072000000 1.8095000000 1.2220000000
0.0068000000 6.3224000000 1.4530000000
0.0065000000 1.8587000000 1.2531000000
0.0064000000 8.1655000000 0.2234000000
0.0062000000 6.3812000000 1.4116000000
0.0060000000 4.6467000000 2.5737000000
0.0057000000 2.7787000000 1.8639000000
0.0055000000 5.4433000000 2.0438000000
0.0054000000 6.7726000000 1.1549000000
0.0052000000 5.4329000000 2.0442000000
0.0049000000 7.5452000000 0.6360000000
0.0046000000 2.0809000000 1.3994000000
0.0043000000 2.7231000000 1.8280000000
0.0042000000 6.2283000000 1.5105000000
0.0038000000 1.4724000000 0.9973000000
0.0033000000 7.4352000000 0.7084000000
0.0031000000 3.2345000000 2.1692000000
0.0030000000 0.1273000000 0.1001000000
0.0028000000 4.3313000000 2.8294000000
0.0025000000 3.0158000000 2.0172000000
0.0023000000 6.1760000000 1.5417000000
0.0021000000 2.5568000000 1.7134000000
0.0017000000 3.2391000000 2.1715000000
0.0013000000 4.3212000000 2.8331000000
0.0008000000 1.0251000000 0.6895000000
0.0007000000 1.1313000000 0.7673000000
0.0004000000 1.6652000000 1.1199000000
0.0000000000 2.4939000000 1.6726000000
-0.0002000000 7.2523000000 0.8262000000
-0.0005000000 1.1618000000 0.7764000000
-0.0009000000 1.2306000000 0.8289000000
-0.0010000000 1.9266000000 1.2857000000
-0.0017000000 0.6236000000 0.4223000000
-0.0019000000 7.0580000000 0.9514000000
-0.0026000000 1.5812000000 0.9901000000
-0.0051000000 0.4537000000 0.3065000000
-0.2378000000 8.1765000000 0.0834000000
-0.2401000000 7.7534000000 0.2132000000
-0.2406000000 5.7437000000 1.5550000000
-0.2410000000 4.7332000000 2.2244000000
-0.2416000000 7.0306000000 0.6976000000
-0.2418000000 6.0317000000 1.3534000000
-0.2424000000 8.1418000000 0.0243000000
-0.2429000000 2.0572000000 1.0999000000
-0.2433000000 8.0240000000 0.1022000000
-0.2437000000 5.9265000000 1.4259000000
-0.2441000000 1.0218000000 0.4091000000
-0.2445000000 7.2250000000 0.5574000000
-0.2446000000 6.6079000000 0.9698000000
-0.2449000000 6.8722000000 0.7974000000
-0.2451000000 3.5026000000 2.0623000000
-0.2453000000 5.9454000000 1.4082000000
-0.2456000000 7.3481000000 0.4800000000
-0.2460000000 6.4396000000 1.0848000000
-0.2461000000 2.2304000000 1.2149000000
-0.2463000000 0.3464000000 0.0303000000
-0.2466000000 2.6133000000 1.4661000000
-0.2468000000 7.3666000000 0.4640000000
-0.2470000000 6.8030000000 0.8408000000
-0.2473000000 0.9602000000 0.3636000000
-0.2476000000 4.0952000000 2.4607000000
-0.2478000000 0.4420000000 0.0199000000
-0.2483000000 2.6807000000 1.5182000000
-0.2485000000 5.1457000000 1.9355000000
-0.2487000000 3.9928000000 2.3844000000
-0.2490000000 0.7639000000 0.2285000000
-0.2494000000 7.3539000000 0.4709000000
-0.2498000000 5.6171000000 1.6222000000
-0.2502000000 0.8466000000 0.2847000000
-0.2505000000 2.1750000000 1.1757000000
-0.2507000000 6.4900000000 1.0464000000
-0.2516000000 6.0141000000 1.3557000000
-0.2520000000 0.6677000000 0.1638000000
-0.2521000000 0.3607000000 0.0349000000
-0.2530000000 0.3963000000 0.0549000000
-0.2552000000 1.6667000000 0.8287000000
-0.4887000000 6.2765000000 0.9103000000
-0.4895000000 4.1571000000 2.2093000000
-0.4902000000 6.5237000000 0.7442000000
-0.4910000000 2.3228000000 0.9953000000
-0.4917000000 7.4813000000 0.1093000000
-0.4918000000 4.9939000000 1.7629000000
-0.4924000000 6.9787000000 0.4343000000
-0.4927000000 4.9442000000 1.7932000000
-0.4929000000 2.2173000000 0.9192000000
-0.4930000000 7.4393000000 0.1271000000
-0.4935000000 4.2076000000 2.2470000000
-0.4938000000 1.3443000000 0.3382000000
-0.4942000000 4.7842000000 1.8997000000
-0.4947000000 0.9880000000 0.0968000000
-0.4949000000 5.0683000000 1.7072000000
-0.4952000000 1.1619000000 0.2101000000
-0.4954000000 5.6160000000 1.3420000000
-0.4957000000 1.3643000000 0.3447000000
-0.4960000000 3.3565000000 1.6753000000
-0.4960000000 6.0098000000 1.0831000000
-0.4964000000 1.7072000000 0.5746000000
-0.4965000000 5.7119000000 1.2753000000
-0.4966000000 3.2862000000 1.6322000000
-0.4970000000 6.3546000000 0.8511000000
-0.4975000000 3.8068000000 1.9712000000
-0.4977000000 7.7289000000 0.0774000000
-0.4979000000 2.3983000000 1.0340000000
-0.4981000000 2.0351000000 0.7914000000
-0.4983000000 1.3404000000 0.3302000000
-0.4986000000 1.7521000000 0.6029000000
-0.4990000000 2.9048000000 1.3712000000
-0.4994000000 1.4470000000 0.4008000000
-0.4997000000 4.8884000000 1.8242000000
-0.4975000000 4.0055000000 2.1027000000
-0.5010000000 2.4905000000 1.0922000000
-0.5013000000 2.6968000000 1.2291000000
-0.5019000000 4.6059000000 2.0125000000
-0.5022000000 2.2828000000 0.9492000000
-0.5040000000 3.0550000000 1.4601000000
-0.7379000000 5.6941000000 1.0124000000
-0.7399000000 5.5065000000 1.1339000000
-0.7407000000 7.0256000000 0.1165000000
-0.7418000000 1.8688000000 0.3951000000
-0.7426000000 2.5373000000 0.8418000000
-0.7429000000 7.1806000000 0.0902000000
-0.7433000000 1.9887000000 0.4702000000
-0.7437000000 6.3916000000 0.5425000000
-0.7439000000 2.8009000000 1.0193000000
-0.7443000000 1.7499000000 0.2411000000
-0.7447000000 6.7946000000 0.2711000000
-0.7448000000 3.5412000000 1.5045000000
-0.7451000000 1.3770000000 0.0649000000
-0.7456000000 1.5544000000 0.1093000000
-0.7459000000 6.3161000000 0.5882000000
-0.7461000000 4.6179000000 1.7198000000
-0.7462000000 2.9653000000 1.1300000000
-0.7464000000 2.8728000000 1.0674000000
-0.7466000000 5.7961000000 0.9246000000
-0.7471000000 1.2530000000 0.0553000000
-0.7472000000 5.3202000000 1.2437000000
-0.7476000000 7.3099000000 0.0669000000
-0.7480000000 1.5237000000 0.1591000000
-0.7483000000 2.0855000000 0.5375000000
-0.7487000000 6.2130000000 0.6534000000
-0.7493000000 3.9068000000 1.7493000000
-0.7495000000 1.9623000000 0.4508000000
-0.7502000000 1.7886000000 0.3389000000
-0.7506000000 2.2743000000 0.6612000000
-0.7516000000 7.3906000000 0.0149000000
-0.7531000000 1.8567000000 0.3740000000
-0.7542000000 7.3427000000 0.0434000000
-0.9897000000 5.0947000000 1.1132000000
-0.9902000000 2.3043000000 0.4012000000
-0.9917000000 4.5229000000 1.4987000000
-0.9928000000 6.6749000000 0.1317000000
-0.9931000000 5.4178000000 0.9029000000
-0.9934000000 4.1775000000 1.6481000000
-0.9937000000 6.7846000000 0.0610000000
-0.9942000000 1.6009000000 0.0031000000
-0.9944000000 6.4511000000 0.2088000000
-0.9948000000 5.6279000000 0.7648000000
-0.9953000000 3.4115000000 1.1422000000
-0.9960000000 2.8452000000 0.7557000000
-0.9964000000 2.9351000000 0.8197000000
-0.9965000000 1.8271000000 0.0791000000
-0.9969000000 6.6166000000 0.1742000000
-0.9970000000 3.1399000000 0.9493000000
-0.9975000000 4.1685000000 1.6381000000
-0.9979000000 2.6603000000 0.6234000000
-0.9984000000 4.6355000000 1.4148000000
-0.9986000000 5.5051000000 0.8332000000
-0.9990000000 3.2839000000 1.0428000000
-0.9993000000 1.9627000000 0.1552000000
-0.9999000000 3.7590000000 1.3634000000
-1.0002000000 4.5160000000 1.4951000000
-1.0011000000 3.9036000000 1.4602000000
-1.0021000000 2.7526000000 0.6907000000
-1.0030000000 1.7356000000 0.0842000000
-1.2347000000 5.9689000000 0.2579000000
-1.2390000000 4.8028000000 1.0273000000
-1.2407000000 4.3714000000 1.3130000000
-1.2412000000 3.9718000000 1.2259000000
-1.2429000000 5.2030000000 0.7593000000
-1.2436000000 4.2278000000 1.3103000000
-1.2441000000 5.6074000000 0.4895000000
-1.2446000000 3.5090000000 0.9111000000
-1.2449000000 4.4718000000 1.2425000000
-1.2451000000 4.2921000000 1.4070000000
-1.2458000000 5.8879000000 0.2957000000
-1.2462000000 5.0685000000 0.8453000000
-1.2466000000 6.1519000000 0.1170000000
-1.2472000000 4.1974000000 1.3671000000
-1.2478000000 4.8108000000 1.0107000000
-1.2485000000 2.1940000000 0.0323000000
-1.2492000000 3.9516000000 1.2020000000
-1.2500000000 2.3443000000 0.1309000000
-1.2503000000 3.9830000000 1.2171000000
-1.2506000000 6.6352000000 0.0104000000
-1.2521000000 5.3849000000 0.6182000000
-1.2539000000 5.8362000000 0.3165000000
-1.2547000000 4.0482000000 1.2611000000
-1.4912000000 5.8484000000 0.1128000000
-1.4920000000 5.3315000000 0.3855000000
-1.4930000000 5.7316000000 0.1157000000
-1.4945000000 5.0145000000 0.5891000000
-1.4949000000 3.3975000000 0.5460000000
-1.4956000000 2.6296000000 0.0330000000
-1.4961000000 4.3211000000 1.1048000000
-1.4968000000 5.8474000000 0.1113000000
-1.4972000000 4.3441000000 1.0938000000
-1.4976000000 5.8528000000 0.1081000000
-1.4981000000 4.4054000000 0.9934000000
-1.5002000000 2.5764000000 0.0671000000
-1.5016000000 3.4407000000 0.5665000000
-1.5030000000 5.9115000000 0.0563000000
-1.7420000000 5.1169000000 0.2355000000
-1.7435000000 3.6251000000 0.4114000000
-1.7440000000 4.1645000000 0.7782000000
-1.7446000000 3.1032000000 0.0612000000
-1.7454000000 5.5591000000 0.0881000000
-1.7460000000 5.5938000000 0.0650000000
-1.7465000000 4.2723000000 0.8114000000
-1.7470000000 3.5874000000 0.3818000000
-1.7476000000 3.6417000000 0.4232000000
-1.7480000000 4.7343000000 0.4871000000
-1.7489000000 3.2717000000 0.1682000000
-1.7495000000 4.8955000000 0.3726000000
-1.7507000000 3.8300000000 0.5383000000
-1.7517000000 3.3772000000 0.2372000000
-1.7531000000 5.4440000000 0.0778000000
-1.9899000000 3.5192000000 0.0519000000
-1.9935000000 3.7199000000 0.1881000000
-1.9945000000 4.8534000000 0.1203000000
-1.9952000000 5.3355000000 0.0198000000
-1.9956000000 5.3347000000 0.0200000000
-1.9964000000 3.8203000000 0.2544000000
-1.9969000000 4.5418000000 0.3303000000
-1.9975000000 3.6839000000 0.1593000000
-1.9983000000 3.2988000000 0.0430000000
