3.7574000000 3.2656000000 0.3991000000
3.7570000000 3.3094000000 0.3774000000
3.7570000000 1.5050000000 0.1306000000
3.7569000000 1.1609000000 0.0488000000
3.7569000000 4.0740000000 0.1096000000
3.7565000000 1.1304000000 0.0283000000
3.7565000000 1.6388000000 0.1834000000
3.7564000000 3.1636000000 0.4514000000
3.7563000000 1.0679000000 0.0721000000
3.7564000000 1.7691000000 0.2502000000
3.7562000000 3.6632000000 0.2193000000
3.7562000000 3.7354000000 0.1885000000
3.7556000000 2.9950000000 0.5198000000
3.7555000000 3.2558000000 0.4069000000
3.7553000000 2.4171000000 0.5356000000
3.7553000000 3.7651000000 0.1739000000
3.7552000000 3.5409000000 0.2734000000
3.7551000000 2.0069000000 0.3529000000
3.7548000000 3.5907000000 0.2578000000
3.7548000000 1.0411000000 0.0687000000
3.7547000000 3.0902000000 0.4797000000
3.7545000000 4.4395000000 0.0254000000
3.7541000000 4.2780000000 0.0270000000
3.7540000000 3.1567000000 0.4469000000
3.7540000000 3.3047000000 0.3853000000
3.7538000000 4.2156000000 0.0503000000
3.7536000000 1.8033000000 0.2638000000
3.7532000000 1.5823000000 0.1600000000
3.7533000000 3.2080000000 0.4245000000
3.7533000000 3.6313000000 0.2309000000
3.7531000000 3.3093000000 0.3822000000
3.7531000000 4.0106000000 0.1381000000
3.7529000000 1.1041000000 0.0216000000
3.7528000000 3.8448000000 0.1367000000
3.7528000000 3.3466000000 0.3674000000
3.7524000000 3.1016000000 0.4787000000
3.7523000000 3.7431000000 0.1922000000
3.7522000000 2.2336000000 0.4546000000
3.7519000000 3.7881000000 0.1669000000
3.7518000000 2.0100000000 0.3564000000
3.7516000000 1.8502000000 0.2885000000
3.7516000000 3.0728000000 0.4927000000
3.7515000000 2.1196000000 0.4111000000
3.7514000000 3.9244000000 0.1102000000
3.7511000000 2.4494000000 0.5557000000
3.7510000000 1.3733000000 0.0735000000
3.7509000000 2.6554000000 0.7124000000
3.7509000000 1.7197000000 0.2279000000
3.7508000000 4.3757000000 0.0512000000
3.7507000000 2.9793000000 0.5359000000
3.7507000000 2.4689000000 0.5726000000
3.7501000000 2.4096000000 0.5418000000
3.7500000000 3.7767000000 0.1721000000
3.7496000000 4.2178000000 0.0532000000
3.7495000000 1.6964000000 0.2209000000
3.7495000000 3.1463000000 0.4554000000
3.7494000000 4.2906000000 0.0179000000
3.7489000000 1.1535000000 0.0474000000
3.7486000000 4.3995000000 0.0433000000
3.7485000000 1.1913000000 0.0662000000
3.7478000000 2.6322000000 0.6379000000
3.7450000000 1.1787000000 0.0584000000
3.7432000000 2.1223000000 0.4156000000
3.5118000000 3.5562000000 0.4644000000
3.5115000000 4.0253000000 0.2446000000
3.5094000000 1.6049000000 0.3625000000
3.5093000000 1.9449000000 0.5233000000
3.5090000000 2.0585000000 0.5638000000
3.5084000000 3.1245000000 0.6552000000
3.5082000000 4.5630000000 0.0850000000
3.5081000000 4.2376000000 0.1557000000
3.5078000000 1.4119000000 0.2878000000
3.5078000000 2.6878000000 0.9143000000
3.5077000000 4.5295000000 0.0982000000
3.5065000000 2.7748000000 0.8118000000
3.5064000000 4.0068000000 0.2556000000
3.5063000000 4.7557000000 0.0700000000
3.5058000000 1.5469000000 0.3370000000
3.5057000000 4.9121000000 0.0060000000
3.5055000000 4.5422000000 0.0954000000
3.5053000000 1.9765000000 0.5353000000
3.5053000000 3.8971000000 0.3105000000
3.5052000000 1.2909000000 0.2285000000
3.5051000000 2.0280000000 0.5551000000
3.5050000000 3.8288000000 0.3390000000
3.5048000000 4.7725000000 0.0637000000
3.5049000000 2.9187000000 0.7459000000
3.5048000000 4.0973000000 0.2217000000
3.5044000000 2.4210000000 0.7338000000
3.5041000000 3.0057000000 0.7130000000
3.5040000000 3.4732000000 0.5052000000
3.5039000000 2.5377000000 0.7858000000
3.5037000000 3.5201000000 0.4864000000
3.5034000000 2.1689000000 0.6278000000
3.5032000000 2.2896000000 0.6722000000
3.5028000000 2.0591000000 0.5743000000
3.5028000000 4.2428000000 0.1576000000
3.5026000000 2.9519000000 0.7370000000
3.5020000000 0.6708000000 0.0270000000
3.5020000000 1.6007000000 0.3693000000
3.5017000000 3.3872000000 0.5472000000
3.5016000000 4.5271000000 0.1076000000
3.5011000000 1.1312000000 0.1580000000
3.5007000000 0.7973000000 0.0814000000
3.5006000000 3.0952000000 0.6774000000
3.5005000000 3.1951000000 0.6286000000
3.5004000000 0.6754000000 0.0250000000
3.5000000000 3.3312000000 0.5726000000
3.4999000000 4.4385000000 0.0772000000
3.4995000000 2.2500000000 0.6645000000
3.4993000000 0.9698000000 0.0854000000
3.4992000000 2.6849000000 0.9213000000
3.4969000000 3.7074000000 0.4028000000
3.4969000000 0.5008000000 0.0246000000
3.4952000000 1.7011000000 0.4272000000
3.4950000000 2.4185000000 0.7466000000
3.2643000000 4.2134000000 0.3576000000
3.2631000000 3.2490000000 0.7948000000
3.2627000000 3.6861000000 0.5864000000
3.2613000000 5.1155000000 0.0292000000
3.2613000000 1.2046000000 0.3866000000
3.2608000000 2.6629000000 1.0964000000
3.2607000000 4.9239000000 0.1141000000
3.2603000000 3.0018000000 0.9023000000
3.2601000000 1.6506000000 0.5806000000
3.2594000000 3.4578000000 0.7039000000
3.2590000000 3.3099000000 0.7704000000
3.2588000000 4.0629000000 0.4268000000
3.2588000000 4.6922000000 0.1422000000
3.2578000000 4.2818000000 0.3356000000
3.2578000000 1.8652000000 0.6742000000
3.2577000000 0.5487000000 0.0828000000
3.2573000000 5.0330000000 0.0660000000
3.2573000000 4.4826000000 0.2395000000
3.2572000000 1.6932000000 0.5992000000
3.2569000000 0.3018000000 0.0500000000
3.2569000000 1.3187000000 0.4380000000
3.2568000000 3.0228000000 0.8978000000
3.2568000000 2.0767000000 0.7728000000
3.2567000000 0.6345000000 0.1189000000
3.2565000000 5.3361000000 0.0085000000
3.2564000000 4.2495000000 0.3520000000
3.2562000000 0.8592000000 0.2299000000
3.2561000000 3.3694000000 0.7434000000
3.2560000000 2.1174000000 0.7870000000
3.2559000000 2.0305000000 0.7544000000
3.2558000000 3.9195000000 0.4965000000
3.2557000000 2.7180000000 1.0929000000
3.2556000000 5.3228000000 0.0128000000
3.2556000000 4.4071000000 0.2777000000
3.2555000000 5.0937000000 0.0400000000
3.2554000000 5.2027000000 0.0743000000
3.2554000000 4.9952000000 0.0861000000
3.2553000000 4.7592000000 0.1192000000
3.2553000000 4.8742000000 0.1411000000
3.2552000000 2.5833000000 1.0079000000
3.2549000000 0.9311000000 0.2578000000
3.2548000000 4.1057000000 0.4144000000
3.2548000000 1.1207000000 0.3451000000
3.2547000000 1.4964000000 0.5153000000
3.2547000000 1.3500000000 0.4509000000
3.2543000000 2.7090000000 1.0986000000
3.2541000000 2.0220000000 0.7468000000
3.2541000000 4.0266000000 0.4507000000
3.2540000000 4.1935000000 0.3734000000
3.2540000000 1.0898000000 0.3334000000
3.2539000000 3.6289000000 0.6295000000
3.2538000000 1.0064000000 0.3013000000
3.2537000000 2.6678000000 1.1058000000
3.2536000000 4.8369000000 0.0866000000
3.2535000000 0.2647000000 0.0403000000
3.2534000000 4.3478000000 0.3056000000
3.2532000000 0.4469000000 0.1172000000
3.2531000000 1.0370000000 0.3007000000
3.2529000000 2.5569000000 0.9922000000
3.2526000000 2.8427000000 0.9845000000
3.2524000000 2.1047000000 0.7937000000
3.2523000000 1.4001000000 0.4694000000
3.2522000000 4.2802000000 0.3365000000
3.2521000000 5.1888000000 0.0784000000
3.2520000000 1.2218000000 0.3931000000
3.2519000000 4.9739000000 0.1057000000
3.2518000000 2.3600000000 0.9085000000
3.2514000000 5.0204000000 0.0788000000
3.2513000000 0.3407000000 0.0692000000
3.2510000000 3.3011000000 0.7724000000
3.2510000000 0.6494000000 0.1348000000
3.2506000000 1.1132000000 0.3430000000
3.2505000000 1.8719000000 0.6830000000
3.2506000000 1.5620000000 0.5435000000
3.2498000000 1.9406000000 0.7138000000
3.2495000000 0.1931000000 0.0048000000
3.2493000000 0.4786000000 0.1342000000
3.2493000000 2.4500000000 0.9483000000
3.2490000000 0.0494000000 0.0222000000
3.2490000000 2.7478000000 1.0290000000
3.2488000000 0.3535000000 0.0789000000
3.2487000000 1.0160000000 0.3041000000
3.2485000000 1.0838000000 0.3330000000
3.2483000000 0.4922000000 0.0673000000
3.2473000000 2.9469000000 0.9422000000
3.2473000000 1.8249000000 0.6640000000
3.0133000000 3.8879000000 0.7032000000
3.0109000000 3.3126000000 0.9594000000
3.0106000000 5.2471000000 0.0588000000
3.0088000000 3.4002000000 0.9270000000
3.0085000000 4.8261000000 0.2842000000
3.0084000000 4.2672000000 0.5292000000
3.0084000000 2.9480000000 1.1250000000
3.0082000000 0.6621000000 0.3300000000
3.0079000000 2.3310000000 1.0842000000
3.0078000000 3.8235000000 0.7301000000
3.0077000000 3.7453000000 0.7664000000
3.0075000000 1.7639000000 0.8301000000
3.0073000000 4.5271000000 0.4219000000
3.0072000000 3.0388000000 1.0818000000
3.0070000000 3.0040000000 1.1082000000
3.0069000000 2.2244000000 1.0346000000
3.0067000000 3.4715000000 0.8924000000
3.0066000000 3.6975000000 0.7879000000
3.0065000000 5.2329000000 0.0738000000
3.0062000000 2.6472000000 1.2957000000
3.0061000000 5.3385000000 0.0723000000
3.0060000000 0.3623000000 0.2030000000
3.0058000000 4.2473000000 0.5424000000
3.0057000000 3.1820000000 1.0303000000
3.0055000000 0.1293000000 0.1396000000
3.0053000000 1.5168000000 0.7221000000
3.0052000000 5.3505000000 0.0541000000
3.0051000000 4.5459000000 0.4047000000
3.0050000000 3.3613000000 0.9432000000
3.0049000000 2.5747000000 1.1952000000
3.0047000000 2.1150000000 0.9839000000
3.0046000000 3.3337000000 0.9565000000
3.0045000000 4.1715000000 0.5817000000
3.0043000000 0.9700000000 0.4675000000
3.0041000000 4.6999000000 0.3438000000
3.0040000000 3.8214000000 0.7294000000
3.0038000000 2.9091000000 1.1441000000
3.0038000000 2.7012000000 1.2994000000
3.0037000000 4.2029000000 0.5633000000
3.0035000000 3.1508000000 1.0405000000
3.0032000000 0.4653000000 0.2476000000
3.0031000000 1.8142000000 0.8549000000
3.0030000000 5.0864000000 0.1628000000
3.0027000000 0.5417000000 0.2864000000
3.0026000000 0.5292000000 0.2724000000
3.0025000000 3.3626000000 0.9445000000
3.0023000000 2.1299000000 0.9954000000
3.0023000000 0.2711000000 0.1494000000
3.0022000000 1.1831000000 0.5674000000
3.0020000000 3.1298000000 1.0505000000
3.0019000000 1.6190000000 0.7748000000
3.0018000000 0.4584000000 0.2445000000
3.0018000000 0.7122000000 0.3642000000
3.0017000000 1.3335000000 0.6340000000
3.0016000000 0.4554000000 0.2462000000
3.0013000000 1.9157000000 0.8983000000
3.0012000000 1.4522000000 0.6945000000
3.0011000000 4.1625000000 0.5842000000
3.0010000000 3.9583000000 0.6731000000
3.0010000000 4.2269000000 0.5550000000
3.0009000000 1.5044000000 0.7193000000
3.0007000000 0.7367000000 0.3624000000
3.0008000000 0.3167000000 0.1800000000
3.0005000000 2.7788000000 1.2067000000
3.0005000000 1.5189000000 0.7260000000
3.0004000000 4.9731000000 0.2224000000
3.0002000000 0.1924000000 0.1936000000
3.0000000000 1.3522000000 0.6476000000
2.9997000000 0.2399000000 0.2105000000
2.9995000000 1.2339000000 0.5932000000
2.9993000000 1.0960000000 0.5331000000
2.9991000000 0.3388000000 0.1933000000
2.9990000000 1.2735000000 0.6162000000
2.9989000000 2.9614000000 1.1291000000
2.9984000000 1.0713000000 0.5229000000
2.9975000000 0.0362000000 0.0617000000
2.9970000000 2.6173000000 1.2222000000
2.9948000000 3.6927000000 0.7992000000
2.9935000000 0.3577000000 0.2047000000
2.9917000000 1.2052000000 0.5905000000
2.7642000000 3.4657000000 1.0804000000
2.7615000000 3.5289000000 1.0519000000
2.7615000000 2.8150000000 1.3819000000
2.7604000000 3.1098000000 1.2458000000
2.7598000000 4.6892000000 0.5962000000
2.7596000000 2.5656000000 1.3847000000
2.7596000000 3.4432000000 1.0997000000
2.7583000000 5.2911000000 0.1110000000
2.7583000000 4.9045000000 0.3830000000
2.7581000000 1.5963000000 0.9465000000
2.7578000000 2.6285000000 1.4118000000
2.7577000000 5.1629000000 0.1502000000
2.7575000000 3.7763000000 0.9469000000
2.7574000000 0.8693000000 0.6246000000
2.7573000000 0.7031000000 0.5377000000
2.7570000000 4.1553000000 0.7817000000
2.7568000000 3.3471000000 1.1445000000
2.7561000000 4.1282000000 0.7891000000
2.7559000000 1.3873000000 0.8547000000
2.7559000000 3.7248000000 0.9759000000
2.7558000000 0.8892000000 0.6289000000
2.7558000000 3.6239000000 1.0196000000
2.7555000000 4.9628000000 0.3324000000
2.7555000000 2.9169000000 1.3362000000
2.7553000000 0.1711000000 0.1130000000
2.7551000000 1.2906000000 0.8132000000
2.7550000000 3.7387000000 0.9679000000
2.7548000000 1.0459000000 0.6987000000
2.7547000000 4.7591000000 0.4958000000
2.7547000000 3.4727000000 1.0883000000
2.7545000000 2.0308000000 1.1419000000
2.7543000000 5.0492000000 0.2529000000
2.7542000000 1.6783000000 0.9790000000
2.7541000000 3.1491000000 1.2349000000
2.7540000000 3.9737000000 0.8673000000
2.7539000000 0.1375000000 0.0817000000
2.7538000000 4.4533000000 0.6447000000
2.7537000000 4.6309000000 0.5662000000
2.7536000000 3.8985000000 0.8999000000
2.7535000000 3.1233000000 1.2448000000
2.7534000000 5.1539000000 0.1629000000
2.7530000000 2.5455000000 1.3815000000
2.7530000000 5.2784000000 0.1190000000
2.7529000000 0.7111000000 0.5426000000
2.7528000000 0.6124000000 0.5653000000
2.7528000000 0.2392000000 0.1728000000
2.7527000000 0.0846000000 0.1108000000
2.7525000000 3.3275000000 1.1505000000
2.7525000000 1.5390000000 0.9239000000
2.7524000000 2.7870000000 1.3978000000
2.7521000000 2.7715000000 1.4058000000
2.7520000000 0.6831000000 0.6018000000
2.7519000000 5.3859000000 0.0266000000
2.7518000000 1.8345000000 1.0595000000
2.7515000000 0.8623000000 0.6233000000
2.7513000000 2.1942000000 1.2219000000
2.7512000000 0.7028000000 0.6130000000
2.7512000000 2.8257000000 1.3832000000
2.7510000000 4.8544000000 0.4149000000
2.7508000000 3.1440000000 1.2319000000
2.7503000000 3.7449000000 0.9692000000
2.7503000000 2.0434000000 1.1604000000
2.7500000000 3.2976000000 1.1697000000
2.7498000000 2.1600000000 1.2063000000
2.7497000000 1.8935000000 1.0875000000
2.7493000000 4.4245000000 0.6666000000
2.7490000000 2.0621000000 1.1631000000
2.7488000000 0.3974000000 0.3153000000
2.7488000000 0.0875000000 0.1093000000
2.7487000000 1.8272000000 1.0606000000
2.7481000000 2.4787000000 1.3493000000
2.7479000000 2.7971000000 1.4024000000
2.7478000000 3.0074000000 1.3039000000
2.7478000000 1.9929000000 1.1350000000
2.7473000000 2.0918000000 1.1760000000
2.7470000000 3.8158000000 0.9412000000
2.7470000000 3.4891000000 1.0930000000
2.7468000000 0.6576000000 0.5981000000
2.7466000000 4.1651000000 0.7830000000
2.5124000000 4.3462000000 0.8718000000
2.5104000000 1.4250000000 1.0628000000
2.5101000000 5.1489000000 0.1638000000
2.5098000000 1.4216000000 1.0607000000
2.5095000000 5.3846000000 0.0269000000
2.5095000000 4.8312000000 0.4531000000
2.5091000000 4.7766000000 0.5030000000
2.5086000000 2.0782000000 1.3590000000
2.5086000000 3.1914000000 1.4055000000
2.5082000000 3.3363000000 1.3434000000
2.5079000000 0.6394000000 0.5272000000
2.5078000000 3.0078000000 1.4851000000
2.5072000000 3.3967000000 1.3155000000
2.5068000000 4.8834000000 0.4098000000
2.5064000000 1.5028000000 1.0994000000
2.5062000000 4.0096000000 1.0362000000
2.5063000000 0.5177000000 0.4284000000
2.5062000000 0.5654000000 0.4710000000
2.5060000000 2.5557000000 1.5787000000
2.5059000000 0.0667000000 0.0938000000
2.5058000000 2.0138000000 1.3268000000
2.5055000000 2.9280000000 1.5299000000
2.5054000000 1.5291000000 1.1100000000
2.5053000000 2.8431000000 1.5651000000
2.5052000000 3.9623000000 1.0631000000
2.5048000000 2.4074000000 1.5129000000
2.5048000000 1.1673000000 0.9558000000
2.5047000000 4.0928000000 1.0054000000
2.5045000000 2.2018000000 1.4134000000
2.5043000000 3.3172000000 1.3496000000
2.5042000000 0.1752000000 0.1159000000
2.5041000000 4.1216000000 0.9905000000
2.5040000000 3.6080000000 1.2252000000
2.5040000000 1.2133000000 0.9764000000
2.5040000000 2.7999000000 1.5819000000
2.5038000000 1.8940000000 1.2726000000
2.5038000000 1.8993000000 1.2832000000
2.5036000000 3.1035000000 1.4458000000
2.5034000000 0.5350000000 0.4376000000
2.5034000000 0.7010000000 0.5924000000
2.5033000000 4.6932000000 0.5689000000
2.5032000000 4.1796000000 0.9643000000
2.5031000000 0.4130000000 0.3343000000
2.5030000000 1.3783000000 1.0492000000
2.5028000000 4.9812000000 0.3126000000
2.5028000000 1.7736000000 1.2270000000
2.5027000000 0.6697000000 0.5594000000
2.5026000000 4.6678000000 0.5934000000
2.5025000000 1.0039000000 0.9259000000
2.5024000000 0.6350000000 0.5303000000
2.5023000000 5.0905000000 0.2187000000
2.5021000000 2.7818000000 1.5973000000
2.5020000000 2.1399000000 1.3941000000
2.5020000000 5.1427000000 0.1725000000
2.5019000000 3.6839000000 1.1865000000
2.5015000000 5.3383000000 0.0682000000
2.5013000000 3.0567000000 1.4716000000
2.5013000000 2.6326000000 1.6118000000
2.5011000000 1.4155000000 1.0679000000
2.5008000000 1.4364000000 1.0719000000
2.5006000000 2.0836000000 1.3666000000
2.5005000000 2.7810000000 1.6003000000
2.5004000000 0.0642000000 0.0865000000
2.5003000000 3.5798000000 1.2388000000
2.5003000000 5.1586000000 0.1571000000
2.5000000000 2.3998000000 1.5109000000
2.4998000000 2.0177000000 1.3417000000
2.4997000000 2.5638000000 1.5809000000
2.4993000000 3.3972000000 1.3258000000
2.4990000000 2.9395000000 1.5266000000
2.4984000000 3.8682000000 1.1091000000
2.4983000000 0.3133000000 0.2392000000
2.4981000000 0.0647000000 0.0880000000
2.4978000000 2.1968000000 1.4210000000
2.4975000000 3.7088000000 1.1841000000
2.4976000000 0.9299000000 0.8052000000
2.4971000000 1.5310000000 1.1214000000
2.4971000000 0.5984000000 0.4934000000
2.4960000000 3.3641000000 1.3372000000
2.4947000000 2.4867000000 1.5569000000
2.4930000000 0.4695000000 0.3766000000
2.2632000000 4.7507000000 0.5268000000
2.2621000000 3.9519000000 1.3041000000
2.2617000000 3.9121000000 1.3412000000
2.2606000000 5.0337000000 0.2748000000
2.2591000000 2.8477000000 1.7596000000
2.2587000000 3.0222000000 1.6761000000
2.2586000000 3.0207000000 1.6816000000
2.2583000000 3.3909000000 1.5147000000
2.2580000000 2.3665000000 1.6861000000
2.2579000000 5.2330000000 0.0846000000
2.2578000000 4.2155000000 1.0099000000
2.2576000000 5.1762000000 0.1398000000
2.2575000000 0.7959000000 0.6773000000
2.2573000000 2.0669000000 1.5494000000
2.2570000000 2.2852000000 1.6496000000
2.2571000000 3.7125000000 1.3659000000
2.2569000000 2.6997000000 1.8876000000
2.2567000000 3.2066000000 1.5909000000
2.2566000000 2.6345000000 1.8005000000
2.2565000000 3.1969000000 1.6015000000
2.2564000000 1.1483000000 0.9914000000
2.2563000000 4.9281000000 0.3591000000
2.2558000000 3.2384000000 1.5784000000
2.2554000000 1.1703000000 1.0130000000
2.2551000000 4.5552000000 0.6944000000
2.2549000000 4.6159000000 0.6444000000
2.2548000000 5.1220000000 0.1881000000
2.2548000000 4.1267000000 1.0819000000
2.2547000000 0.5398000000 0.4390000000
2.2547000000 2.1453000000 1.5856000000
2.2545000000 2.0858000000 1.5629000000
2.2543000000 0.0842000000 0.1007000000
2.2541000000 0.9899000000 0.8513000000
2.2541000000 1.5564000000 1.3837000000
2.2540000000 1.5676000000 1.3217000000
2.2539000000 1.5301000000 1.3730000000
2.2538000000 3.9600000000 1.2939000000
2.2537000000 5.2706000000 0.1272000000
2.2535000000 1.2643000000 1.0981000000
2.2535000000 4.4026000000 0.8421000000
2.2534000000 4.5470000000 0.7009000000
2.2534000000 1.0460000000 0.9022000000
2.2531000000 4.0633000000 1.1390000000
2.2530000000 2.3889000000 1.7004000000
2.2529000000 0.5078000000 0.4163000000
2.2529000000 4.2934000000 0.9315000000
2.2527000000 1.7426000000 1.4042000000
2.2526000000 4.7865000000 0.4870000000
2.2526000000 2.7457000000 1.8081000000
2.2525000000 3.2065000000 1.5992000000
2.2524000000 1.2473000000 1.0837000000
2.2522000000 5.3215000000 0.0840000000
2.2522000000 2.6109000000 1.8008000000
2.2521000000 3.8083000000 1.3210000000
2.2521000000 5.1697000000 0.1482000000
2.2517000000 0.4000000000 0.3209000000
2.2514000000 2.7399000000 1.8024000000
2.2513000000 1.8360000000 1.4506000000
2.2512000000 4.1568000000 1.0636000000
2.2512000000 4.9334000000 0.3593000000
2.2510000000 5.1503000000 0.1632000000
2.2508000000 0.1310000000 0.0788000000
2.2507000000 2.9935000000 1.6973000000
2.2506000000 3.4428000000 1.4978000000
2.2505000000 0.2344000000 0.1753000000
2.2505000000 3.4715000000 1.4767000000
2.2504000000 4.6022000000 0.6629000000
2.2503000000 3.5462000000 1.4505000000
2.2502000000 3.5368000000 1.4526000000
2.2501000000 3.6720000000 1.3885000000
2.2500000000 2.3069000000 1.6658000000
2.2499000000 3.7560000000 1.3551000000
2.2497000000 2.5909000000 1.7877000000
2.2495000000 4.9564000000 0.3385000000
2.2493000000 2.6895000000 1.8952000000
2.2493000000 4.5149000000 0.7374000000
2.2485000000 1.2695000000 1.1053000000
2.2481000000 0.8606000000 0.7338000000
2.2481000000 3.5145000000 1.4664000000
2.2480000000 2.5714000000 1.7860000000
2.2475000000 2.0183000000 1.5329000000
2.2459000000 2.6134000000 1.8038000000
2.2441000000 2.3604000000 1.6953000000
2.0114000000 3.7483000000 1.4218000000
2.0109000000 5.1786000000 0.1296000000
2.0099000000 3.9109000000 1.2764000000
2.0098000000 4.8728000000 0.4152000000
2.0095000000 4.0645000000 1.1374000000
2.0090000000 4.2543000000 0.9687000000
2.0088000000 2.2832000000 1.8436000000
2.0085000000 2.7745000000 1.9886000000
2.0084000000 5.0946000000 0.2131000000
2.0084000000 2.4522000000 1.9135000000
2.0082000000 0.0735000000 0.0986000000
2.0081000000 1.3762000000 1.2055000000
2.0080000000 4.6146000000 0.6429000000
2.0079000000 2.7784000000 1.9838000000
2.0078000000 4.3671000000 0.8718000000
2.0077000000 1.7837000000 1.5658000000
2.0075000000 3.2839000000 1.7619000000
2.0073000000 2.5419000000 1.9601000000
2.0073000000 1.6406000000 1.4378000000
2.0072000000 1.7725000000 1.5555000000
2.0070000000 2.5365000000 1.9606000000
2.0070000000 3.8864000000 1.3016000000
2.0068000000 3.0353000000 1.8714000000
2.0066000000 2.6633000000 2.0757000000
2.0064000000 5.3623000000 0.0467000000
2.0063000000 4.0487000000 1.1553000000
2.0061000000 2.6761000000 2.0832000000
2.0060000000 2.0284000000 1.7288000000
2.0059000000 4.4515000000 0.7973000000
2.0056000000 4.7861000000 0.4922000000
2.0053000000 2.1396000000 1.7809000000
2.0052000000 4.7211000000 0.5495000000
2.0051000000 5.1364000000 0.1745000000
2.0048000000 2.0088000000 1.7150000000
2.0046000000 4.6883000000 0.5847000000
2.0045000000 2.2407000000 1.8244000000
2.0044000000 2.7759000000 1.9899000000
2.0043000000 3.4402000000 1.7529000000
2.0041000000 0.8097000000 0.6889000000
2.0041000000 2.0577000000 1.7442000000
2.0040000000 4.0943000000 1.1116000000
2.0040000000 5.1780000000 0.1370000000
2.0039000000 5.3191000000 0.0859000000
2.0039000000 4.3985000000 0.8482000000
2.0038000000 5.0757000000 0.2310000000
2.0038000000 2.9821000000 1.8948000000
2.0035000000 3.6233000000 1.5429000000
2.0033000000 1.3179000000 1.1509000000
2.0033000000 2.1283000000 1.7783000000
2.0027000000 3.2556000000 1.7741000000
2.0027000000 0.2390000000 0.1744000000
2.0026000000 1.5184000000 1.3242000000
2.0023000000 1.4716000000 1.2839000000
2.0021000000 1.0552000000 0.9115000000
2.0019000000 2.7894000000 1.9818000000
2.0021000000 3.9319000000 1.2556000000
2.0014000000 4.0321000000 1.1751000000
2.0010000000 1.9681000000 1.7668000000
2.0009000000 0.6206000000 0.5202000000
2.0009000000 0.9355000000 0.7998000000
2.0004000000 0.7446000000 0.6334000000
2.0001000000 4.4032000000 0.8315000000
1.9999000000 0.7648000000 0.6474000000
1.9999000000 3.1259000000 1.8318000000
1.9998000000 2.3503000000 1.8771000000
1.9998000000 3.2455000000 1.7801000000
1.9995000000 2.5534000000 1.9689000000
1.9982000000 0.2191000000 0.1534000000
1.9978000000 3.4743000000 1.7326000000
1.9977000000 0.5504000000 0.4505000000
1.9976000000 0.2004000000 0.1388000000
1.9969000000 0.3957000000 0.3136000000
1.9967000000 0.0536000000 0.0802000000
1.9963000000 0.4542000000 0.3622000000
1.7626000000 3.3909000000 1.7457000000
1.7597000000 4.4089000000 0.8300000000
1.7593000000 4.8786000000 0.4073000000
1.7591000000 4.5883000000 0.6701000000
1.7589000000 3.3395000000 1.7950000000
1.7588000000 4.0612000000 1.1481000000
1.7587000000 3.4943000000 1.6537000000
1.7586000000 3.1762000000 1.9438000000
1.7581000000 3.8858000000 1.3040000000
1.7580000000 3.0286000000 2.1279000000
1.7579000000 5.1035000000 0.2017000000
1.7573000000 0.7732000000 0.6543000000
1.7571000000 5.0864000000 0.2234000000
1.7571000000 1.2662000000 1.0998000000
1.7570000000 2.0404000000 1.7952000000
1.7568000000 4.2764000000 0.9526000000
1.7565000000 4.5261000000 0.7252000000
1.7564000000 0.4823000000 0.3918000000
1.7563000000 2.5220000000 2.1444000000
1.7562000000 0.6365000000 0.5286000000
1.7560000000 4.8185000000 0.4631000000
1.7560000000 3.0598000000 2.1051000000
1.7559000000 4.5191000000 0.7314000000
1.7558000000 3.1302000000 1.9697000000
1.7556000000 0.3031000000 0.2332000000
1.7555000000 1.2235000000 1.0594000000
1.7554000000 2.5765000000 2.1750000000
1.7554000000 3.1418000000 1.9710000000
1.7553000000 2.2159000000 1.9545000000
1.7551000000 4.1224000000 1.0893000000
1.7550000000 4.9219000000 0.3700000000
1.7549000000 5.3117000000 0.0911000000
1.7549000000 4.1053000000 1.1063000000
1.7545000000 0.4173000000 0.3347000000
1.7544000000 3.7928000000 1.3880000000
1.7543000000 2.9949000000 2.1446000000
1.7541000000 0.2226000000 0.1587000000
1.7541000000 4.6918000000 0.5742000000
1.7540000000 0.7458000000 0.6329000000
1.7538000000 0.0875000000 0.1111000000
1.7539000000 2.7248000000 2.2671000000
1.7539000000 4.8828000000 0.3991000000
1.7538000000 4.6507000000 0.6134000000
1.7538000000 0.9488000000 0.8140000000
1.7535000000 3.2363000000 1.8882000000
1.7534000000 0.9686000000 0.8390000000
1.7533000000 2.5523000000 2.1606000000
1.7533000000 1.8212000000 1.5988000000
1.7532000000 3.1150000000 2.0618000000
1.7530000000 1.7540000000 1.5410000000
1.7529000000 2.2663000000 2.0629000000
1.7528000000 3.9173000000 1.2707000000
1.7528000000 1.8670000000 1.6437000000
1.7527000000 4.5987000000 0.6601000000
1.7526000000 0.7824000000 0.6603000000
1.7525000000 5.2944000000 0.1066000000
1.7525000000 4.5755000000 0.6801000000
1.7523000000 3.6484000000 1.5135000000
1.7522000000 4.4370000000 0.8033000000
1.7522000000 3.4241000000 1.7175000000
1.7521000000 1.9966000000 1.7581000000
1.7521000000 3.8961000000 1.2942000000
1.7520000000 4.8166000000 0.4667000000
1.7518000000 1.2539000000 1.0879000000
1.7517000000 1.3210000000 1.1464000000
1.7516000000 4.2513000000 0.9684000000
1.7515000000 2.4127000000 2.1614000000
1.7515000000 3.1982000000 1.9222000000
1.7515000000 1.1359000000 0.9817000000
1.7511000000 1.7954000000 1.5740000000
1.7510000000 4.0055000000 1.1961000000
1.7510000000 1.8916000000 1.6656000000
1.7508000000 0.6470000000 0.5419000000
1.7500000000 0.4539000000 0.3649000000
1.7500000000 1.7556000000 1.5424000000
1.7494000000 1.1210000000 0.9623000000
1.7493000000 4.8978000000 0.3915000000
1.7489000000 2.5519000000 2.1638000000
1.7488000000 1.6924000000 1.4845000000
1.7482000000 2.0005000000 1.7598000000
1.7480000000 1.5215000000 1.3300000000
1.7479000000 3.5492000000 1.6052000000
1.7474000000 1.7036000000 1.4962000000
1.7448000000 2.1411000000 1.8822000000
1.7429000000 0.9570000000 0.8219000000
1.5137000000 5.0611000000 0.2410000000
1.5113000000 2.9844000000 2.1132000000
1.5112000000 3.7346000000 1.4388000000
1.5101000000 4.7608000000 0.5148000000
1.5093000000 4.0736000000 1.1364000000
1.5092000000 5.1242000000 0.1858000000
1.5090000000 4.1912000000 1.0259000000
1.5088000000 4.9717000000 0.3272000000
1.5087000000 5.3759000000 0.0290000000
1.5085000000 5.0007000000 0.2992000000
1.5082000000 3.4098000000 1.7322000000
1.5080000000 1.9805000000 1.7461000000
1.5078000000 3.8881000000 1.2989000000
1.5078000000 4.2851000000 0.9398000000
1.5065000000 0.4321000000 0.3400000000
1.5062000000 4.7736000000 0.4996000000
1.5061000000 4.5016000000 0.7516000000
1.5060000000 2.8389000000 2.3019000000
1.5059000000 5.1045000000 0.2035000000
1.5058000000 3.7603000000 1.4152000000
1.5056000000 0.0253000000 0.0601000000
1.5054000000 4.7830000000 0.4884000000
1.5053000000 1.6092000000 1.4086000000
1.5053000000 3.5292000000 1.6218000000
1.5051000000 4.2350000000 0.9785000000
1.5051000000 5.0912000000 0.2172000000
1.5050000000 2.3639000000 2.0912000000
1.5050000000 5.0837000000 0.2207000000
1.5048000000 2.1888000000 1.9315000000
1.5048000000 4.0126000000 1.1830000000
1.5048000000 1.9949000000 1.7544000000
1.5047000000 3.1887000000 1.9337000000
1.5047000000 5.1255000000 0.1875000000
1.5045000000 5.3544000000 0.0532000000
1.5044000000 5.0031000000 0.2961000000
1.5042000000 0.1285000000 0.0721000000
1.5042000000 3.7989000000 1.3790000000
1.5040000000 4.5072000000 0.7442000000
1.5040000000 4.6195000000 0.6355000000
1.5041000000 4.2079000000 1.0106000000
1.5037000000 0.5274000000 0.4359000000
1.5037000000 4.7280000000 0.5431000000
1.5036000000 5.1554000000 0.1591000000
1.5035000000 0.4417000000 0.3547000000
1.5035000000 3.9565000000 1.2332000000
1.5033000000 1.9011000000 1.6687000000
1.5033000000 2.0520000000 1.8038000000
1.5030000000 0.9003000000 0.7703000000
1.5029000000 3.0360000000 2.0702000000
1.5028000000 2.6946000000 2.3271000000
1.5028000000 4.3204000000 0.9111000000
1.5027000000 2.1631000000 1.9065000000
1.5026000000 3.7212000000 1.4476000000
1.5025000000 4.3848000000 0.8581000000
1.5022000000 4.2851000000 0.9439000000
1.5019000000 1.9825000000 1.7472000000
1.5019000000 3.1279000000 1.9882000000
1.5017000000 4.2701000000 0.9570000000
1.5013000000 4.0697000000 1.1334000000
1.5013000000 0.8285000000 0.7060000000
1.5010000000 0.7718000000 0.6468000000
1.5010000000 2.3225000000 2.0510000000
1.5005000000 1.2623000000 1.0953000000
1.5003000000 4.0311000000 1.1693000000
1.5002000000 4.9835000000 0.3072000000
1.5001000000 2.0402000000 1.7984000000
1.5001000000 3.1353000000 1.9849000000
1.5000000000 1.6830000000 1.4760000000
1.4998000000 0.6190000000 0.5222000000
1.4995000000 5.1415000000 0.1712000000
1.4994000000 0.9034000000 0.7743000000
1.4993000000 0.0082000000 0.0394000000
1.4991000000 4.9650000000 0.3315000000
1.4986000000 2.3066000000 2.0402000000
1.4985000000 1.0776000000 0.9286000000
1.4982000000 1.0251000000 0.8836000000
1.4981000000 3.5326000000 1.6166000000
1.4979000000 1.5813000000 1.3810000000
1.4978000000 2.2493000000 1.9878000000
1.4974000000 0.5040000000 0.4114000000
1.4973000000 0.5285000000 0.4349000000
1.2627000000 5.1824000000 0.1363000000
1.2619000000 3.4742000000 1.6753000000
1.2608000000 3.2494000000 1.9341000000
1.2606000000 5.2105000000 0.1067000000
1.2601000000 1.0594000000 0.9159000000
1.2595000000 2.6615000000 2.1997000000
1.2592000000 5.3480000000 0.0570000000
1.2588000000 3.0772000000 1.9811000000
1.2583000000 4.0271000000 1.1735000000
1.2581000000 5.1018000000 0.2052000000
1.2580000000 3.2000000000 1.9832000000
1.2579000000 4.0704000000 1.1432000000
1.2579000000 4.3457000000 0.8863000000
1.2578000000 2.7077000000 2.2033000000
1.2574000000 4.5144000000 0.7304000000
1.2572000000 3.8757000000 1.3123000000
1.2570000000 3.4274000000 1.7172000000
1.2562000000 3.7841000000 1.3911000000
1.2561000000 1.1533000000 0.9991000000
1.2561000000 3.0098000000 2.0006000000
1.2559000000 2.6812000000 2.2063000000
1.2558000000 1.2796000000 1.1078000000
1.2558000000 2.6146000000 2.1109000000
1.2556000000 5.2701000000 0.1251000000
1.2555000000 2.6844000000 2.2061000000
1.2555000000 3.6970000000 1.4755000000
1.2554000000 4.2592000000 0.9622000000
1.2553000000 5.1538000000 0.1557000000
1.2553000000 1.4993000000 1.3023000000
1.2552000000 0.2483000000 0.1796000000
1.2551000000 0.5688000000 0.4721000000
1.2552000000 3.3885000000 1.7533000000
1.2550000000 3.1432000000 2.0035000000
1.2549000000 3.6234000000 1.5380000000
1.2548000000 3.4320000000 1.7143000000
1.2548000000 3.3283000000 1.8089000000
1.2544000000 0.2756000000 0.2113000000
1.2542000000 4.3999000000 0.8374000000
1.2542000000 1.1057000000 0.9592000000
1.2538000000 3.3842000000 1.7549000000
1.2538000000 3.8709000000 1.3177000000
1.2537000000 4.1248000000 1.0917000000
1.2533000000 1.7834000000 1.5698000000
1.2532000000 2.9132000000 2.0480000000
1.2531000000 0.1932000000 0.1362000000
1.2530000000 4.3611000000 0.8711000000
1.2530000000 3.7292000000 1.4394000000
1.2528000000 3.5921000000 1.5654000000
1.2528000000 2.3490000000 1.9899000000
1.2527000000 0.8184000000 0.6971000000
1.2527000000 4.0075000000 1.1939000000
1.2526000000 3.6781000000 1.4914000000
1.2525000000 4.2691000000 0.9613000000
1.2523000000 0.4964000000 0.4063000000
1.2523000000 4.7156000000 0.5534000000
1.2523000000 2.7534000000 2.1144000000
1.2521000000 2.3311000000 1.9887000000
1.2521000000 3.3158000000 1.8107000000
1.2520000000 0.3047000000 0.2327000000
1.2520000000 5.2971000000 0.0995000000
1.2518000000 0.6433000000 0.5388000000
1.2516000000 1.7068000000 1.4962000000
1.2515000000 1.1468000000 0.9929000000
1.2514000000 2.3483000000 1.9910000000
1.2512000000 0.9386000000 0.8030000000
1.2511000000 2.7240000000 2.1962000000
1.2510000000 0.7127000000 0.6003000000
1.2508000000 1.3255000000 1.1518000000
1.2505000000 0.2672000000 0.2023000000
1.2503000000 3.1746000000 1.9850000000
1.2502000000 0.3566000000 0.2887000000
1.2501000000 4.3441000000 0.8917000000
1.2501000000 0.3774000000 0.2979000000
1.2497000000 0.9788000000 0.8379000000
1.2495000000 0.0579000000 0.0861000000
1.2494000000 3.2524000000 1.9326000000
1.2493000000 1.7209000000 1.5117000000
1.2491000000 1.6196000000 1.4121000000
1.2491000000 0.3174000000 0.2418000000
1.2488000000 2.0887000000 1.8987000000
1.2488000000 0.5840000000 0.4866000000
1.2486000000 1.4630000000 1.2752000000
1.2484000000 1.9612000000 1.7277000000
1.2480000000 3.8398000000 1.3441000000
1.2477000000 3.4385000000 1.7066000000
1.2469000000 1.0132000000 0.8652000000
1.2465000000 0.4311000000 0.3478000000
1.2448000000 3.2869000000 1.8276000000
1.2436000000 1.0569000000 0.9145000000
1.0124000000 2.4265000000 1.8435000000
1.0107000000 3.8595000000 1.3265000000
1.0096000000 3.4387000000 1.6188000000
1.0091000000 4.3226000000 0.9047000000
1.0085000000 4.0461000000 1.1587000000
1.0083000000 4.8023000000 0.4728000000
1.0079000000 4.4213000000 0.8188000000
1.0078000000 5.1410000000 0.1782000000
1.0077000000 4.6149000000 0.6435000000
1.0076000000 4.0294000000 1.1665000000
1.0074000000 2.9255000000 1.8446000000
1.0072000000 4.1779000000 1.0376000000
1.0070000000 1.4078000000 1.2252000000
1.0068000000 3.3022000000 1.6772000000
1.0066000000 4.4879000000 0.7570000000
1.0065000000 3.1741000000 1.7368000000
1.0063000000 0.0328000000 0.0662000000
1.0063000000 1.5847000000 1.3855000000
1.0061000000 5.2793000000 0.1210000000
1.0060000000 1.5619000000 1.3665000000
1.0060000000 3.0355000000 1.7974000000
1.0059000000 2.1380000000 1.7047000000
1.0057000000 5.0587000000 0.2485000000
1.0056000000 3.4771000000 1.6025000000
1.0053000000 5.0865000000 0.2217000000
1.0053000000 2.7298000000 1.9970000000
1.0052000000 5.0169000000 0.2825000000
1.0048000000 4.7994000000 0.4821000000
1.0048000000 3.4025000000 1.6336000000
1.0046000000 2.1071000000 1.6907000000
1.0044000000 1.0124000000 0.8705000000
1.0045000000 4.9374000000 0.3492000000
1.0043000000 3.3050000000 1.6766000000
1.0042000000 2.2923000000 1.7707000000
1.0042000000 1.6910000000 1.5421000000
1.0041000000 3.6914000000 1.5389000000
1.0040000000 4.9058000000 0.3866000000
1.0039000000 0.6044000000 0.5037000000
1.0039000000 3.1794000000 1.7322000000
1.0038000000 3.4483000000 1.6122000000
1.0038000000 0.4051000000 0.3264000000
1.0037000000 0.5681000000 0.4688000000
1.0037000000 1.3429000000 1.1671000000
1.0035000000 3.2950000000 1.6769000000
1.0032000000 3.3727000000 1.6452000000
1.0027000000 -0.0001000000 0.0349000000
1.0027000000 1.9288000000 1.6088000000
1.0026000000 3.9101000000 1.2809000000
1.0023000000 5.1896000000 0.1337000000
1.0022000000 0.6860000000 0.5745000000
1.0021000000 2.5602000000 1.8922000000
1.0020000000 4.5490000000 0.7081000000
1.0020000000 3.4219000000 1.6229000000
1.0019000000 4.1279000000 1.0784000000
1.0019000000 3.2519000000 1.7019000000
1.0018000000 4.9618000000 0.3268000000
1.0017000000 2.9913000000 1.8150000000
1.0015000000 1.9247000000 1.6053000000
1.0014000000 5.0140000000 0.2873000000
1.0013000000 3.3146000000 1.6686000000
1.0010000000 3.9390000000 1.2506000000
1.0009000000 0.7216000000 0.6052000000
1.0007000000 2.6976000000 2.0068000000
1.0002000000 2.5122000000 1.8702000000
1.0000000000 4.9336000000 0.3586000000
1.0000000000 1.5820000000 1.3812000000
1.0000000000 1.0542000000 0.9069000000
0.9998000000 2.8007000000 1.9027000000
0.9998000000 4.1689000000 1.0489000000
0.9997000000 0.4038000000 0.3241000000
0.9995000000 4.6004000000 0.6566000000
0.9993000000 4.1572000000 1.0582000000
0.9991000000 1.4798000000 1.2976000000
0.9984000000 3.1087000000 1.7571000000
0.9982000000 1.8418000000 1.5653000000
0.9974000000 1.8850000000 1.5905000000
0.9964000000 1.3805000000 1.2020000000
0.9962000000 1.1587000000 1.0020000000
0.7620000000 2.4164000000 1.6450000000
0.7611000000 2.4505000000 1.6598000000
0.7597000000 3.9436000000 1.1894000000
0.7591000000 2.6310000000 1.7415000000
0.7583000000 4.8747000000 0.4074000000
0.7581000000 4.4024000000 0.8342000000
0.7580000000 3.8546000000 1.2379000000
0.7569000000 3.8237000000 1.2518000000
0.7565000000 4.5526000000 0.6982000000
0.7563000000 2.7011000000 1.8184000000
0.7562000000 2.8938000000 1.6741000000
0.7560000000 4.1313000000 1.1442000000
0.7560000000 4.6887000000 0.5818000000
0.7558000000 5.3668000000 0.0463000000
0.7558000000 1.1474000000 0.9926000000
0.7558000000 3.3357000000 1.4679000000
0.7557000000 4.4384000000 0.8073000000
0.7554000000 2.6270000000 1.7279000000
0.7553000000 0.1977000000 0.1396000000
0.7552000000 3.4111000000 1.4367000000
0.7551000000 4.1255000000 1.1432000000
0.7550000000 2.9263000000 1.6571000000
0.7550000000 1.2536000000 1.1471000000
0.7549000000 3.9420000000 1.1938000000
0.7548000000 3.2056000000 1.5298000000
0.7548000000 2.5030000000 1.6777000000
0.7548000000 1.4531000000 1.2040000000
0.7543000000 2.5895000000 1.7135000000
0.7541000000 1.5687000000 1.2579000000
0.7540000000 0.0375000000 0.0697000000
0.7540000000 0.4963000000 0.4009000000
0.7540000000 4.3867000000 0.8486000000
0.7539000000 5.1157000000 0.1971000000
0.7538000000 0.3392000000 0.2598000000
0.7538000000 2.8830000000 1.6675000000
0.7538000000 4.5388000000 0.7071000000
0.7537000000 0.5597000000 0.4595000000
0.7535000000 0.3324000000 0.2609000000
0.7534000000 1.9412000000 1.4200000000
0.7530000000 4.6022000000 0.6545000000
0.7529000000 0.5434000000 0.4492000000
0.7527000000 0.9990000000 0.8541000000
0.7522000000 0.4413000000 0.3574000000
0.7521000000 0.4984000000 0.4049000000
0.7521000000 0.2440000000 0.1765000000
0.7520000000 3.3748000000 1.4435000000
0.7518000000 5.1454000000 0.1683000000
0.7517000000 0.3991000000 0.3210000000
0.7517000000 1.1410000000 0.9865000000
0.7515000000 0.8282000000 0.7110000000
0.7514000000 5.1155000000 0.1924000000
0.7510000000 1.5291000000 1.2276000000
0.7508000000 4.3946000000 0.8443000000
0.7507000000 1.1188000000 0.9677000000
0.7506000000 4.0450000000 1.2044000000
0.7504000000 3.7600000000 1.2724000000
0.7503000000 1.6264000000 1.2708000000
0.7498000000 3.7228000000 1.2929000000
0.7497000000 1.5717000000 1.2468000000
0.7493000000 1.4973000000 1.2221000000
0.7492000000 0.5209000000 0.4318000000
0.7491000000 0.7962000000 0.6732000000
0.7482000000 0.4906000000 0.4039000000
0.7480000000 2.9848000000 1.6183000000
0.7476000000 0.7605000000 0.6462000000
0.7474000000 0.4505000000 0.3627000000
0.7472000000 1.9070000000 1.4015000000
0.7465000000 4.9624000000 0.3320000000
0.7463000000 2.8552000000 1.6769000000
0.7460000000 4.3738000000 0.8632000000
0.7450000000 0.5379000000 0.4467000000
0.5104000000 0.2303000000 0.1695000000
0.5099000000 3.1699000000 1.3467000000
0.5092000000 4.1281000000 0.9169000000
0.5090000000 1.1250000000 0.8634000000
0.5089000000 5.0161000000 0.2840000000
0.5088000000 0.6534000000 0.5501000000
0.5081000000 4.9622000000 0.3333000000
0.5078000000 2.4624000000 1.4665000000
0.5074000000 3.1097000000 1.3742000000
0.5071000000 3.5138000000 1.1956000000
0.5067000000 5.2314000000 0.0869000000
0.5067000000 0.6997000000 0.5966000000
0.5064000000 4.3377000000 0.8202000000
0.5063000000 3.2659000000 1.3050000000
0.5060000000 4.1296000000 0.9137000000
0.5059000000 5.3533000000 0.0548000000
0.5060000000 1.1405000000 0.8621000000
0.5057000000 2.3606000000 1.4164000000
0.5055000000 1.1221000000 0.8592000000
0.5055000000 1.8662000000 1.1973000000
0.5051000000 0.1188000000 0.1457000000
0.5049000000 2.3881000000 1.4300000000
0.5048000000 1.4352000000 0.9943000000
0.5046000000 3.6809000000 1.1192000000
0.5047000000 4.1307000000 0.9163000000
0.5046000000 3.4253000000 1.2305000000
0.5044000000 3.9176000000 1.0104000000
0.5043000000 5.0240000000 0.2771000000
0.5043000000 1.8353000000 1.1780000000
0.5041000000 2.5086000000 1.4826000000
0.5040000000 1.7366000000 1.1341000000
0.5040000000 3.8534000000 1.0368000000
0.5039000000 0.0430000000 0.0746000000
0.5038000000 4.4851000000 0.8100000000
0.5032000000 0.7004000000 0.5858000000
0.5032000000 2.1234000000 1.3090000000
0.5028000000 5.2801000000 0.1184000000
0.5027000000 1.1172000000 0.8524000000
0.5025000000 4.7480000000 0.5232000000
0.5022000000 0.9971000000 0.7996000000
0.5021000000 2.2781000000 1.3790000000
0.5020000000 2.7158000000 1.6105000000
0.5018000000 3.6448000000 1.1291000000
0.5016000000 3.9227000000 1.0120000000
0.5015000000 0.4409000000 0.3571000000
0.5015000000 5.1613000000 0.1541000000
0.5013000000 4.0008000000 0.9723000000
0.5012000000 0.0156000000 0.0497000000
0.5012000000 2.3413000000 1.4052000000
0.5010000000 2.3612000000 1.4199000000
0.5008000000 0.0005000000 0.0319000000
0.5003000000 2.8700000000 1.4840000000
0.5003000000 3.6899000000 1.1063000000
0.5001000000 2.7570000000 1.5336000000
0.5001000000 0.1873000000 0.1217000000
0.5000000000 5.0758000000 0.2326000000
0.4993000000 4.5169000000 0.7121000000
0.4991000000 1.0320000000 0.8125000000
0.4990000000 2.9569000000 1.4441000000
0.4988000000 1.0608000000 0.8233000000
0.4985000000 1.1382000000 0.8559000000
0.4984000000 1.8699000000 1.1903000000
0.4983000000 4.0126000000 0.9614000000
0.4981000000 0.9817000000 0.7852000000
0.4980000000 4.7754000000 0.5034000000
0.4978000000 3.3066000000 1.2810000000
0.4978000000 0.4038000000 0.3213000000
0.4978000000 4.2250000000 0.8616000000
0.4968000000 1.3629000000 0.9628000000
0.4965000000 4.0079000000 0.9604000000
0.4948000000 2.6563000000 1.6017000000
0.4934000000 2.9085000000 1.4629000000
0.2626000000 2.0410000000 1.0847000000
0.2621000000 3.2981000000 1.0986000000
0.2608000000 3.9276000000 0.8122000000
0.2602000000 3.6305000000 0.9494000000
0.2600000000 2.5663000000 1.3203000000
0.2599000000 5.1048000000 0.1999000000
0.2595000000 5.3208000000 0.0856000000
0.2594000000 4.4324000000 0.5871000000
0.2590000000 4.9787000000 0.3013000000
0.2588000000 4.3259000000 0.6321000000
0.2585000000 2.5881000000 1.3251000000
0.2582000000 5.0093000000 0.2755000000
0.2570000000 2.1162000000 1.1106000000
0.2567000000 1.3970000000 0.7898000000
0.2564000000 3.3794000000 1.0622000000
0.2563000000 4.6784000000 0.4749000000
0.2563000000 0.4717000000 0.4338000000
0.2562000000 3.7963000000 0.8707000000
0.2559000000 0.5690000000 0.4103000000
0.2557000000 3.7059000000 0.9103000000
0.2557000000 2.9269000000 1.2585000000
0.2556000000 1.3700000000 0.7726000000
0.2554000000 2.9774000000 1.2381000000
0.2553000000 4.5619000000 0.5263000000
0.2552000000 3.5641000000 0.9803000000
0.2551000000 2.9408000000 1.2590000000
0.2548000000 1.6185000000 0.8868000000
0.2548000000 2.3946000000 1.2337000000
0.2545000000 4.8734000000 0.4499000000
0.2543000000 1.7800000000 0.9575000000
0.2542000000 2.4114000000 1.2457000000
0.2541000000 5.2464000000 0.0723000000
0.2540000000 1.3619000000 0.7706000000
0.2540000000 3.9955000000 0.7792000000
0.2539000000 0.2476000000 0.1831000000
0.2538000000 0.0212000000 0.0532000000
0.2537000000 2.4739000000 1.2671000000
0.2536000000 4.3710000000 0.6092000000
0.2535000000 1.3911000000 0.7823000000
0.2533000000 0.9677000000 0.5924000000
0.2532000000 5.3887000000 0.0226000000
0.2531000000 3.5872000000 0.9625000000
0.2530000000 0.9493000000 0.5869000000
0.2530000000 5.2289000000 0.0932000000
0.2527000000 4.1814000000 0.6945000000
0.2525000000 4.1013000000 0.7268000000
0.2524000000 2.7073000000 1.4181000000
0.2523000000 0.9995000000 0.6044000000
0.2521000000 1.7005000000 0.9213000000
0.2519000000 0.0898000000 0.1101000000
0.2518000000 0.0162000000 0.0472000000
0.2514000000 2.3378000000 1.2068000000
0.2513000000 2.0924000000 1.0989000000
0.2512000000 3.0666000000 1.1947000000
0.2512000000 0.5195000000 0.4517000000
0.2510000000 2.2562000000 1.1722000000
0.2509000000 1.5148000000 0.8414000000
0.2507000000 1.0689000000 0.6367000000
0.2503000000 0.5937000000 0.4194000000
0.2502000000 4.0710000000 0.7459000000
0.2500000000 1.6679000000 0.9094000000
0.2500000000 1.2170000000 0.7034000000
0.2499000000 0.2333000000 0.1683000000
0.2497000000 1.4062000000 0.7915000000
0.2495000000 4.4128000000 0.5864000000
0.2495000000 3.5188000000 0.9908000000
0.2493000000 0.4705000000 0.4264000000
0.2492000000 1.1315000000 0.6618000000
0.2492000000 4.8388000000 0.3924000000
0.2491000000 0.0264000000 0.0552000000
0.2486000000 1.1681000000 0.6756000000
0.2477000000 2.4395000000 1.2501000000
0.2476000000 0.0245000000 0.0582000000
0.2476000000 1.8449000000 0.9818000000
0.2473000000 1.3344000000 0.7513000000
0.2472000000 4.9007000000 0.4254000000
0.2469000000 1.1497000000 0.6682000000
0.2467000000 0.4523000000 0.4166000000
0.2465000000 2.1680000000 1.1278000000
0.2463000000 3.0215000000 1.2075000000
0.2460000000 0.3507000000 0.3366000000
0.0127000000 1.2176000000 0.5156000000
0.0123000000 0.1768000000 0.1219000000
0.0103000000 0.8755000000 0.3670000000
0.0095000000 5.0895000000 0.0921000000
0.0092000000 4.6976000000 0.2730000000
0.0086000000 4.3848000000 0.4112000000
0.0085000000 3.8889000000 0.6357000000
0.0083000000 1.3823000000 0.5880000000
0.0079000000 0.3913000000 0.1413000000
0.0070000000 1.1006000000 0.4550000000
0.0068000000 4.5359000000 0.3445000000
0.0066000000 0.0936000000 0.0684000000
0.0064000000 1.4067000000 0.5963000000
0.0062000000 1.4578000000 0.6177000000
0.0059000000 4.6252000000 0.3002000000
0.0055000000 4.8159000000 0.2159000000
0.0053000000 5.3045000000 0.0566000000
0.0053000000 4.9240000000 0.1668000000
0.0052000000 3.0459000000 1.0173000000
0.0051000000 2.7948000000 1.1246000000
0.0049000000 1.1211000000 0.4662000000
0.0048000000 4.1493000000 0.5168000000
0.0046000000 2.3896000000 1.0374000000
0.0045000000 2.6223000000 1.1372000000
0.0045000000 4.4547000000 0.3790000000
0.0043000000 5.1386000000 0.0691000000
0.0040000000 5.3555000000 0.0274000000
0.0040000000 2.7510000000 1.1449000000
0.0039000000 4.4431000000 0.3752000000
0.0038000000 5.0415000000 0.1100000000
0.0037000000 5.3352000000 0.0405000000
0.0036000000 3.7954000000 0.6772000000
0.0033000000 4.9318000000 0.1594000000
0.0031000000 2.2374000000 0.9684000000
0.0032000000 3.9050000000 0.6261000000
0.0030000000 1.3063000000 0.5507000000
0.0028000000 1.9488000000 0.8472000000
0.0029000000 3.3901000000 0.8618000000
0.0026000000 4.3379000000 0.4239000000
0.0025000000 3.8325000000 0.6597000000
0.0024000000 4.8516000000 0.2001000000
0.0022000000 4.4029000000 0.3976000000
0.0021000000 2.9068000000 1.0699000000
0.0020000000 3.6436000000 0.7406000000
0.0020000000 4.0694000000 0.5461000000
0.0019000000 1.4087000000 0.5982000000
0.0019000000 0.7257000000 0.2840000000
0.0018000000 2.4530000000 1.0711000000
0.0015000000 3.2914000000 0.9000000000
0.0012000000 1.3442000000 0.5681000000
0.0010000000 1.2948000000 0.5459000000
0.0009000000 1.1287000000 0.4761000000
0.0008000000 0.9130000000 0.3683000000
0.0008000000 3.4235000000 0.8409000000
0.0007000000 4.6084000000 0.3106000000
0.0006000000 0.0907000000 0.0579000000
0.0004000000 0.4473000000 0.1622000000
0.0003000000 3.1850000000 0.9478000000
0.0003000000 2.1249000000 0.9191000000
0.0002000000 0.2441000000 0.0703000000
-0.0000000000 1.5358000000 0.6529000000
-0.0001000000 1.4042000000 0.5927000000
-0.0003000000 0.6201000000 0.2411000000
-0.0004000000 3.2190000000 0.9343000000
-0.0004000000 2.9516000000 1.0567000000
-0.0005000000 2.6535000000 1.2125000000
-0.0007000000 1.0089000000 0.4144000000
-0.0008000000 3.0334000000 1.0131000000
-0.0008000000 3.8336000000 0.6547000000
-0.0010000000 1.2318000000 0.5111000000
-0.0011000000 3.5845000000 0.7642000000
-0.0010000000 0.1758000000 0.1114000000
-0.0014000000 0.6433000000 0.2538000000
-0.0014000000 3.2155000000 0.9248000000
