4.7510000000 2.4366000000 0.0688000000
4.7507000000 3.2476000000 0.1434000000
4.7504000000 2.6750000000 0.1066000000
4.7480000000 2.2906000000 0.0727000000
4.5096000000 2.1346000000 0.1305000000
4.5090000000 2.9672000000 0.3924000000
4.5089000000 3.8467000000 0.0548000000
4.5088000000 2.6985000000 0.3206000000
4.5085000000 3.4998000000 0.1474000000
4.5083000000 2.4614000000 0.2120000000
4.5082000000 3.0009000000 0.3965000000
4.5078000000 3.9962000000 0.0599000000
4.5072000000 1.8811000000 0.0741000000
4.5071000000 3.4171000000 0.1872000000
4.5068000000 3.2312000000 0.2844000000
4.5065000000 3.2086000000 0.2957000000
4.5058000000 3.7519000000 0.1038000000
4.5055000000 3.9149000000 0.0288000000
4.5055000000 2.4530000000 0.2014000000
4.5053000000 3.8375000000 0.0663000000
4.5052000000 3.7042000000 0.1316000000
4.5047000000 3.5869000000 0.1087000000
4.5045000000 3.7994000000 0.0836000000
4.5044000000 3.9055000000 0.0339000000
4.5043000000 3.0355000000 0.3762000000
4.5041000000 2.4357000000 0.1918000000
4.5038000000 2.4158000000 0.1925000000
4.5034000000 1.8822000000 0.0797000000
4.5033000000 3.9825000000 0.0708000000
4.5032000000 1.7746000000 0.0311000000
4.5034000000 2.7887000000 0.3731000000
4.5031000000 3.7609000000 0.1098000000
4.5030000000 3.7937000000 0.0847000000
4.5021000000 3.8740000000 0.0501000000
4.5018000000 2.9501000000 0.4062000000
4.5013000000 3.7326000000 0.1204000000
4.5012000000 2.3930000000 0.1801000000
4.5010000000 4.1153000000 0.0059000000
4.5007000000 2.8164000000 0.3868000000
4.4997000000 3.6454000000 0.0898000000
4.4978000000 2.9843000000 0.4071000000
4.4953000000 2.0213000000 0.0841000000
4.2614000000 3.6647000000 0.2778000000
4.2603000000 3.4608000000 0.3824000000
4.2598000000 3.5714000000 0.3300000000
4.2586000000 3.4668000000 0.3771000000
4.2585000000 3.6072000000 0.3052000000
4.2574000000 2.2308000000 0.3030000000
4.2572000000 3.1846000000 0.5191000000
4.2571000000 3.1113000000 0.5496000000
4.2567000000 2.1876000000 0.2843000000
4.2565000000 2.7127000000 0.5360000000
4.2564000000 3.5378000000 0.3462000000
4.2560000000 3.1299000000 0.5392000000
4.2553000000 3.5576000000 0.3334000000
4.2551000000 3.7320000000 0.2546000000
4.2544000000 3.3654000000 0.4235000000
4.2543000000 3.9491000000 0.1503000000
4.2542000000 3.3782000000 0.4237000000
4.2541000000 2.8927000000 0.6097000000
4.2540000000 3.9683000000 0.1387000000
4.2539000000 2.4929000000 0.4341000000
4.2538000000 4.3084000000 0.0488000000
4.2537000000 3.0464000000 0.5867000000
4.2537000000 2.3242000000 0.3590000000
4.2535000000 2.8189000000 0.5888000000
4.2533000000 2.0127000000 0.2062000000
4.2532000000 3.6901000000 0.2746000000
4.2531000000 3.6418000000 0.2932000000
4.2529000000 1.4096000000 0.0553000000
4.2528000000 1.7129000000 0.1349000000
4.2528000000 1.6384000000 0.0938000000
4.2526000000 4.4156000000 0.0756000000
4.2525000000 2.4991000000 0.4436000000
4.2525000000 1.7925000000 0.0953000000
4.2516000000 2.7524000000 0.5630000000
4.2515000000 2.2927000000 0.3450000000
4.2514000000 4.1061000000 0.1498000000
4.2510000000 4.1959000000 0.1007000000
4.2500000000 2.7399000000 0.5587000000
4.2499000000 3.3276000000 0.4530000000
4.2496000000 1.7846000000 0.0905000000
4.2493000000 4.1056000000 0.1463000000
4.2487000000 2.8003000000 0.5873000000
4.2483000000 3.7431000000 0.2540000000
4.2433000000 2.1259000000 0.2688000000
4.0111000000 4.1105000000 0.2761000000
4.0107000000 4.4127000000 0.1283000000
4.0103000000 3.1295000000 0.7533000000
4.0095000000 4.6782000000 0.0722000000
4.0081000000 1.1983000000 0.0898000000
4.0073000000 1.5081000000 0.1652000000
4.0071000000 3.7850000000 0.4348000000
4.0070000000 2.4669000000 0.6288000000
4.0068000000 4.1647000000 0.2493000000
4.0066000000 4.2654000000 0.1989000000
4.0063000000 2.6998000000 0.7485000000
4.0060000000 2.9617000000 0.8189000000
4.0060000000 4.8425000000 0.0719000000
4.0058000000 4.9591000000 0.0178000000
4.0056000000 1.8059000000 0.3141000000
4.0053000000 1.4976000000 0.1626000000
4.0053000000 4.4095000000 0.1311000000
4.0052000000 2.0650000000 0.4321000000
4.0051000000 1.6175000000 0.2208000000
4.0050000000 1.2507000000 0.1180000000
4.0047000000 4.5125000000 0.1567000000
4.0047000000 4.1451000000 0.2610000000
4.0045000000 2.8294000000 0.8065000000
4.0044000000 3.7687000000 0.4415000000
4.0042000000 1.8090000000 0.3157000000
4.0042000000 3.6415000000 0.5094000000
4.0038000000 2.2415000000 0.5248000000
4.0037000000 4.6494000000 0.0948000000
4.0036000000 2.8053000000 0.7998000000
4.0035000000 3.0273000000 0.8016000000
4.0034000000 3.2401000000 0.7024000000
4.0034000000 4.1580000000 0.2523000000
4.0031000000 2.2591000000 0.5308000000
4.0030000000 4.7630000000 0.0334000000
4.0028000000 4.7023000000 0.0755000000
4.0027000000 2.7053000000 0.7433000000
4.0024000000 2.5288000000 0.6666000000
4.0023000000 3.0382000000 0.8000000000
4.0018000000 4.9374000000 0.0303000000
4.0012000000 3.5986000000 0.5347000000
4.0010000000 1.1134000000 0.0505000000
4.0007000000 1.8994000000 0.3558000000
4.0004000000 2.3299000000 0.5671000000
4.0003000000 4.2858000000 0.1983000000
4.0003000000 4.2156000000 0.2281000000
4.0002000000 2.5564000000 0.6821000000
4.0000000000 3.6006000000 0.5292000000
3.9996000000 0.8717000000 0.0179000000
3.9990000000 3.2855000000 0.6847000000
3.9987000000 3.8861000000 0.3897000000
3.9984000000 2.1105000000 0.4725000000
3.9983000000 2.3654000000 0.5939000000
3.9980000000 2.4094000000 0.6112000000
3.9978000000 4.9216000000 0.0389000000
3.9975000000 0.9596000000 0.0551000000
3.9971000000 1.0132000000 0.0880000000
3.9964000000 2.1193000000 0.4710000000
3.9929000000 1.4879000000 0.1641000000
3.7626000000 3.8524000000 0.6038000000
3.7614000000 0.9773000000 0.1128000000
3.7608000000 3.6375000000 0.7130000000
3.7600000000 5.0557000000 0.0993000000
3.7594000000 4.0976000000 0.4923000000
3.7592000000 4.5844000000 0.2549000000
3.7586000000 3.9381000000 0.5648000000
3.7584000000 1.8409000000 0.5337000000
3.7583000000 3.6728000000 0.6982000000
3.7584000000 4.5883000000 0.2528000000
3.7583000000 4.4791000000 0.3040000000
3.7579000000 3.8385000000 0.6201000000
3.7579000000 3.7690000000 0.6499000000
3.7575000000 5.3527000000 0.0348000000
3.7574000000 1.2777000000 0.2657000000
3.7571000000 3.5130000000 0.7826000000
3.7566000000 3.6002000000 0.7314000000
3.7563000000 4.8521000000 0.1313000000
3.7562000000 4.0606000000 0.5086000000
3.7559000000 0.8097000000 0.1095000000
3.7557000000 2.4501000000 0.8320000000
3.7556000000 2.1655000000 0.6940000000
3.7557000000 4.7174000000 0.1930000000
3.7555000000 2.8017000000 1.0063000000
3.7554000000 2.6645000000 0.9384000000
3.7552000000 0.9604000000 0.1129000000
3.7550000000 4.8467000000 0.1236000000
3.7548000000 3.9025000000 0.5822000000
3.7545000000 4.9097000000 0.1009000000
3.7545000000 3.4066000000 0.8319000000
3.7545000000 1.3221000000 0.2905000000
3.7544000000 5.1578000000 0.0527000000
3.7543000000 3.0615000000 0.9959000000
3.7543000000 3.0094000000 1.0171000000
3.7541000000 4.1587000000 0.4670000000
3.7538000000 3.5182000000 0.7793000000
3.7537000000 0.9108000000 0.0915000000
3.7535000000 4.4691000000 0.3137000000
3.7534000000 0.5813000000 0.0753000000
3.7534000000 1.4985000000 0.3721000000
3.7532000000 2.3331000000 0.7781000000
3.7532000000 1.2801000000 0.2626000000
3.7531000000 1.2399000000 0.2496000000
3.7530000000 2.8736000000 1.0296000000
3.7530000000 1.2774000000 0.2673000000
3.7526000000 4.0330000000 0.5288000000
3.7523000000 1.1670000000 0.2155000000
3.7522000000 4.1590000000 0.4606000000
3.7520000000 2.7339000000 0.9758000000
3.7517000000 3.8363000000 0.6211000000
3.7513000000 5.0946000000 0.0904000000
3.7511000000 0.5708000000 0.0828000000
3.7511000000 2.7868000000 1.0007000000
3.7509000000 4.2029000000 0.4483000000
3.7506000000 2.0141000000 0.6294000000
3.7505000000 2.2224000000 0.7286000000
3.7503000000 0.7116000000 0.0763000000
3.7503000000 0.4642000000 0.0292000000
3.7498000000 3.7287000000 0.6747000000
3.7494000000 0.4239000000 0.0024000000
3.7493000000 4.2255000000 0.4338000000
3.7493000000 1.7561000000 0.5049000000
3.7484000000 4.3530000000 0.3792000000
3.7476000000 2.3667000000 0.8049000000
3.7475000000 0.8768000000 0.1526000000
3.7450000000 3.5128000000 0.7895000000
3.5125000000 5.3849000000 0.1411000000
3.5117000000 2.1168000000 0.8723000000
3.5097000000 4.5209000000 0.4989000000
3.5097000000 5.1835000000 0.1733000000
3.5096000000 3.3989000000 1.0390000000
3.5089000000 0.4052000000 0.1262000000
3.5087000000 1.9596000000 0.8003000000
3.5086000000 2.7935000000 1.2069000000
3.5085000000 2.8122000000 1.2199000000
3.5079000000 3.1905000000 1.1420000000
3.5079000000 3.8287000000 0.8273000000
3.5078000000 2.9110000000 1.2502000000
3.5077000000 2.2484000000 0.9465000000
3.5076000000 4.6859000000 0.4138000000
3.5076000000 5.7501000000 0.0510000000
3.5074000000 4.2844000000 0.6149000000
3.5073000000 5.7665000000 0.0393000000
3.5073000000 3.6013000000 0.9396000000
3.5071000000 0.5361000000 0.1204000000
3.5069000000 3.1116000000 1.1792000000
3.5068000000 5.1356000000 0.2048000000
3.5064000000 5.6678000000 0.0175000000
3.5065000000 3.3447000000 1.0669000000
3.5065000000 5.1511000000 0.1924000000
3.5063000000 2.8377000000 1.2285000000
3.5061000000 5.0340000000 0.2472000000
3.5061000000 5.6372000000 0.0347000000
3.5060000000 5.3052000000 0.1176000000
3.5059000000 1.3060000000 0.4893000000
3.5058000000 5.5575000000 0.0703000000
3.5058000000 1.3576000000 0.5122000000
3.5060000000 1.9658000000 0.8042000000
3.5058000000 5.0597000000 0.2396000000
3.5057000000 1.2520000000 0.4654000000
3.5055000000 2.6096000000 1.1211000000
3.5052000000 1.1733000000 0.4291000000
3.5049000000 1.6396000000 0.6476000000
3.5048000000 4.7387000000 0.3954000000
3.5047000000 2.3211000000 0.9774000000
3.5046000000 5.7241000000 0.0649000000
3.5045000000 5.4089000000 0.1429000000
3.5044000000 4.5297000000 0.4938000000
3.5042000000 0.1824000000 0.0207000000
3.5042000000 1.5424000000 0.6018000000
3.5041000000 0.9269000000 0.3079000000
3.5041000000 0.1049000000 0.0552000000
3.5040000000 5.4364000000 0.1323000000
3.5039000000 2.0312000000 0.8386000000
3.5039000000 4.9255000000 0.3072000000
3.5040000000 0.3578000000 0.1073000000
3.5038000000 4.3475000000 0.5815000000
3.5038000000 5.4055000000 0.1470000000
3.5037000000 3.9679000000 0.7715000000
3.5037000000 0.2752000000 0.0674000000
3.5036000000 3.6274000000 0.9351000000
3.5035000000 0.3370000000 0.0880000000
3.5034000000 0.3705000000 0.1152000000
3.5029000000 5.7105000000 0.0740000000
3.5028000000 4.5963000000 0.4697000000
3.5027000000 2.5071000000 1.0721000000
3.5027000000 4.0113000000 0.7428000000
3.5026000000 1.2420000000 0.4528000000
3.5025000000 4.1638000000 0.6730000000
3.5025000000 5.3575000000 0.0996000000
3.5023000000 1.3171000000 0.4982000000
3.5023000000 4.2858000000 0.6094000000
3.5021000000 4.4394000000 0.5420000000
3.5021000000 3.6883000000 0.9076000000
3.5019000000 4.8586000000 0.3387000000
3.5015000000 0.1127000000 0.0614000000
3.5015000000 4.0596000000 0.7232000000
3.5014000000 0.1563000000 0.0851000000
3.5013000000 3.1778000000 1.1561000000
3.5013000000 4.4932000000 0.5187000000
3.5012000000 2.1365000000 0.8931000000
3.5010000000 0.3146000000 0.0841000000
3.5009000000 5.6113000000 0.0445000000
3.5008000000 5.0567000000 0.2435000000
3.5008000000 3.3534000000 1.0741000000
3.5007000000 1.3735000000 0.5299000000
3.5004000000 0.1583000000 0.0088000000
3.5000000000 1.4540000000 0.5596000000
3.4999000000 4.5006000000 0.5098000000
3.4996000000 2.2305000000 0.9391000000
3.4994000000 0.4127000000 0.1426000000
3.4994000000 2.1690000000 0.9102000000
3.4991000000 4.3694000000 0.5759000000
3.4980000000 1.8708000000 0.7688000000
3.4975000000 4.2399000000 0.6447000000
3.4971000000 1.6663000000 0.6731000000
3.4970000000 5.8593000000 0.0048000000
3.4963000000 1.0466000000 0.3699000000
3.4963000000 1.3733000000 0.5329000000
3.4955000000 2.7314000000 1.1932000000
3.2599000000 2.4239000000 1.2368000000
3.2591000000 4.9492000000 0.4942000000
3.2580000000 3.0059000000 1.4411000000
3.2580000000 5.7895000000 0.1002000000
3.2578000000 1.5288000000 0.8084000000
3.2575000000 3.6690000000 1.1151000000
3.2574000000 3.5500000000 1.1814000000
3.2574000000 1.7748000000 0.9245000000
3.2572000000 0.4310000000 0.2740000000
3.2571000000 5.1042000000 0.4265000000
3.2568000000 4.5672000000 0.6840000000
3.2568000000 4.1425000000 0.8928000000
3.2567000000 4.9896000000 0.4771000000
3.2567000000 5.4821000000 0.2448000000
3.2566000000 4.5407000000 0.6978000000
3.2563000000 4.5716000000 0.6800000000
3.2562000000 3.6148000000 1.1534000000
3.2561000000 5.8520000000 0.0352000000
3.2560000000 4.7763000000 0.5868000000
3.2560000000 3.4291000000 1.2445000000
3.2559000000 3.8158000000 1.0461000000
3.2558000000 0.2035000000 0.1509000000
3.2558000000 2.4834000000 1.2690000000
3.2557000000 0.8268000000 0.4648000000
3.2557000000 4.0847000000 0.9260000000
3.2556000000 1.8879000000 0.9789000000
3.2555000000 0.6804000000 0.3992000000
3.2554000000 0.0850000000 0.1214000000
3.2553000000 4.8810000000 0.5343000000
3.2553000000 4.2813000000 0.8259000000
3.2553000000 2.4419000000 1.2513000000
3.2552000000 4.7289000000 0.6050000000
3.2550000000 0.1006000000 0.1313000000
3.2550000000 1.5986000000 0.8428000000
3.2550000000 5.0676000000 0.4392000000
3.2549000000 4.1042000000 0.9113000000
3.2548000000 5.7039000000 0.0879000000
3.2548000000 1.3096000000 0.7035000000
3.2547000000 4.9799000000 0.4816000000
3.2546000000 5.5147000000 0.2227000000
3.2545000000 3.7715000000 1.0724000000
3.2543000000 1.2868000000 0.6914000000
3.2543000000 5.1984000000 0.3809000000
3.2542000000 3.9745000000 0.9750000000
3.2542000000 0.5209000000 0.3198000000
3.2541000000 2.1221000000 1.1020000000
3.2541000000 3.5493000000 1.1787000000
3.2540000000 2.7612000000 1.4104000000
3.2540000000 4.0975000000 0.9154000000
3.2537000000 2.1064000000 1.0929000000
3.2536000000 5.1852000000 0.3877000000
3.2534000000 2.9904000000 1.4545000000
3.2532000000 4.5477000000 0.7013000000
3.2531000000 5.4428000000 0.2672000000
3.2530000000 0.6987000000 0.4110000000
3.2529000000 1.5867000000 0.8386000000
3.2528000000 4.7594000000 0.5955000000
3.2527000000 0.4740000000 0.2998000000
3.2528000000 1.7380000000 0.9130000000
3.2525000000 3.7207000000 1.0968000000
3.2524000000 0.9396000000 0.5265000000
3.2523000000 0.2078000000 0.1525000000
3.2522000000 3.7436000000 1.0879000000
3.2520000000 4.7908000000 0.5770000000
3.2520000000 1.7968000000 0.9361000000
3.2520000000 2.3328000000 1.1973000000
3.2519000000 1.9406000000 1.0057000000
3.2518000000 2.7131000000 1.3860000000
3.2518000000 4.9074000000 0.5241000000
3.2516000000 2.1167000000 1.0909000000
3.2515000000 0.1225000000 0.0715000000
3.2514000000 3.6636000000 1.1255000000
3.2513000000 5.7111000000 0.0789000000
3.2512000000 5.5793000000 0.1852000000
3.2507000000 3.3445000000 1.2806000000
3.2507000000 1.2936000000 0.7001000000
3.2505000000 1.7227000000 0.9158000000
3.2501000000 3.1428000000 1.3792000000
3.2497000000 1.8884000000 0.9852000000
3.2495000000 1.9764000000 1.0297000000
3.2495000000 3.4110000000 1.2554000000
3.2493000000 5.1672000000 0.3967000000
3.2493000000 2.8399000000 1.4483000000
3.2492000000 1.7905000000 0.9388000000
3.2489000000 1.7297000000 0.9078000000
3.2477000000 0.6952000000 0.4124000000
3.2475000000 2.0366000000 1.0608000000
3.2469000000 1.1379000000 0.6204000000
3.2465000000 0.1446000000 0.0917000000
3.2463000000 3.3751000000 1.2673000000
3.2458000000 1.2549000000 0.6851000000
3.2457000000 2.5749000000 1.3215000000
3.0143000000 4.2723000000 1.0346000000
3.0140000000 2.7032000000 1.5788000000
3.0122000000 3.6476000000 1.3385000000
3.0105000000 3.3988000000 1.4539000000
3.0093000000 1.2781000000 0.8877000000
3.0090000000 3.5303000000 1.3968000000
3.0089000000 3.7037000000 1.3146000000
3.0088000000 5.0398000000 0.6672000000
3.0086000000 3.1145000000 1.5981000000
3.0073000000 5.8493000000 0.0300000000
3.0070000000 5.0868000000 0.6464000000
3.0068000000 3.1222000000 1.5991000000
3.0067000000 5.2539000000 0.5252000000
3.0066000000 1.7411000000 1.1223000000
3.0065000000 3.6976000000 1.3172000000
3.0060000000 5.7342000000 0.1508000000
3.0060000000 1.4190000000 0.9648000000
3.0058000000 4.9133000000 0.7313000000
3.0058000000 0.4102000000 0.3685000000
3.0055000000 3.2121000000 1.5582000000
3.0054000000 3.4461000000 1.4418000000
3.0052000000 5.0305000000 0.6751000000
3.0051000000 4.2954000000 1.0288000000
3.0050000000 2.4655000000 1.4698000000
3.0049000000 1.7232000000 1.1128000000
3.0048000000 2.5606000000 1.5222000000
3.0048000000 0.0902000000 0.1278000000
3.0046000000 5.3917000000 0.4048000000
3.0043000000 1.1415000000 0.8306000000
3.0043000000 0.1138000000 0.1505000000
3.0043000000 5.7674000000 0.1143000000
3.0041000000 3.8277000000 1.2535000000
3.0042000000 4.9704000000 0.7055000000
3.0040000000 3.3869000000 1.4703000000
3.0039000000 2.7104000000 1.5916000000
3.0038000000 1.7091000000 1.1065000000
3.0037000000 0.8655000000 0.7020000000
3.0035000000 2.2532000000 1.3695000000
3.0033000000 1.1718000000 0.8456000000
3.0032000000 1.0847000000 0.8059000000
3.0032000000 0.2291000000 0.1865000000
3.0031000000 0.2833000000 0.2435000000
3.0030000000 1.6825000000 1.0912000000
3.0028000000 4.3386000000 1.0096000000
3.0028000000 4.9615000000 0.7054000000
3.0028000000 2.6490000000 1.5592000000
3.0026000000 3.9744000000 1.1823000000
3.0025000000 2.8563000000 1.6578000000
3.0025000000 0.4460000000 0.3981000000
3.0024000000 0.5914000000 0.5260000000
3.0023000000 0.7706000000 0.6582000000
3.0023000000 1.8090000000 1.1567000000
3.0020000000 2.4776000000 1.4829000000
3.0019000000 1.0389000000 0.7851000000
3.0019000000 3.7826000000 1.2814000000
3.0018000000 1.5118000000 1.0149000000
3.0018000000 4.4899000000 0.9433000000
3.0017000000 2.7175000000 1.5992000000
3.0016000000 3.2650000000 1.5299000000
3.0016000000 4.5395000000 0.9103000000
3.0015000000 5.6231000000 0.1796000000
3.0011000000 0.1497000000 0.1086000000
3.0010000000 4.3979000000 0.9828000000
3.0008000000 0.3315000000 0.2941000000
3.0005000000 0.0043000000 0.0527000000
3.0005000000 0.4380000000 0.3895000000
2.9995000000 0.5350000000 0.4817000000
2.9993000000 1.2493000000 0.8903000000
2.9992000000 0.8394000000 0.6856000000
2.9991000000 3.9761000000 1.1871000000
2.9990000000 0.0192000000 0.0657000000
2.9988000000 2.8425000000 1.6627000000
2.9988000000 0.8624000000 0.7049000000
2.9987000000 0.9478000000 0.7411000000
2.9985000000 1.4973000000 1.0097000000
2.9981000000 3.1850000000 1.5737000000
2.9980000000 0.4971000000 0.4476000000
2.9975000000 2.8821000000 1.6675000000
2.9943000000 0.6784000000 0.5992000000
2.7625000000 5.1006000000 0.6894000000
2.7604000000 5.3978000000 0.4013000000
2.7603000000 3.4595000000 1.6399000000
2.7602000000 4.7017000000 1.0255000000
2.7596000000 3.5094000000 1.6207000000
2.7593000000 1.8881000000 1.4011000000
2.7587000000 5.0241000000 0.7641000000
2.7584000000 4.6586000000 1.0597000000
2.7581000000 3.0235000000 1.8507000000
2.7579000000 5.4714000000 0.3304000000
2.7577000000 0.7605000000 0.7042000000
2.7570000000 2.2819000000 1.5901000000
2.7568000000 3.7543000000 1.5021000000
2.7566000000 4.2833000000 1.2470000000
2.7565000000 2.7401000000 1.8057000000
2.7565000000 3.9040000000 1.4233000000
2.7563000000 3.7528000000 1.4989000000
2.7563000000 3.9074000000 1.4267000000
2.7562000000 5.0639000000 0.7244000000
2.7560000000 1.4749000000 1.1995000000
2.7560000000 0.7807000000 0.7220000000
2.7560000000 1.8400000000 1.3800000000
2.7558000000 2.9617000000 1.8655000000
2.7556000000 5.7806000000 0.1083000000
2.7555000000 2.8334000000 1.8607000000
2.7554000000 5.0073000000 0.7816000000
2.7553000000 0.0830000000 0.1250000000
2.7552000000 5.0050000000 0.7824000000
2.7552000000 4.3873000000 1.1882000000
2.7551000000 4.9877000000 0.7965000000
2.7550000000 0.4175000000 0.3692000000
2.7549000000 1.1087000000 1.0057000000
2.7549000000 0.7986000000 0.7351000000
2.7548000000 5.4289000000 0.3760000000
2.7547000000 5.1477000000 0.6419000000
2.7545000000 5.2633000000 0.5363000000
2.7544000000 4.1865000000 1.2890000000
2.7542000000 1.5769000000 1.2463000000
2.7542000000 5.0664000000 0.7212000000
2.7541000000 1.8228000000 1.3729000000
2.7538000000 4.3321000000 1.2247000000
2.7538000000 5.6978000000 0.1068000000
2.7538000000 1.5400000000 1.2352000000
2.7537000000 1.7403000000 1.3346000000
2.7536000000 2.7382000000 1.8144000000
2.7535000000 5.4848000000 0.3172000000
2.7535000000 2.2183000000 1.5657000000
2.7535000000 3.7003000000 1.5300000000
2.7534000000 1.9512000000 1.4345000000
2.7532000000 1.7972000000 1.3604000000
2.7529000000 5.6106000000 0.1938000000
2.7528000000 1.0448000000 0.9709000000
2.7527000000 3.6046000000 1.5756000000
2.7525000000 2.1923000000 1.5531000000
2.7523000000 4.7133000000 1.0290000000
2.7523000000 3.2107000000 1.7634000000
2.7522000000 5.5245000000 0.2777000000
2.7521000000 3.8589000000 1.4505000000
2.7521000000 1.8201000000 1.3730000000
2.7520000000 4.1275000000 1.3206000000
2.7515000000 0.3268000000 0.2818000000
2.7515000000 5.4664000000 0.3371000000
2.7512000000 0.7729000000 0.7206000000
2.7511000000 3.1062000000 1.8153000000
2.7511000000 1.7152000000 1.3243000000
2.7510000000 5.1640000000 0.6292000000
2.7510000000 0.6302000000 0.5824000000
2.7508000000 1.8763000000 1.4004000000
2.7506000000 0.4482000000 0.3993000000
2.7505000000 0.1190000000 0.1566000000
2.7498000000 0.9596000000 0.8952000000
2.7491000000 5.1348000000 0.6546000000
2.7490000000 3.6564000000 1.5521000000
2.7490000000 2.3715000000 1.6392000000
2.7480000000 0.2455000000 0.2001000000
2.7469000000 4.8957000000 0.8891000000
2.7468000000 3.3497000000 1.7080000000
2.7467000000 2.0575000000 1.4925000000
2.7462000000 1.1660000000 1.0416000000
2.7462000000 1.2209000000 1.0874000000
2.7450000000 4.3285000000 1.2304000000
2.5126000000 3.1653000000 1.9933000000
2.5112000000 4.6943000000 1.0834000000
2.5108000000 4.2168000000 1.4825000000
2.5106000000 1.5058000000 1.4057000000
2.5091000000 3.6452000000 1.7675000000
2.5087000000 3.6989000000 1.7296000000
2.5086000000 5.6716000000 0.1370000000
2.5086000000 4.7768000000 1.0030000000
2.5085000000 5.4681000000 0.3343000000
2.5082000000 3.3939000000 1.8840000000
2.5080000000 4.6249000000 1.1568000000
2.5075000000 0.9026000000 0.8382000000
2.5071000000 1.5262000000 1.4194000000
2.5070000000 3.7243000000 1.7201000000
2.5068000000 3.9299000000 1.6254000000
2.5065000000 4.1363000000 1.5218000000
2.5064000000 0.3867000000 0.3401000000
2.5063000000 5.6928000000 0.1200000000
2.5062000000 2.5692000000 1.9419000000
2.5061000000 3.7805000000 1.6920000000
2.5060000000 0.0657000000 0.1065000000
2.5058000000 5.4565000000 0.3456000000
2.5055000000 5.0261000000 0.7648000000
2.5054000000 5.3898000000 0.4131000000
2.5053000000 3.5037000000 1.8318000000
2.5054000000 3.6994000000 1.7347000000
2.5053000000 2.3331000000 1.8327000000
2.5051000000 2.7353000000 2.0252000000
2.5050000000 5.4563000000 0.3464000000
2.5048000000 3.9471000000 1.6171000000
2.5048000000 2.4677000000 1.8921000000
2.5046000000 4.5884000000 1.1874000000
2.5045000000 0.7330000000 0.6761000000
2.5042000000 3.8610000000 1.6622000000
2.5041000000 3.9967000000 1.5928000000
2.5040000000 2.3334000000 1.8294000000
2.5040000000 3.9359000000 1.6199000000
2.5039000000 2.9648000000 2.0771000000
2.5038000000 1.3715000000 1.2941000000
2.5035000000 0.1758000000 0.1367000000
2.5031000000 1.2243000000 1.1574000000
2.5030000000 0.0995000000 0.1353000000
2.5030000000 5.3206000000 0.4704000000
2.5029000000 3.8465000000 1.6658000000
2.5028000000 2.8970000000 2.0906000000
2.5027000000 0.5278000000 0.4736000000
2.5024000000 0.1540000000 0.1166000000
2.5023000000 2.5914000000 1.9547000000
2.5022000000 1.0431000000 0.9787000000
2.5020000000 1.1715000000 1.1013000000
2.5018000000 2.0658000000 1.7001000000
2.5015000000 3.9265000000 1.6320000000
2.5015000000 1.7005000000 1.5250000000
2.5013000000 5.0222000000 0.7636000000
2.5012000000 4.2186000000 1.4845000000
2.5011000000 3.4347000000 1.8677000000
2.5010000000 1.8636000000 1.6001000000
2.5009000000 2.1913000000 1.7653000000
2.5008000000 5.2786000000 0.5173000000
2.5006000000 3.7602000000 1.7077000000
2.5000000000 1.6557000000 1.5008000000
2.5000000000 0.3434000000 0.2968000000
2.4999000000 4.5144000000 1.2573000000
2.4995000000 0.7598000000 0.7019000000
2.4992000000 2.5902000000 1.9560000000
2.4987000000 2.7135000000 2.0169000000
2.4985000000 0.8293000000 0.7678000000
2.4984000000 0.1676000000 0.1293000000
2.4980000000 5.2568000000 0.5330000000
2.4978000000 0.3185000000 0.2757000000
2.4973000000 1.1221000000 1.0558000000
2.4970000000 1.7671000000 1.5593000000
2.4970000000 1.1095000000 1.0405000000
2.4965000000 0.3020000000 0.2595000000
2.4943000000 3.2041000000 1.9883000000
2.2634000000 3.8029000000 1.8856000000
2.2622000000 3.8666000000 1.8531000000
2.2609000000 3.8257000000 1.8690000000
2.2598000000 4.7329000000 1.0409000000
2.2596000000 3.1983000000 2.1871000000
2.2594000000 5.4797000000 0.3252000000
2.2587000000 4.8779000000 0.9094000000
2.2584000000 5.8486000000 0.0379000000
2.2583000000 5.4040000000 0.3919000000
2.2580000000 1.5164000000 1.4377000000
2.2579000000 4.9725000000 0.8101000000
2.2579000000 3.8689000000 1.8545000000
2.2578000000 2.5382000000 2.1288000000
2.2577000000 5.0526000000 0.7378000000
2.2574000000 2.9492000000 2.2854000000
2.2573000000 3.7570000000 1.9222000000
2.2572000000 5.2921000000 0.5045000000
2.2570000000 5.2485000000 0.5434000000
2.2567000000 4.6560000000 1.1235000000
2.2566000000 1.6923000000 1.6078000000
2.2565000000 1.4609000000 1.3865000000
2.2564000000 4.2268000000 1.5367000000
2.2564000000 4.6388000000 1.1402000000
2.2562000000 1.3885000000 1.3148000000
2.2560000000 2.4163000000 2.0763000000
2.2560000000 5.4331000000 0.3622000000
2.2559000000 3.1454000000 2.2126000000
2.2557000000 2.7804000000 2.2539000000
2.2555000000 0.9515000000 0.8856000000
2.2555000000 3.8643000000 1.8533000000
2.2553000000 5.3086000000 0.4913000000
2.2553000000 1.6353000000 1.5531000000
2.2549000000 5.0001000000 0.7880000000
2.2547000000 5.5415000000 0.2609000000
2.2545000000 0.0725000000 0.1102000000
2.2544000000 1.8624000000 1.7500000000
2.2543000000 0.4384000000 0.3909000000
2.2542000000 4.3922000000 1.3772000000
2.2540000000 5.5754000000 0.2301000000
2.2539000000 2.1985000000 1.9734000000
2.2539000000 3.9587000000 1.7819000000
2.2538000000 3.4215000000 2.0788000000
2.2537000000 4.0814000000 1.6734000000
2.2535000000 0.0543000000 0.0938000000
2.2535000000 0.7727000000 0.7137000000
2.2533000000 3.3153000000 2.1325000000
2.2532000000 2.6470000000 2.1915000000
2.2530000000 4.8674000000 0.9147000000
2.2529000000 0.0413000000 0.0814000000
2.2530000000 4.2461000000 1.5158000000
2.2528000000 0.3618000000 0.3170000000
2.2528000000 0.1433000000 0.1100000000
2.2527000000 0.9732000000 0.9064000000
2.2526000000 0.4545000000 0.4103000000
2.2525000000 1.5643000000 1.4826000000
2.2523000000 5.5330000000 0.2759000000
2.2522000000 1.6452000000 1.5598000000
2.2521000000 0.1522000000 0.1109000000
2.2521000000 1.7927000000 1.7018000000
2.2519000000 4.9715000000 0.8088000000
2.2518000000 2.6716000000 2.2048000000
2.2517000000 3.4470000000 2.0744000000
2.2516000000 2.8268000000 2.2819000000
2.2514000000 3.5434000000 2.0241000000
2.2509000000 3.4618000000 2.0679000000
2.2509000000 0.8515000000 0.7938000000
2.2505000000 3.4312000000 2.0723000000
2.2503000000 3.1049000000 2.2412000000
2.2503000000 1.7238000000 1.6451000000
2.2498000000 2.6829000000 2.2093000000
2.2498000000 0.4589000000 0.4111000000
2.2497000000 3.1947000000 2.1954000000
2.2494000000 3.8109000000 1.8790000000
2.2490000000 3.1236000000 2.2325000000
2.2490000000 5.6856000000 0.1240000000
2.2489000000 5.4306000000 0.3712000000
2.2483000000 2.9519000000 2.2969000000
2.2483000000 5.5282000000 0.2792000000
2.2481000000 1.9418000000 1.8374000000
2.2478000000 1.6129000000 1.5273000000
2.2475000000 4.5354000000 1.2359000000
2.2473000000 2.0697000000 1.9170000000
2.2471000000 0.3756000000 0.3312000000
2.2467000000 1.2982000000 1.2299000000
2.2467000000 5.3961000000 0.4001000000
2.0137000000 2.0607000000 1.9650000000
2.0123000000 3.9809000000 1.7718000000
2.0121000000 3.6416000000 2.1041000000
2.0111000000 5.2663000000 0.5311000000
2.0104000000 4.2194000000 1.5406000000
2.0103000000 3.1037000000 2.4407000000
2.0098000000 3.8442000000 1.9092000000
2.0086000000 4.3076000000 1.4547000000
2.0084000000 5.3172000000 0.4784000000
2.0082000000 5.6869000000 0.1204000000
2.0076000000 5.0327000000 0.7528000000
2.0074000000 2.6997000000 2.4209000000
2.0074000000 2.4652000000 2.2960000000
2.0072000000 1.7043000000 1.6167000000
2.0071000000 3.8808000000 1.8768000000
2.0071000000 0.7362000000 0.6779000000
2.0069000000 4.4282000000 1.3444000000
2.0068000000 0.9193000000 0.8553000000
2.0065000000 3.9625000000 1.7866000000
2.0064000000 5.8491000000 0.0375000000
2.0063000000 3.2566000000 2.3722000000
2.0061000000 1.0173000000 0.9525000000
2.0060000000 2.9936000000 2.4990000000
2.0058000000 1.6549000000 1.5687000000
2.0058000000 1.6099000000 1.5310000000
2.0056000000 5.8076000000 0.0799000000
2.0055000000 0.1289000000 0.0971000000
2.0055000000 2.1850000000 2.0789000000
2.0054000000 0.3103000000 0.2663000000
2.0053000000 5.3314000000 0.4691000000
2.0050000000 0.1340000000 0.0962000000
2.0049000000 3.8800000000 1.8706000000
2.0048000000 3.9298000000 1.8252000000
2.0049000000 3.0344000000 2.4809000000
2.0048000000 3.7578000000 1.9925000000
2.0047000000 4.1371000000 1.6269000000
2.0046000000 0.4682000000 0.4178000000
2.0045000000 4.1786000000 1.5812000000
2.0044000000 5.6005000000 0.2038000000
2.0044000000 2.8920000000 2.5019000000
2.0043000000 4.5069000000 1.2662000000
2.0042000000 0.4464000000 0.3975000000
2.0041000000 1.6207000000 1.5369000000
2.0040000000 0.1505000000 0.1114000000
2.0038000000 2.3655000000 2.2445000000
2.0037000000 3.4362000000 2.2699000000
2.0036000000 5.7967000000 0.0866000000
2.0035000000 2.3013000000 2.1825000000
2.0033000000 5.5685000000 0.2368000000
2.0032000000 2.6096000000 2.3838000000
2.0029000000 0.0145000000 0.0552000000
2.0029000000 1.1569000000 1.0900000000
2.0028000000 0.5334000000 0.4854000000
2.0028000000 1.8002000000 1.7076000000
2.0028000000 1.7307000000 1.6462000000
2.0027000000 4.1821000000 1.5774000000
2.0027000000 4.2910000000 1.4723000000
2.0026000000 2.1304000000 2.0312000000
2.0025000000 0.3009000000 0.2561000000
2.0022000000 1.6727000000 1.5860000000
2.0020000000 3.8487000000 1.9026000000
2.0020000000 3.9242000000 1.8312000000
2.0020000000 2.6015000000 2.3763000000
2.0019000000 3.7828000000 1.9658000000
2.0018000000 0.5805000000 0.5285000000
2.0015000000 3.1978000000 2.4027000000
2.0012000000 0.3763000000 0.3313000000
2.0010000000 0.4521000000 0.4069000000
2.0007000000 1.1327000000 1.0638000000
2.0005000000 1.8758000000 1.7832000000
2.0000000000 3.3260000000 2.3412000000
1.9998000000 2.9285000000 2.5217000000
1.9997000000 0.5825000000 0.5308000000
1.9996000000 1.5245000000 1.4452000000
1.9995000000 1.2531000000 1.1829000000
1.9986000000 3.7406000000 2.0066000000
1.9985000000 3.1106000000 2.4455000000
1.9979000000 0.4568000000 0.4098000000
1.9978000000 0.0364000000 0.0729000000
1.9975000000 0.2371000000 0.1961000000
1.9973000000 3.0894000000 2.4590000000
1.7628000000 1.9399000000 1.8478000000
1.7625000000 5.3137000000 0.4795000000
1.7595000000 3.1083000000 2.6063000000
1.7592000000 3.6095000000 2.1375000000
1.7587000000 1.8319000000 1.7412000000
1.7580000000 5.7529000000 0.0550000000
1.7579000000 4.2264000000 1.5334000000
1.7578000000 5.6349000000 0.1760000000
1.7576000000 0.1992000000 0.1651000000
1.7576000000 1.2377000000 1.1616000000
1.7575000000 5.8249000000 0.0581000000
1.7573000000 3.3275000000 2.4042000000
1.7572000000 5.7611000000 0.1233000000
1.7572000000 1.9872000000 1.8898000000
1.7571000000 5.0408000000 0.7506000000
1.7569000000 3.4037000000 2.3338000000
1.7568000000 3.3926000000 2.3427000000
1.7567000000 5.2845000000 0.5102000000
1.7567000000 2.6494000000 2.5353000000
1.7565000000 2.1696000000 2.0680000000
1.7562000000 0.2669000000 0.2214000000
1.7560000000 4.0612000000 1.7014000000
1.7559000000 3.2183000000 2.5183000000
1.7555000000 1.9118000000 1.8203000000
1.7555000000 5.5409000000 0.2667000000
1.7554000000 0.6841000000 0.6254000000
1.7554000000 1.7731000000 1.6827000000
1.7553000000 3.6250000000 2.1216000000
1.7551000000 5.7156000000 0.0947000000
1.7550000000 2.7570000000 2.6225000000
1.7550000000 5.7184000000 0.0924000000
1.7549000000 1.8906000000 1.7982000000
1.7548000000 4.9856000000 0.8016000000
1.7548000000 0.4410000000 0.3934000000
1.7545000000 4.1194000000 1.6390000000
1.7543000000 5.5303000000 0.2780000000
1.7541000000 5.3234000000 0.4710000000
1.7540000000 3.5245000000 2.2216000000
1.7540000000 5.0910000000 0.6975000000
1.7539000000 1.1538000000 1.0870000000
1.7539000000 4.2752000000 1.4856000000
1.7538000000 2.1230000000 2.0248000000
1.7538000000 2.8179000000 2.6775000000
1.7536000000 0.6265000000 0.5732000000
1.7536000000 0.0096000000 0.0536000000
1.7535000000 2.9263000000 2.7372000000
1.7533000000 1.4838000000 1.4108000000
1.7533000000 5.4580000000 0.3409000000
1.7530000000 0.8910000000 0.8272000000
1.7529000000 1.4430000000 1.3687000000
1.7528000000 0.4097000000 0.3631000000
1.7526000000 4.4224000000 1.3516000000
1.7527000000 1.9294000000 1.8398000000
1.7526000000 2.8601000000 2.7281000000
1.7525000000 1.9511000000 1.8541000000
1.7525000000 4.6666000000 1.1086000000
1.7525000000 3.2684000000 2.4673000000
1.7523000000 4.1685000000 1.5878000000
1.7523000000 4.4583000000 1.3107000000
1.7522000000 4.9458000000 0.8401000000
1.7521000000 4.5774000000 1.1951000000
1.7520000000 5.0178000000 0.7697000000
1.7520000000 2.3355000000 2.2391000000
1.7518000000 5.3819000000 0.4171000000
1.7517000000 5.0768000000 0.7131000000
1.7515000000 4.5520000000 1.2221000000
1.7514000000 1.4950000000 1.4181000000
1.7513000000 0.2694000000 0.2273000000
1.7513000000 2.8395000000 2.7420000000
1.7511000000 3.1606000000 2.5739000000
1.7510000000 4.0951000000 1.6663000000
1.7510000000 3.6534000000 2.0946000000
1.7510000000 4.9502000000 0.8411000000
1.7507000000 2.3349000000 2.2336000000
1.7508000000 1.8539000000 1.7592000000
1.7506000000 4.5469000000 1.2276000000
1.7505000000 5.1060000000 0.6867000000
1.7504000000 2.7192000000 2.5937000000
1.7503000000 3.8409000000 1.9128000000
1.7502000000 2.8839000000 2.7477000000
1.7501000000 4.3313000000 1.4365000000
1.7501000000 1.4644000000 1.3852000000
1.7499000000 4.4803000000 1.2889000000
1.7497000000 1.5734000000 1.4951000000
1.7496000000 3.4968000000 2.2461000000
1.7495000000 0.6747000000 0.6221000000
1.7493000000 1.3689000000 1.2956000000
1.7490000000 0.7523000000 0.6945000000
1.7485000000 0.1062000000 0.1465000000
1.7481000000 1.1085000000 1.0343000000
1.7477000000 0.3195000000 0.2774000000
1.7475000000 2.1685000000 2.0727000000
1.7471000000 4.1871000000 1.5729000000
1.7467000000 2.7040000000 2.5813000000
1.7465000000 2.3057000000 2.2022000000
1.7464000000 4.3579000000 1.4079000000
1.7462000000 1.4705000000 1.3951000000
1.7378000000 2.9203000000 2.7290000000
1.7552000000 5.8321000000 0.0502000000
1.5133000000 3.1693000000 2.5226000000
1.5129000000 5.3037000000 0.4879000000
1.5102000000 2.4520000000 2.3414000000
1.5097000000 4.7307000000 1.0508000000
1.5096000000 5.3272000000 0.4683000000
1.5093000000 5.8606000000 0.0256000000
1.5092000000 2.1223000000 2.0300000000
1.5087000000 2.3475000000 2.2425000000
1.5083000000 3.8924000000 1.8583000000
1.5080000000 5.6694000000 0.1392000000
1.5076000000 3.7217000000 2.0270000000
1.5073000000 5.8458000000 0.0414000000
1.5073000000 5.5736000000 0.2318000000
1.5070000000 4.0620000000 1.6968000000
1.5068000000 0.4970000000 0.4495000000
1.5065000000 5.5482000000 0.2563000000
1.5062000000 4.3238000000 1.4400000000
1.5059000000 4.9847000000 0.8072000000
1.5058000000 1.6372000000 1.5575000000
1.5055000000 1.5922000000 1.5096000000
1.5055000000 1.1842000000 1.1166000000
1.5054000000 0.7902000000 0.7351000000
1.5054000000 1.5053000000 1.4284000000
1.5053000000 5.6641000000 0.1425000000
1.5050000000 3.5413000000 2.2021000000
1.5048000000 1.8772000000 1.7924000000
1.5048000000 4.9437000000 0.8416000000
1.5046000000 0.3015000000 0.2541000000
1.5045000000 4.1549000000 1.6068000000
1.5043000000 4.1646000000 1.5976000000
1.5041000000 5.4603000000 0.3411000000
1.5040000000 1.1032000000 1.0339000000
1.5040000000 2.7984000000 2.5866000000
1.5039000000 5.3851000000 0.4160000000
1.5038000000 0.0812000000 0.1199000000
1.5035000000 4.2127000000 1.5481000000
1.5036000000 1.3033000000 1.2309000000
1.5035000000 1.0030000000 0.9379000000
1.5034000000 4.2591000000 1.5096000000
1.5033000000 5.5877000000 0.2185000000
1.5032000000 5.5139000000 0.2914000000
1.5029000000 0.0505000000 0.0939000000
1.5030000000 2.1427000000 2.0458000000
1.5028000000 0.8454000000 0.7881000000
1.5028000000 4.4847000000 1.2865000000
1.5028000000 2.4256000000 2.3147000000
1.5026000000 3.6150000000 2.1284000000
1.5025000000 4.3383000000 1.4254000000
1.5024000000 5.6512000000 0.1589000000
1.5022000000 5.6140000000 0.1877000000
1.5022000000 2.7116000000 2.5352000000
1.5020000000 1.3990000000 1.3252000000
1.5018000000 4.6542000000 1.1232000000
1.5018000000 4.7016000000 1.0734000000
1.5016000000 5.7244000000 0.1640000000
1.5015000000 1.8441000000 1.7586000000
1.5014000000 1.7476000000 1.6652000000
1.5013000000 3.5947000000 2.1474000000
1.5012000000 2.8190000000 2.5913000000
1.5011000000 4.5526000000 1.2200000000
1.5011000000 5.2169000000 0.5740000000
1.5010000000 2.6016000000 2.4763000000
1.5010000000 4.4324000000 1.3358000000
1.5009000000 5.3588000000 0.4401000000
1.5008000000 3.9825000000 1.7732000000
1.4997000000 2.3630000000 2.2619000000
1.4996000000 2.7851000000 2.5795000000
1.4995000000 0.3439000000 0.3013000000
1.4994000000 1.9906000000 1.8904000000
1.4992000000 0.8425000000 0.7887000000
1.4988000000 0.1075000000 0.1503000000
1.4988000000 1.1023000000 1.0404000000
1.4982000000 0.2506000000 0.2137000000
1.4980000000 1.5490000000 1.4667000000
1.4978000000 2.9522000000 2.6108000000
1.4978000000 1.6018000000 1.5250000000
1.4970000000 0.3621000000 0.3128000000
1.4969000000 3.0724000000 2.5633000000
1.4968000000 1.0946000000 1.0275000000
1.4968000000 0.6302000000 0.5786000000
1.4962000000 3.7588000000 1.9904000000
1.4944000000 5.1420000000 0.6483000000
1.2623000000 5.8132000000 0.0711000000
1.2620000000 3.6243000000 2.0912000000
1.2613000000 0.2097000000 0.1685000000
1.2612000000 4.5613000000 1.2175000000
1.2605000000 0.1866000000 0.1409000000
1.2600000000 1.7745000000 1.6843000000
1.2599000000 5.4886000000 0.3106000000
1.2599000000 2.8160000000 2.3900000000
1.2590000000 0.6696000000 0.6136000000
1.2590000000 3.5200000000 2.1483000000
1.2584000000 5.5579000000 0.2450000000
1.2583000000 0.9984000000 0.9369000000
1.2580000000 2.6685000000 2.3113000000
1.2578000000 4.4933000000 1.2778000000
1.2575000000 0.5846000000 0.5359000000
1.2570000000 5.7651000000 0.1155000000
1.2571000000 4.1393000000 1.6187000000
1.2570000000 2.3258000000 2.1472000000
1.2568000000 4.9929000000 0.7927000000
1.2568000000 4.4561000000 1.3131000000
1.2567000000 4.5950000000 1.1771000000
1.2565000000 4.2544000000 1.5118000000
1.2563000000 5.4156000000 0.3845000000
1.2561000000 4.2915000000 1.4710000000
1.2561000000 1.5118000000 1.4321000000
1.2559000000 4.5590000000 1.2128000000
1.2558000000 3.0660000000 2.3684000000
1.2557000000 1.2646000000 1.1858000000
1.2555000000 3.3620000000 2.2311000000
1.2556000000 5.7571000000 0.1220000000
1.2553000000 2.9759000000 2.4050000000
1.2552000000 1.4478000000 1.3655000000
1.2550000000 5.3373000000 0.4650000000
1.2550000000 5.7280000000 0.1545000000
1.2550000000 1.1071000000 1.0384000000
1.2549000000 1.9820000000 1.8858000000
1.2545000000 2.9601000000 2.4072000000
1.2545000000 2.5584000000 2.2596000000
1.2544000000 1.9125000000 1.8149000000
1.2543000000 4.0886000000 1.6751000000
1.2543000000 4.4682000000 1.3034000000
1.2539000000 2.4990000000 2.2309000000
1.2538000000 1.9204000000 1.8262000000
1.2538000000 0.4881000000 0.4381000000
1.2537000000 0.3476000000 0.3040000000
1.2536000000 1.5793000000 1.5010000000
1.2535000000 3.4406000000 2.1851000000
1.2535000000 2.7151000000 2.3308000000
1.2534000000 1.5446000000 1.4646000000
1.2533000000 2.1567000000 2.0471000000
1.2532000000 2.6805000000 2.3160000000
1.2532000000 1.7225000000 1.6390000000
1.2531000000 0.3676000000 0.3222000000
1.2529000000 3.6270000000 2.0769000000
1.2530000000 1.5129000000 1.4341000000
1.2525000000 0.8142000000 0.7527000000
1.2525000000 3.5416000000 2.1408000000
1.2524000000 1.7781000000 1.6874000000
1.2521000000 1.7143000000 1.6303000000
1.2521000000 4.5819000000 1.1992000000
1.2520000000 0.3607000000 0.3119000000
1.2519000000 4.9888000000 0.8010000000
1.2518000000 5.7194000000 0.0898000000
1.2517000000 0.6645000000 0.6119000000
1.2511000000 2.1993000000 2.0682000000
1.2510000000 5.2452000000 0.5446000000
1.2508000000 2.0270000000 1.9300000000
1.2506000000 4.2763000000 1.4918000000
1.2504000000 0.4254000000 0.3840000000
1.2503000000 0.1111000000 0.1494000000
1.2503000000 1.5894000000 1.5086000000
1.2500000000 3.9388000000 1.8164000000
1.2499000000 1.7914000000 1.7042000000
1.2496000000 1.3518000000 1.2791000000
1.2497000000 3.1513000000 2.3234000000
1.2492000000 2.1336000000 2.0185000000
1.2492000000 3.3256000000 2.2414000000
1.2489000000 2.8318000000 2.3927000000
1.2486000000 2.3009000000 2.1306000000
1.2483000000 3.0821000000 2.3561000000
1.2481000000 0.0305000000 0.0665000000
1.2474000000 1.1327000000 1.0661000000
1.2448000000 1.8617000000 1.7705000000
1.0134000000 3.7882000000 1.8217000000
1.0105000000 3.8698000000 1.7750000000
1.0103000000 5.3559000000 0.4419000000
1.0102000000 5.3512000000 0.4460000000
1.0097000000 2.0858000000 1.8218000000
1.0094000000 4.7595000000 1.0271000000
1.0093000000 5.6633000000 0.1489000000
1.0088000000 5.3827000000 0.4207000000
1.0085000000 5.1386000000 0.6572000000
1.0085000000 4.5153000000 1.2581000000
1.0081000000 4.5486000000 1.2253000000
1.0078000000 4.4437000000 1.3246000000
1.0075000000 5.5069000000 0.2961000000
1.0072000000 3.5438000000 1.9254000000
1.0071000000 5.8159000000 0.0692000000
1.0071000000 5.4279000000 0.3708000000
1.0068000000 4.1668000000 1.5776000000
1.0066000000 1.0433000000 0.9776000000
1.0066000000 2.2308000000 1.8889000000
1.0061000000 1.7420000000 1.6400000000
1.0059000000 4.7338000000 1.0455000000
1.0058000000 3.2621000000 2.0678000000
1.0058000000 1.4384000000 1.3660000000
1.0057000000 2.9808000000 2.1960000000
1.0056000000 4.8103000000 0.9707000000
1.0055000000 4.1522000000 1.5967000000
1.0053000000 1.1783000000 1.1068000000
1.0052000000 1.4194000000 1.3442000000
1.0049000000 5.8009000000 0.0872000000
1.0049000000 2.1558000000 1.8533000000
1.0047000000 3.9766000000 1.7188000000
1.0046000000 0.9041000000 0.8498000000
1.0044000000 2.6170000000 2.0838000000
1.0043000000 0.0545000000 0.0908000000
1.0043000000 5.2279000000 0.5671000000
1.0043000000 1.2067000000 1.1393000000
1.0042000000 1.5216000000 1.4413000000
1.0042000000 0.4234000000 0.3791000000
1.0040000000 3.8841000000 1.7615000000
1.0040000000 5.0022000000 0.7865000000
1.0040000000 1.5184000000 1.4367000000
1.0038000000 1.3896000000 1.3146000000
1.0037000000 4.1084000000 1.6370000000
1.0037000000 0.7728000000 0.7202000000
1.0035000000 2.4754000000 2.0073000000
1.0034000000 1.3040000000 1.2282000000
1.0033000000 2.8805000000 2.1908000000
1.0032000000 5.1209000000 0.6702000000
1.0031000000 3.2200000000 2.0829000000
1.0029000000 0.3363000000 0.2924000000
1.0027000000 3.4499000000 1.9772000000
1.0027000000 4.7566000000 1.0166000000
1.0026000000 2.8003000000 2.1607000000
1.0026000000 2.2747000000 1.9056000000
1.0025000000 5.6110000000 0.1978000000
1.0023000000 1.5116000000 1.4347000000
1.0022000000 1.8415000000 1.6936000000
1.0021000000 5.6204000000 0.1844000000
1.0019000000 0.8113000000 0.7537000000
1.0019000000 4.0363000000 1.6716000000
1.0017000000 2.1693000000 1.8617000000
1.0016000000 2.1244000000 1.8386000000
1.0015000000 3.7418000000 1.8286000000
1.0014000000 4.7570000000 1.0237000000
1.0013000000 3.7476000000 1.8259000000
1.0013000000 3.7868000000 1.8054000000
1.0013000000 4.4911000000 1.2741000000
1.0012000000 3.4830000000 1.9564000000
1.0008000000 4.4779000000 1.2965000000
1.0006000000 4.5525000000 1.2251000000
1.0000000000 4.9175000000 0.8712000000
0.9998000000 0.6417000000 0.5898000000
0.9996000000 5.6354000000 0.1717000000
0.9995000000 3.2670000000 2.0511000000
0.9993000000 1.4216000000 1.3477000000
0.9991000000 1.0235000000 0.9612000000
0.9990000000 3.3568000000 2.0090000000
0.9989000000 2.1433000000 1.8416000000
0.9987000000 4.0234000000 1.6804000000
0.9982000000 5.8505000000 0.0391000000
0.9975000000 2.7947000000 2.1613000000
0.9972000000 0.0468000000 0.0868000000
0.9969000000 4.7887000000 0.9919000000
0.9967000000 5.3516000000 0.4484000000
0.9965000000 3.3280000000 2.0248000000
0.9963000000 0.6511000000 0.5993000000
0.9962000000 2.3105000000 1.9235000000
0.9929000000 0.9447000000 0.8860000000
0.7635000000 4.1751000000 1.4176000000
0.7624000000 1.5183000000 1.3429000000
0.7604000000 5.5275000000 0.2795000000
0.7600000000 0.3323000000 0.2858000000
0.7593000000 2.5132000000 1.8262000000
0.7589000000 4.3478000000 1.3336000000
0.7585000000 2.0608000000 1.6034000000
0.7583000000 4.4498000000 1.2691000000
0.7577000000 2.6257000000 1.8699000000
0.7576000000 4.7468000000 1.0378000000
0.7576000000 5.8175000000 0.0750000000
0.7575000000 2.7145000000 1.9207000000
0.7573000000 4.2184000000 1.3936000000
0.7570000000 4.2070000000 1.3972000000
0.7570000000 2.7235000000 1.9213000000
0.7568000000 4.5271000000 1.2238000000
0.7566000000 5.1799000000 0.6067000000
0.7566000000 4.7680000000 1.0084000000
0.7561000000 1.1434000000 1.0779000000
0.7561000000 4.8785000000 0.9055000000
0.7559000000 1.9379000000 1.5439000000
0.7560000000 1.5606000000 1.3630000000
0.7558000000 5.2158000000 0.5777000000
0.7557000000 1.7858000000 1.4674000000
0.7555000000 2.8327000000 1.9790000000
0.7554000000 1.9080000000 1.5299000000
0.7553000000 4.2926000000 1.3550000000
0.7553000000 1.7525000000 1.4495000000
0.7552000000 4.1949000000 1.4060000000
0.7548000000 1.0702000000 1.0022000000
0.7545000000 5.3938000000 0.4095000000
0.7545000000 2.3489000000 1.7435000000
0.7545000000 4.9249000000 0.8634000000
0.7544000000 3.8603000000 1.5648000000
0.7543000000 4.4927000000 1.2407000000
0.7542000000 0.7779000000 0.7212000000
0.7541000000 1.6082000000 1.3783000000
0.7540000000 0.4741000000 0.4290000000
0.7536000000 0.2243000000 0.1840000000
0.7535000000 4.2016000000 1.3964000000
0.7534000000 2.8825000000 1.9805000000
0.7533000000 3.7676000000 1.6047000000
0.7532000000 2.1780000000 1.6518000000
0.7532000000 0.9218000000 0.8566000000
0.7530000000 0.8475000000 0.7929000000
0.7529000000 2.6251000000 1.8673000000
0.7528000000 5.8215000000 0.0650000000
0.7527000000 2.8769000000 1.9833000000
0.7523000000 5.6229000000 0.1859000000
0.7520000000 1.3042000000 1.2153000000
0.7519000000 0.4890000000 0.4393000000
0.7518000000 3.2381000000 1.8555000000
0.7517000000 3.0854000000 1.9337000000
0.7513000000 2.0662000000 1.5944000000
0.7512000000 3.8996000000 1.5452000000
0.7508000000 3.4612000000 1.7521000000
0.7507000000 1.1720000000 1.0982000000
0.7506000000 3.7237000000 1.6229000000
0.7505000000 1.7375000000 1.4381000000
0.7503000000 5.0837000000 0.7070000000
0.7503000000 0.3886000000 0.3389000000
0.7499000000 2.5703000000 1.8387000000
0.7498000000 3.1353000000 1.9127000000
0.7495000000 0.0623000000 0.1016000000
0.7495000000 4.0207000000 1.4855000000
0.7494000000 0.3679000000 0.3219000000
0.7495000000 2.2777000000 1.7006000000
0.7493000000 1.7983000000 1.4682000000
0.7489000000 3.6541000000 1.6590000000
0.7487000000 0.1393000000 0.1036000000
0.7487000000 0.6882000000 0.6294000000
0.7484000000 0.1565000000 0.1205000000
0.7480000000 3.6637000000 1.6539000000
0.7470000000 4.1545000000 1.4114000000
0.7457000000 3.9657000000 1.5054000000
0.5133000000 0.7250000000 0.6741000000
0.5109000000 1.6065000000 1.1709000000
0.5106000000 4.1928000000 1.1914000000
0.5093000000 5.4665000000 0.3339000000
0.5091000000 5.2932000000 0.5009000000
0.5090000000 5.7230000000 0.1637000000
