6.7624000000 4.2212000000 0.0975000000
6.7590000000 3.5368000000 0.0744000000
6.7583000000 4.3883000000 0.0819000000
6.7546000000 3.8877000000 0.1278000000
6.7534000000 3.6072000000 0.0408000000
6.5115000000 4.4291000000 0.2179000000
6.5095000000 3.0589000000 0.0520000000
6.5081000000 3.7567000000 0.2918000000
6.5076000000 3.5707000000 0.1936000000
6.5061000000 5.0217000000 0.0479000000
6.5055000000 4.2842000000 0.3115000000
6.5050000000 3.7157000000 0.2837000000
6.5047000000 4.7718000000 0.1126000000
6.5043000000 3.9196000000 0.3874000000
6.5030000000 3.0660000000 0.0608000000
6.5021000000 3.7025000000 0.2664000000
6.5011000000 3.4681000000 0.1380000000
6.4982000000 4.1054000000 0.4251000000
6.2604000000 3.1316000000 0.1807000000
6.2594000000 4.1046000000 0.6512000000
6.2583000000 4.4435000000 0.4667000000
6.2581000000 5.1328000000 0.0790000000
6.2574000000 5.0444000000 0.1272000000
6.2571000000 4.2816000000 0.5500000000
6.2557000000 4.9630000000 0.1690000000
6.2554000000 5.0229000000 0.1393000000
6.2551000000 3.9043000000 0.6293000000
6.2549000000 4.2426000000 0.5831000000
6.2542000000 4.7086000000 0.3196000000
6.2538000000 2.5911000000 0.0350000000
6.2531000000 2.6173000000 0.0476000000
6.2523000000 4.1651000000 0.6222000000
6.2518000000 3.9116000000 0.6307000000
6.2506000000 3.2833000000 0.2751000000
6.2501000000 2.6248000000 0.0673000000
6.2479000000 3.9492000000 0.6548000000
6.0114000000 3.4623000000 0.6167000000
6.0103000000 2.7051000000 0.1920000000
6.0092000000 4.5953000000 0.6256000000
6.0081000000 3.9081000000 0.8692000000
6.0074000000 5.5755000000 0.0702000000
6.0070000000 5.0658000000 0.3591000000
6.0065000000 2.8537000000 0.2740000000
6.0056000000 3.4100000000 0.5853000000
6.0051000000 3.6802000000 0.7461000000
6.0050000000 3.7385000000 0.7703000000
6.0048000000 5.5800000000 0.0719000000
6.0046000000 2.1881000000 0.0482000000
6.0043000000 4.9621000000 0.4240000000
6.0035000000 2.9175000000 0.3128000000
6.0032000000 5.4977000000 0.1165000000
6.0029000000 5.3824000000 0.1826000000
6.0026000000 2.9170000000 0.3173000000
6.0025000000 2.8053000000 0.2533000000
6.0021000000 4.3447000000 0.7743000000
6.0014000000 5.4179000000 0.1665000000
6.0005000000 3.1674000000 0.4575000000
5.7630000000 5.7320000000 0.2212000000
5.7610000000 3.7941000000 1.0446000000
5.7594000000 3.6905000000 0.9889000000
5.7587000000 2.8095000000 0.4907000000
5.7584000000 1.8890000000 0.0474000000
5.7578000000 1.9193000000 0.0650000000
5.7573000000 4.6506000000 0.8349000000
5.7571000000 5.6804000000 0.2534000000
5.7567000000 2.7877000000 0.4826000000
5.7563000000 5.3200000000 0.4522000000
5.7561000000 3.7595000000 1.0271000000
5.7559000000 3.4324000000 0.8434000000
5.7556000000 2.1045000000 0.1052000000
5.7555000000 5.7601000000 0.2127000000
5.7546000000 4.8846000000 0.7078000000
5.7541000000 2.6089000000 0.3870000000
5.7538000000 2.4787000000 0.3095000000
5.7534000000 4.3005000000 1.0377000000
5.7530000000 2.9802000000 0.5848000000
5.7525000000 4.5499000000 0.8969000000
5.7518000000 4.3804000000 0.9957000000
5.7511000000 5.7252000000 0.2403000000
5.7509000000 4.5470000000 0.9000000000
5.7506000000 3.6085000000 0.9510000000
5.7484000000 3.0734000000 0.6494000000
5.7441000000 3.5992000000 0.9528000000
5.5111000000 1.9331000000 0.2423000000
5.5104000000 4.0954000000 1.3914000000
5.5100000000 3.2883000000 1.0015000000
5.5092000000 6.7530000000 0.0416000000
5.5091000000 3.9669000000 1.3899000000
5.5085000000 4.8246000000 0.9827000000
5.5081000000 6.4543000000 0.0682000000
5.5076000000 2.3731000000 0.4872000000
5.5073000000 2.7061000000 0.6794000000
5.5071000000 4.7064000000 1.0502000000
5.5068000000 6.8077000000 0.0122000000
5.5061000000 3.1532000000 0.9267000000
5.5058000000 2.1396000000 0.3640000000
5.5057000000 6.3596000000 0.1216000000
5.5054000000 6.0190000000 0.3147000000
5.5050000000 5.6303000000 0.5361000000
5.5046000000 2.0270000000 0.2993000000
5.5042000000 4.5705000000 1.1278000000
5.5038000000 3.7099000000 1.2443000000
5.5035000000 4.8359000000 0.9800000000
5.5033000000 3.1093000000 0.9071000000
5.5021000000 6.7740000000 0.0365000000
5.5018000000 3.5856000000 1.1771000000
5.5006000000 3.5367000000 1.1540000000
5.4994000000 1.7361000000 0.1436000000
5.4958000000 2.2636000000 0.4382000000
5.2647000000 4.4355000000 1.4384000000
5.2618000000 7.2488000000 0.0039000000
5.2601000000 4.4957000000 1.4040000000
5.2594000000 3.2398000000 1.2256000000
5.2590000000 3.7045000000 1.4862000000
5.2587000000 3.7383000000 1.5038000000
5.2581000000 6.0842000000 0.5144000000
5.2579000000 5.0828000000 1.0791000000
5.2577000000 2.4032000000 0.7529000000
5.2573000000 6.2045000000 0.4535000000
5.2570000000 3.4929000000 1.3639000000
5.2566000000 3.1568000000 1.1796000000
5.2563000000 4.9775000000 1.1389000000
5.2562000000 3.9806000000 1.6370000000
5.2559000000 4.8848000000 1.1962000000
5.2556000000 5.9174000000 0.6115000000
5.2554000000 2.0130000000 0.5347000000
5.2550000000 6.9636000000 0.0999000000
5.2548000000 3.7367000000 1.5081000000
5.2545000000 6.7890000000 0.1211000000
5.2536000000 5.9238000000 0.6114000000
5.2534000000 4.5851000000 1.3634000000
5.2531000000 3.2036000000 1.2070000000
5.2529000000 4.7546000000 1.2723000000
5.2527000000 0.9890000000 0.0363000000
5.2523000000 3.6316000000 1.4505000000
5.2516000000 5.3592000000 0.9301000000
5.2507000000 1.0474000000 0.0702000000
5.2499000000 1.6329000000 0.3244000000
5.2498000000 2.4475000000 0.7849000000
5.2488000000 2.0574000000 0.5679000000
5.2483000000 1.6438000000 0.3328000000
5.2465000000 3.1134000000 1.1659000000
5.2451000000 1.3444000000 0.1634000000
5.0125000000 5.3903000000 1.1453000000
5.0110000000 3.7918000000 1.7776000000
5.0108000000 5.9671000000 0.8248000000
5.0106000000 2.3953000000 0.9920000000
5.0097000000 2.2036000000 0.8826000000
5.0094000000 2.7740000000 1.2015000000
5.0088000000 2.2647000000 0.9234000000
5.0080000000 1.4363000000 0.4549000000
5.0078000000 2.1828000000 0.8692000000
5.0075000000 0.5632000000 0.0342000000
5.0071000000 3.4242000000 1.5679000000
5.0069000000 5.4936000000 1.0936000000
5.0066000000 1.7455000000 0.6244000000
5.0063000000 1.8293000000 0.6765000000
5.0061000000 3.9233000000 1.8518000000
5.0058000000 6.3245000000 0.6280000000
5.0057000000 5.0875000000 1.3278000000
5.0050000000 0.8657000000 0.1391000000
5.0049000000 3.2696000000 1.4882000000
5.0046000000 6.4655000000 0.5486000000
5.0044000000 5.2891000000 1.2131000000
5.0042000000 6.9968000000 0.2467000000
5.0038000000 1.4357000000 0.4536000000
5.0036000000 3.9686000000 1.8768000000
5.0033000000 4.5603000000 1.6230000000
5.0031000000 4.6421000000 1.5692000000
5.0028000000 5.5633000000 1.0605000000
5.0027000000 5.0947000000 1.3187000000
5.0026000000 4.7906000000 1.4909000000
5.0022000000 3.1664000000 1.4309000000
5.0020000000 4.0493000000 1.8957000000
5.0018000000 2.7339000000 1.1842000000
5.0012000000 4.8499000000 1.4631000000
5.0007000000 1.8098000000 0.6678000000
5.0004000000 6.0957000000 0.7601000000
4.9995000000 3.6261000000 1.6906000000
4.9987000000 2.6501000000 1.1396000000
4.9978000000 2.9551000000 1.3096000000
4.9960000000 1.5820000000 0.5426000000
4.7619000000 4.1682000000 2.0774000000
4.7607000000 3.6925000000 1.9655000000
4.7605000000 6.3154000000 0.8726000000
4.7597000000 4.7642000000 1.7440000000
4.7591000000 5.8344000000 1.1418000000
4.7586000000 4.7421000000 1.7605000000
4.7583000000 0.2304000000 0.0859000000
4.7579000000 3.1602000000 1.6630000000
4.7574000000 7.5056000000 0.2043000000
4.7572000000 5.4963000000 1.3413000000
4.7567000000 7.1431000000 0.4086000000
4.7565000000 1.0929000000 0.5032000000
4.7561000000 1.4784000000 0.7219000000
4.7558000000 4.8527000000 1.7006000000
4.7553000000 7.9643000000 0.0982000000
4.7550000000 3.0144000000 1.5882000000
4.7548000000 0.4939000000 0.1660000000
4.7545000000 6.2510000000 0.9094000000
4.7543000000 2.5668000000 1.3335000000
4.7541000000 7.7013000000 0.0941000000
4.7539000000 4.3068000000 2.0062000000
4.7536000000 1.1622000000 0.5463000000
4.7533000000 6.5742000000 0.7277000000
4.7531000000 3.2619000000 1.7264000000
4.7529000000 3.9046000000 2.0921000000
4.7526000000 0.3952000000 0.1136000000
4.7522000000 1.2211000000 0.5809000000
4.7520000000 6.7519000000 0.6335000000
4.7518000000 0.8076000000 0.3458000000
4.7515000000 2.7114000000 1.4212000000
4.7513000000 5.4183000000 1.3844000000
4.7503000000 3.4930000000 1.8631000000
4.7500000000 3.6125000000 1.9284000000
4.7496000000 0.1924000000 0.0774000000
4.7490000000 1.3403000000 0.6537000000
4.7486000000 1.0563000000 0.4861000000
4.7459000000 1.8402000000 0.9291000000
4.5137000000 7.3543000000 0.5269000000
4.5124000000 1.9075000000 1.2019000000
4.5118000000 5.6085000000 1.5097000000
4.5105000000 8.0511000000 0.0782000000
4.5100000000 4.4329000000 2.1746000000
4.5090000000 4.1645000000 2.3262000000
4.5086000000 4.1437000000 2.3395000000
4.5082000000 5.7116000000 1.4572000000
4.5080000000 5.6511000000 1.4937000000
4.5078000000 6.2644000000 1.1503000000
4.5074000000 2.7521000000 1.6838000000
4.5070000000 6.8083000000 0.8406000000
4.5066000000 1.7549000000 1.1244000000
4.5065000000 1.7797000000 1.1333000000
4.5059000000 8.1105000000 0.0878000000
4.5056000000 1.4963000000 0.9716000000
4.5053000000 1.1606000000 0.7832000000
4.5050000000 2.2386000000 1.3947000000
4.5046000000 4.0412000000 2.3839000000
4.5044000000 6.5015000000 1.0148000000
4.5041000000 6.8905000000 0.8000000000
4.5038000000 6.8720000000 0.8080000000
4.5035000000 2.1684000000 1.3537000000
4.5032000000 1.2614000000 0.8473000000
4.5030000000 3.6309000000 2.1824000000
4.5029000000 2.2120000000 1.3843000000
4.5027000000 2.1780000000 1.3626000000
4.5025000000 3.2012000000 1.9401000000
4.5020000000 3.9663000000 2.3633000000
4.5016000000 1.0820000000 0.7504000000
4.5013000000 6.2917000000 1.1390000000
4.5012000000 3.1278000000 1.8948000000
4.5006000000 3.1745000000 1.9256000000
4.5002000000 0.8221000000 0.5968000000
4.4998000000 0.9424000000 0.6686000000
4.4993000000 0.3973000000 0.3560000000
4.4985000000 3.9290000000 2.3506000000
4.4978000000 1.3004000000 0.8743000000
4.2638000000 7.3733000000 0.7425000000
4.2611000000 5.4743000000 1.8312000000
4.2597000000 0.0528000000 0.1190000000
4.2590000000 2.5954000000 1.8314000000
4.2585000000 6.9254000000 1.0168000000
4.2584000000 6.2273000000 1.4061000000
4.2580000000 6.0869000000 1.4940000000
4.2578000000 5.3713000000 1.8934000000
4.2575000000 3.7724000000 2.4916000000
4.2569000000 5.0322000000 2.0871000000
4.2567000000 0.0867000000 0.0851000000
4.2563000000 6.4085000000 1.3069000000
4.2560000000 7.5903000000 0.5316000000
4.2558000000 3.2595000000 2.2099000000
4.2554000000 0.8623000000 0.8670000000
4.2553000000 2.9026000000 2.0092000000
4.2549000000 5.0420000000 2.0823000000
4.2545000000 7.2255000000 0.8500000000
4.2544000000 1.6435000000 1.3016000000
4.2542000000 7.3211000000 0.7874000000
4.2540000000 1.7381000000 1.3553000000
4.2536000000 2.6879000000 1.8913000000
4.2533000000 6.6871000000 1.1567000000
4.2528000000 1.4854000000 1.2135000000
4.2524000000 2.2583000000 1.6501000000
4.2519000000 6.3587000000 1.3387000000
4.2515000000 1.1514000000 1.0276000000
4.2513000000 4.2812000000 2.5102000000
4.2511000000 2.2254000000 1.6354000000
4.2508000000 7.4856000000 0.6389000000
4.2503000000 2.1010000000 1.5646000000
4.2500000000 4.3677000000 2.4700000000
4.2490000000 1.9829000000 1.4966000000
4.2485000000 5.1928000000 2.0076000000
4.2480000000 0.3129000000 0.3402000000
4.2419000000 1.8432000000 1.4266000000
4.0103000000 5.5731000000 2.0212000000
4.0101000000 5.3397000000 2.1544000000
4.0096000000 6.7808000000 1.3311000000
4.0091000000 7.6931000000 0.4100000000
4.0088000000 0.8950000000 0.9916000000
4.0085000000 7.8028000000 0.2907000000
4.0082000000 2.0703000000 1.7844000000
4.0078000000 6.1670000000 1.6873000000
4.0074000000 3.8904000000 2.8114000000
4.0073000000 1.2580000000 1.3240000000
4.0069000000 4.9911000000 2.3524000000
4.0067000000 3.8232000000 2.7696000000
4.0064000000 2.6960000000 2.1377000000
4.0061000000 0.3960000000 0.4311000000
4.0060000000 3.9770000000 2.8514000000
4.0055000000 7.5079000000 0.6174000000
4.0051000000 2.8077000000 2.2029000000
4.0049000000 1.0821000000 1.1855000000
4.0047000000 2.4172000000 1.9817000000
4.0043000000 5.5072000000 2.0653000000
4.0040000000 1.6450000000 1.5467000000
4.0039000000 6.3215000000 1.6082000000
4.0035000000 4.5092000000 2.6240000000
4.0033000000 4.6100000000 2.5620000000
4.0027000000 3.3063000000 2.4812000000
4.0025000000 2.9269000000 2.2733000000
4.0023000000 5.6856000000 1.9661000000
4.0021000000 7.6464000000 0.4616000000
4.0018000000 0.8241000000 0.9200000000
4.0014000000 2.2905000000 1.9150000000
4.0010000000 3.5334000000 2.6093000000
4.0004000000 1.7803000000 1.6252000000
4.0001000000 2.2126000000 1.8758000000
3.9998000000 0.1343000000 0.1396000000
3.9993000000 2.0253000000 1.7677000000
3.9983000000 0.7342000000 0.8169000000
3.9970000000 2.3988000000 1.9810000000
3.9958000000 2.2578000000 1.8982000000
3.7650000000 7.7307000000 0.3674000000
3.7625000000 5.8981000000 2.0821000000
3.7615000000 6.9947000000 1.1856000000
3.7613000000 4.8346000000 2.6774000000
3.7608000000 6.9555000000 1.2310000000
3.7603000000 6.9082000000 1.2885000000
3.7596000000 5.6813000000 2.2048000000
3.7593000000 1.2629000000 1.4068000000
3.7591000000 4.8451000000 2.6722000000
3.7585000000 8.0738000000 0.0565000000
3.7580000000 7.1125000000 1.0638000000
3.7576000000 7.8906000000 0.1895000000
3.7572000000 3.3469000000 2.7420000000
3.7570000000 5.1366000000 2.5097000000
3.7568000000 4.3291000000 2.9699000000
3.7565000000 5.8693000000 2.0954000000
3.7561000000 0.8561000000 0.9542000000
3.7559000000 6.1767000000 1.9382000000
3.7557000000 2.6931000000 2.3785000000
3.7555000000 6.7487000000 1.4666000000
3.7553000000 0.6150000000 0.6789000000
3.7552000000 0.1549000000 0.1608000000
3.7550000000 7.3744000000 0.7645000000
3.7547000000 7.7116000000 0.3883000000
3.7545000000 3.8963000000 3.0583000000
3.7542000000 7.2881000000 0.8677000000
3.7540000000 1.1104000000 1.2385000000
3.7537000000 2.5929000000 2.3287000000
3.7535000000 3.5299000000 2.8591000000
3.7533000000 2.1511000000 2.0761000000
3.7529000000 0.7575000000 0.8311000000
3.7528000000 0.0531000000 0.1211000000
3.7526000000 1.9702000000 1.9790000000
3.7525000000 6.7213000000 1.5016000000
3.7523000000 0.6283000000 0.6934000000
3.7517000000 4.2591000000 3.0088000000
3.7513000000 1.6780000000 1.8098000000
3.7509000000 0.0037000000 0.0574000000
3.7505000000 6.0008000000 2.0329000000
3.7502000000 1.0190000000 1.1361000000
3.7498000000 5.3715000000 2.3939000000
3.7495000000 0.9392000000 1.0451000000
3.7488000000 5.1628000000 2.5039000000
3.7482000000 5.4930000000 2.3223000000
3.7467000000 4.9081000000 2.6563000000
3.5118000000 7.8630000000 0.2179000000
3.5110000000 6.0143000000 2.2434000000
3.5107000000 6.7853000000 1.4348000000
3.5103000000 5.0666000000 2.7950000000
3.5092000000 6.8074000000 1.4058000000
3.5088000000 4.7476000000 2.9710000000
3.5083000000 1.6463000000 1.8378000000
3.5080000000 2.9191000000 2.7482000000
3.5078000000 7.0080000000 1.1833000000
3.5073000000 0.4899000000 0.5387000000
3.5070000000 3.7379000000 3.2150000000
3.5069000000 6.7910000000 1.4224000000
3.5066000000 3.9225000000 3.3229000000
3.5061000000 7.6385000000 0.4699000000
3.5056000000 1.6731000000 1.8703000000
3.5054000000 7.6036000000 0.5088000000
3.5052000000 4.7956000000 2.9509000000
3.5050000000 1.8647000000 2.0876000000
3.5049000000 0.6796000000 0.7531000000
3.5048000000 7.6202000000 0.4890000000
3.5045000000 3.1370000000 2.8669000000
3.5044000000 2.5813000000 2.5630000000
3.5041000000 3.4135000000 3.0250000000
3.5039000000 4.4931000000 3.1217000000
3.5038000000 1.5724000000 1.7557000000
3.5035000000 4.6579000000 3.0330000000
3.5031000000 0.4367000000 0.4724000000
3.5027000000 1.1416000000 1.2672000000
3.5025000000 0.8154000000 0.9068000000
3.5024000000 0.9034000000 0.9985000000
3.5021000000 0.9575000000 1.0672000000
3.5018000000 6.0945000000 2.1913000000
3.5012000000 5.8043000000 2.3867000000
3.5010000000 4.4575000000 3.1465000000
3.5008000000 3.8936000000 3.3081000000
3.5004000000 2.5991000000 2.5748000000
3.4999000000 1.8460000000 2.0656000000
3.4992000000 0.9227000000 1.0224000000
3.4984000000 0.5435000000 0.6013000000
3.4974000000 2.6053000000 2.5834000000
3.4958000000 1.1888000000 1.3213000000
3.2664000000 5.6948000000 2.6343000000
3.2604000000 7.4540000000 0.6834000000
3.2598000000 1.8601000000 2.0759000000
3.2595000000 8.1138000000 0.0856000000
3.2590000000 1.1583000000 1.2908000000
3.2585000000 2.1239000000 2.3739000000
3.2581000000 4.8151000000 3.1773000000
3.2580000000 3.1467000000 3.1222000000
3.2575000000 4.8324000000 3.1722000000
3.2572000000 3.2617000000 3.1910000000
3.2568000000 5.9780000000 2.3416000000
3.2565000000 1.8584000000 2.0780000000
3.2563000000 1.0266000000 1.1485000000
3.2560000000 1.3110000000 1.4662000000
3.2558000000 2.8300000000 2.9473000000
3.2555000000 1.4555000000 1.6138000000
3.2551000000 7.8242000000 0.2609000000
3.2550000000 4.4395000000 3.3943000000
3.2545000000 4.0764000000 3.5856000000
3.2542000000 3.5565000000 3.3565000000
3.2540000000 2.9402000000 3.0035000000
3.2538000000 6.4920000000 1.7574000000
3.2535000000 0.5392000000 0.5961000000
3.2533000000 1.6064000000 1.7944000000
3.2530000000 0.3226000000 0.3540000000
3.2528000000 5.2221000000 2.9604000000
3.2525000000 4.9090000000 3.1362000000
3.2524000000 0.4174000000 0.4522000000
3.2519000000 0.1656000000 0.1681000000
3.2515000000 2.9569000000 3.0200000000
3.2513000000 1.5944000000 1.7825000000
3.2507000000 1.1198000000 1.2463000000
3.2498000000 0.0618000000 0.0556000000
3.2494000000 7.4026000000 0.7413000000
3.2486000000 1.3216000000 1.4788000000
3.2479000000 2.7514000000 2.9061000000
3.2440000000 1.9587000000 2.1941000000
3.0100000000 6.2586000000 2.0189000000
3.0093000000 7.5914000000 0.5264000000
3.0090000000 5.2631000000 3.1273000000
3.0086000000 3.8934000000 3.7883000000
3.0084000000 7.2498000000 0.9050000000
3.0080000000 0.0729000000 0.0660000000
3.0078000000 4.8054000000 3.4258000000
3.0070000000 6.9864000000 1.2083000000
3.0067000000 7.4307000000 0.7099000000
3.0060000000 5.0564000000 3.2924000000
3.0058000000 0.7046000000 0.7793000000
3.0055000000 5.3036000000 3.0868000000
3.0051000000 1.5952000000 1.7781000000
3.0050000000 7.6472000000 0.4632000000
3.0047000000 0.2575000000 0.2766000000
3.0046000000 6.2009000000 2.0914000000
3.0043000000 2.3496000000 2.6250000000
3.0042000000 2.2034000000 2.4658000000
3.0039000000 0.2431000000 0.2588000000
3.0037000000 1.2646000000 1.4115000000
3.0034000000 4.0527000000 3.8370000000
3.0031000000 2.4948000000 2.7934000000
3.0029000000 1.4707000000 1.6415000000
3.0025000000 2.3300000000 2.6079000000
3.0023000000 7.6273000000 0.4798000000
3.0019000000 3.5694000000 3.6107000000
3.0017000000 5.3474000000 3.0526000000
3.0015000000 5.4921000000 2.8855000000
3.0011000000 2.8588000000 3.1842000000
3.0008000000 0.9107000000 1.0102000000
3.0006000000 2.6137000000 2.9279000000
3.0004000000 0.0251000000 0.0909000000
3.0000000000 1.8060000000 2.0191000000
2.9993000000 0.3872000000 0.4215000000
2.9988000000 1.1214000000 1.2529000000
2.9977000000 4.2127000000 3.7742000000
2.9967000000 2.4828000000 2.7820000000
2.7635000000 5.7199000000 2.6251000000
2.7614000000 6.7333000000 1.4899000000
2.7603000000 3.6674000000 3.8960000000
2.7588000000 7.2175000000 0.9470000000
2.7582000000 7.9898000000 0.0775000000
2.7578000000 2.5318000000 2.8317000000
2.7576000000 3.1707000000 3.5489000000
2.7572000000 6.8054000000 1.4100000000
2.7570000000 5.9287000000 2.3945000000
2.7568000000 5.7654000000 2.5825000000
2.7563000000 7.3241000000 0.8211000000
2.7561000000 4.5820000000 3.8064000000
2.7559000000 4.0717000000 4.0753000000
2.7558000000 8.1058000000 0.0911000000
2.7555000000 3.7109000000 3.9301000000
2.7552000000 5.4671000000 2.9116000000
2.7548000000 2.0580000000 2.3048000000
2.7543000000 4.0309000000 4.0872000000
2.7540000000 3.2183000000 3.5994000000
2.7535000000 7.6941000000 0.4054000000
2.7533000000 2.1828000000 2.4460000000
2.7531000000 1.1721000000 1.3059000000
2.7530000000 5.2843000000 3.1193000000
2.7529000000 6.6373000000 1.5940000000
2.7525000000 0.3671000000 0.3929000000
2.7524000000 0.6890000000 0.7626000000
2.7522000000 5.3328000000 3.0699000000
2.7519000000 5.0860000000 3.3440000000
2.7516000000 0.9310000000 1.0310000000
2.7509000000 3.6768000000 3.9178000000
2.7508000000 0.7762000000 0.8557000000
2.7506000000 1.6010000000 1.7836000000
2.7498000000 2.9545000000 3.3088000000
2.7494000000 2.8735000000 3.2217000000
2.7491000000 3.9095000000 4.0479000000
2.7482000000 3.2036000000 3.5776000000
2.7459000000 3.3596000000 3.7154000000
2.5125000000 6.4145000000 1.8535000000
2.5108000000 6.4167000000 1.8455000000
2.5103000000 3.3373000000 3.7412000000
2.5101000000 2.1787000000 2.4404000000
2.5097000000 7.5448000000 0.5782000000
2.5090000000 1.2168000000 1.3559000000
2.5084000000 6.8303000000 1.3819000000
2.5080000000 5.8023000000 2.5401000000
2.5078000000 1.4620000000 1.6324000000
2.5075000000 7.2427000000 0.9212000000
2.5071000000 5.8340000000 2.5007000000
2.5068000000 0.8748000000 0.9702000000
2.5064000000 7.8364000000 0.2433000000
2.5060000000 5.4582000000 2.9239000000
2.5060000000 7.4373000000 0.6945000000
2.5058000000 6.1336000000 2.1665000000
2.5055000000 3.1193000000 3.4951000000
2.5053000000 3.3073000000 3.7082000000
2.5050000000 1.7261000000 1.9333000000
2.5048000000 6.2542000000 2.0277000000
2.5047000000 3.2230000000 3.6167000000
2.5045000000 5.2352000000 3.1838000000
2.5044000000 6.8385000000 1.3672000000
2.5042000000 2.1910000000 2.4500000000
2.5040000000 4.6210000000 3.8627000000
2.5037000000 7.6603000000 0.4456000000
2.5035000000 3.6305000000 4.0592000000
2.5033000000 1.2945000000 1.4426000000
2.5030000000 4.4515000000 4.0564000000
2.5029000000 2.2485000000 2.5164000000
2.5028000000 1.1591000000 1.2952000000
2.5025000000 7.1946000000 0.9707000000
2.5024000000 0.6215000000 0.6856000000
2.5022000000 7.3196000000 0.8284000000
2.5020000000 4.5107000000 3.9954000000
2.5019000000 0.0522000000 0.1217000000
2.5017000000 4.6815000000 3.7969000000
2.5013000000 5.8956000000 2.4308000000
2.5011000000 6.0742000000 2.2245000000
2.5008000000 4.5613000000 3.9350000000
2.5004000000 4.2539000000 4.2221000000
2.5001000000 1.3933000000 1.5537000000
2.4998000000 4.6131000000 3.8788000000
2.4996000000 5.6261000000 2.7323000000
2.4986000000 3.7258000000 4.1635000000
2.4979000000 0.5201000000 0.5722000000
2.4974000000 1.6296000000 1.8189000000
2.4962000000 3.1787000000 3.5656000000
2.2624000000 7.9903000000 0.0705000000
2.2606000000 7.1145000000 1.0633000000
2.2599000000 2.6832000000 3.0110000000
2.2588000000 2.4239000000 2.7198000000
2.2583000000 5.2897000000 3.1131000000
2.2580000000 7.6604000000 0.4437000000
2.2572000000 6.5268000000 1.7201000000
2.2570000000 1.3367000000 1.4906000000
2.2567000000 8.1039000000 0.0934000000
2.2563000000 7.7382000000 0.3588000000
2.2560000000 2.7491000000 3.0792000000
2.2558000000 5.4113000000 2.9785000000
2.2555000000 6.9378000000 1.2631000000
2.2552000000 3.8500000000 4.3047000000
2.2551000000 0.3994000000 0.4402000000
2.2548000000 3.4990000000 3.9219000000
2.2547000000 5.3899000000 2.9942000000
2.2545000000 4.6774000000 3.7996000000
2.2543000000 5.3789000000 3.0115000000
2.2541000000 3.2864000000 3.6865000000
2.2538000000 5.6681000000 2.6856000000
2.2535000000 3.6720000000 4.1154000000
2.2530000000 2.4555000000 2.7502000000
2.2529000000 2.3538000000 2.6384000000
2.2525000000 4.1258000000 4.3673000000
2.2521000000 0.4894000000 0.5331000000
2.2518000000 3.0645000000 3.4364000000
2.2518000000 5.6336000000 2.7243000000
2.2511000000 0.3764000000 0.4068000000
2.2508000000 6.8974000000 1.3039000000
2.2506000000 0.5532000000 0.6078000000
2.2501000000 7.0002000000 1.1928000000
2.2494000000 3.2167000000 3.6040000000
2.2469000000 0.5942000000 0.6550000000
2.2440000000 1.4330000000 1.5967000000
2.0123000000 6.8574000000 1.3517000000
2.0110000000 2.0806000000 2.3284000000
2.0103000000 3.6067000000 3.9798000000
2.0094000000 2.5545000000 2.8626000000
2.0090000000 4.6047000000 3.8701000000
2.0088000000 4.7948000000 3.6735000000
2.0085000000 4.9656000000 3.4825000000
2.0080000000 5.4453000000 2.9373000000
2.0075000000 1.3245000000 1.4761000000
2.0069000000 7.2329000000 0.9198000000
2.0065000000 2.3101000000 2.5791000000
2.0061000000 5.4085000000 2.9793000000
2.0058000000 6.1060000000 2.1995000000
2.0054000000 6.4162000000 1.8492000000
2.0052000000 7.7584000000 0.3341000000
2.0048000000 6.1587000000 2.1395000000
2.0044000000 1.3638000000 1.5197000000
2.0041000000 5.1153000000 3.3103000000
2.0040000000 0.5526000000 0.6127000000
2.0036000000 5.1344000000 3.2892000000
2.0033000000 5.0001000000 3.4376000000
2.0030000000 6.4831000000 1.7753000000
2.0029000000 4.1857000000 4.1251000000
2.0025000000 4.2564000000 4.0853000000
2.0023000000 1.7072000000 1.9103000000
2.0021000000 8.0064000000 0.1354000000
2.0018000000 1.6716000000 1.8645000000
2.0017000000 6.3159000000 1.9594000000
2.0012000000 0.8250000000 0.9104000000
2.0010000000 2.8369000000 3.1848000000
2.0005000000 3.5566000000 3.9233000000
1.9998000000 0.3161000000 0.3461000000
1.9995000000 5.3018000000 3.0999000000
1.9985000000 1.4929000000 1.6655000000
1.9980000000 2.6233000000 2.9337000000
1.9957000000 2.7603000000 3.0944000000
1.7638000000 7.4057000000 0.7284000000
1.7620000000 4.7271000000 3.5893000000
1.7611000000 2.5074000000 2.8078000000
1.7602000000 7.8706000000 0.2096000000
1.7593000000 1.8932000000 2.1191000000
1.7585000000 3.0468000000 3.3919000000
1.7582000000 4.7513000000 3.5669000000
1.7578000000 5.3879000000 3.0069000000
1.7574000000 6.4638000000 1.7923000000
1.7573000000 6.0164000000 2.2943000000
1.7567000000 2.2487000000 2.5182000000
1.7562000000 4.8519000000 3.5110000000
1.7560000000 6.7550000000 1.4658000000
1.7555000000 6.5024000000 1.7473000000
1.7553000000 7.9250000000 0.1487000000
1.7551000000 6.5470000000 1.6993000000
1.7549000000 2.8176000000 3.1585000000
1.7547000000 1.0406000000 1.1582000000
1.7545000000 6.5156000000 1.7344000000
1.7543000000 4.1102000000 3.9302000000
1.7542000000 6.6760000000 1.5525000000
1.7540000000 1.3755000000 1.5311000000
1.7538000000 4.0181000000 3.9402000000
1.7535000000 6.4196000000 1.8415000000
1.7533000000 6.9036000000 1.2921000000
1.7531000000 7.8853000000 0.1915000000
1.7526000000 2.5425000000 2.8477000000
1.7526000000 4.9860000000 3.4156000000
1.7523000000 3.5630000000 3.6988000000
1.7523000000 4.9107000000 3.4756000000
1.7521000000 8.0481000000 0.0829000000
1.7513000000 2.2784000000 2.5525000000
1.7512000000 4.1906000000 3.8735000000
1.7506000000 1.2280000000 1.3677000000
1.7502000000 1.5684000000 1.7510000000
1.7494000000 4.0391000000 3.9457000000
1.7488000000 5.7403000000 2.6067000000
1.7470000000 0.7586000000 0.8379000000
1.5150000000 6.0586000000 2.2479000000
1.5119000000 2.4897000000 2.7931000000
1.5104000000 7.8990000000 0.1700000000
1.5100000000 5.5044000000 2.8588000000
1.5095000000 3.0972000000 3.2060000000
1.5089000000 6.4835000000 1.7628000000
1.5085000000 7.0156000000 1.1718000000
1.5083000000 1.2073000000 1.3485000000
1.5078000000 4.2702000000 3.5936000000
1.5070000000 6.3245000000 1.9467000000
1.5064000000 1.6230000000 1.8147000000
1.5061000000 2.3874000000 2.6773000000
1.5054000000 5.8489000000 2.4872000000
1.5052000000 6.7525000000 1.4667000000
1.5050000000 3.9136000000 3.6569000000
1.5048000000 6.9542000000 1.2397000000
1.5045000000 1.6383000000 1.8292000000
1.5043000000 5.6580000000 2.6977000000
1.5042000000 1.1111000000 1.2373000000
1.5040000000 4.1997000000 3.6246000000
1.5038000000 0.8494000000 0.9385000000
1.5035000000 4.5621000000 3.4256000000
1.5033000000 6.4699000000 1.7897000000
1.5032000000 4.8499000000 3.2630000000
1.5030000000 0.5166000000 0.5646000000
1.5026000000 1.5783000000 1.7650000000
1.5022000000 3.9717000000 3.6872000000
1.5018000000 8.1163000000 0.0812000000
1.5016000000 0.6873000000 0.7630000000
1.5014000000 1.0562000000 1.1748000000
1.5010000000 0.6028000000 0.6644000000
1.5005000000 1.1413000000 1.2734000000
1.5002000000 1.2883000000 1.4400000000
1.4997000000 7.8412000000 0.2407000000
1.4986000000 4.5425000000 3.4341000000
1.4982000000 1.3942000000 1.5582000000
1.4980000000 3.6268000000 3.4863000000
1.4968000000 2.1510000000 2.4087000000
1.4958000000 0.9679000000 1.0742000000
1.2626000000 7.3141000000 0.8368000000
1.2608000000 7.2118000000 0.9539000000
1.2602000000 2.5614000000 2.6549000000
1.2592000000 5.7753000000 2.4987000000
1.2586000000 2.7997000000 2.7924000000
1.2583000000 4.7195000000 3.0969000000
1.2581000000 7.9737000000 0.0961000000
1.2576000000 2.6760000000 2.7214000000
1.2575000000 4.2488000000 3.3649000000
1.2573000000 6.9050000000 1.2952000000
1.2567000000 0.8826000000 0.9770000000
1.2565000000 4.8986000000 3.0004000000
1.2560000000 1.0706000000 1.1936000000
1.2557000000 7.9970000000 0.0653000000
1.2553000000 5.7287000000 2.5274000000
1.2549000000 3.8828000000 3.3996000000
1.2547000000 5.5857000000 2.6104000000
1.2543000000 6.4450000000 1.8186000000
1.2541000000 3.4917000000 3.1756000000
1.2538000000 2.3818000000 2.5506000000
1.2535000000 4.9935000000 2.9392000000
1.2533000000 1.7139000000 1.9124000000
1.2528000000 3.7859000000 3.3320000000
1.2526000000 0.8039000000 0.8946000000
1.2523000000 3.9315000000 3.4172000000
1.2521000000 3.8019000000 3.3473000000
1.2519000000 0.6263000000 0.6881000000
1.2515000000 6.1726000000 2.1135000000
1.2509000000 4.5544000000 3.1827000000
1.2503000000 7.8872000000 0.1865000000
1.2502000000 0.1408000000 0.1422000000
1.2495000000 3.6057000000 3.2300000000
1.2489000000 3.7811000000 3.3303000000
1.2485000000 7.6450000000 0.4649000000
1.2478000000 0.0057000000 0.0651000000
1.2463000000 3.6708000000 3.2680000000
1.2441000000 3.2738000000 3.0336000000
1.0120000000 0.8951000000 0.9873000000
1.0100000000 6.8095000000 1.4020000000
1.0089000000 4.8435000000 2.7823000000
1.0081000000 5.3428000000 2.5035000000
1.0078000000 2.9445000000 2.6273000000
1.0075000000 0.1613000000 0.1679000000
1.0073000000 2.1460000000 2.1755000000
1.0068000000 5.3836000000 2.4792000000
1.0060000000 6.7804000000 1.4395000000
1.0058000000 5.1758000000 2.5933000000
1.0051000000 7.8244000000 0.2603000000
1.0050000000 2.8220000000 2.5550000000
1.0048000000 6.8911000000 1.3141000000
1.0043000000 0.3818000000 0.4145000000
1.0041000000 4.5847000000 2.9264000000
1.0039000000 6.2917000000 1.9483000000
1.0036000000 4.8662000000 2.7671000000
1.0033000000 3.6758000000 3.0336000000
1.0030000000 1.8867000000 2.0273000000
1.0028000000 2.6600000000 2.4580000000
1.0025000000 3.1436000000 2.7333000000
1.0023000000 5.8395000000 2.2169000000
1.0019000000 1.1169000000 1.2407000000
1.0017000000 0.9781000000 1.0849000000
1.0013000000 2.4536000000 2.3477000000
1.0006000000 2.0464000000 2.1169000000
1.0005000000 2.8873000000 2.5835000000
1.0002000000 7.4311000000 0.7026000000
1.0000000000 7.1135000000 1.0605000000
0.9995000000 0.2457000000 0.2607000000
0.9984000000 0.6921000000 0.7658000000
0.9976000000 2.0815000000 2.1265000000
0.9967000000 3.1192000000 2.7103000000
0.9960000000 0.0515000000 0.1200000000
0.7652000000 5.0062000000 2.4523000000
0.7614000000 8.0250000000 0.1036000000
0.7606000000 6.4359000000 1.6483000000
0.7598000000 7.3770000000 0.7644000000
0.7590000000 3.9702000000 2.9544000000
0.7588000000 7.4085000000 0.7270000000
0.7583000000 6.9864000000 1.2006000000
0.7579000000 7.5936000000 0.5201000000
0.7577000000 6.0605000000 1.8541000000
0.7574000000 6.6673000000 1.4925000000
0.7571000000 1.5184000000 1.5801000000
0.7566000000 6.7858000000 1.4069000000
0.7561000000 3.3486000000 2.6123000000
0.7558000000 0.3831000000 0.4202000000
0.7556000000 5.4964000000 2.1706000000
0.7554000000 4.5130000000 2.7231000000
0.7550000000 7.5970000000 0.5165000000
0.7548000000 3.2355000000 2.5387000000
0.7546000000 1.7694000000 1.7151000000
0.7543000000 1.7630000000 1.7141000000
0.7535000000 1.4669000000 1.5491000000
0.7534000000 3.0009000000 2.4044000000
0.7532000000 4.8476000000 2.5347000000
0.7529000000 2.5268000000 2.1439000000
0.7528000000 7.7737000000 0.3229000000
0.7524000000 7.6303000000 0.4746000000
0.7523000000 4.3113000000 2.8358000000
0.7518000000 7.7404000000 0.3581000000
0.7512000000 4.1987000000 2.9033000000
0.7506000000 0.2238000000 0.2360000000
0.7504000000 5.4675000000 2.1754000000
0.7498000000 7.0865000000 1.0906000000
0.7490000000 0.3207000000 0.3415000000
0.7484000000 2.0893000000 1.8926000000
0.7477000000 4.2900000000 2.8409000000
0.5145000000 8.0772000000 0.0485000000
0.5131000000 4.7848000000 2.3337000000
0.5103000000 4.0952000000 2.7189000000
0.5090000000 6.3856000000 1.4297000000
0.5085000000 2.8048000000 2.0624000000
0.5084000000 7.8286000000 0.2506000000
0.5075000000 5.1264000000 2.1344000000
0.5073000000 5.2615000000 2.0555000000
0.5066000000 3.6682000000 2.5443000000
0.5065000000 3.4982000000 2.4477000000
0.5062000000 6.5327000000 1.3427000000
0.5060000000 7.0545000000 1.0485000000
0.5058000000 4.8987000000 2.2628000000
0.5055000000 4.4665000000 2.5059000000
0.5053000000 7.3836000000 0.7549000000
0.5050000000 5.5208000000 1.9111000000
0.5048000000 2.4086000000 1.8354000000
0.5046000000 3.6139000000 2.5102000000
0.5043000000 5.4498000000 1.9571000000
0.5041000000 2.2783000000 1.7591000000
0.5039000000 6.3706000000 1.4339000000
0.5036000000 5.7975000000 1.7539000000
0.5034000000 6.5197000000 1.3543000000
0.5032000000 2.8683000000 2.0942000000
0.5030000000 4.3698000000 2.5576000000
0.5025000000 4.0468000000 2.7227000000
0.5023000000 4.6204000000 2.4170000000
0.5021000000 0.1490000000 0.1508000000
0.5018000000 4.0628000000 2.7150000000
0.5013000000 3.0687000000 2.1981000000
0.5010000000 2.1662000000 1.6937000000
0.5007000000 6.4518000000 1.3861000000
0.5003000000 4.6573000000 2.3941000000
0.4995000000 6.7169000000 1.2397000000
0.4993000000 0.3015000000 0.3254000000
0.4988000000 0.4340000000 0.4760000000
0.4975000000 0.8340000000 0.8969000000
0.4952000000 0.7820000000 0.8444000000
0.2638000000 7.8214000000 0.2651000000
0.2608000000 2.7700000000 1.7974000000
0.2602000000 6.3338000000 1.2157000000
0.2600000000 7.7866000000 0.3039000000
0.2595000000 6.6604000000 1.0282000000
0.2589000000 3.8407000000 2.4053000000
0.2586000000 3.3751000000 2.1419000000
0.2582000000 6.3671000000 1.1964000000
0.2580000000 6.1717000000 1.3022000000
0.2577000000 3.0489000000 1.9568000000
0.2574000000 2.8950000000 1.8632000000
0.2570000000 2.8725000000 1.8493000000
0.2567000000 2.2058000000 1.4793000000
0.2565000000 1.4574000000 1.0556000000
0.2561000000 2.8090000000 1.8134000000
0.2559000000 3.8833000000 2.4150000000
0.2556000000 6.3035000000 1.2228000000
0.2553000000 7.4400000000 0.5857000000
0.2550000000 6.7960000000 0.9536000000
0.2547000000 6.6761000000 1.0238000000
0.2545000000 7.6162000000 0.4726000000
0.2543000000 4.4101000000 2.2962000000
0.2539000000 8.0001000000 0.0606000000
0.2538000000 0.9265000000 0.7545000000
0.2535000000 5.4085000000 1.7352000000
0.2533000000 0.1388000000 0.1420000000
0.2531000000 5.2850000000 1.8019000000
0.2530000000 2.7268000000 1.7653000000
0.2528000000 0.2238000000 0.2394000000
0.2525000000 1.3225000000 0.9733000000
0.2522000000 6.5026000000 1.1156000000
0.2520000000 6.6987000000 1.0045000000
0.2518000000 2.7758000000 1.7981000000
0.2511000000 7.1933000000 0.7236000000
0.2507000000 2.0026000000 1.3592000000
0.2501000000 0.0952000000 0.0904000000
0.2492000000 1.7917000000 1.2349000000
0.2485000000 2.3065000000 1.5290000000
0.2480000000 5.8850000000 1.4559000000
0.2478000000 5.3596000000 1.7551000000
0.2474000000 0.0081000000 0.0718000000
0.2469000000 0.2235000000 0.2367000000
0.2460000000 0.3672000000 0.3762000000
0.0122000000 3.5019000000 1.9672000000
0.0107000000 6.6357000000 0.8089000000
0.0099000000 6.8991000000 0.6553000000
0.0092000000 5.2652000000 1.5737000000
0.0085000000 5.9320000000 1.1986000000
0.0083000000 5.7481000000 1.2981000000
0.0078000000 5.2778000000 1.5659000000
0.0070000000 2.2955000000 1.2848000000
0.0066000000 1.6730000000 0.9328000000
0.0062000000 5.2644000000 1.5705000000
0.0059000000 5.6284000000 1.3640000000
0.0054000000 1.5777000000 0.8771000000
0.0052000000 2.4792000000 1.3871000000
0.0050000000 4.3304000000 2.0910000000
0.0045000000 7.4672000000 0.3298000000
0.0043000000 1.9382000000 1.0824000000
0.0039000000 0.9905000000 0.5467000000
0.0035000000 3.3241000000 1.8635000000
0.0032000000 4.1466000000 2.1964000000
0.0031000000 2.6012000000 1.4555000000
0.0029000000 4.9521000000 1.7474000000
0.0026000000 5.7962000000 1.2633000000
0.0025000000 3.8036000000 2.1287000000
0.0023000000 4.9416000000 1.7500000000
0.0020000000 2.2693000000 1.2612000000
0.0016000000 0.6894000000 0.3747000000
0.0014000000 1.3955000000 0.7736000000
0.0012000000 1.1249000000 0.6177000000
0.0008000000 0.2441000000 0.1267000000
0.0004000000 5.7790000000 1.2729000000
0.0001000000 1.0454000000 0.5727000000
-0.0001000000 2.7694000000 1.5450000000
-0.0004000000 3.2257000000 1.7914000000
-0.0008000000 0.9278000000 0.5056000000
-0.0011000000 5.2459000000 1.5724000000
-0.0014000000 4.1719000000 2.1745000000
-0.0026000000 5.0812000000 1.6662000000
-0.2376000000 1.7190000000 0.7230000000
-0.2399000000 1.7760000000 0.7537000000
-0.2405000000 5.8924000000 0.9843000000
-0.2412000000 2.8511000000 1.3605000000
-0.2415000000 6.1923000000 0.8129000000
-0.2420000000 5.5297000000 1.1756000000
-0.2424000000 3.7990000000 1.8846000000
-0.2430000000 3.7995000000 1.8831000000
-0.2434000000 4.9020000000 1.5310000000
-0.2435000000 7.3790000000 0.1349000000
-0.2437000000 1.5342000000 0.6070000000
-0.2440000000 5.2671000000 1.3273000000
-0.2444000000 7.3364000000 0.1580000000
-0.2447000000 7.0895000000 0.2973000000
-0.2450000000 7.1654000000 0.2541000000
-0.2453000000 2.1660000000 0.9650000000
-0.2455000000 0.7000000000 0.1381000000
-0.2459000000 0.4598000000 0.0862000000
-0.2461000000 6.3598000000 0.7150000000
-0.2465000000 3.8607000000 1.9159000000
-0.2467000000 1.5376000000 0.6097000000
-0.2470000000 2.1533000000 0.9594000000
-0.2477000000 2.1553000000 0.9607000000
-0.2481000000 6.1702000000 0.8102000000
-0.2484000000 4.3923000000 1.8154000000
-0.2488000000 6.3348000000 0.7183000000
-0.2492000000 1.8857000000 0.8000000000
-0.2495000000 0.9227000000 0.2652000000
-0.2501000000 0.7574000000 0.1751000000
-0.2506000000 3.0306000000 1.4485000000
-0.2508000000 1.4175000000 0.5380000000
-0.2513000000 4.4945000000 1.7544000000
-0.2519000000 1.5393000000 0.6062000000
-0.2538000000 2.2210000000 0.9884000000
-0.2554000000 1.3461000000 0.4879000000
-0.4867000000 6.2333000000 0.5429000000
-0.4897000000 5.3277000000 1.0516000000
-0.4905000000 6.7743000000 0.2315000000
-0.4911000000 4.7842000000 1.3535000000
-0.4918000000 4.5607000000 1.4805000000
-0.4926000000 6.5415000000 0.3646000000
-0.4930000000 4.9839000000 1.2367000000
-0.4934000000 6.2518000000 0.5327000000
-0.4936000000 6.3236000000 0.4835000000
-0.4938000000 4.8244000000 1.3275000000
-0.4940000000 4.9628000000 1.2486000000
-0.4942000000 6.6421000000 0.3075000000
-0.4944000000 6.0088000000 0.6613000000
-0.4947000000 3.5158000000 1.4795000000
-0.4953000000 4.1691000000 1.6969000000
-0.4956000000 6.3277000000 0.4867000000
-0.4958000000 1.9729000000 0.6116000000
-0.4962000000 3.5573000000 1.5045000000
-0.4965000000 5.4477000000 0.9782000000
-0.4967000000 3.8601000000 1.6743000000
-0.4969000000 6.5762000000 0.3398000000
-0.4975000000 2.0083000000 0.6309000000
-0.4978000000 5.5397000000 0.9230000000
-0.4980000000 6.0076000000 0.6543000000
-0.4982000000 3.8743000000 1.6796000000
-0.4985000000 1.0303000000 0.0850000000
-0.4987000000 4.2188000000 1.6660000000
-0.4997000000 2.4708000000 0.8937000000
-0.5001000000 1.3487000000 0.2599000000
-0.5004000000 2.1142000000 0.6813000000
-0.5014000000 5.1538000000 1.1402000000
-0.5024000000 1.8247000000 0.5305000000
-0.5042000000 0.9969000000 0.0582000000
-0.7360000000 5.2483000000 0.8552000000
-0.7393000000 6.8923000000 0.0757000000
-0.7402000000 3.7234000000 1.3605000000
-0.7407000000 6.3806000000 0.2130000000
-0.7413000000 6.3423000000 0.2365000000
-0.7422000000 5.7488000000 0.5681000000
-0.7430000000 1.0694000000 0.0105000000
-0.7434000000 3.6584000000 1.3209000000
-0.7437000000 6.6562000000 0.0575000000
-0.7441000000 6.3125000000 0.2489000000
-0.7445000000 5.3978000000 0.7654000000
-0.7448000000 3.4169000000 1.1838000000
-0.7452000000 4.8498000000 1.0764000000
-0.7455000000 6.3415000000 0.2323000000
-0.7457000000 6.4997000000 0.1417000000
-0.7462000000 6.9243000000 0.0434000000
-0.7470000000 2.2341000000 0.5099000000
-0.7474000000 2.2890000000 0.5496000000
-0.7480000000 4.2966000000 1.3834000000
-0.7484000000 3.2785000000 1.0965000000
-0.7490000000 4.9422000000 1.0203000000
-0.7496000000 1.6791000000 0.2028000000
-0.7498000000 4.5450000000 1.2381000000
-0.7507000000 6.8816000000 0.0716000000
-0.7510000000 2.0740000000 0.4174000000
-0.7523000000 6.4666000000 0.1493000000
-0.7546000000 5.3935000000 0.7535000000
-0.9874000000 5.7458000000 0.3281000000
-0.9900000000 6.5430000000 0.0268000000
-0.9905000000 2.0804000000 0.1873000000
-0.9912000000 4.1310000000 1.2292000000
-0.9915000000 6.1928000000 0.0712000000
-0.9926000000 5.7358000000 0.3295000000
-0.9930000000 6.3672000000 0.0466000000
-0.9935000000 4.0392000000 1.2647000000
-0.9938000000 5.3194000000 0.5637000000
-0.9944000000 6.3999000000 0.0344000000
-0.9947000000 4.4222000000 1.0747000000
-0.9953000000 3.1323000000 0.7770000000
-0.9955000000 6.0907000000 0.1226000000
-0.9959000000 3.1762000000 0.8058000000
-0.9964000000 2.2613000000 0.2840000000
-0.9967000000 3.2082000000 0.8230000000
-0.9968000000 3.4773000000 0.9758000000
-0.9970000000 4.5086000000 1.0182000000
-0.9974000000 3.1002000000 0.7535000000
-0.9978000000 2.0878000000 0.1888000000
-0.9981000000 1.6191000000 0.0703000000
-0.9985000000 6.1565000000 0.0857000000
-0.9987000000 3.3605000000 0.9011000000
-0.9994000000 5.7114000000 0.3330000000
-0.9995000000 1.7108000000 0.0476000000
-1.0002000000 2.6573000000 0.5065000000
-1.0015000000 4.8780000000 0.8065000000
-1.0029000000 2.0397000000 0.1582000000
-1.2376000000 4.6585000000 0.6953000000
-1.2422000000 2.2743000000 0.0549000000
-1.2427000000 5.4442000000 0.2497000000
-1.2436000000 5.7960000000 0.1340000000
-1.2448000000 2.6463000000 0.2599000000
-1.2451000000 5.9763000000 0.1004000000
-1.2459000000 5.6434000000 0.1374000000
-1.2466000000 5.4702000000 0.2333000000
-1.2471000000 3.9696000000 0.9994000000
-1.2475000000 3.2660000000 0.6104000000
-1.2480000000 6.0625000000 0.0500000000
-1.2491000000 2.3359000000 0.0783000000
-1.2498000000 2.9291000000 0.4143000000
-1.2508000000 5.9232000000 0.0502000000
-1.2511000000 4.8222000000 0.5974000000
-1.2526000000 5.5436000000 0.1859000000
-1.2542000000 3.0319000000 0.4739000000
-1.4878000000 3.6863000000 0.6111000000
-1.4900000000 4.3940000000 0.5984000000
-1.4921000000 4.7138000000 0.4143000000
-1.4935000000 2.5743000000 0.0551000000
-1.4939000000 2.6364000000 0.0841000000
-1.4947000000 3.7254000000 0.6276000000
-1.4948000000 2.8280000000 0.1212000000
-1.4952000000 2.5211000000 0.0944000000
-1.4960000000 5.5164000000 0.0400000000
-1.4965000000 3.1913000000 0.3224000000
-1.4977000000 2.4381000000 0.0458000000
-1.4990000000 4.3945000000 0.5903000000
-1.4997000000 2.6209000000 0.0697000000
-1.5004000000 3.1959000000 0.3180000000
-1.5010000000 2.9174000000 0.1651000000
-1.5019000000 5.2633000000 0.1006000000
-1.7376000000 3.6366000000 0.3332000000
-1.7400000000 2.9791000000 0.0387000000
-1.7425000000 5.0557000000 0.0633000000
-1.7441000000 3.4697000000 0.2399000000
-1.7453000000 3.9903000000 0.5102000000
-1.7458000000 3.8348000000 0.4338000000
-1.7463000000 4.9090000000 0.0585000000
-1.7467000000 3.7790000000 0.4110000000
-1.7475000000 3.0011000000 0.0468000000
-1.7483000000 4.4954000000 0.2860000000
-1.7493000000 4.2942000000 0.4050000000
-1.7497000000 3.9300000000 0.4925000000
-1.7515000000 4.5735000000 0.2500000000
-1.9895000000 4.4653000000 0.0716000000
-1.9915000000 3.2984000000 0.0500000000
-1.9935000000 3.6979000000 0.1198000000
-1.9953000000 4.2653000000 0.1757000000
-1.9961000000 3.4181000000 0.0402000000
-1.9973000000 4.5281000000 0.1048000000
-1.9980000000 3.5392000000 0.1028000000
