3.0048000000 4.3639000000 1.0480000000
3.0047000000 1.9811000000 1.3108000000
3.0046000000 5.8383000000 0.0379000000
3.0045000000 0.8243000000 0.7194000000
3.0041000000 0.1408000000 0.1177000000
3.0039000000 2.0462000000 1.3407000000
3.0038000000 2.4754000000 1.5661000000
3.0038000000 5.5921000000 0.2154000000
3.0037000000 5.2115000000 0.5962000000
3.0035000000 2.4127000000 1.5399000000
3.0035000000 3.6021000000 1.4420000000
3.0035000000 4.3708000000 1.0503000000
3.0034000000 5.4348000000 0.3849000000
3.0033000000 1.5655000000 1.1064000000
3.0030000000 3.6545000000 1.4189000000
3.0028000000 2.0948000000 1.3727000000
3.0025000000 2.9055000000 1.7756000000
3.0025000000 0.9131000000 0.7563000000
3.0025000000 4.2263000000 1.1197000000
3.0023000000 5.0919000000 0.6726000000
3.0023000000 2.2956000000 1.4730000000
3.0022000000 2.5491000000 1.6032000000
3.0022000000 2.9697000000 1.7591000000
3.0021000000 1.6928000000 1.1666000000
3.0020000000 3.2998000000 1.5964000000
3.0018000000 2.2976000000 1.4706000000
3.0018000000 2.8490000000 1.7547000000
3.0017000000 0.0220000000 0.0740000000
3.0017000000 5.5751000000 0.2393000000
3.0016000000 0.9040000000 0.7581000000
3.0015000000 1.4449000000 1.0433000000
3.0015000000 4.9539000000 0.7490000000
3.0015000000 5.8154000000 0.0619000000
3.0014000000 0.8765000000 0.7482000000
3.0011000000 0.9787000000 0.8033000000
3.0010000000 5.7362000000 0.0724000000
3.0007000000 2.2330000000 1.4398000000
3.0006000000 4.4645000000 0.9982000000
3.0004000000 1.6001000000 1.1220000000
3.0003000000 3.2360000000 1.6323000000
3.0002000000 1.8534000000 1.2508000000
3.0001000000 3.7942000000 1.3505000000
3.0001000000 4.7007000000 0.8818000000
3.0000000000 4.7205000000 0.8727000000
2.9999000000 2.1434000000 1.3991000000
2.9998000000 0.0671000000 0.0419000000
2.9997000000 4.5538000000 0.9633000000
2.9994000000 4.0762000000 1.1931000000
2.9993000000 1.7714000000 1.2079000000
2.9989000000 5.2984000000 0.5129000000
2.9987000000 0.2834000000 0.2638000000
2.9986000000 0.9373000000 0.7836000000
2.9985000000 5.7675000000 0.0368000000
2.9983000000 1.5312000000 1.0873000000
2.9982000000 2.8510000000 1.7574000000
2.9979000000 0.9781000000 0.8046000000
2.9977000000 3.1123000000 1.6980000000
2.9968000000 4.8658000000 0.7951000000
2.7619000000 5.6401000000 0.1725000000
2.7616000000 4.1336000000 1.3830000000
2.7615000000 1.7066000000 1.3818000000
2.7593000000 1.5696000000 1.3248000000
2.7589000000 5.7726000000 0.1078000000
2.7588000000 2.7845000000 1.9391000000
2.7587000000 4.2771000000 1.3095000000
2.7585000000 3.1131000000 1.9110000000
2.7581000000 4.5875000000 1.1520000000
2.7580000000 0.7929000000 0.7848000000
2.7579000000 4.0585000000 1.4229000000
2.7576000000 5.6708000000 0.1409000000
2.7575000000 4.2957000000 1.3003000000
2.7574000000 2.5816000000 1.8349000000
2.7573000000 4.3790000000 1.2603000000
2.7570000000 3.6472000000 1.6357000000
2.7568000000 2.4093000000 1.7517000000
2.7567000000 4.9442000000 0.8872000000
2.7565000000 2.7789000000 1.9398000000
2.7564000000 3.6368000000 1.6456000000
2.7563000000 0.7552000000 0.7535000000
2.7562000000 5.6938000000 0.1181000000
2.7561000000 3.4823000000 1.7204000000
2.7560000000 4.4131000000 1.2411000000
2.7559000000 4.9070000000 0.9237000000
2.7558000000 5.5863000000 0.2298000000
2.7558000000 0.0108000000 0.0634000000
2.7558000000 3.0906000000 1.9265000000
2.7553000000 0.4489000000 0.4313000000
2.7553000000 2.9958000000 1.9741000000
2.7552000000 1.4497000000 1.2633000000
2.7550000000 4.8905000000 0.9330000000
2.7549000000 1.3534000000 1.2072000000
2.7547000000 4.4100000000 1.2462000000
2.7545000000 2.7803000000 1.9526000000
2.7545000000 3.8977000000 1.5088000000
2.7544000000 3.9661000000 1.4744000000
2.7543000000 2.3874000000 1.7427000000
2.7537000000 3.1731000000 1.8817000000
2.7537000000 0.8905000000 0.8826000000
2.7536000000 3.7104000000 1.6024000000
2.7535000000 4.4525000000 1.2277000000
2.7535000000 0.9703000000 0.9469000000
2.7532000000 1.1498000000 1.0971000000
2.7532000000 2.9579000000 1.9788000000
2.7530000000 1.8997000000 1.4955000000
2.7528000000 3.4499000000 1.7408000000
2.7528000000 0.4467000000 0.4292000000
2.7527000000 1.3755000000 1.2237000000
2.7523000000 5.7839000000 0.0905000000
2.7523000000 5.5389000000 0.2776000000
2.7523000000 3.2649000000 1.8370000000
2.7522000000 1.1329000000 1.0840000000
2.7522000000 2.3517000000 1.7227000000
2.7521000000 0.9729000000 0.9610000000
2.7518000000 5.1186000000 0.7075000000
2.7517000000 3.7638000000 1.5781000000
2.7513000000 3.0036000000 1.9704000000
2.7512000000 0.6186000000 0.6139000000
2.7508000000 2.5785000000 1.8391000000
2.7508000000 4.9534000000 0.8739000000
2.7507000000 2.5590000000 1.8289000000
2.7504000000 3.1390000000 1.9100000000
2.7504000000 0.1218000000 0.1013000000
2.7503000000 4.4414000000 1.2353000000
2.7501000000 3.7788000000 1.5742000000
2.7500000000 1.4948000000 1.2865000000
2.7499000000 3.6233000000 1.6553000000
2.7498000000 2.8747000000 1.9838000000
2.7498000000 4.1230000000 1.3990000000
2.7497000000 1.5689000000 1.3249000000
2.7496000000 0.5829000000 0.5704000000
2.7495000000 1.1116000000 1.0747000000
2.7494000000 5.0023000000 0.8214000000
2.7493000000 4.8876000000 0.9396000000
2.7492000000 0.1208000000 0.0975000000
2.7490000000 0.6985000000 0.6912000000
2.7490000000 3.5096000000 1.7143000000
2.7485000000 0.7485000000 0.7367000000
2.7485000000 0.8552000000 0.8510000000
2.7485000000 4.6860000000 1.0970000000
2.7476000000 0.4474000000 0.4402000000
2.7474000000 0.9188000000 0.9140000000
2.7471000000 0.8700000000 0.8650000000
2.7425000000 0.0780000000 0.0502000000
2.5096000000 4.9437000000 0.8882000000
2.5093000000 1.9011000000 1.7106000000
2.5092000000 5.4819000000 0.3293000000
2.5090000000 2.2998000000 1.9170000000
2.5088000000 2.3594000000 1.9513000000
2.5086000000 3.3847000000 1.9946000000
2.5085000000 4.3578000000 1.4666000000
2.5085000000 2.7285000000 2.1385000000
2.5083000000 5.6314000000 0.1755000000
2.5077000000 4.5006000000 1.3379000000
2.5076000000 5.4839000000 0.3317000000
2.5076000000 2.3762000000 1.9498000000
2.5074000000 0.6882000000 0.6749000000
2.5075000000 5.7372000000 0.0727000000
2.5073000000 1.7713000000 1.6377000000
2.5071000000 1.0996000000 1.1024000000
2.5071000000 0.0848000000 0.0588000000
2.5070000000 1.3117000000 1.3103000000
2.5067000000 0.2438000000 0.2215000000
2.5066000000 1.7634000000 1.6454000000
2.5066000000 0.9861000000 0.9833000000
2.5063000000 4.0927000000 1.6287000000
2.5062000000 3.5911000000 1.8903000000
2.5060000000 4.6829000000 1.1583000000
2.5061000000 1.5659000000 1.5232000000
2.5059000000 5.0339000000 0.7925000000
2.5058000000 2.8622000000 2.1945000000
2.5057000000 5.1409000000 0.6814000000
2.5056000000 0.6292000000 0.6158000000
2.5053000000 4.0794000000 1.6439000000
2.5051000000 3.0136000000 2.1860000000
2.5050000000 2.9090000000 2.2139000000
2.5048000000 2.8807000000 2.2012000000
2.5048000000 2.1263000000 1.8279000000
2.5047000000 1.3238000000 1.3295000000
2.5046000000 1.6809000000 1.6019000000
2.5044000000 1.8801000000 1.7077000000
2.5043000000 1.3052000000 1.3128000000
2.5041000000 3.1767000000 2.1021000000
2.5043000000 3.6326000000 1.8682000000
2.5041000000 4.0210000000 1.6697000000
2.5039000000 3.3405000000 2.0151000000
2.5038000000 2.7163000000 2.1329000000
2.5037000000 3.9332000000 1.7177000000
2.5036000000 5.3673000000 0.4549000000
2.5034000000 5.0067000000 0.8194000000
2.5032000000 3.5280000000 1.9162000000
2.5028000000 4.3584000000 1.4660000000
2.5026000000 4.2082000000 1.5770000000
2.5025000000 4.1598000000 1.6049000000
2.5025000000 2.1960000000 1.8676000000
2.5025000000 5.0927000000 0.7375000000
2.5023000000 2.5447000000 2.0449000000
2.5022000000 0.2880000000 0.2725000000
2.5020000000 1.2586000000 1.2658000000
2.5019000000 4.9155000000 0.9124000000
2.5018000000 0.3787000000 0.3625000000
2.5017000000 3.3421000000 2.0181000000
2.5016000000 3.6470000000 1.8612000000
2.5015000000 4.5441000000 1.2959000000
2.5014000000 2.7981000000 2.1802000000
2.5013000000 1.1664000000 1.1749000000
2.5011000000 0.3955000000 0.3840000000
2.5010000000 2.7377000000 2.1460000000
2.5008000000 1.3249000000 1.3293000000
2.5006000000 4.2100000000 1.5750000000
2.5003000000 1.3247000000 1.3309000000
2.5001000000 4.4576000000 1.3835000000
2.5000000000 1.7225000000 1.6251000000
2.5000000000 1.8576000000 1.6963000000
2.5000000000 1.0045000000 1.0071000000
2.4999000000 3.2132000000 2.0854000000
2.4998000000 5.5791000000 0.2414000000
2.4990000000 1.3098000000 1.3140000000
2.4989000000 0.6621000000 0.6522000000
2.4985000000 1.8285000000 1.6838000000
2.4983000000 0.0349000000 0.0872000000
2.4966000000 4.8784000000 0.9512000000
2.4964000000 4.2391000000 1.5469000000
2.4947000000 2.0305000000 1.7881000000
2.4916000000 0.0547000000 0.1036000000
2.2633000000 3.7505000000 2.0227000000
2.2620000000 1.4712000000 1.4869000000
2.2619000000 4.9354000000 0.8981000000
2.2618000000 4.4454000000 1.3992000000
2.2614000000 4.3787000000 1.4645000000
2.2608000000 3.9612000000 1.8769000000
2.2606000000 5.5955000000 0.2136000000
2.2606000000 4.5662000000 1.2732000000
2.2594000000 1.3560000000 1.3605000000
2.2591000000 5.5856000000 0.2266000000
2.2586000000 5.1740000000 0.6542000000
2.2580000000 4.3404000000 1.5026000000
2.2580000000 5.3871000000 0.4313000000
2.2578000000 3.7163000000 2.0465000000
2.2577000000 1.8041000000 1.8259000000
2.2575000000 2.3248000000 2.1507000000
2.2575000000 2.7186000000 2.3544000000
2.2573000000 3.4041000000 2.2064000000
2.2573000000 3.7754000000 2.0131000000
2.2569000000 1.5761000000 1.5930000000
2.2569000000 4.8653000000 0.9627000000
2.2565000000 5.1012000000 0.7289000000
2.2560000000 2.1675000000 2.0709000000
2.2559000000 2.0303000000 1.9960000000
2.2558000000 4.4924000000 1.3490000000
2.2558000000 5.6650000000 0.1467000000
2.2556000000 4.1599000000 1.6887000000
2.2555000000 0.8227000000 0.8145000000
2.2555000000 0.1469000000 0.1220000000
2.2554000000 3.3698000000 2.2236000000
2.2553000000 1.2057000000 1.2097000000
2.2550000000 0.9584000000 0.9563000000
2.2548000000 2.5023000000 2.2459000000
2.2547000000 2.8467000000 2.4223000000
2.2546000000 2.9090000000 2.4342000000
2.2545000000 3.0499000000 2.3889000000
2.2542000000 3.4527000000 2.1800000000
2.2540000000 0.0988000000 0.0747000000
2.2538000000 0.4720000000 0.4591000000
2.2537000000 3.8680000000 1.9580000000
2.2536000000 2.6600000000 2.3270000000
2.2535000000 1.4754000000 1.4866000000
2.2532000000 3.4042000000 2.2079000000
2.2530000000 1.1466000000 1.1499000000
2.2530000000 1.4959000000 1.5042000000
2.2527000000 1.3907000000 1.3972000000
2.2527000000 2.5691000000 2.2817000000
2.2526000000 3.1387000000 2.3444000000
2.2525000000 1.6973000000 1.7128000000
2.2523000000 3.6583000000 2.0845000000
2.2522000000 3.3946000000 2.2149000000
2.2520000000 4.5711000000 1.2687000000
2.2520000000 5.5657000000 0.2461000000
2.2517000000 2.9443000000 2.4292000000
2.2517000000 2.0934000000 2.0341000000
2.2516000000 0.9641000000 0.9665000000
2.2514000000 1.0710000000 1.0720000000
2.2511000000 4.7731000000 1.0630000000
2.2510000000 2.6569000000 2.3252000000
2.2508000000 0.3119000000 0.2888000000
2.2508000000 5.0026000000 0.8209000000
2.2506000000 0.8781000000 0.8723000000
2.2503000000 1.3372000000 1.3432000000
2.2500000000 1.9039000000 1.9085000000
2.2501000000 4.1444000000 1.7044000000
2.2493000000 2.6476000000 2.3252000000
2.2490000000 5.2900000000 0.5293000000
2.2488000000 3.0317000000 2.4030000000
2.2487000000 5.7748000000 0.1107000000
2.2479000000 3.4531000000 2.1863000000
2.2480000000 1.1343000000 1.1334000000
2.2478000000 2.4902000000 2.2427000000
2.2475000000 0.7595000000 0.7515000000
2.2475000000 3.6187000000 2.1044000000
2.2473000000 1.2343000000 1.2426000000
2.2470000000 1.4508000000 1.4612000000
2.2467000000 1.0167000000 1.0076000000
2.2458000000 1.1999000000 1.2060000000
2.2453000000 0.2912000000 0.2780000000
2.2450000000 2.4924000000 2.2446000000
2.2435000000 0.6998000000 0.6929000000
2.0109000000 5.5360000000 0.2798000000
2.0106000000 3.7868000000 2.0722000000
2.0098000000 5.4575000000 0.3538000000
2.0093000000 0.7649000000 0.7597000000
2.0090000000 4.8790000000 0.9567000000
2.0090000000 5.4841000000 0.3326000000
2.0088000000 5.3890000000 0.4286000000
2.0083000000 3.6059000000 2.2563000000
2.0083000000 4.2908000000 1.5553000000
2.0080000000 0.5440000000 0.5263000000
2.0078000000 3.6552000000 2.2066000000
2.0078000000 5.8447000000 0.0358000000
2.0077000000 5.3358000000 0.4873000000
2.0074000000 1.4819000000 1.4962000000
2.0072000000 2.8233000000 2.6329000000
2.0070000000 5.5259000000 0.2891000000
2.0068000000 4.1520000000 1.6991000000
2.0066000000 5.5765000000 0.2402000000
2.0066000000 5.7571000000 0.0529000000
2.0065000000 4.3956000000 1.4486000000
2.0063000000 0.4099000000 0.3958000000
2.0062000000 5.4759000000 0.3432000000
2.0062000000 2.7489000000 2.5950000000
2.0061000000 2.3872000000 2.3881000000
2.0058000000 3.4014000000 2.4152000000
2.0059000000 1.2177000000 1.2244000000
2.0055000000 2.9850000000 2.6417000000
2.0054000000 2.2281000000 2.2578000000
2.0052000000 4.0968000000 1.7509000000
2.0051000000 3.0907000000 2.5887000000
2.0051000000 5.4834000000 0.3329000000
2.0050000000 1.6465000000 1.6534000000
2.0050000000 2.7732000000 2.5996000000
2.0050000000 1.2325000000 1.2379000000
2.0048000000 2.0761000000 2.1010000000
2.0048000000 2.0013000000 2.0293000000
2.0046000000 3.3282000000 2.4671000000
2.0046000000 5.3510000000 0.4648000000
2.0045000000 2.6339000000 2.5369000000
2.0044000000 2.9565000000 2.6512000000
2.0042000000 3.9601000000 1.8972000000
2.0041000000 0.1617000000 0.1442000000
2.0042000000 4.5804000000 1.2588000000
2.0040000000 5.8189000000 0.0638000000
2.0040000000 5.0948000000 0.7338000000
2.0038000000 0.5590000000 0.5494000000
2.0037000000 0.4057000000 0.3849000000
2.0037000000 5.6450000000 0.1639000000
2.0038000000 2.3211000000 2.3333000000
2.0036000000 1.9214000000 1.9447000000
2.0035000000 5.6912000000 0.1221000000
2.0035000000 4.5438000000 1.2940000000
2.0033000000 2.4125000000 2.4028000000
2.0032000000 0.2225000000 0.2045000000
2.0031000000 5.5761000000 0.2354000000
2.0029000000 2.7920000000 2.6202000000
2.0029000000 5.0236000000 0.8030000000
2.0028000000 5.5649000000 0.2492000000
2.0028000000 4.3187000000 1.5218000000
2.0026000000 3.0074000000 2.6354000000
2.0026000000 0.8741000000 0.8717000000
2.0025000000 3.8204000000 2.0424000000
2.0023000000 0.6647000000 0.6542000000
2.0023000000 2.1811000000 2.2055000000
2.0023000000 5.5978000000 0.2174000000
2.0021000000 4.5850000000 1.2488000000
2.0021000000 1.8245000000 1.8469000000
2.0020000000 0.0450000000 0.0936000000
2.0019000000 1.7013000000 1.7192000000
2.0013000000 0.0466000000 0.0929000000
2.0010000000 4.1739000000 1.6809000000
2.0010000000 2.1701000000 2.1967000000
2.0008000000 1.7545000000 1.7695000000
2.0008000000 2.2769000000 2.2882000000
2.0007000000 0.3120000000 0.2990000000
2.0006000000 0.9482000000 0.9431000000
2.0005000000 2.8956000000 2.6556000000
2.0004000000 1.3839000000 1.3942000000
2.0003000000 0.8041000000 0.7982000000
2.0002000000 3.7003000000 2.1632000000
1.9994000000 5.3310000000 0.4907000000
1.9990000000 1.4588000000 1.4731000000
1.9985000000 0.3450000000 0.3213000000
1.9988000000 1.5434000000 1.5560000000
1.9984000000 3.8558000000 2.0009000000
1.9983000000 1.4867000000 1.4947000000
1.9977000000 1.3317000000 1.3397000000
1.9975000000 4.3490000000 1.4993000000
1.9973000000 3.1646000000 2.5529000000
1.9971000000 0.5499000000 0.5352000000
1.9971000000 3.3663000000 2.4474000000
1.9970000000 0.2977000000 0.2737000000
1.9970000000 1.8554000000 1.8799000000
1.9966000000 1.8124000000 1.8284000000
1.9965000000 1.8550000000 1.8808000000
1.9963000000 3.9625000000 1.8933000000
1.7632000000 2.1331000000 2.1552000000
1.7631000000 5.3551000000 0.4678000000
1.7624000000 4.4598000000 1.3835000000
1.7611000000 4.7461000000 1.0850000000
1.7610000000 3.6529000000 2.2120000000
1.7604000000 4.4402000000 1.4023000000
1.7596000000 1.6513000000 1.6666000000
1.7590000000 3.9925000000 1.8580000000
1.7586000000 1.9703000000 1.9973000000
1.7579000000 5.1425000000 0.6825000000
1.7578000000 5.1689000000 0.6539000000
1.7576000000 3.9626000000 1.8952000000
1.7576000000 2.9025000000 2.8827000000
1.7573000000 5.0495000000 0.7795000000
1.7572000000 1.3580000000 1.3629000000
1.7571000000 2.7060000000 2.7406000000
1.7570000000 0.0885000000 0.0676000000
1.7570000000 4.3064000000 1.5354000000
1.7559000000 0.5376000000 0.5279000000
1.7556000000 3.0950000000 2.7598000000
1.7554000000 1.9833000000 2.0091000000
1.7552000000 5.6873000000 0.1233000000
1.7551000000 4.3623000000 1.4833000000
1.7548000000 1.2418000000 1.2461000000
1.7546000000 1.4448000000 1.4560000000
1.7545000000 3.9659000000 1.8891000000
1.7541000000 4.3795000000 1.4686000000
1.7541000000 1.2156000000 1.2194000000
1.7539000000 1.4076000000 1.4109000000
1.7539000000 0.0412000000 0.0972000000
1.7538000000 3.3402000000 2.5311000000
1.7537000000 4.8260000000 1.0114000000
1.7538000000 4.3734000000 1.4716000000
1.7535000000 1.9130000000 1.9383000000
1.7535000000 0.5720000000 0.5583000000
1.7535000000 5.4799000000 0.3314000000
1.7534000000 5.7511000000 0.0533000000
1.7533000000 5.2570000000 0.5636000000
1.7532000000 0.3952000000 0.3823000000
1.7528000000 1.9409000000 1.9680000000
1.7528000000 2.6593000000 2.7070000000
1.7528000000 1.6100000000 1.6273000000
1.7527000000 5.0234000000 0.8030000000
1.7525000000 1.3037000000 1.3094000000
1.7525000000 0.3496000000 0.3315000000
1.7524000000 1.0772000000 1.0809000000
1.7523000000 2.0408000000 2.0660000000
1.7522000000 0.9361000000 0.9303000000
1.7520000000 4.4121000000 1.4301000000
1.7520000000 4.9144000000 0.9179000000
1.7519000000 0.5288000000 0.5133000000
1.7518000000 0.5765000000 0.5607000000
1.7518000000 1.3106000000 1.3154000000
1.7517000000 0.8336000000 0.8215000000
1.7515000000 0.1323000000 0.1153000000
1.7515000000 5.0747000000 0.7516000000
1.7513000000 0.3963000000 0.3811000000
1.7511000000 5.0717000000 0.7558000000
1.7510000000 3.6348000000 2.2248000000
1.7507000000 1.1155000000 1.1162000000
1.7500000000 0.3695000000 0.3572000000
1.7498000000 0.8763000000 0.8714000000
1.7498000000 1.1633000000 1.1638000000
1.7496000000 1.3028000000 1.3092000000
1.7495000000 4.5209000000 1.3205000000
1.7490000000 0.5878000000 0.5732000000
1.7489000000 3.2688000000 2.6065000000
1.7488000000 1.8759000000 1.8956000000
1.7481000000 4.7986000000 1.0366000000
1.7479000000 4.3174000000 1.5294000000
1.7478000000 1.2024000000 1.2110000000
1.7476000000 2.5035000000 2.5418000000
1.7475000000 3.2656000000 2.6043000000
1.7472000000 0.3781000000 0.3596000000
1.5106000000 3.3914000000 2.4812000000
1.5105000000 3.5124000000 2.3524000000
1.5104000000 2.5019000000 2.5380000000
1.5103000000 2.1282000000 2.1609000000
1.5102000000 5.1127000000 0.7088000000
1.5097000000 3.1362000000 2.6773000000
1.5096000000 4.3215000000 1.5247000000
1.5096000000 4.1735000000 1.6819000000
1.5095000000 5.8098000000 0.0713000000
1.5086000000 4.5568000000 1.2779000000
1.5084000000 2.0849000000 2.1098000000
1.5078000000 3.1852000000 2.6522000000
1.5077000000 5.3871000000 0.4301000000
1.5076000000 4.4102000000 1.4341000000
1.5072000000 4.2134000000 1.6374000000
1.5067000000 5.0831000000 0.7344000000
1.5066000000 1.4415000000 1.4589000000
1.5065000000 1.0276000000 1.0289000000
1.5063000000 4.0320000000 1.8233000000
1.5063000000 4.3455000000 1.4998000000
1.5062000000 2.2379000000 2.2716000000
1.5062000000 1.2304000000 1.2300000000
1.5059000000 5.3516000000 0.4654000000
1.5058000000 0.0453000000 0.0946000000
1.5058000000 1.6002000000 1.6100000000
1.5058000000 4.7351000000 1.0979000000
1.5056000000 2.6073000000 2.6286000000
1.5054000000 4.8062000000 1.0256000000
1.5052000000 1.8796000000 1.9006000000
1.5051000000 1.0642000000 1.0636000000
1.5050000000 0.5465000000 0.5320000000
1.5049000000 1.3102000000 1.3204000000
1.5048000000 1.2927000000 1.3034000000
1.5048000000 2.1807000000 2.2073000000
1.5047000000 5.4073000000 0.4120000000
1.5044000000 1.9458000000 1.9703000000
1.5043000000 1.4668000000 1.4756000000
1.5042000000 5.5836000000 0.2303000000
1.5042000000 3.9139000000 1.9475000000
1.5040000000 2.1314000000 2.1536000000
1.5038000000 2.2511000000 2.2811000000
1.5037000000 4.2053000000 1.6461000000
1.5034000000 4.6331000000 1.2007000000
1.5033000000 1.6231000000 1.6343000000
1.5028000000 0.1203000000 0.0958000000
1.5027000000 4.0701000000 1.7826000000
1.5026000000 1.7475000000 1.7698000000
1.5025000000 3.5438000000 2.3206000000
1.5025000000 1.9285000000 1.9514000000
1.5024000000 5.5187000000 0.2966000000
1.5023000000 5.3751000000 0.4425000000
1.5020000000 5.5582000000 0.2587000000
1.5019000000 0.6280000000 0.6151000000
1.5018000000 3.5671000000 2.2975000000
1.5016000000 4.1365000000 1.7182000000
1.5016000000 1.5133000000 1.5214000000
1.5015000000 4.8220000000 1.0109000000
1.5014000000 0.9310000000 0.9229000000
1.5013000000 2.5373000000 2.5590000000
1.5013000000 5.1510000000 0.6751000000
1.5012000000 3.1272000000 2.6926000000
1.5012000000 5.0776000000 0.7450000000
1.5011000000 5.5503000000 0.2593000000
1.5010000000 0.8981000000 0.8924000000
1.5010000000 0.5570000000 0.5490000000
1.5008000000 0.4246000000 0.4047000000
1.5007000000 1.9564000000 1.9789000000
1.5003000000 0.1281000000 0.0986000000
1.5002000000 3.5520000000 2.3112000000
1.4999000000 3.5440000000 2.3230000000
1.4998000000 2.0421000000 2.0721000000
1.4999000000 0.4579000000 0.4454000000
1.4995000000 5.7832000000 0.0957000000
1.4993000000 2.9499000000 2.7708000000
1.4989000000 1.2048000000 1.2107000000
1.4984000000 0.6917000000 0.6823000000
1.4980000000 2.0504000000 2.0789000000
1.4972000000 4.7873000000 1.0504000000
1.4971000000 2.9142000000 2.7805000000
1.4971000000 2.4083000000 2.4427000000
1.4965000000 2.6429000000 2.6410000000
1.4963000000 1.9482000000 1.9720000000
1.4957000000 4.5100000000 1.3336000000
1.4951000000 2.9294000000 2.7755000000
1.2615000000 5.5957000000 0.2192000000
1.2606000000 5.0956000000 0.7316000000
1.2605000000 5.6421000000 0.1621000000
1.2600000000 5.7857000000 0.1007000000
1.2598000000 5.6506000000 0.1616000000
1.2590000000 4.6700000000 1.1713000000
1.2587000000 1.6719000000 1.6873000000
1.2586000000 0.2582000000 0.2332000000
1.2584000000 0.1812000000 0.1539000000
1.2580000000 2.0497000000 2.0810000000
1.2579000000 4.5144000000 1.3268000000
1.2578000000 1.9246000000 1.9524000000
1.2575000000 4.1917000000 1.6515000000
1.2574000000 3.6216000000 2.2093000000
1.2573000000 1.5567000000 1.5672000000
1.2571000000 3.2760000000 2.4029000000
1.2568000000 0.8147000000 0.8106000000
1.2568000000 4.8015000000 1.0307000000
1.2566000000 4.5212000000 1.3228000000
1.2565000000 4.2574000000 1.5861000000
1.2564000000 2.5087000000 2.3697000000
1.2564000000 1.0804000000 1.0824000000
1.2563000000 0.9991000000 0.9944000000
1.2561000000 2.0705000000 2.0920000000
1.2560000000 5.3731000000 0.4431000000
1.2560000000 4.3800000000 1.4667000000
1.2560000000 5.0829000000 0.7472000000
1.2558000000 5.2885000000 0.5264000000
1.2558000000 2.7766000000 2.5157000000
1.2557000000 4.4448000000 1.3993000000
1.2556000000 4.7306000000 1.1037000000
1.2555000000 5.6107000000 0.2026000000
1.2551000000 2.1801000000 2.1903000000
1.2550000000 0.7891000000 0.7805000000
1.2548000000 2.1104000000 2.1207000000
1.2547000000 5.6806000000 0.1326000000
1.2545000000 3.9604000000 1.9003000000
1.2543000000 2.6453000000 2.4417000000
1.2542000000 0.3272000000 0.3094000000
1.2540000000 4.0587000000 1.7908000000
1.2540000000 1.2183000000 1.2242000000
1.2537000000 5.1394000000 0.6820000000
1.2537000000 0.2113000000 0.1885000000
1.2535000000 5.1532000000 0.6699000000
1.2536000000 3.1655000000 2.4526000000
1.2532000000 0.1543000000 0.1310000000
1.2530000000 4.6878000000 1.1436000000
1.2530000000 2.4323000000 2.3371000000
1.2528000000 2.9861000000 2.5430000000
1.2527000000 4.2840000000 1.5650000000
1.2526000000 0.5534000000 0.5384000000
1.2525000000 4.9489000000 0.8821000000
1.2523000000 5.7816000000 0.0992000000
1.2524000000 5.8250000000 0.0521000000
1.2523000000 0.3461000000 0.3293000000
1.2522000000 2.7905000000 2.5198000000
1.2521000000 4.9490000000 0.8800000000
1.2521000000 1.4918000000 1.5054000000
1.2518000000 4.4549000000 1.3869000000
1.2514000000 5.7590000000 0.0513000000
1.2514000000 0.2816000000 0.2664000000
1.2512000000 0.6827000000 0.6731000000
1.2509000000 4.5887000000 1.2501000000
1.2508000000 1.3100000000 1.3133000000
1.2508000000 3.6116000000 2.2066000000
1.2507000000 0.3267000000 0.3098000000
1.2507000000 1.1727000000 1.1782000000
1.2505000000 1.8985000000 1.9196000000
1.2504000000 4.0996000000 1.7523000000
1.2496000000 0.9159000000 0.9159000000
1.2491000000 0.2282000000 0.2104000000
1.2491000000 1.6398000000 1.6540000000
1.2490000000 2.7252000000 2.4776000000
1.2488000000 5.5239000000 0.2944000000
1.2485000000 4.0792000000 1.7781000000
1.2475000000 2.6877000000 2.4654000000
1.2472000000 4.4292000000 1.4137000000
1.2472000000 1.3862000000 1.3955000000
1.2468000000 0.5019000000 0.4925000000
1.2467000000 0.2318000000 0.2158000000
1.2466000000 5.3796000000 0.4383000000
1.2463000000 0.3992000000 0.3793000000
1.0145000000 4.4975000000 1.3417000000
1.0107000000 2.3773000000 2.0928000000
1.0103000000 1.2262000000 1.2241000000
1.0088000000 5.2515000000 0.5697000000
1.0085000000 4.9428000000 0.8887000000
1.0078000000 5.1448000000 0.6783000000
1.0074000000 5.7802000000 0.1045000000
1.0072000000 0.2453000000 0.2295000000
1.0070000000 5.4494000000 0.3717000000
1.0069000000 5.6972000000 0.1136000000
1.0065000000 2.0598000000 1.9266000000
1.0065000000 2.4487000000 2.1195000000
1.0061000000 0.0468000000 0.0894000000
1.0060000000 5.4654000000 0.3515000000
1.0060000000 5.2670000000 0.5497000000
1.0058000000 2.3734000000 2.0832000000
1.0058000000 5.6508000000 0.1569000000
1.0056000000 3.3062000000 2.1603000000
1.0054000000 5.5663000000 0.2452000000
1.0053000000 0.1936000000 0.1717000000
1.0052000000 1.0802000000 1.0821000000
1.0048000000 4.5927000000 1.2391000000
1.0046000000 4.5890000000 1.2536000000
1.0045000000 5.0605000000 0.7640000000
1.0044000000 0.2995000000 0.2783000000
1.0043000000 0.2325000000 0.2120000000
1.0043000000 2.2383000000 2.0152000000
1.0042000000 0.7696000000 0.7651000000
1.0042000000 0.3539000000 0.3401000000
1.0041000000 5.1122000000 0.7136000000
1.0040000000 2.2277000000 2.0058000000
1.0039000000 0.0315000000 0.0785000000
1.0040000000 2.8890000000 2.3327000000
1.0036000000 3.6844000000 1.9715000000
1.0035000000 2.0951000000 1.9395000000
1.0035000000 0.7363000000 0.7245000000
1.0034000000 0.4292000000 0.4131000000
1.0032000000 3.0324000000 2.3074000000
1.0031000000 1.8172000000 1.7844000000
1.0030000000 4.4349000000 1.4057000000
1.0028000000 5.3570000000 0.4604000000
1.0025000000 5.6055000000 0.2096000000
1.0025000000 4.8029000000 1.0292000000
1.0024000000 3.4684000000 2.0732000000
1.0022000000 0.6041000000 0.5922000000
1.0023000000 1.5024000000 1.5155000000
1.0019000000 2.6245000000 2.2088000000
1.0018000000 5.0279000000 0.7981000000
1.0014000000 3.3661000000 2.1250000000
1.0013000000 4.1750000000 1.6536000000
1.0013000000 2.1291000000 1.9561000000
1.0008000000 2.7640000000 2.2795000000
1.0005000000 1.4619000000 1.4728000000
1.0003000000 4.3888000000 1.4535000000
1.0000000000 2.4182000000 2.1023000000
0.9996000000 2.9163000000 2.3370000000
0.9996000000 0.6969000000 0.6886000000
0.9995000000 3.0740000000 2.2755000000
0.9993000000 1.2916000000 1.2891000000
0.9992000000 1.6049000000 1.6218000000
0.9989000000 0.5810000000 0.5695000000
0.9988000000 5.4310000000 0.3899000000
0.9988000000 0.3913000000 0.3755000000
0.9986000000 1.9579000000 1.8618000000
0.9985000000 4.6165000000 1.2253000000
0.9983000000 0.3385000000 0.3223000000
0.9979000000 2.3916000000 2.0849000000
0.9969000000 3.8919000000 1.8547000000
0.9945000000 0.3677000000 0.3510000000
0.9930000000 3.4332000000 2.0872000000
0.7655000000 5.5382000000 0.2757000000
0.7617000000 4.2866000000 1.4410000000
0.7607000000 4.5691000000 1.2548000000
0.7600000000 3.1700000000 2.0159000000
0.7598000000 3.9809000000 1.5962000000
0.7598000000 5.4682000000 0.3491000000
0.7598000000 0.0090000000 0.0551000000
0.7595000000 0.8756000000 0.8720000000
0.7592000000 4.5639000000 1.2595000000
0.7590000000 2.9045000000 2.1188000000
0.7589000000 2.2854000000 1.8195000000
0.7585000000 4.3316000000 1.4186000000
0.7584000000 4.9338000000 0.8955000000
0.7570000000 2.3167000000 1.8390000000
0.7568000000 3.5350000000 1.8187000000
0.7566000000 5.8018000000 0.0845000000
0.7564000000 3.4743000000 1.8533000000
0.7563000000 5.0752000000 0.7595000000
0.7561000000 0.3000000000 0.2850000000
0.7560000000 3.9774000000 1.5943000000
0.7560000000 2.2655000000 1.8082000000
0.7559000000 3.0284000000 2.0868000000
0.7559000000 1.6961000000 1.5157000000
0.7558000000 3.8860000000 1.6382000000
0.7557000000 4.3888000000 1.3886000000
0.7554000000 4.2294000000 1.4642000000
0.7551000000 5.2620000000 0.5641000000
0.7550000000 5.0856000000 0.7431000000
0.7549000000 1.2987000000 1.2896000000
0.7547000000 4.9967000000 0.8287000000
0.7546000000 3.2820000000 1.9582000000
0.7546000000 1.7761000000 1.5504000000
0.7545000000 2.7436000000 2.0491000000
0.7544000000 5.0081000000 0.8211000000
0.7543000000 4.1943000000 1.4802000000
0.7540000000 4.1597000000 1.5015000000
0.7540000000 2.9256000000 2.1140000000
0.7538000000 3.8991000000 1.6388000000
0.7535000000 3.7836000000 1.6929000000
0.7535000000 2.6142000000 1.9814000000
0.7533000000 4.5708000000 1.2523000000
0.7533000000 4.7822000000 1.0522000000
0.7529000000 4.1990000000 1.4807000000
0.7529000000 2.5766000000 1.9617000000
0.7528000000 1.4021000000 1.3461000000
0.7527000000 4.8955000000 0.9346000000
0.7523000000 4.0371000000 1.5605000000
0.7522000000 5.4676000000 0.3458000000
0.7518000000 4.4782000000 1.3190000000
0.7516000000 0.2665000000 0.2466000000
0.7515000000 2.5567000000 1.9507000000
0.7513000000 4.7216000000 1.1180000000
0.7510000000 3.4424000000 1.8642000000
0.7509000000 2.0975000000 1.7152000000
0.7508000000 2.8496000000 2.1017000000
0.7507000000 3.5991000000 1.7912000000
0.7502000000 3.7558000000 1.7055000000
0.7501000000 2.5699000000 1.9556000000
0.7495000000 2.1455000000 1.7401000000
0.7495000000 0.1614000000 0.1409000000
0.7490000000 0.2763000000 0.2532000000
0.7488000000 0.4523000000 0.4370000000
0.7486000000 1.2162000000 1.2051000000
0.7484000000 1.1183000000 1.1224000000
0.7477000000 0.8701000000 0.8693000000
0.7474000000 0.0362000000 0.0833000000
0.7470000000 4.8556000000 0.9708000000
0.7465000000 2.1299000000 1.7258000000
0.7465000000 4.4188000000 1.3601000000
0.7460000000 2.4530000000 1.8922000000
0.7458000000 0.1854000000 0.1583000000
0.7456000000 0.2571000000 0.2358000000
0.7454000000 0.5018000000 0.4847000000
0.7448000000 5.0432000000 0.7849000000
0.5130000000 3.3339000000 1.7136000000
0.5121000000 2.1840000000 1.5483000000
0.5103000000 5.2105000000 0.6105000000
0.5085000000 2.9166000000 1.9008000000
0.5084000000 5.0797000000 0.7462000000
0.5078000000 5.8402000000 0.0377000000
0.5078000000 2.5619000000 1.7407000000
0.5077000000 5.4005000000 0.4190000000
0.5076000000 5.5629000000 0.2571000000
0.5075000000 3.5873000000 1.5827000000
0.5073000000 2.1403000000 1.5220000000
0.5071000000 4.6463000000 1.0335000000
0.5069000000 3.2761000000 1.7314000000
0.5069000000 4.3873000000 1.1650000000
0.5068000000 0.5848000000 0.5732000000
0.5067000000 4.5151000000 1.0978000000
0.5067000000 4.7377000000 0.9859000000
0.5065000000 5.2853000000 0.5397000000
0.5064000000 4.4814000000 1.1145000000
0.5064000000 5.3885000000 0.4272000000
0.5062000000 3.9922000000 1.3698000000
0.5060000000 0.6038000000 0.5913000000
0.5060000000 3.7490000000 1.4894000000
0.5059000000 2.8339000000 1.8758000000
0.5058000000 3.1787000000 1.7810000000
0.5057000000 1.4761000000 1.1769000000
0.5057000000 5.0016000000 0.8112000000
0.5056000000 5.8587000000 0.0233000000
0.5052000000 1.4508000000 1.1649000000
0.5051000000 3.8668000000 1.4298000000
0.5050000000 0.3964000000 0.3828000000
0.5048000000 2.2703000000 1.5895000000
0.5048000000 2.9861000000 1.8808000000
0.5045000000 1.7441000000 1.3100000000
0.5044000000 4.8174000000 0.9414000000
0.5043000000 3.9507000000 1.3918000000
0.5040000000 5.0684000000 0.7490000000
0.5039000000 2.9176000000 1.8995000000
0.5038000000 1.8313000000 1.3599000000
0.5037000000 2.0680000000 1.4810000000
0.5035000000 2.5032000000 1.7040000000
0.5033000000 2.9429000000 1.8872000000
0.5032000000 4.1333000000 1.2928000000
0.5031000000 2.3947000000 1.6456000000
0.5030000000 2.0198000000 1.4566000000
0.5030000000 0.7694000000 0.7527000000
0.5029000000 4.2479000000 1.2375000000
0.5029000000 2.7145000000 1.8053000000
0.5028000000 2.3271000000 1.6203000000
0.5028000000 0.1273000000 0.1022000000
0.5027000000 2.9696000000 1.8831000000
0.5026000000 3.3678000000 1.6784000000
0.5026000000 1.0584000000 0.9619000000
0.5025000000 3.2683000000 1.7363000000
0.5024000000 4.3744000000 1.1678000000
0.5023000000 5.7126000000 0.1010000000
0.5023000000 2.8995000000 1.8902000000
0.5019000000 0.9673000000 0.9019000000
0.5017000000 3.8300000000 1.4477000000
0.5015000000 3.2546000000 1.7426000000
0.5013000000 2.0922000000 1.4904000000
0.5009000000 1.1733000000 1.0233000000
0.5006000000 4.0324000000 1.3482000000
0.5006000000 1.1239000000 0.9939000000
0.5005000000 5.7033000000 0.1058000000
0.5003000000 0.4169000000 0.4030000000
0.5003000000 1.1808000000 1.0212000000
0.5001000000 0.7021000000 0.6927000000
0.5000000000 0.2509000000 0.2288000000
0.4998000000 0.5652000000 0.5484000000
0.4995000000 0.2690000000 0.2486000000
0.4988000000 2.1440000000 1.5197000000
0.4988000000 0.1909000000 0.1742000000
0.4986000000 4.0656000000 1.3207000000
0.4984000000 0.3618000000 0.3448000000
0.4980000000 1.1135000000 0.9857000000
0.4979000000 4.4921000000 1.1080000000
0.4979000000 1.2037000000 1.0364000000
0.4978000000 4.5295000000 1.0881000000
0.4976000000 2.1780000000 1.5350000000
0.4976000000 5.6159000000 0.2031000000
0.4973000000 3.9483000000 1.3808000000
0.4972000000 1.5632000000 1.2168000000
0.4968000000 1.3996000000 1.1270000000
0.4967000000 5.7429000000 0.0729000000
0.4958000000 2.1033000000 1.4915000000
0.4942000000 2.0883000000 1.4855000000
0.4941000000 3.7422000000 1.4879000000
0.2610000000 5.3630000000 0.4342000000
0.2604000000 3.9566000000 1.1638000000
0.2597000000 4.5338000000 0.8677000000
0.2597000000 4.5881000000 0.8406000000
0.2584000000 2.5034000000 1.4869000000
0.2583000000 5.6518000000 0.1554000000
0.2583000000 5.4048000000 0.3968000000
0.2582000000 3.9706000000 1.1611000000
0.2581000000 4.0037000000 1.1441000000
0.2580000000 4.8078000000 0.7297000000
0.2580000000 3.6488000000 1.3195000000
0.2579000000 1.3144000000 0.8780000000
0.2578000000 5.3695000000 0.4225000000
0.2574000000 4.2546000000 1.0100000000
0.2572000000 5.3734000000 0.4193000000
0.2570000000 0.3018000000 0.2844000000
0.2570000000 2.1493000000 1.3079000000
0.2568000000 2.5427000000 1.5098000000
0.2564000000 5.7827000000 0.1056000000
0.2561000000 3.8810000000 1.2021000000
0.2560000000 3.7320000000 1.2796000000
0.2558000000 1.8720000000 1.1627000000
0.2558000000 2.3990000000 1.4321000000
0.2558000000 1.4638000000 0.9508000000
0.2556000000 4.4244000000 0.9267000000
0.2554000000 3.3210000000 1.4909000000
0.2553000000 4.5189000000 0.8710000000
0.2550000000 5.3136000000 0.4495000000
0.2543000000 3.0767000000 1.6052000000
0.2541000000 1.8788000000 1.1656000000
0.2541000000 2.1014000000 1.2801000000
0.2540000000 4.9963000000 0.6335000000
0.2538000000 1.4191000000 0.9380000000
0.2539000000 1.5728000000 1.0029000000
0.2538000000 3.9284000000 1.1787000000
0.2537000000 1.5963000000 1.0192000000
0.2536000000 1.6371000000 1.0352000000
0.2536000000 4.3219000000 0.9716000000
0.2535000000 2.5266000000 1.4919000000
0.2534000000 3.4199000000 1.4378000000
0.2533000000 2.5951000000 1.5333000000
0.2533000000 2.3168000000 1.3850000000
0.2531000000 0.9957000000 0.7059000000
0.2530000000 4.3233000000 0.9738000000
0.2531000000 2.4148000000 1.4348000000
0.2530000000 3.7515000000 1.2697000000
0.2529000000 3.2742000000 1.5043000000
0.2526000000 4.5246000000 0.8700000000
0.2525000000 3.8379000000 1.2178000000
0.2523000000 1.7960000000 1.1211000000
0.2523000000 2.3509000000 1.4015000000
0.2522000000 1.6532000000 1.0428000000
0.2514000000 0.0757000000 0.0498000000
0.2513000000 0.4720000000 0.4199000000
0.2511000000 0.0782000000 0.0583000000
0.2509000000 0.3257000000 0.3039000000
0.2508000000 0.9530000000 0.6815000000
0.2505000000 5.8130000000 0.0674000000
0.2505000000 5.7962000000 0.0886000000
0.2504000000 1.8925000000 1.1648000000
0.2503000000 3.5768000000 1.3572000000
0.2501000000 0.6715000000 0.5408000000
0.2495000000 3.9157000000 1.1764000000
0.2494000000 3.4945000000 1.3907000000
0.2494000000 2.7746000000 1.6205000000
0.2492000000 0.0215000000 0.0722000000
0.2490000000 2.7607000000 1.6086000000
0.2489000000 0.2155000000 0.1917000000
0.2488000000 2.4375000000 1.4451000000
0.2485000000 3.4802000000 1.4000000000
0.2481000000 5.1978000000 0.5204000000
0.2480000000 0.0882000000 0.0562000000
0.2480000000 1.1506000000 0.7855000000
0.2478000000 1.6318000000 1.0307000000
0.2477000000 1.7382000000 1.0830000000
0.2459000000 2.2148000000 1.3235000000
0.2458000000 0.9034000000 0.6611000000
0.0111000000 5.3141000000 0.2482000000
0.0093000000 4.8584000000 0.4808000000
0.0091000000 2.8510000000 1.4445000000
0.0088000000 3.5795000000 1.1377000000
0.0087000000 2.1472000000 1.0766000000
0.0087000000 1.0158000000 0.5089000000
0.0086000000 2.8008000000 1.4201000000
0.0083000000 4.5499000000 0.6452000000
0.0084000000 3.5514000000 1.1552000000
0.0078000000 5.1780000000 0.3195000000
0.0076000000 4.4265000000 0.7048000000
0.0075000000 3.8420000000 1.0030000000
0.0075000000 3.2238000000 1.3193000000
0.0074000000 5.0713000000 0.3762000000
0.0073000000 4.4323000000 0.6966000000
0.0063000000 2.0519000000 1.0263000000
0.0059000000 0.8439000000 0.4113000000
0.0059000000 3.1206000000 1.3667000000
0.0058000000 4.8641000000 0.4821000000
0.0058000000 5.6894000000 0.0579000000
0.0058000000 5.0330000000 0.3919000000
0.0057000000 1.3358000000 0.6662000000
0.0056000000 3.6871000000 1.0771000000
0.0056000000 1.7588000000 0.8783000000
0.0055000000 1.7667000000 0.8819000000
0.0055000000 0.3092000000 0.1375000000
0.0055000000 5.0406000000 0.3846000000
0.0053000000 2.7661000000 1.4033000000
0.0052000000 3.0912000000 1.3861000000
0.0051000000 2.2468000000 1.1249000000
0.0049000000 5.4029000000 0.2006000000
0.0048000000 2.8726000000 1.4372000000
0.0048000000 5.5889000000 0.1018000000
0.0047000000 1.7735000000 0.8842000000
0.0046000000 1.6103000000 0.7949000000
0.0046000000 5.5438000000 0.1262000000
0.0045000000 3.6481000000 1.1050000000
0.0045000000 3.1390000000 1.3553000000
0.0043000000 4.4642000000 0.6784000000
0.0043000000 0.5680000000 0.2706000000
0.0042000000 2.9470000000 1.4378000000
0.0041000000 3.2745000000 1.2918000000
0.0040000000 3.6436000000 1.1011000000
0.0038000000 2.8316000000 1.4257000000
0.0038000000 3.1611000000 1.3478000000
0.0037000000 4.4660000000 0.6765000000
0.0036000000 4.6080000000 0.6053000000
0.0035000000 2.6211000000 1.3162000000
0.0035000000 1.2991000000 0.6408000000
0.0034000000 4.9050000000 0.4577000000
0.0029000000 3.5275000000 1.1569000000
0.0029000000 3.6906000000 1.0721000000
0.0028000000 1.3916000000 0.6910000000
0.0028000000 0.1027000000 0.0953000000
0.0028000000 3.6531000000 1.0997000000
0.0026000000 1.0900000000 0.5347000000
0.0025000000 0.1971000000 0.0761000000
0.0022000000 1.8619000000 0.9257000000
0.0022000000 2.4028000000 1.2106000000
0.0021000000 2.5425000000 1.2841000000
0.0021000000 3.6468000000 1.0972000000
0.0020000000 2.6840000000 1.3511000000
0.0018000000 2.1680000000 1.0905000000
0.0018000000 2.5314000000 1.2746000000
0.0016000000 3.0711000000 1.3863000000
0.0017000000 3.9208000000 0.9620000000
0.0015000000 2.1111000000 1.0556000000
0.0010000000 3.8236000000 1.0000000000
0.0009000000 3.9669000000 0.9310000000
0.0009000000 2.2202000000 1.1127000000
0.0008000000 3.1258000000 1.3647000000
0.0008000000 1.5746000000 0.7820000000
0.0005000000 0.1437000000 0.0494000000
0.0002000000 0.0233000000 0.0395000000
-0.0002000000 4.9220000000 0.4440000000
-0.0005000000 2.9784000000 1.4361000000
-0.0007000000 0.3890000000 0.1725000000
-0.0007000000 4.1380000000 0.8416000000
-0.0014000000 4.6934000000 0.5579000000
-0.0015000000 1.8302000000 0.9110000000
-0.0016000000 0.9073000000 0.4424000000
-0.0021000000 4.1280000000 0.8435000000
-0.0023000000 2.0536000000 1.0242000000
-0.0031000000 0.6865000000 0.3238000000
-0.0032000000 0.2789000000 0.1125000000
-0.0034000000 0.1445000000 0.0463000000
-0.0038000000 5.1132000000 0.3357000000
-0.0040000000 2.6953000000 1.3604000000
-0.0041000000 0.2258000000 0.0799000000
-0.2380000000 5.3004000000 0.1137000000
-0.2385000000 5.5932000000 0.0347000000
-0.2386000000 2.2345000000 0.9105000000
-0.2397000000 4.8071000000 0.2895000000
-0.2397000000 1.8111000000 0.6899000000
-0.2399000000 4.3438000000 0.5295000000
-0.2405000000 2.2485000000 0.9154000000
-0.2411000000 1.5742000000 0.5620000000
-0.2414000000 0.9770000000 0.2587000000
-0.2419000000 2.1547000000 0.8612000000
-0.2424000000 3.8071000000 0.7985000000
-0.2425000000 3.2020000000 1.1097000000
-0.2426000000 1.1487000000 0.3475000000
-0.2427000000 4.0707000000 0.6615000000
-0.2428000000 2.9048000000 1.2241000000
-0.2431000000 4.5143000000 0.4361000000
-0.2435000000 0.9639000000 0.2522000000
-0.2437000000 4.8808000000 0.2421000000
-0.2438000000 3.4905000000 0.9568000000
-0.2439000000 5.2641000000 0.0525000000
-0.2440000000 5.3790000000 0.0655000000
-0.2440000000 2.7283000000 1.1582000000
-0.2442000000 2.7588000000 1.1670000000
-0.2444000000 2.1971000000 0.8833000000
-0.2446000000 3.6755000000 0.8638000000
-0.2448000000 2.8956000000 1.2236000000
-0.2449000000 3.4672000000 0.9701000000
-0.2450000000 1.9074000000 0.7353000000
-0.2451000000 4.0594000000 0.6587000000
-0.2452000000 5.4806000000 0.0824000000
-0.2453000000 3.9308000000 0.7293000000
-0.2455000000 0.9649000000 0.2540000000
-0.2455000000 3.2618000000 1.0729000000
-0.2456000000 4.1164000000 0.6368000000
-0.2457000000 3.8834000000 0.7497000000
-0.2457000000 3.4144000000 0.9999000000
-0.2458000000 5.3270000000 0.0866000000
-0.2458000000 3.7385000000 0.8265000000
-0.2459000000 5.6311000000 0.0065000000
-0.2461000000 0.2555000000 0.0320000000
-0.2463000000 2.4956000000 1.0368000000
-0.2463000000 1.8330000000 0.6906000000
-0.2465000000 3.8509000000 0.7725000000
-0.2465000000 1.7781000000 0.6675000000
-0.2468000000 1.9240000000 0.7398000000
-0.2468000000 4.6469000000 0.3618000000
-0.2470000000 4.7513000000 0.3073000000
-0.2472000000 3.4069000000 0.9980000000
-0.2473000000 3.3733000000 1.0160000000
-0.2474000000 3.6881000000 0.8609000000
-0.2475000000 4.8790000000 0.2412000000
-0.2475000000 3.7073000000 0.8462000000
-0.2475000000 5.3948000000 0.0532000000
-0.2476000000 3.0617000000 1.1749000000
-0.2477000000 4.2801000000 0.5443000000
-0.2478000000 2.7766000000 1.1780000000
-0.2479000000 4.1940000000 0.5952000000
-0.2479000000 2.0653000000 0.8097000000
-0.2480000000 5.2239000000 0.0651000000
-0.2480000000 2.8384000000 1.2077000000
-0.2485000000 2.5336000000 1.0472000000
-0.2485000000 4.9331000000 0.2143000000
-0.2492000000 1.3295000000 0.4338000000
-0.2493000000 0.2867000000 0.0487000000
-0.2494000000 1.0914000000 0.3149000000
-0.2497000000 0.3620000000 0.0912000000
-0.2497000000 3.6434000000 0.8782000000
-0.2498000000 3.7191000000 0.8351000000
-0.2499000000 2.8784000000 1.2097000000
-0.2504000000 2.2225000000 0.8895000000
-0.2504000000 2.2327000000 0.8936000000
-0.2505000000 4.8158000000 0.2715000000
-0.2507000000 2.3631000000 0.9536000000
-0.2510000000 4.7364000000 0.3138000000
-0.2510000000 3.7722000000 0.8096000000
-0.2512000000 3.5475000000 0.9237000000
-0.2517000000 1.6599000000 0.5987000000
-0.2518000000 2.5470000000 1.0580000000
-0.2521000000 4.0365000000 0.6714000000
-0.2523000000 0.5649000000 0.0413000000
-0.2525000000 5.0381000000 0.1539000000
-0.2526000000 0.6095000000 0.0674000000
-0.2527000000 2.2309000000 0.8922000000
-0.2528000000 4.5080000000 0.4231000000
-0.2539000000 3.8263000000 0.7786000000
-0.2550000000 3.4394000000 0.9791000000
-0.2568000000 2.5408000000 1.0505000000
-0.4895000000 1.4450000000 0.2777000000
-0.4906000000 3.9466000000 0.5013000000
-0.4908000000 4.1588000000 0.3976000000
-0.4917000000 5.1762000000 0.0250000000
-0.4917000000 1.0906000000 0.0936000000
-0.4923000000 2.2966000000 0.7130000000
-0.4923000000 2.5907000000 0.8651000000
-0.4927000000 3.5474000000 0.7096000000
-0.4930000000 4.5783000000 0.1772000000
-0.4934000000 1.7913000000 0.4546000000
-0.4935000000 4.5656000000 0.1844000000
-0.4939000000 5.0186000000 0.0260000000
-0.4940000000 4.6921000000 0.1208000000
-0.4941000000 2.4823000000 0.8075000000
-0.4942000000 1.1930000000 0.1452000000
-0.4944000000 0.9727000000 0.1073000000
-0.4946000000 0.7588000000 0.0735000000
-0.4946000000 4.7368000000 0.0977000000
-0.4947000000 2.5721000000 0.8523000000
-0.4948000000 4.9284000000 0.0702000000
-0.4948000000 4.0894000000 0.4246000000
-0.4949000000 1.8263000000 0.4735000000
-0.4950000000 3.2178000000 0.8699000000
-0.4952000000 2.5477000000 0.8433000000
-0.4952000000 1.7401000000 0.4298000000
-0.4952000000 1.5211000000 0.3187000000
-0.4953000000 3.7990000000 0.5727000000
-0.4953000000 3.7795000000 0.5870000000
-0.4954000000 1.5101000000 0.3074000000
-0.4958000000 4.6594000000 0.1323000000
-0.4959000000 4.5721000000 0.1794000000
-0.4962000000 3.7261000000 0.6146000000
-0.4964000000 0.6380000000 0.0093000000
-0.4965000000 1.6241000000 0.3681000000
-0.4963000000 1.8153000000 0.4575000000
-0.4969000000 4.5080000000 0.2136000000
-0.4970000000 2.7009000000 0.9163000000
-0.4971000000 1.2109000000 0.1532000000
-0.4975000000 1.4076000000 0.2568000000
-0.4975000000 4.6655000000 0.1351000000
-0.4981000000 0.6840000000 0.0271000000
-0.4981000000 3.2571000000 0.8558000000
-0.4982000000 1.7693000000 0.4402000000
-0.4986000000 2.6600000000 0.8959000000
-0.4988000000 2.9251000000 1.0068000000
-0.4994000000 5.1214000000 0.0439000000
-0.4993000000 4.3166000000 0.3108000000
-0.4996000000 1.1780000000 0.1324000000
-0.4997000000 3.1601000000 0.9039000000
-0.5000000000 3.8949000000 0.5197000000
-0.5002000000 4.1184000000 0.4008000000
-0.5006000000 4.1264000000 0.4033000000
-0.5011000000 1.1955000000 0.1385000000
-0.5011000000 4.3685000000 0.2807000000
-0.5012000000 2.0543000000 0.5856000000
-0.5012000000 4.7039000000 0.1104000000
-0.5015000000 2.5487000000 0.8318000000
-0.5016000000 2.0398000000 0.5760000000
-0.5017000000 3.5663000000 0.6922000000
-0.5020000000 2.4003000000 0.7577000000
-0.5020000000 4.1411000000 0.3909000000
-0.5020000000 0.7781000000 0.0776000000
-0.5023000000 4.3914000000 0.2703000000
-0.5025000000 5.0934000000 0.0570000000
-0.5026000000 0.7192000000 0.0423000000
-0.7422000000 1.7491000000 0.2053000000
-0.7430000000 3.4177000000 0.5510000000
-0.7432000000 2.0602000000 0.3700000000
-0.7433000000 2.9862000000 0.7726000000
-0.7433000000 3.1705000000 0.6779000000
-0.7437000000 2.2373000000 0.4599000000
-0.7437000000 3.6240000000 0.4417000000
-0.7440000000 3.4097000000 0.5556000000
-0.7443000000 3.9737000000 0.2649000000
-0.7447000000 3.8130000000 0.3482000000
-0.7447000000 4.0922000000 0.2020000000
-0.7451000000 4.6855000000 0.0510000000
-0.7452000000 3.8442000000 0.3314000000
-0.7452000000 2.1747000000 0.4263000000
-0.7456000000 3.1081000000 0.7050000000
-0.7457000000 3.5075000000 0.5042000000
-0.7459000000 2.4436000000 0.5641000000
-0.7460000000 2.3090000000 0.4920000000
-0.7460000000 3.5941000000 0.4588000000
-0.7462000000 4.6579000000 0.0635000000
-0.7463000000 2.7678000000 0.7312000000
-0.7462000000 1.9554000000 0.3161000000
-0.7467000000 4.2648000000 0.1151000000
-0.7467000000 4.3815000000 0.0536000000
-0.7469000000 2.9713000000 0.7692000000
-0.7470000000 1.4219000000 0.0359000000
-0.7471000000 1.2212000000 0.0856000000
-0.7473000000 4.7288000000 0.0268000000
-0.7475000000 1.2438000000 0.0226000000
-0.7482000000 2.3197000000 0.4977000000
-0.7483000000 1.8599000000 0.2604000000
-0.7491000000 1.6785000000 0.1684000000
-0.7495000000 2.6759000000 0.6768000000
-0.7495000000 1.9120000000 0.2882000000
