6.7593000000 3.5811000000 0.0102000000
6.7552000000 3.9810000000 0.0984000000
6.7520000000 4.0102000000 0.0929000000
6.5133000000 4.5790000000 0.0242000000
6.5103000000 4.6947000000 0.0406000000
6.5076000000 4.2627000000 0.1077000000
6.5055000000 4.6082000000 0.0904000000
6.5042000000 4.4654000000 0.0853000000
6.5026000000 4.6761000000 0.0630000000
6.5010000000 4.7054000000 0.0465000000
6.4993000000 3.7445000000 0.1665000000
6.2632000000 4.0073000000 0.4406000000
6.2599000000 3.6764000000 0.3344000000
6.2581000000 4.4740000000 0.2163000000
6.2563000000 3.8784000000 0.4386000000
6.2547000000 3.2593000000 0.1312000000
6.2538000000 4.2938000000 0.3096000000
6.2534000000 3.8419000000 0.4228000000
6.2530000000 4.6012000000 0.1598000000
6.2524000000 3.4452000000 0.2311000000
6.2518000000 3.5949000000 0.3031000000
6.2512000000 4.2122000000 0.3496000000
6.2506000000 3.7246000000 0.3665000000
6.2485000000 3.8376000000 0.4235000000
6.0115000000 4.2151000000 0.5597000000
6.0107000000 4.8465000000 0.2498000000
6.0086000000 4.4095000000 0.4696000000
6.0075000000 3.9265000000 0.6641000000
6.0057000000 4.0374000000 0.6479000000
6.0048000000 3.0418000000 0.2387000000
6.0045000000 4.3487000000 0.4968000000
6.0037000000 3.6159000000 0.5204000000
6.0035000000 2.3511000000 0.0474000000
6.0026000000 4.2539000000 0.5457000000
6.0023000000 3.4338000000 0.4354000000
6.0020000000 2.6791000000 0.1385000000
6.0014000000 2.5883000000 0.0967000000
6.0002000000 4.9219000000 0.2138000000
5.9994000000 3.1080000000 0.2769000000
5.9990000000 2.5702000000 0.0858000000
5.7613000000 6.0418000000 0.0199000000
5.7599000000 2.7617000000 0.3129000000
5.7586000000 5.1834000000 0.2961000000
5.7580000000 3.2244000000 0.5391000000
5.7575000000 3.6154000000 0.7325000000
5.7565000000 6.0067000000 0.0372000000
5.7562000000 4.1168000000 0.8262000000
5.7559000000 2.8365000000 0.3560000000
5.7554000000 1.9066000000 0.0362000000
5.7551000000 4.3648000000 0.6997000000
5.7543000000 5.9931000000 0.0453000000
5.7534000000 2.1466000000 0.0851000000
5.7530000000 3.8494000000 0.8554000000
5.7527000000 5.9144000000 0.0907000000
5.7525000000 5.0027000000 0.3925000000
5.7520000000 2.8407000000 0.3579000000
5.7515000000 2.2995000000 0.0885000000
5.7503000000 2.9730000000 0.4214000000
5.7495000000 2.1407000000 0.0892000000
5.7485000000 5.8299000000 0.0615000000
5.5113000000 1.4773000000 0.0366000000
5.5104000000 6.1798000000 0.0875000000
5.5091000000 5.6756000000 0.2608000000
5.5076000000 3.1576000000 0.7280000000
5.5073000000 4.6542000000 0.7712000000
5.5069000000 1.7902000000 0.1271000000
5.5064000000 3.1241000000 0.7086000000
5.5062000000 2.9181000000 0.6053000000
5.5060000000 5.0047000000 0.5940000000
5.5053000000 3.2496000000 0.7710000000
5.5045000000 3.8787000000 1.0772000000
5.5039000000 2.4357000000 0.3696000000
5.5037000000 3.2081000000 0.7513000000
5.5029000000 4.3677000000 0.9174000000
5.5028000000 5.0100000000 0.6030000000
5.5018000000 5.4137000000 0.3961000000
5.5012000000 4.9208000000 0.6503000000
5.4998000000 2.1287000000 0.2164000000
5.4973000000 4.5023000000 0.8574000000
5.2635000000 6.5452000000 0.0470000000
5.2609000000 3.6836000000 1.1897000000
5.2598000000 5.2993000000 0.6661000000
5.2593000000 2.3133000000 0.5092000000
5.2588000000 6.0296000000 0.3009000000
5.2580000000 2.6134000000 0.6645000000
5.2575000000 2.9931000000 0.8587000000
5.2572000000 2.1032000000 0.4154000000
5.2569000000 5.1438000000 0.7395000000
5.2566000000 5.8063000000 0.4165000000
5.2563000000 4.2420000000 1.1893000000
5.2562000000 6.0814000000 0.2788000000
5.2558000000 3.2987000000 1.0053000000
5.2555000000 1.4284000000 0.1594000000
5.2552000000 5.2888000000 0.6743000000
5.2548000000 5.5974000000 0.5210000000
5.2545000000 5.3885000000 0.6258000000
5.2543000000 5.7335000000 0.4531000000
5.2540000000 1.3144000000 0.0990000000
5.2538000000 1.6351000000 0.1833000000
5.2531000000 1.5879000000 0.1639000000
5.2528000000 1.4504000000 0.0964000000
5.2525000000 5.7358000000 0.4527000000
5.2522000000 5.3452000000 0.6473000000
5.2520000000 1.7845000000 0.2642000000
5.2516000000 6.6185000000 0.0915000000
5.2512000000 2.5999000000 0.6712000000
5.2499000000 2.6353000000 0.6851000000
5.2490000000 3.2716000000 0.9978000000
5.2479000000 4.7477000000 0.9510000000
5.0123000000 6.9999000000 0.0337000000
5.0105000000 3.4711000000 1.2980000000
5.0095000000 5.7185000000 0.6679000000
5.0092000000 5.6507000000 0.7048000000
5.0088000000 6.9868000000 0.0472000000
5.0084000000 6.2266000000 0.4191000000
5.0081000000 0.8591000000 0.0856000000
5.0076000000 6.8805000000 0.0995000000
5.0075000000 5.7124000000 0.6791000000
5.0072000000 2.8338000000 0.9896000000
5.0070000000 3.9774000000 1.5207000000
5.0067000000 4.8776000000 1.0913000000
5.0065000000 6.7004000000 0.1872000000
5.0064000000 6.0937000000 0.4921000000
5.0062000000 4.4212000000 1.3177000000
5.0057000000 6.2394000000 0.4228000000
5.0055000000 0.9740000000 0.1516000000
5.0051000000 6.3352000000 0.3619000000
5.0050000000 2.5721000000 0.8600000000
5.0046000000 4.7747000000 1.1443000000
5.0043000000 5.0428000000 1.0099000000
5.0042000000 1.5474000000 0.3640000000
5.0040000000 1.6191000000 0.3941000000
5.0038000000 5.6873000000 0.6937000000
5.0035000000 6.7706000000 0.1571000000
5.0033000000 5.2157000000 0.9255000000
5.0032000000 4.1919000000 1.4364000000
5.0029000000 0.8279000000 0.0788000000
5.0024000000 6.3669000000 0.3572000000
5.0022000000 3.0454000000 1.0935000000
5.0017000000 1.1817000000 0.1787000000
5.0012000000 3.2204000000 1.1908000000
5.0005000000 1.6921000000 0.4349000000
4.9999000000 1.6461000000 0.4070000000
4.9995000000 3.1985000000 1.1727000000
4.9986000000 4.3915000000 1.3403000000
4.9981000000 3.5129000000 1.3360000000
4.9965000000 2.9727000000 1.0690000000
4.7628000000 1.5807000000 0.5831000000
4.7614000000 5.1018000000 1.1864000000
4.7607000000 5.9236000000 0.7790000000
4.7600000000 2.5140000000 1.0466000000
4.7591000000 4.1248000000 1.6736000000
4.7588000000 6.2832000000 0.6080000000
4.7586000000 4.1431000000 1.6643000000
4.7583000000 4.0978000000 1.6863000000
4.7581000000 1.4319000000 0.5118000000
4.7577000000 0.3880000000 0.0729000000
4.7572000000 1.2205000000 0.4074000000
4.7569000000 7.5850000000 0.0393000000
4.7565000000 5.2722000000 1.1129000000
4.7563000000 4.6811000000 1.4026000000
4.7560000000 6.9737000000 0.2663000000
4.7560000000 0.3802000000 0.0675000000
4.7558000000 5.7981000000 0.8472000000
4.7557000000 2.8623000000 1.2236000000
4.7554000000 6.9418000000 0.2787000000
4.7553000000 2.8297000000 1.2102000000
4.7549000000 0.7386000000 0.1704000000
4.7548000000 5.1061000000 1.1921000000
4.7547000000 6.0925000000 0.7078000000
4.7544000000 6.1215000000 0.6917000000
4.7541000000 0.3695000000 0.0671000000
4.7539000000 6.6748000000 0.4204000000
4.7538000000 5.8720000000 0.8114000000
4.7536000000 4.2746000000 1.6099000000
4.7534000000 3.0686000000 1.3285000000
4.7532000000 6.4141000000 0.5446000000
4.7530000000 2.6283000000 1.1078000000
4.7526000000 5.0535000000 1.2210000000
4.7524000000 2.6646000000 1.1213000000
4.7523000000 5.5610000000 0.9707000000
4.7518000000 3.5757000000 1.5813000000
4.7514000000 3.3508000000 1.4733000000
4.7511000000 6.1188000000 0.6970000000
4.7508000000 3.0628000000 1.3208000000
4.7501000000 2.3938000000 0.9946000000
4.7498000000 1.9955000000 0.8020000000
4.7494000000 0.6558000000 0.1368000000
4.7491000000 3.4727000000 1.5252000000
4.7486000000 2.1391000000 0.8711000000
4.5145000000 4.2010000000 1.8496000000
4.5127000000 5.6064000000 1.1497000000
4.5109000000 1.0767000000 0.5495000000
4.5098000000 4.9869000000 1.4628000000
4.5092000000 7.0843000000 0.4271000000
4.5088000000 5.7124000000 1.1041000000
4.5086000000 0.5209000000 0.2738000000
4.5076000000 6.4507000000 0.7430000000
4.5075000000 7.3744000000 0.2801000000
4.5070000000 4.0087000000 1.9409000000
4.5067000000 4.7537000000 1.5845000000
4.5066000000 7.5287000000 0.2028000000
4.5065000000 7.8257000000 0.0372000000
4.5062000000 6.4942000000 0.7203000000
4.5060000000 6.2415000000 0.8463000000
4.5059000000 3.5943000000 1.7993000000
4.5057000000 5.5138000000 1.2066000000
4.5055000000 2.5221000000 1.2634000000
4.5053000000 5.4561000000 1.2399000000
4.5051000000 3.6869000000 1.8357000000
4.5047000000 7.4509000000 0.2484000000
4.5045000000 6.5686000000 0.6836000000
4.5044000000 5.3928000000 1.2643000000
4.5042000000 2.6284000000 1.3214000000
4.5040000000 1.7936000000 0.9084000000
4.5040000000 1.8000000000 0.9168000000
4.5038000000 3.6286000000 1.8176000000
4.5036000000 2.0286000000 1.0312000000
4.5033000000 6.3057000000 0.8137000000
4.5031000000 1.4266000000 0.7309000000
4.5030000000 0.8550000000 0.4473000000
4.5027000000 6.2769000000 0.8334000000
4.5025000000 4.5951000000 1.6708000000
4.5021000000 1.6679000000 0.8481000000
4.5016000000 6.5672000000 0.6926000000
4.5013000000 4.5132000000 1.6957000000
4.5009000000 3.0579000000 1.5382000000
4.5005000000 4.6248000000 1.6448000000
4.5000000000 3.4719000000 1.7395000000
4.4996000000 2.8663000000 1.4423000000
4.4988000000 6.7245000000 0.6148000000
4.4972000000 0.8324000000 0.4400000000
4.2655000000 4.5068000000 1.9110000000
4.2639000000 5.2601000000 1.5384000000
4.2628000000 7.6125000000 0.2653000000
4.2621000000 1.3598000000 0.8992000000
4.2618000000 7.6551000000 0.2203000000
4.2604000000 6.5476000000 0.9058000000
4.2594000000 4.6589000000 1.8405000000
4.2590000000 5.7223000000 1.3132000000
4.2587000000 4.7722000000 1.7810000000
4.2584000000 5.2638000000 1.5398000000
4.2581000000 7.1197000000 0.6186000000
4.2578000000 3.1314000000 1.7795000000
4.2574000000 2.9119000000 1.6763000000
4.2569000000 6.3187000000 1.0244000000
4.2568000000 5.3539000000 1.4939000000
4.2566000000 3.9165000000 2.1556000000
4.2560000000 7.0984000000 0.6321000000
4.2557000000 5.6068000000 1.3757000000
4.2556000000 1.6633000000 1.0589000000
4.2552000000 5.0663000000 1.6448000000
4.2548000000 2.5003000000 1.4721000000
4.2546000000 0.0538000000 0.1011000000
4.2543000000 2.1870000000 1.3162000000
4.2543000000 7.9373000000 0.0965000000
4.2539000000 4.6459000000 1.8502000000
4.2538000000 4.2119000000 2.0671000000
4.2531000000 1.8517000000 1.1577000000
4.2529000000 0.1095000000 0.1555000000
4.2523000000 3.9387000000 2.1727000000
4.2519000000 1.1725000000 0.8148000000
4.2515000000 4.2325000000 2.0568000000
4.2508000000 1.1022000000 0.7812000000
4.2504000000 0.9999000000 0.7351000000
4.2502000000 6.4425000000 0.9645000000
4.2497000000 3.4504000000 1.9463000000
4.2493000000 4.1285000000 2.1088000000
4.2487000000 5.0650000000 1.6512000000
4.2478000000 0.2995000000 0.2680000000
4.2469000000 2.4511000000 1.4547000000
4.0138000000 6.9748000000 0.8814000000
4.0124000000 4.9606000000 1.8947000000
4.0114000000 5.9642000000 1.4061000000
4.0107000000 5.2540000000 1.7605000000
4.0098000000 5.8437000000 1.4671000000
4.0093000000 5.6166000000 1.5795000000
4.0087000000 6.8727000000 0.9472000000
4.0084000000 5.5063000000 1.6366000000
4.0083000000 3.0831000000 1.9678000000
4.0077000000 4.3590000000 2.2051000000
4.0073000000 7.2428000000 0.6294000000
4.0071000000 5.2115000000 1.7762000000
4.0069000000 0.2954000000 0.2629000000
4.0068000000 2.4011000000 1.6308000000
4.0065000000 0.1420000000 0.1104000000
4.0063000000 2.8174000000 1.8434000000
4.0058000000 4.5650000000 2.1006000000
4.0057000000 0.3177000000 0.2855000000
4.0055000000 6.5976000000 1.0958000000
4.0053000000 5.6111000000 1.5857000000
4.0051000000 5.4342000000 1.6736000000
4.0047000000 3.9814000000 2.3769000000
4.0045000000 2.1089000000 1.4913000000
4.0042000000 1.8025000000 1.3394000000
4.0040000000 3.5493000000 2.2012000000
4.0038000000 0.7261000000 0.6850000000
4.0033000000 7.5278000000 0.3458000000
4.0031000000 0.7175000000 0.6769000000
4.0027000000 6.4655000000 1.1659000000
4.0025000000 0.8477000000 0.8033000000
4.0022000000 0.4614000000 0.4248000000
4.0020000000 3.9191000000 2.3814000000
4.0015000000 6.2843000000 1.2597000000
4.0010000000 3.5819000000 2.2194000000
4.0005000000 1.6682000000 1.2736000000
4.0003000000 5.6579000000 1.5694000000
3.9999000000 1.2679000000 1.0752000000
3.9992000000 2.1476000000 1.5142000000
3.9980000000 2.4638000000 1.6732000000
3.7635000000 6.9325000000 0.9376000000
3.7612000000 5.6948000000 1.7592000000
3.7609000000 5.2225000000 1.9842000000
3.7600000000 5.1285000000 2.0326000000
3.7592000000 5.9677000000 1.6229000000
3.7586000000 3.2437000000 2.2672000000
3.7583000000 7.1968000000 0.6748000000
3.7580000000 7.2924000000 0.5788000000
3.7579000000 4.7975000000 2.1993000000
3.7576000000 3.9018000000 2.5754000000
3.7575000000 6.2727000000 1.4767000000
3.7571000000 3.0953000000 2.1894000000
3.7564000000 1.4956000000 1.3901000000
3.7561000000 4.1868000000 2.5064000000
3.7558000000 5.9086000000 1.6524000000
3.7557000000 4.6006000000 2.2975000000
3.7554000000 0.6586000000 0.6255000000
3.7549000000 6.2838000000 1.4651000000
3.7546000000 0.7841000000 0.7403000000
3.7544000000 5.8117000000 1.7064000000
3.7542000000 4.7518000000 2.2266000000
3.7540000000 2.1064000000 1.7044000000
3.7533000000 2.3649000000 1.8347000000
3.7532000000 2.8641000000 2.0809000000
3.7528000000 3.6846000000 2.4865000000
3.7526000000 2.5620000000 1.9293000000
3.7522000000 5.2993000000 1.9606000000
3.7520000000 4.2785000000 2.4643000000
3.7518000000 5.3387000000 1.9322000000
3.7515000000 2.5114000000 1.9069000000
3.7511000000 7.6021000000 0.2765000000
3.7507000000 4.8821000000 2.1673000000
3.7501000000 2.3843000000 1.8418000000
3.7495000000 4.8168000000 2.1982000000
3.7490000000 2.1038000000 1.7117000000
3.7484000000 5.9711000000 1.6308000000
3.7478000000 4.2133000000 2.4947000000
3.7458000000 0.9483000000 0.9105000000
3.5124000000 4.5610000000 2.5322000000
3.5110000000 1.1363000000 1.0926000000
3.5101000000 6.6108000000 1.2548000000
3.5095000000 1.5941000000 1.5432000000
3.5090000000 1.6959000000 1.6475000000
3.5088000000 6.1562000000 1.6943000000
3.5082000000 6.0141000000 1.7950000000
3.5079000000 0.4576000000 0.4230000000
3.5076000000 5.2889000000 2.1675000000
3.5074000000 7.4340000000 0.4381000000
3.5073000000 6.7273000000 1.1393000000
3.5070000000 5.0271000000 2.2904000000
3.5067000000 7.7646000000 0.1105000000
3.5064000000 6.5604000000 1.3048000000
3.5061000000 2.1319000000 1.9363000000
3.5060000000 1.0305000000 0.9852000000
3.5057000000 7.9301000000 0.0304000000
3.5054000000 5.6011000000 2.0186000000
3.5052000000 1.8278000000 1.7633000000
3.5050000000 7.7537000000 0.1233000000
3.5048000000 6.8042000000 1.0605000000
3.5045000000 0.6756000000 0.6387000000
3.5043000000 2.5141000000 2.1199000000
3.5042000000 7.9168000000 0.0348000000
3.5039000000 5.5174000000 2.0549000000
3.5038000000 2.9614000000 2.3431000000
3.5037000000 7.5437000000 0.3324000000
3.5031000000 0.9700000000 0.9294000000
3.5025000000 5.3067000000 2.1671000000
3.5023000000 4.5912000000 2.5208000000
3.5020000000 6.7161000000 1.1442000000
3.5017000000 4.6422000000 2.4974000000
3.5014000000 1.9406000000 1.8353000000
3.5011000000 0.3573000000 0.3236000000
3.5001000000 0.1149000000 0.1593000000
3.4998000000 3.8216000000 2.7739000000
3.4993000000 3.0215000000 2.3712000000
3.4987000000 2.8902000000 2.3107000000
3.4973000000 2.5651000000 2.1564000000
3.4967000000 4.5681000000 2.5347000000
3.2633000000 7.6444000000 0.2319000000
3.2625000000 4.0468000000 2.9911000000
3.2620000000 4.7062000000 2.6715000000
3.2608000000 7.9030000000 0.0512000000
3.2591000000 6.3026000000 1.5631000000
3.2585000000 1.5264000000 1.4822000000
3.2583000000 0.4341000000 0.4020000000
3.2581000000 7.1455000000 0.7249000000
3.2575000000 1.5717000000 1.5207000000
3.2570000000 1.4913000000 1.4406000000
3.2568000000 0.7689000000 0.7175000000
3.2566000000 6.4959000000 1.3674000000
3.2560000000 0.4762000000 0.4426000000
3.2556000000 1.4206000000 1.3760000000
3.2554000000 2.6198000000 2.3952000000
3.2548000000 3.5051000000 2.8193000000
3.2546000000 7.2245000000 0.6495000000
3.2545000000 0.8341000000 0.7967000000
3.2541000000 1.6990000000 1.6515000000
3.2539000000 2.3107000000 2.2210000000
3.2536000000 3.4316000000 2.7894000000
3.2532000000 3.4490000000 2.8012000000
3.2530000000 4.4403000000 2.8029000000
3.2528000000 2.2295000000 2.1553000000
3.2524000000 4.7676000000 2.6487000000
3.2522000000 5.0060000000 2.5322000000
3.2519000000 4.6632000000 2.6949000000
3.2516000000 4.6438000000 2.7115000000
3.2515000000 0.1109000000 0.1553000000
3.2510000000 3.2021000000 2.6805000000
3.2507000000 7.8143000000 0.0662000000
3.2505000000 3.4509000000 2.8052000000
3.2501000000 0.7891000000 0.7454000000
3.2495000000 2.3997000000 2.2791000000
3.2493000000 3.1878000000 2.6742000000
3.2464000000 3.8448000000 3.0018000000
3.0116000000 5.9615000000 1.8984000000
3.0101000000 1.0642000000 1.0217000000
3.0097000000 7.7117000000 0.1621000000
3.0090000000 7.0242000000 0.8394000000
3.0088000000 6.8130000000 1.0553000000
3.0085000000 6.4503000000 1.4132000000
3.0078000000 2.4910000000 2.4243000000
3.0074000000 5.9043000000 1.9498000000
3.0071000000 3.3440000000 2.9549000000
3.0066000000 0.7286000000 0.6926000000
3.0063000000 7.2934000000 0.5777000000
3.0060000000 1.8256000000 1.7763000000
3.0058000000 2.5501000000 2.4896000000
3.0053000000 1.2608000000 1.2163000000
3.0050000000 5.1781000000 2.6375000000
3.0048000000 4.7554000000 2.8626000000
3.0045000000 3.0544000000 2.8169000000
3.0043000000 4.2534000000 3.1175000000
3.0038000000 5.4571000000 2.3998000000
3.0035000000 4.0037000000 3.2265000000
3.0033000000 5.6906000000 2.1681000000
3.0031000000 4.2702000000 3.1067000000
3.0030000000 3.0992000000 2.8341000000
3.0028000000 1.4334000000 1.3871000000
3.0024000000 0.3343000000 0.3013000000
3.0023000000 2.4417000000 2.3847000000
3.0019000000 6.3269000000 1.5342000000
3.0015000000 0.3981000000 0.3619000000
3.0010000000 0.1516000000 0.1172000000
3.0006000000 0.3403000000 0.3101000000
3.0005000000 3.9752000000 3.2358000000
3.0000000000 7.7246000000 0.1525000000
2.9980000000 2.9371000000 2.7615000000
2.9975000000 4.8648000000 2.8130000000
2.9967000000 6.4903000000 1.3718000000
2.9939000000 3.8185000000 3.2072000000
2.7625000000 5.7342000000 2.1206000000
2.7612000000 7.3270000000 0.5494000000
2.7603000000 4.3534000000 3.2713000000
2.7597000000 5.7560000000 2.1019000000
2.7586000000 0.9119000000 0.8727000000
2.7583000000 4.5754000000 3.1667000000
2.7575000000 4.2439000000 3.3326000000
2.7575000000 0.7244000000 0.6834000000
2.7571000000 1.1560000000 1.1066000000
2.7566000000 3.2589000000 3.1312000000
2.7566000000 6.4904000000 1.3723000000
2.7562000000 4.7329000000 3.0747000000
2.7560000000 6.5724000000 1.2911000000
2.7556000000 6.2592000000 1.5979000000
2.7555000000 3.1585000000 3.0621000000
2.7551000000 5.4345000000 2.4161000000
2.7548000000 5.1063000000 2.7378000000
2.7545000000 7.0233000000 0.8483000000
2.7543000000 0.6910000000 0.6497000000
2.7539000000 7.1571000000 0.7120000000
2.7536000000 6.8824000000 0.9861000000
2.7533000000 3.8083000000 3.4047000000
2.7530000000 5.2920000000 2.5584000000
2.7528000000 1.3420000000 1.3017000000
2.7525000000 2.4840000000 2.4234000000
2.7519000000 0.2598000000 0.2263000000
2.7510000000 2.7089000000 2.6459000000
2.7505000000 7.1554000000 0.7193000000
2.7501000000 2.9428000000 2.8781000000
2.7491000000 1.7279000000 1.6773000000
2.7484000000 2.2460000000 2.1873000000
2.7472000000 6.4028000000 1.4632000000
2.5139000000 6.8036000000 1.0646000000
2.5101000000 7.7355000000 0.1410000000
2.5095000000 5.5034000000 2.3462000000
2.5090000000 5.6457000000 2.2103000000
2.5084000000 5.8953000000 1.9576000000
2.5080000000 7.3870000000 0.4901000000
2.5077000000 7.8179000000 0.0599000000
2.5073000000 5.2864000000 2.5595000000
2.5072000000 6.1753000000 1.6842000000
2.5069000000 0.6219000000 0.5857000000
2.5067000000 5.1481000000 2.6998000000
2.5065000000 2.3152000000 2.2577000000
2.5061000000 7.2507000000 0.6226000000
2.5058000000 5.4480000000 2.4063000000
2.5055000000 6.6439000000 1.2219000000
2.5053000000 2.1508000000 2.0928000000
2.5048000000 2.1959000000 2.1394000000
2.5045000000 0.8958000000 0.8558000000
2.5041000000 6.5499000000 1.3144000000
2.5038000000 4.1156000000 3.6100000000
2.5035000000 0.6143000000 0.5774000000
2.5031000000 0.2416000000 0.2094000000
2.5029000000 2.6191000000 2.5624000000
2.5027000000 7.6997000000 0.1807000000
2.5022000000 5.8266000000 2.0326000000
2.5019000000 2.6243000000 2.5614000000
2.5016000000 3.6151000000 3.5060000000
2.5014000000 3.0286000000 2.9659000000
2.5010000000 1.2356000000 1.1987000000
2.5007000000 0.4371000000 0.3948000000
2.5001000000 7.8703000000 0.0855000000
2.4999000000 1.4663000000 1.4171000000
2.4994000000 5.0604000000 2.7878000000
2.4991000000 0.1393000000 0.1067000000
2.4988000000 3.6393000000 3.5265000000
2.4978000000 5.6941000000 2.1606000000
2.4969000000 6.9777000000 0.8883000000
2.2640000000 4.8612000000 2.9849000000
2.2628000000 7.9567000000 0.0777000000
2.2616000000 5.3131000000 2.5356000000
2.2600000000 3.5481000000 3.4811000000
2.2596000000 5.3542000000 2.4924000000
2.2585000000 7.5533000000 0.3222000000
2.2582000000 2.6140000000 2.5514000000
2.2578000000 1.3345000000 1.2864000000
2.2573000000 2.3213000000 2.2653000000
2.2566000000 7.2241000000 0.6471000000
2.2562000000 3.9315000000 3.8144000000
2.2560000000 6.9378000000 0.9345000000
2.2559000000 3.2373000000 3.1681000000
2.2557000000 1.1882000000 1.1429000000
2.2555000000 6.4384000000 1.4293000000
2.2551000000 5.0882000000 2.7595000000
2.2550000000 5.7509000000 2.1041000000
2.2547000000 7.5547000000 0.3213000000
2.2543000000 6.8189000000 1.0481000000
2.2542000000 6.3954000000 1.4678000000
2.2539000000 7.8701000000 0.0872000000
2.2535000000 4.2623000000 3.5783000000
2.2531000000 5.7980000000 2.0567000000
2.2530000000 5.8030000000 2.0542000000
2.2529000000 0.5663000000 0.5307000000
2.2525000000 1.8212000000 1.7688000000
2.2522000000 1.2526000000 1.2061000000
2.2520000000 3.3404000000 3.2772000000
2.2516000000 0.7837000000 0.7400000000
2.2514000000 5.5621000000 2.2942000000
2.2512000000 3.0477000000 2.9786000000
2.2508000000 6.5458000000 1.3197000000
2.2501000000 3.8822000000 3.8044000000
2.2498000000 0.6447000000 0.6067000000
2.2489000000 4.4092000000 3.4282000000
2.2485000000 3.0384000000 2.9761000000
2.2477000000 0.9298000000 0.8878000000
2.2463000000 2.4893000000 2.4360000000
2.0123000000 5.4486000000 2.4068000000
2.0111000000 7.8722000000 0.0809000000
2.0100000000 6.6939000000 1.1707000000
2.0098000000 6.9921000000 0.8768000000
2.0092000000 7.6197000000 0.2583000000
2.0088000000 5.4995000000 2.3585000000
2.0080000000 0.1481000000 0.1207000000
2.0077000000 1.5638000000 1.5178000000
2.0071000000 4.9206000000 2.9216000000
2.0070000000 4.6429000000 3.2025000000
2.0068000000 5.2691000000 2.5842000000
2.0066000000 7.3242000000 0.5481000000
2.0062000000 5.4221000000 2.4249000000
2.0056000000 7.1227000000 0.7458000000
2.0052000000 7.2721000000 0.5944000000
2.0050000000 6.1741000000 1.6893000000
2.0048000000 6.9106000000 0.9647000000
2.0046000000 2.7308000000 2.6684000000
2.0044000000 2.8926000000 2.8278000000
2.0042000000 3.0686000000 3.0039000000
2.0041000000 3.6478000000 3.4903000000
2.0040000000 0.0054000000 0.0497000000
2.0036000000 6.1090000000 1.7526000000
2.0032000000 3.3343000000 3.2673000000
2.0030000000 4.4628000000 3.3665000000
2.0028000000 0.9682000000 0.9261000000
2.0025000000 7.2999000000 0.5733000000
2.0023000000 4.0577000000 3.5940000000
2.0021000000 5.8611000000 1.9972000000
2.0018000000 0.6113000000 0.5688000000
2.0014000000 6.9187000000 0.9492000000
2.0012000000 5.8873000000 1.9680000000
2.0010000000 3.1806000000 3.1160000000
2.0007000000 3.3123000000 3.2406000000
2.0004000000 0.5297000000 0.4895000000
2.0000000000 7.6372000000 0.2405000000
1.9999000000 4.7166000000 3.1295000000
1.9995000000 5.8254000000 2.0343000000
1.9987000000 3.7074000000 3.5185000000
1.9972000000 1.7245000000 1.6723000000
1.9960000000 0.3337000000 0.2981000000
1.7635000000 7.3587000000 0.5155000000
1.7620000000 4.4397000000 3.1965000000
1.7608000000 6.9891000000 0.8794000000
1.7598000000 2.1702000000 2.1176000000
1.7595000000 4.4347000000 3.1936000000
1.7583000000 5.8629000000 1.9965000000
1.7580000000 5.9604000000 1.9006000000
1.7575000000 4.8480000000 2.9690000000
1.7571000000 7.4818000000 0.3886000000
1.7565000000 1.7090000000 1.6548000000
1.7563000000 5.5128000000 2.3358000000
1.7560000000 6.6773000000 1.1898000000
1.7558000000 6.4440000000 1.4184000000
1.7556000000 6.0492000000 1.8073000000
1.7553000000 4.2020000000 3.3058000000
1.7549000000 1.8007000000 1.7457000000
1.7548000000 4.6748000000 3.0674000000
1.7545000000 3.1726000000 3.0363000000
1.7540000000 4.8394000000 2.9748000000
1.7538000000 5.0053000000 2.8404000000
1.7535000000 3.9661000000 3.4012000000
1.7531000000 2.9519000000 2.8697000000
1.7527000000 0.2072000000 0.1760000000
1.7524000000 2.7004000000 2.6441000000
1.7523000000 3.1041000000 2.9891000000
1.7520000000 0.8273000000 0.7897000000
1.7518000000 1.8666000000 1.8113000000
1.7513000000 2.2605000000 2.2051000000
1.7508000000 3.8947000000 3.3991000000
1.7505000000 5.6578000000 2.1963000000
1.7500000000 0.0383000000 0.0837000000
1.7495000000 1.1103000000 1.0712000000
1.7493000000 6.7337000000 1.1300000000
1.7488000000 0.5769000000 0.5393000000
1.7480000000 0.8008000000 0.7573000000
1.7470000000 0.5738000000 0.5385000000
1.7433000000 0.1356000000 0.0961000000
1.5121000000 6.5572000000 1.3064000000
1.5108000000 7.4358000000 0.4380000000
1.5100000000 2.9990000000 2.7416000000
1.5095000000 2.0819000000 2.0284000000
1.5093000000 1.4872000000 1.4366000000
1.5088000000 6.3821000000 1.4819000000
1.5084000000 3.5321000000 3.0104000000
1.5077000000 7.4560000000 0.4157000000
1.5074000000 4.4676000000 2.9674000000
1.5069000000 7.4922000000 0.3828000000
1.5066000000 0.9658000000 0.9260000000
1.5063000000 5.0332000000 2.6784000000
1.5060000000 7.6713000000 0.2094000000
1.5058000000 1.4449000000 1.3994000000
1.5057000000 1.3447000000 1.3046000000
1.5053000000 7.0059000000 0.8667000000
1.5050000000 5.5285000000 2.3290000000
1.5048000000 1.4391000000 1.3922000000
1.5045000000 0.4034000000 0.3660000000
1.5043000000 4.6392000000 2.8763000000
1.5042000000 3.6704000000 3.0741000000
1.5040000000 0.5657000000 0.5287000000
1.5037000000 5.0128000000 2.6905000000
1.5034000000 4.1378000000 3.1188000000
1.5030000000 2.5640000000 2.4881000000
1.5028000000 3.9676000000 3.1849000000
1.5024000000 6.6519000000 1.2104000000
1.5021000000 5.1651000000 2.6149000000
1.5018000000 7.4399000000 0.4337000000
1.5015000000 0.7596000000 0.7197000000
1.5012000000 4.0056000000 3.1718000000
1.5007000000 0.9234000000 0.8842000000
1.5005000000 4.2359000000 3.0700000000
1.5003000000 1.7879000000 1.7368000000
1.5001000000 2.7745000000 2.6278000000
1.4994000000 0.9647000000 0.9259000000
1.4990000000 3.2392000000 2.8518000000
1.4983000000 0.8102000000 0.7699000000
1.4961000000 1.2648000000 1.2217000000
1.2628000000 4.7109000000 2.6321000000
1.2614000000 6.2236000000 1.6406000000
1.2610000000 7.0389000000 0.8344000000
1.2597000000 5.1151000000 2.4288000000
1.2594000000 6.5823000000 1.2835000000
1.2589000000 3.3002000000 2.6757000000
1.2588000000 7.9305000000 0.0222000000
1.2582000000 3.6228000000 2.8397000000
1.2580000000 6.6333000000 1.2363000000
1.2575000000 3.3150000000 2.6871000000
1.2568000000 6.4241000000 1.4431000000
1.2567000000 2.6216000000 2.3428000000
1.2563000000 6.2514000000 1.6109000000
1.2561000000 2.5665000000 2.3167000000
1.2559000000 0.1923000000 0.1540000000
1.2558000000 5.4877000000 2.2408000000
1.2552000000 7.8746000000 0.0798000000
1.2549000000 3.5989000000 2.8241000000
1.2548000000 0.7104000000 0.6714000000
1.2544000000 5.3131000000 2.3294000000
1.2542000000 0.3792000000 0.3446000000
1.2540000000 1.9828000000 1.9312000000
1.2538000000 5.3620000000 2.2983000000
1.2536000000 3.2185000000 2.6287000000
1.2533000000 4.3350000000 2.8100000000
1.2531000000 4.6982000000 2.6334000000
1.2527000000 3.7932000000 2.9181000000
1.2526000000 3.1940000000 2.6233000000
1.2521000000 2.2833000000 2.1670000000
1.2517000000 1.8843000000 1.8349000000
1.2513000000 2.3944000000 2.2263000000
1.2511000000 3.9871000000 2.9649000000
1.2507000000 5.1501000000 2.4052000000
1.2504000000 1.6282000000 1.5847000000
1.2502000000 0.5389000000 0.4996000000
1.2498000000 6.1765000000 1.6854000000
1.2494000000 0.7044000000 0.6689000000
1.2491000000 0.1772000000 0.1422000000
1.2488000000 4.2379000000 2.8532000000
1.2485000000 7.6507000000 0.2259000000
1.2474000000 2.2791000000 2.1592000000
1.0121000000 7.6490000000 0.2299000000
1.0104000000 7.8254000000 0.0515000000
1.0097000000 6.6291000000 1.2362000000
1.0087000000 6.8978000000 0.9735000000
1.0085000000 6.1392000000 1.6881000000
1.0077000000 4.8092000000 2.3676000000
1.0076000000 1.8433000000 1.7308000000
1.0071000000 7.4118000000 0.4597000000
1.0068000000 0.6418000000 0.6018000000
1.0065000000 2.3350000000 1.9824000000
1.0063000000 2.0225000000 1.8368000000
1.0054000000 6.5670000000 1.2919000000
1.0053000000 5.7075000000 1.9240000000
1.0049000000 3.2093000000 2.4157000000
1.0046000000 0.1932000000 0.1597000000
1.0043000000 7.7962000000 0.0825000000
1.0042000000 4.2505000000 2.6365000000
1.0039000000 6.8411000000 1.0294000000
1.0036000000 0.6322000000 0.5995000000
1.0034000000 0.6773000000 0.6403000000
1.0032000000 1.6623000000 1.5985000000
1.0028000000 1.3806000000 1.3347000000
1.0027000000 4.6993000000 2.4226000000
1.0023000000 4.9421000000 2.3001000000
1.0021000000 0.1259000000 0.0907000000
1.0019000000 6.8540000000 1.0169000000
1.0016000000 3.0995000000 2.3572000000
1.0013000000 3.3220000000 2.4669000000
1.0010000000 5.3602000000 2.0841000000
1.0006000000 4.7428000000 2.3976000000
1.0005000000 3.3837000000 2.4978000000
1.0000000000 3.3147000000 2.4626000000
0.9998000000 2.9312000000 2.2755000000
0.9989000000 5.4470000000 2.0412000000
0.9980000000 0.7820000000 0.7434000000
0.9951000000 2.1624000000 1.8854000000
0.7630000000 5.6422000000 1.7417000000
0.7615000000 1.3595000000 1.2751000000
0.7597000000 7.7658000000 0.1154000000
0.7595000000 7.2525000000 0.6218000000
0.7593000000 2.4512000000 1.8249000000
0.7587000000 3.9638000000 2.5538000000
0.7582000000 7.0335000000 0.8379000000
0.7580000000 5.8619000000 1.6254000000
0.7573000000 5.4608000000 1.8291000000
0.7570000000 3.8878000000 2.5434000000
0.7569000000 3.5688000000 2.3798000000
0.7565000000 5.5548000000 1.7807000000
0.7563000000 4.3106000000 2.4007000000
0.7561000000 7.5716000000 0.3028000000
0.7560000000 0.0466000000 0.0874000000
0.7559000000 2.0087000000 1.6092000000
0.7555000000 7.5306000000 0.3475000000
0.7553000000 1.4179000000 1.3088000000
0.7550000000 3.3524000000 2.2730000000
0.7548000000 7.0490000000 0.8243000000
0.7546000000 7.5171000000 0.3570000000
0.7545000000 2.1603000000 1.6845000000
0.7543000000 2.8557000000 2.0251000000
0.7540000000 1.9990000000 1.6005000000
0.7540000000 5.9865000000 1.5645000000
0.7535000000 5.1863000000 1.9638000000
0.7532000000 5.2144000000 1.9478000000
0.7531000000 6.3314000000 1.3947000000
0.7528000000 5.2222000000 1.9429000000
0.7527000000 2.7444000000 1.9731000000
0.7525000000 4.3941000000 2.3600000000
0.7524000000 2.9745000000 2.0837000000
0.7520000000 0.3877000000 0.3539000000
0.7515000000 5.0029000000 2.0515000000
0.7509000000 7.1158000000 0.7537000000
0.7506000000 7.4526000000 0.4172000000
0.7504000000 6.2653000000 1.4245000000
0.7491000000 4.7363000000 2.1810000000
0.7483000000 6.4278000000 1.3453000000
0.7464000000 0.3818000000 0.3521000000
0.7445000000 1.4931000000 1.3507000000
0.5122000000 5.1959000000 1.7464000000
0.5109000000 3.4442000000 2.1127000000
0.5100000000 5.0078000000 1.8402000000
0.5088000000 7.4903000000 0.3849000000
0.5088000000 3.2163000000 1.9894000000
0.5082000000 6.6898000000 1.0099000000
0.5077000000 6.2806000000 1.2170000000
0.5071000000 3.9322000000 2.3304000000
0.5066000000 5.9424000000 1.3783000000
0.5063000000 5.7408000000 1.4749000000
0.5061000000 5.3212000000 1.6873000000
0.5060000000 4.6454000000 2.0179000000
0.5057000000 2.3690000000 1.5797000000
0.5054000000 7.0264000000 0.8252000000
0.5052000000 2.9723000000 1.8729000000
0.5051000000 5.3848000000 1.6503000000
0.5050000000 6.5093000000 1.0966000000
0.5045000000 6.5353000000 1.0816000000
0.5042000000 5.6885000000 1.4992000000
0.5040000000 3.5012000000 2.1360000000
0.5038000000 6.0930000000 1.3034000000
0.5035000000 6.4697000000 1.1134000000
0.5033000000 1.8494000000 1.3119000000
0.5031000000 2.4388000000 1.6058000000
0.5030000000 2.5064000000 1.6407000000
0.5028000000 4.6873000000 1.9934000000
0.5025000000 3.7685000000 2.2591000000
0.5023000000 4.8522000000 1.9134000000
0.5020000000 0.3160000000 0.2817000000
0.5019000000 2.0059000000 1.3904000000
0.5013000000 6.9686000000 0.8477000000
0.5011000000 4.1333000000 2.2681000000
0.5010000000 5.9080000000 1.3890000000
0.5005000000 0.6572000000 0.6211000000
0.5001000000 2.0654000000 1.4189000000
0.4999000000 4.4361000000 2.1143000000
0.4997000000 7.0223000000 0.8138000000
0.4995000000 4.3723000000 2.1460000000
0.4987000000 1.4336000000 1.1008000000
0.4983000000 1.7913000000 1.2791000000
0.4977000000 3.3766000000 2.0631000000
0.4971000000 0.3291000000 0.3012000000
0.4955000000 1.6895000000 1.2249000000
0.2613000000 7.6921000000 0.1806000000
0.2603000000 7.2532000000 0.5161000000
0.2593000000 6.2580000000 1.0085000000
0.2588000000 4.8129000000 1.7210000000
0.2584000000 2.8060000000 1.5777000000
0.2578000000 4.9006000000 1.6796000000
0.2572000000 6.7386000000 0.7699000000
0.2569000000 7.3435000000 0.4725000000
0.2568000000 5.5315000000 1.3727000000
0.2566000000 7.4945000000 0.3650000000
0.2563000000 5.0496000000 1.6018000000
0.2558000000 4.7964000000 1.7316000000
0.2556000000 7.7607000000 0.1160000000
0.2554000000 6.4392000000 0.9167000000
0.2552000000 4.3493000000 1.9508000000
0.2550000000 5.2642000000 1.4984000000
0.2547000000 3.6730000000 2.0003000000
0.2544000000 3.9662000000 2.1253000000
0.2542000000 0.5125000000 0.4254000000
0.2540000000 5.3307000000 1.4650000000
0.2535000000 4.2260000000 2.0019000000
0.2532000000 1.1028000000 0.7254000000
0.2530000000 6.8076000000 0.7302000000
0.2526000000 1.9464000000 1.1485000000
0.2523000000 3.9051000000 2.1080000000
0.2520000000 0.2361000000 0.2054000000
0.2518000000 0.2160000000 0.1797000000
0.2516000000 5.3922000000 1.4360000000
0.2514000000 7.2381000000 0.5151000000
0.2513000000 0.2032000000 0.1718000000
0.2509000000 3.4359000000 1.8851000000
0.2505000000 1.5189000000 0.9367000000
0.2493000000 3.5213000000 1.9226000000
0.2488000000 4.2421000000 1.9982000000
0.2478000000 0.7745000000 0.5624000000
0.2463000000 0.9635000000 0.6596000000
0.0121000000 3.5921000000 1.7546000000
0.0096000000 7.9426000000 0.0656000000
0.0092000000 4.9354000000 1.4517000000
0.0083000000 7.8076000000 0.0876000000
0.0080000000 5.2082000000 1.3121000000
0.0078000000 3.5834000000 1.7435000000
0.0074000000 6.9889000000 0.4311000000
0.0070000000 7.8147000000 0.0788000000
0.0065000000 4.5578000000 1.6346000000
0.0063000000 7.4818000000 0.1853000000
0.0060000000 1.8745000000 0.8969000000
0.0055000000 4.1813000000 1.8169000000
0.0053000000 2.3272000000 1.1223000000
0.0051000000 0.1645000000 0.1266000000
0.0046000000 3.2882000000 1.5964000000
0.0044000000 0.8792000000 0.4098000000
0.0042000000 5.9877000000 0.9237000000
0.0040000000 1.2900000000 0.6099000000
0.0038000000 4.4470000000 1.6797000000
0.0036000000 1.4594000000 0.6996000000
0.0033000000 7.3696000000 0.2374000000
0.0031000000 7.8612000000 0.0548000000
0.0027000000 0.8722000000 0.4060000000
0.0025000000 1.3190000000 0.6187000000
0.0022000000 6.9381000000 0.4529000000
0.0020000000 6.8929000000 0.4765000000
0.0018000000 0.4632000000 0.2003000000
0.0017000000 1.1791000000 0.5613000000
0.0015000000 0.6273000000 0.2771000000
0.0013000000 2.5673000000 1.2448000000
0.0011000000 4.7850000000 1.5161000000
0.0009000000 5.7227000000 1.0536000000
-0.0001000000 4.7767000000 1.5204000000
-0.0007000000 2.3411000000 1.1216000000
-0.0015000000 1.3787000000 0.6538000000
-0.0024000000 5.1830000000 1.3171000000
-0.0035000000 3.4724000000 1.6832000000
-0.0041000000 1.7422000000 0.8295000000
-0.2400000000 5.9229000000 0.7436000000
-0.2410000000 7.6855000000 0.0218000000
-0.2413000000 6.1351000000 0.6393000000
-0.2422000000 1.8607000000 0.6772000000
-0.2429000000 6.3139000000 0.5499000000
-0.2433000000 5.1718000000 1.1151000000
-0.2436000000 4.5170000000 1.4379000000
-0.2437000000 6.6691000000 0.3734000000
-0.2440000000 2.9075000000 1.1938000000
-0.2442000000 4.4583000000 1.4670000000
-0.2445000000 4.7405000000 1.3270000000
-0.2448000000 2.3575000000 0.9240000000
-0.2451000000 3.4959000000 1.4900000000
-0.2453000000 2.0946000000 0.7899000000
-0.2454000000 4.4111000000 1.4936000000
-0.2456000000 1.5292000000 0.5211000000
-0.2458000000 6.2174000000 0.5919000000
-0.2460000000 4.2031000000 1.5921000000
-0.2462000000 4.1553000000 1.6124000000
-0.2465000000 5.9414000000 0.7299000000
-0.2467000000 7.3208000000 0.0458000000
-0.2470000000 4.4308000000 1.4758000000
-0.2473000000 4.2442000000 1.5668000000
-0.2475000000 7.4618000000 0.0571000000
-0.2477000000 0.6841000000 0.0938000000
-0.2480000000 2.3139000000 0.9044000000
-0.2484000000 5.4038000000 0.9959000000
-0.2487000000 4.6756000000 1.3528000000
-0.2489000000 0.6981000000 0.1043000000
-0.2489000000 4.3426000000 1.5169000000
-0.2496000000 0.1975000000 0.0064000000
-0.2497000000 6.6501000000 0.3821000000
-0.2502000000 0.6125000000 0.1308000000
-0.2508000000 2.2578000000 0.8732000000
-0.2511000000 2.4746000000 0.9730000000
-0.2517000000 6.4664000000 0.4623000000
-0.2525000000 3.8795000000 1.6700000000
-0.2530000000 2.2787000000 0.8789000000
-0.4870000000 4.6768000000 1.1532000000
-0.4894000000 3.5939000000 1.3263000000
-0.4897000000 5.4660000000 0.7616000000
-0.4907000000 4.0441000000 1.4627000000
-0.4914000000 4.6224000000 1.1758000000
-0.4925000000 4.7503000000 1.1106000000
-0.4927000000 4.2157000000 1.3735000000
-0.4931000000 1.4844000000 0.2753000000
-0.4935000000 6.9299000000 0.0292000000
-0.4938000000 4.5393000000 1.2143000000
-0.4940000000 6.1122000000 0.4428000000
-0.4944000000 1.5263000000 0.3034000000
-0.4950000000 6.4399000000 0.2700000000
-0.4951000000 3.2389000000 1.1483000000
-0.4955000000 4.4821000000 1.2400000000
-0.4960000000 2.1729000000 0.6134000000
-0.4965000000 6.1352000000 0.4237000000
-0.4967000000 2.0129000000 0.5358000000
-0.4972000000 0.9283000000 0.0756000000
-0.4974000000 4.7428000000 1.1106000000
-0.4978000000 3.9060000000 1.4592000000
-0.4981000000 3.5431000000 1.2962000000
-0.4984000000 1.0173000000 0.1214000000
-0.4985000000 6.4268000000 0.2805000000
-0.4990000000 2.4554000000 0.7555000000
-0.4997000000 2.9004000000 0.9773000000
-0.5001000000 1.8939000000 0.4780000000
-0.5003000000 6.3336000000 0.3188000000
-0.5009000000 1.9698000000 0.5141000000
-0.5016000000 4.0947000000 1.4305000000
-0.5019000000 1.1935000000 0.1330000000
-0.5029000000 2.0730000000 0.5579000000
-0.7383000000 2.9999000000 0.8130000000
-0.7405000000 4.2524000000 1.1449000000
-0.7413000000 4.7135000000 0.9092000000
-0.7416000000 4.1015000000 1.2185000000
-0.7421000000 3.1216000000 0.8758000000
-0.7431000000 5.3075000000 0.6208000000
-0.7437000000 1.6241000000 0.1310000000
-0.7445000000 4.7729000000 0.8808000000
-0.7446000000 3.5453000000 1.0808000000
-0.7450000000 5.4854000000 0.5290000000
-0.7452000000 2.2686000000 0.4553000000
-0.7454000000 3.8234000000 1.2204000000
-0.7457000000 3.5125000000 1.0655000000
-0.7460000000 5.2775000000 0.6362000000
-0.7462000000 5.5855000000 0.4812000000
-0.7465000000 5.0177000000 0.7561000000
-0.7470000000 6.1036000000 0.2209000000
-0.7472000000 4.3243000000 1.0991000000
-0.7479000000 3.3645000000 0.9957000000
-0.7480000000 2.5436000000 0.5888000000
-0.7486000000 5.1967000000 0.6687000000
-0.7491000000 3.1112000000 0.8616000000
-0.7498000000 6.1676000000 0.1904000000
-0.7510000000 1.2008000000 0.0712000000
-0.7518000000 5.9086000000 0.3121000000
-0.7540000000 1.6640000000 0.1476000000
-0.7563000000 4.9875000000 0.7584000000
-0.9892000000 5.7787000000 0.1786000000
-0.9908000000 3.3841000000 0.7879000000
-0.9913000000 3.7596000000 0.9810000000
-0.9921000000 1.8334000000 0.0982000000
-0.9925000000 3.4638000000 0.8261000000
-0.9932000000 2.9892000000 0.6008000000
-0.9936000000 6.1050000000 0.0827000000
-0.9940000000 6.0102000000 0.0563000000
-0.9951000000 6.0880000000 0.0860000000
-0.9955000000 3.3251000000 0.7598000000
-0.9959000000 5.3208000000 0.4029000000
-0.9965000000 5.7936000000 0.1623000000
-0.9967000000 2.0270000000 0.1208000000
-0.9972000000 4.5143000000 0.7933000000
-0.9977000000 2.7950000000 0.4923000000
-0.9980000000 1.5584000000 0.0369000000
-0.9984000000 4.9481000000 0.5792000000
-0.9989000000 5.0302000000 0.5347000000
-0.9999000000 4.3097000000 0.8962000000
-1.0003000000 3.2660000000 0.7282000000
-1.0014000000 1.9727000000 0.1546000000
-1.0020000000 2.0539000000 0.1243000000
-1.0032000000 3.3178000000 0.7477000000
-1.2414000000 5.6372000000 0.1071000000
-1.2421000000 5.5987000000 0.0520000000
-1.2427000000 5.1596000000 0.2644000000
-1.2432000000 3.0914000000 0.4287000000
-1.2437000000 4.3964000000 0.6391000000
-1.2441000000 4.3862000000 0.6475000000
-1.2446000000 4.3772000000 0.6486000000
-1.2450000000 5.3623000000 0.1592000000
-1.2454000000 2.5479000000 0.1646000000
-1.2457000000 4.5212000000 0.5788000000
-1.2472000000 2.6561000000 0.2155000000
-1.2479000000 1.9530000000 0.0166000000
-1.2485000000 4.1089000000 0.7796000000
-1.2490000000 2.4666000000 0.1143000000
-1.2494000000 2.3288000000 0.1223000000
-1.2502000000 5.5197000000 0.0768000000
-1.2509000000 3.1886000000 0.4727000000
-1.2524000000 5.4683000000 0.1065000000
-1.2547000000 5.7088000000 0.0565000000
-1.4916000000 2.8190000000 0.1614000000
-1.4927000000 3.7229000000 0.5268000000
-1.4940000000 5.4140000000 0.0777000000
-1.4948000000 5.0825000000 0.1606000000
-1.4954000000 2.7669000000 0.1277000000
-1.4957000000 3.3433000000 0.3452000000
-1.4964000000 3.8153000000 0.5743000000
-1.4967000000 3.7080000000 0.5200000000
-1.4972000000 4.7016000000 0.2716000000
-1.4975000000 3.3974000000 0.3631000000
-1.4987000000 2.3814000000 0.0121000000
-1.5000000000 3.0005000000 0.1733000000
-1.5021000000 2.6871000000 0.0893000000
-1.7401000000 4.3321000000 0.2477000000
-1.7427000000 4.1787000000 0.3258000000
-1.7439000000 4.4164000000 0.2041000000
-1.7443000000 3.5887000000 0.2490000000
-1.7470000000 3.2250000000 0.1451000000
-1.7485000000 5.0758000000 0.0185000000
-1.7493000000 4.3276000000 0.2398000000
-1.7500000000 3.0798000000 0.0662000000
-1.7511000000 3.1934000000 0.1196000000
-1.7515000000 4.2248000000 0.2918000000
-1.9892000000 4.1710000000 0.1130000000
-1.9932000000 3.7639000000 0.1253000000
-1.9940000000 3.6736000000 0.1499000000
-1.9945000000 3.6936000000 0.1624000000
-1.9965000000 3.3804000000 0.0810000000
-1.9980000000 3.5985000000 0.1104000000
-1.9993000000 4.5678000000 0.0631000000
