7.0028000000 3.3809000000 0.0110000000
7.0005000000 4.7568000000 0.1064000000
6.7602000000 3.0785000000 0.0577000000
6.7597000000 5.0387000000 0.0962000000
6.7588000000 4.4006000000 0.3739000000
6.7581000000 4.8622000000 0.1686000000
6.7573000000 5.4529000000 0.0632000000
6.7565000000 3.8348000000 0.2406000000
6.7559000000 5.1310000000 0.1342000000
6.7550000000 4.3483000000 0.3930000000
6.7545000000 5.5032000000 0.0479000000
6.7544000000 3.2767000000 0.0787000000
6.7541000000 3.8861000000 0.2681000000
6.7519000000 3.9148000000 0.2773000000
6.7504000000 3.4623000000 0.0838000000
6.7483000000 2.9682000000 0.0191000000
6.5105000000 5.4841000000 0.0835000000
6.5088000000 4.4651000000 0.5370000000
6.5080000000 3.7132000000 0.3757000000
6.5074000000 3.3030000000 0.2004000000
6.5068000000 4.5209000000 0.5067000000
6.5063000000 4.8448000000 0.3692000000
6.5057000000 5.4392000000 0.1083000000
6.5054000000 3.5019000000 0.2844000000
6.5045000000 5.0392000000 0.2848000000
6.5040000000 3.1380000000 0.1316000000
6.5034000000 2.7744000000 0.0474000000
6.5029000000 5.3092000000 0.1700000000
6.5018000000 4.0331000000 0.5132000000
6.5013000000 4.2832000000 0.6741000000
6.5006000000 3.1697000000 0.1460000000
6.4994000000 2.9432000000 0.1218000000
6.4981000000 3.7358000000 0.3896000000
6.2650000000 5.3933000000 0.3079000000
6.2630000000 2.7657000000 0.1475000000
6.2612000000 3.5345000000 0.4855000000
6.2607000000 4.2945000000 0.8492000000
6.2598000000 6.3612000000 0.0418000000
6.2594000000 3.5096000000 0.4809000000
6.2582000000 5.3271000000 0.3431000000
6.2575000000 5.9752000000 0.0608000000
6.2573000000 2.6446000000 0.1040000000
6.2565000000 5.9290000000 0.0846000000
6.2560000000 6.2944000000 0.0768000000
6.2556000000 5.0870000000 0.4548000000
6.2553000000 5.9791000000 0.0633000000
6.2550000000 4.4295000000 0.7411000000
6.2546000000 2.2220000000 0.0717000000
6.2544000000 3.8905000000 0.6469000000
6.2541000000 6.1577000000 0.0607000000
6.2538000000 4.3118000000 0.8496000000
6.2533000000 4.1304000000 0.7512000000
6.2522000000 6.1087000000 0.0805000000
6.2518000000 3.7478000000 0.5868000000
6.2505000000 4.6856000000 0.6302000000
6.2485000000 3.9666000000 0.6849000000
6.2480000000 2.1917000000 0.0623000000
6.0126000000 4.0211000000 0.8815000000
6.0114000000 5.8204000000 0.3151000000
6.0092000000 4.0147000000 0.8826000000
6.0089000000 5.2478000000 0.5602000000
6.0081000000 2.5848000000 0.2635000000
6.0071000000 3.1510000000 0.5164000000
6.0067000000 1.9935000000 0.0756000000
6.0063000000 5.3521000000 0.5237000000
6.0061000000 5.4361000000 0.4820000000
6.0058000000 4.3691000000 0.9546000000
6.0055000000 5.2118000000 0.5855000000
6.0054000000 5.5839000000 0.4277000000
6.0041000000 4.8694000000 0.7369000000
6.0038000000 4.0899000000 0.9198000000
6.0036000000 3.1330000000 0.5034000000
6.0034000000 1.7268000000 0.0385000000
6.0032000000 4.7456000000 0.7925000000
6.0030000000 6.5329000000 0.0834000000
6.0015000000 4.9727000000 0.6921000000
6.0011000000 6.7664000000 0.0510000000
6.0006000000 5.2112000000 0.5852000000
5.9999000000 2.7285000000 0.3325000000
5.9990000000 2.2376000000 0.1186000000
5.9979000000 4.3527000000 0.9675000000
5.7628000000 4.3884000000 1.1259000000
5.7616000000 2.0634000000 0.2186000000
5.7605000000 7.1837000000 0.0592000000
5.7599000000 3.1139000000 0.6810000000
5.7593000000 1.7745000000 0.0937000000
5.7589000000 6.1631000000 0.3560000000
5.7585000000 3.3040000000 0.7657000000
5.7583000000 2.8421000000 0.5652000000
5.7579000000 6.0740000000 0.3939000000
5.7576000000 7.0038000000 0.0639000000
5.7572000000 6.4996000000 0.2078000000
5.7570000000 1.6245000000 0.1088000000
5.7561000000 2.1585000000 0.2631000000
5.7558000000 3.9307000000 1.0353000000
5.7555000000 1.8407000000 0.1327000000
5.7552000000 4.9533000000 0.8899000000
5.7549000000 1.9776000000 0.1898000000
5.7547000000 1.4495000000 0.0347000000
5.7540000000 2.3258000000 0.3371000000
5.7536000000 5.8820000000 0.4798000000
5.7533000000 5.0796000000 0.8339000000
5.7532000000 2.0821000000 0.2388000000
5.7530000000 2.1870000000 0.2782000000
5.7527000000 3.5002000000 0.8538000000
5.7523000000 2.5860000000 0.4592000000
5.7521000000 1.9050000000 0.1653000000
5.7515000000 5.1287000000 0.8160000000
5.7515000000 7.1268000000 0.0177000000
5.7508000000 1.2575000000 0.0318000000
5.7502000000 5.4200000000 0.6891000000
5.7489000000 2.3083000000 0.3404000000
5.7476000000 4.4221000000 1.1214000000
5.5117000000 7.0811000000 0.1405000000
5.5109000000 5.4169000000 0.8732000000
5.5103000000 3.5925000000 1.0717000000
5.5093000000 7.5652000000 0.0142000000
5.5085000000 5.9533000000 0.6424000000
5.5081000000 6.2587000000 0.5037000000
5.5074000000 1.9555000000 0.3711000000
5.5072000000 4.4779000000 1.2836000000
5.5066000000 2.1804000000 0.4671000000
5.5063000000 6.1322000000 0.5597000000
5.5061000000 6.0693000000 0.5873000000
5.5057000000 5.0992000000 1.0144000000
5.5055000000 4.5434000000 1.2526000000
5.5053000000 2.2700000000 0.5018000000
5.5050000000 2.7714000000 0.7301000000
5.5048000000 2.8788000000 0.7673000000
5.5046000000 5.5811000000 0.8063000000
5.5044000000 4.5667000000 1.2483000000
5.5043000000 3.7619000000 1.1538000000
5.5040000000 3.3198000000 0.9645000000
5.5035000000 4.6633000000 1.2003000000
5.5034000000 1.7141000000 0.2631000000
5.5033000000 1.9174000000 0.3527000000
5.5028000000 1.1927000000 0.1162000000
5.5026000000 2.9331000000 0.7959000000
5.5023000000 3.0609000000 0.8519000000
5.5015000000 5.2336000000 0.9560000000
5.5009000000 3.9436000000 1.2386000000
5.5007000000 1.1734000000 0.1005000000
5.5005000000 3.7523000000 1.1538000000
5.4993000000 1.1264000000 0.0846000000
5.4975000000 0.9046000000 0.0649000000
5.4957000000 1.5540000000 0.2023000000
5.2650000000 6.5208000000 0.5756000000
5.2625000000 5.6146000000 0.9702000000
5.2608000000 5.3442000000 1.0905000000
5.2601000000 8.0851000000 0.0416000000
5.2598000000 4.6883000000 1.3767000000
5.2593000000 3.2697000000 1.1302000000
5.2590000000 5.0092000000 1.2392000000
5.2588000000 1.5786000000 0.3897000000
5.2586000000 5.3456000000 1.0912000000
5.2581000000 5.8687000000 0.8676000000
5.2578000000 4.1409000000 1.5025000000
5.2572000000 4.6145000000 1.4131000000
5.2570000000 4.1564000000 1.5149000000
5.2566000000 2.6059000000 0.8411000000
5.2565000000 6.1494000000 0.7398000000
5.2563000000 7.9795000000 0.0190000000
5.2562000000 6.9559000000 0.3929000000
5.2559000000 6.4244000000 0.6275000000
5.2555000000 1.5183000000 0.3630000000
5.2553000000 1.7027000000 0.4487000000
5.2550000000 3.5862000000 1.2709000000
5.2548000000 1.9130000000 0.5308000000
5.2545000000 2.9516000000 0.9966000000
5.2542000000 3.9708000000 1.4403000000
5.2541000000 3.5744000000 1.2651000000
5.2539000000 1.1663000000 0.2132000000
5.2538000000 5.0274000000 1.2324000000
5.2531000000 3.2471000000 1.1202000000
5.2529000000 2.3227000000 0.7133000000
5.2527000000 7.2102000000 0.2866000000
5.2525000000 5.1074000000 1.2020000000
5.2520000000 2.4525000000 0.7752000000
5.2518000000 1.6414000000 0.4213000000
5.2517000000 8.1489000000 0.0228000000
5.2513000000 5.8166000000 0.8886000000
5.2508000000 7.8455000000 0.0838000000
5.2503000000 6.3339000000 0.6703000000
5.2495000000 3.8589000000 1.3899000000
5.2490000000 4.0230000000 1.4638000000
5.2481000000 5.4047000000 1.0725000000
5.2455000000 2.7235000000 0.9056000000
5.0128000000 6.7803000000 0.6548000000
5.0111000000 3.1138000000 1.2501000000
5.0105000000 6.9100000000 0.5960000000
5.0099000000 7.6189000000 0.2894000000
5.0095000000 6.2699000000 0.8755000000
5.0092000000 7.2503000000 0.4447000000
5.0089000000 3.4343000000 1.3880000000
5.0087000000 8.0890000000 0.0919000000
5.0079000000 7.0929000000 0.5192000000
5.0077000000 5.1752000000 1.3558000000
5.0074000000 2.9379000000 1.1672000000
5.0072000000 1.7615000000 0.6583000000
5.0070000000 4.3827000000 1.7016000000
5.0068000000 7.5788000000 0.3072000000
5.0065000000 4.6147000000 1.6057000000
5.0064000000 7.8849000000 0.1791000000
5.0061000000 8.4146000000 0.0159000000
5.0060000000 6.7066000000 0.6919000000
5.0058000000 8.5656000000 0.0221000000
5.0056000000 2.9727000000 1.1853000000
5.0054000000 6.1450000000 0.9325000000
5.0051000000 3.6068000000 1.4603000000
5.0050000000 7.1168000000 0.5111000000
5.0048000000 6.0793000000 0.9668000000
5.0045000000 6.7969000000 0.6507000000
5.0043000000 8.1481000000 0.0666000000
5.0036000000 7.8277000000 0.1981000000
5.0033000000 6.3313000000 0.8571000000
5.0031000000 6.4046000000 0.8176000000
5.0028000000 5.5576000000 1.1894000000
5.0025000000 4.7846000000 1.5296000000
5.0021000000 4.0980000000 1.6865000000
5.0018000000 3.0608000000 1.2297000000
5.0016000000 1.4059000000 0.5053000000
5.0014000000 1.2152000000 0.4284000000
5.0012000000 1.3132000000 0.4663000000
5.0007000000 5.2764000000 1.3182000000
5.0008000000 6.4856000000 0.7843000000
5.0000000000 1.7732000000 0.6629000000
4.9995000000 3.2902000000 1.3301000000
4.9985000000 7.5921000000 0.3087000000
4.9975000000 0.2598000000 0.0875000000
4.9954000000 6.3365000000 0.8606000000
4.7616000000 7.6115000000 0.4791000000
4.7609000000 5.5092000000 1.3926000000
4.7604000000 2.8367000000 1.3128000000
4.7601000000 7.2571000000 0.6342000000
4.7596000000 5.4779000000 1.4063000000
4.7590000000 4.9673000000 1.6346000000
4.7586000000 6.4452000000 0.9888000000
4.7583000000 3.5706000000 1.6378000000
4.7580000000 7.2338000000 0.6485000000
4.7578000000 0.7326000000 0.3949000000
4.7574000000 3.6653000000 1.6794000000
4.7573000000 5.6659000000 1.3298000000
4.7571000000 3.9584000000 1.8080000000
4.7568000000 3.7886000000 1.7280000000
4.7566000000 6.1487000000 1.1185000000
4.7564000000 6.0839000000 1.1503000000
4.7562000000 5.4900000000 1.4110000000
4.7560000000 6.8890000000 0.7944000000
4.7556000000 4.3640000000 1.8960000000
4.7554000000 6.5028000000 0.9669000000
4.7551000000 2.6673000000 1.2436000000
4.7550000000 2.4440000000 1.1456000000
4.7545000000 3.4476000000 1.5828000000
4.7543000000 3.1433000000 1.4525000000
4.7538000000 4.2130000000 1.9926000000
4.7536000000 5.1469000000 1.5593000000
4.7534000000 4.2688000000 2.0029000000
4.7530000000 6.5072000000 0.9671000000
4.7528000000 1.8843000000 0.9089000000
4.7525000000 5.4692000000 1.4188000000
4.7522000000 2.9587000000 1.3699000000
4.7519000000 1.4818000000 0.7290000000
4.7517000000 5.8883000000 1.2379000000
4.7513000000 1.2980000000 0.6516000000
4.7512000000 3.7769000000 1.7277000000
4.7510000000 5.7000000000 1.3189000000
4.7497000000 2.2932000000 1.0871000000
4.7482000000 7.6862000000 0.4558000000
4.7470000000 1.1566000000 0.5988000000
4.5128000000 6.8318000000 1.0094000000
4.5125000000 7.7295000000 0.6800000000
4.5120000000 6.6135000000 1.0965000000
4.5111000000 5.5849000000 1.5492000000
4.5106000000 6.5821000000 1.1136000000
4.5097000000 0.0098000000 0.0352000000
4.5095000000 8.3677000000 0.1021000000
4.5090000000 4.6922000000 1.9349000000
4.5089000000 5.1216000000 1.7562000000
4.5086000000 8.2735000000 0.1816000000
4.5084000000 6.0942000000 1.3328000000
4.5080000000 4.4249000000 2.0553000000
4.5075000000 2.3265000000 1.2840000000
4.5071000000 7.4001000000 0.7623000000
4.5068000000 7.8225000000 0.6355000000
4.5065000000 1.5152000000 0.9295000000
4.5063000000 4.6467000000 1.9651000000
4.5061000000 5.1383000000 1.7500000000
4.5060000000 4.6218000000 1.9724000000
4.5056000000 7.9530000000 0.4615000000
4.5053000000 2.9708000000 1.5632000000
4.5050000000 1.9218000000 1.1084000000
4.5048000000 7.0798000000 0.9025000000
4.5046000000 8.1958000000 0.2482000000
4.5044000000 1.4362000000 0.8971000000
4.5042000000 7.5426000000 0.7028000000
4.5040000000 7.2086000000 0.8523000000
4.5037000000 1.3137000000 0.8518000000
4.5034000000 6.8121000000 1.0237000000
4.5031000000 4.6084000000 1.9913000000
4.5029000000 3.4078000000 1.7569000000
4.5025000000 5.1238000000 1.7599000000
4.5022000000 4.5684000000 2.0000000000
4.5020000000 0.4047000000 0.3073000000
4.5016000000 5.6708000000 1.5195000000
4.5014000000 7.8623000000 0.6000000000
4.5011000000 1.5465000000 0.9471000000
4.5004000000 0.1325000000 0.0739000000
4.4997000000 3.0627000000 1.6108000000
4.4990000000 3.0771000000 1.6182000000
4.4981000000 0.3567000000 0.2662000000
4.4973000000 4.2853000000 2.1862000000
4.2659000000 7.2386000000 1.0155000000
4.2620000000 5.3933000000 1.8237000000
4.2610000000 6.2107000000 1.4703000000
4.2603000000 7.5999000000 0.7691000000
4.2599000000 4.9336000000 2.0246000000
4.2598000000 0.6748000000 0.5483000000
4.2591000000 7.5578000000 0.8056000000
4.2586000000 3.0968000000 1.8054000000
4.2585000000 6.5458000000 1.3228000000
4.2583000000 6.8572000000 1.1895000000
4.2580000000 7.2288000000 1.0215000000
4.2578000000 6.1849000000 1.4812000000
4.2575000000 7.4750000000 0.8683000000
4.2573000000 6.1036000000 1.5132000000
4.2570000000 7.0562000000 1.1027000000
4.2567000000 5.0635000000 1.9708000000
4.2566000000 1.6193000000 1.1643000000
4.2563000000 2.7800000000 1.6715000000
4.2561000000 5.0068000000 1.9936000000
4.2559000000 8.4265000000 0.1223000000
4.2557000000 2.1490000000 1.3904000000
4.2553000000 6.2388000000 1.4650000000
4.2550000000 6.3801000000 1.3953000000
4.2548000000 2.9587000000 1.7499000000
4.2546000000 3.2610000000 1.8822000000
4.2544000000 2.5101000000 1.5634000000
4.2540000000 5.8721000000 1.6163000000
4.2538000000 7.5601000000 0.8020000000
4.2536000000 1.4785000000 1.1077000000
4.2535000000 8.5558000000 0.0115000000
4.2533000000 1.3129000000 1.0314000000
4.2528000000 0.6875000000 0.5531000000
4.2527000000 0.5099000000 0.3959000000
4.2525000000 3.4307000000 1.9505000000
4.2521000000 1.6796000000 1.1951000000
4.2519000000 4.4861000000 2.2241000000
4.2515000000 1.9055000000 1.2920000000
4.2513000000 1.6793000000 1.1928000000
4.2505000000 0.2214000000 0.1501000000
4.2503000000 1.5625000000 1.1443000000
4.2498000000 1.6923000000 1.2001000000
4.2493000000 4.6216000000 2.1693000000
4.2485000000 2.1416000000 1.4026000000
4.2473000000 1.4065000000 1.0799000000
4.0129000000 5.9588000000 1.7662000000
4.0121000000 7.8600000000 0.5426000000
4.0109000000 6.5723000000 1.4939000000
4.0104000000 6.2874000000 1.6227000000
4.0097000000 6.2903000000 1.6255000000
4.0088000000 1.5570000000 1.3708000000
4.0086000000 2.9268000000 1.9267000000
4.0083000000 1.8875000000 1.4650000000
4.0078000000 0.9029000000 0.7379000000
4.0074000000 7.7663000000 0.6258000000
4.0072000000 5.8783000000 1.8027000000
4.0069000000 5.9699000000 1.7686000000
4.0067000000 6.5204000000 1.5226000000
4.0065000000 1.5547000000 1.3720000000
4.0063000000 4.0037000000 2.3950000000
4.0060000000 1.9476000000 1.4962000000
4.0059000000 6.4145000000 1.5723000000
4.0057000000 3.9147000000 2.3578000000
4.0055000000 6.0942000000 1.7129000000
4.0054000000 6.9487000000 1.3912000000
4.0052000000 4.8253000000 2.2715000000
4.0049000000 8.4924000000 0.0627000000
4.0046000000 3.9357000000 2.3633000000
4.0044000000 0.9056000000 0.7438000000
4.0041000000 6.4142000000 1.5704000000
4.0038000000 1.7216000000 1.4003000000
4.0037000000 5.6074000000 1.9227000000
4.0036000000 6.7714000000 1.4196000000
4.0033000000 4.1068000000 2.4382000000
4.0030000000 1.3000000000 1.0826000000
4.0027000000 4.2913000000 2.5610000000
4.0023000000 5.6176000000 1.9183000000
4.0021000000 0.7867000000 0.6400000000
4.0017000000 2.0897000000 1.5661000000
4.0013000000 5.8677000000 1.8181000000
4.0012000000 1.1549000000 0.9665000000
4.0007000000 0.3061000000 0.2209000000
4.0002000000 1.2376000000 1.0387000000
3.9996000000 3.0290000000 1.9774000000
3.9992000000 3.9015000000 2.3487000000
3.9989000000 2.8813000000 1.9068000000
3.9981000000 1.2675000000 1.0552000000
3.9968000000 4.3862000000 2.4607000000
3.9960000000 0.8450000000 0.6902000000
3.7677000000 8.0481000000 0.3796000000
3.7631000000 4.6251000000 2.5288000000
3.7615000000 7.4644000000 0.8839000000
3.7606000000 4.3859000000 2.6440000000
3.7598000000 8.0673000000 0.3596000000
3.7590000000 6.4265000000 1.8143000000
3.7587000000 1.1490000000 0.9605000000
3.7585000000 0.7624000000 0.6184000000
3.7582000000 6.0337000000 1.9284000000
3.7578000000 5.0004000000 2.3736000000
3.7575000000 6.4619000000 1.8023000000
3.7573000000 1.5695000000 1.3242000000
3.7571000000 5.1370000000 2.3176000000
3.7568000000 4.8020000000 2.4647000000
3.7565000000 2.6530000000 1.9965000000
3.7563000000 6.8369000000 1.4269000000
3.7561000000 8.4820000000 0.0732000000
3.7560000000 5.3965000000 2.2066000000
3.7558000000 2.1332000000 1.7584000000
3.7556000000 0.1416000000 0.0789000000
3.7553000000 6.9335000000 1.3530000000
3.7549000000 0.8962000000 0.7342000000
3.7548000000 4.9777000000 2.3885000000
3.7547000000 4.0103000000 2.5855000000
3.7545000000 5.9214000000 1.9752000000
3.7544000000 8.0128000000 0.4053000000
3.7543000000 5.8927000000 1.9910000000
3.7542000000 2.3498000000 1.8585000000
3.7538000000 2.4470000000 1.9027000000
3.7536000000 0.1712000000 0.1069000000
3.7534000000 3.2901000000 2.2699000000
3.7531000000 7.9900000000 0.4280000000
3.7530000000 4.4238000000 2.6331000000
3.7526000000 0.4964000000 0.3887000000
3.7525000000 1.7850000000 1.5098000000
3.7522000000 3.0631000000 2.1691000000
3.7518000000 3.3754000000 2.3115000000
3.7514000000 2.9790000000 2.1400000000
3.7511000000 0.8630000000 0.7096000000
3.7510000000 4.4957000000 2.6030000000
3.7507000000 6.3482000000 1.7980000000
3.7505000000 2.1020000000 1.8168000000
3.7498000000 1.3412000000 1.1265000000
3.7490000000 5.8768000000 2.0014000000
3.7484000000 2.2625000000 1.8323000000
3.5148000000 8.3521000000 0.1093000000
3.5119000000 5.2005000000 2.4729000000
3.5109000000 8.2519000000 0.2010000000
3.5106000000 6.3443000000 1.8627000000
3.5098000000 5.2316000000 2.4628000000
3.5095000000 4.8172000000 2.6475000000
3.5092000000 6.4226000000 1.7952000000
3.5090000000 7.5521000000 0.8099000000
3.5086000000 6.9085000000 1.3738000000
3.5083000000 6.1707000000 2.0767000000
3.5077000000 7.2818000000 1.0444000000
3.5075000000 4.3303000000 2.8524000000
3.5073000000 6.7624000000 1.4994000000
3.5072000000 5.5831000000 2.3157000000
3.5067000000 7.4094000000 0.9390000000
3.5064000000 2.8611000000 2.2679000000
3.5062000000 6.9908000000 1.2978000000
3.5058000000 0.1764000000 0.1063000000
3.5057000000 2.4221000000 2.1303000000
3.5053000000 3.2742000000 2.4489000000
3.5051000000 2.0220000000 1.7207000000
3.5050000000 6.1226000000 2.1147000000
3.5048000000 3.3865000000 2.5027000000
3.5047000000 4.9454000000 2.5818000000
3.5044000000 2.2974000000 1.9592000000
3.5043000000 3.2604000000 2.4474000000
3.5040000000 0.7287000000 0.5915000000
3.5037000000 5.6969000000 2.2678000000
3.5036000000 7.0916000000 1.2089000000
3.5033000000 4.4655000000 2.7971000000
3.5026000000 0.7370000000 0.5960000000
3.5022000000 3.3522000000 2.4913000000
3.5015000000 2.2272000000 1.8986000000
3.5012000000 2.7314000000 2.2212000000
3.5010000000 0.9549000000 0.7835000000
3.5007000000 3.7547000000 2.6665000000
3.5002000000 2.8719000000 2.2808000000
3.4997000000 1.3528000000 1.1294000000
3.4993000000 3.6731000000 2.6320000000
3.4985000000 3.6692000000 2.6338000000
3.4966000000 0.1952000000 0.1247000000
3.2643000000 6.5801000000 1.6553000000
3.2615000000 5.8740000000 2.2745000000
3.2606000000 4.4159000000 3.0075000000
3.2600000000 6.0616000000 2.1083000000
3.2593000000 4.1991000000 3.0426000000
3.2590000000 8.1192000000 0.3132000000
3.2585000000 5.9204000000 2.2344000000
3.2582000000 6.3027000000 1.8974000000
3.2578000000 2.3792000000 2.0260000000
3.2576000000 4.9965000000 2.7534000000
3.2574000000 1.4229000000 1.1901000000
3.2572000000 1.9831000000 1.6853000000
3.2568000000 5.7702000000 2.3709000000
3.2567000000 7.2040000000 1.1109000000
3.2563000000 8.3555000000 0.1132000000
3.2561000000 3.3646000000 2.6843000000
3.2560000000 8.5413000000 0.0234000000
3.2558000000 7.8998000000 0.5047000000
3.2555000000 6.3258000000 1.8740000000
3.2554000000 7.9658000000 0.4480000000
3.2552000000 4.7807000000 2.8467000000
3.2550000000 5.3917000000 2.5821000000
3.2549000000 6.9611000000 1.3273000000
3.2547000000 7.2380000000 1.0844000000
3.2544000000 6.7834000000 1.4807000000
3.2543000000 2.3304000000 1.9867000000
3.2541000000 4.7749000000 2.8537000000
3.2539000000 0.1043000000 0.1181000000
3.2536000000 5.7604000000 2.3748000000
3.2533000000 0.2842000000 0.2008000000
3.2529000000 2.1296000000 1.8116000000
3.2525000000 7.3440000000 0.9905000000
3.2519000000 1.2178000000 1.0169000000
3.2518000000 0.8388000000 0.6843000000
3.2517000000 7.9120000000 0.4959000000
3.2511000000 0.5489000000 0.4369000000
3.2504000000 3.7150000000 2.8308000000
3.2500000000 3.8483000000 2.8960000000
3.2493000000 0.6739000000 0.5353000000
3.2488000000 1.5619000000 1.3207000000
3.2483000000 3.3198000000 2.6725000000
3.0172000000 6.9407000000 1.3499000000
3.0118000000 6.6722000000 1.5756000000
3.0115000000 7.3262000000 1.0068000000
3.0113000000 4.2403000000 3.3128000000
3.0100000000 5.6635000000 2.4593000000
3.0093000000 4.0408000000 3.1576000000
3.0088000000 2.3957000000 2.0403000000
3.0083000000 2.8298000000 2.4226000000
3.0082000000 3.9096000000 3.1120000000
3.0077000000 8.0004000000 0.4181000000
3.0075000000 7.7615000000 0.6255000000
3.0071000000 8.4375000000 0.1146000000
3.0068000000 8.0366000000 0.3898000000
3.0067000000 6.3629000000 1.8439000000
3.0065000000 7.9945000000 0.4211000000
3.0062000000 1.9828000000 1.6886000000
3.0060000000 7.1758000000 1.1395000000
3.0058000000 5.8018000000 2.3335000000
3.0056000000 4.5013000000 3.1593000000
3.0053000000 2.6454000000 2.2582000000
3.0052000000 5.5037000000 2.5956000000
3.0050000000 8.5582000000 0.0129000000
3.0048000000 4.7399000000 3.0537000000
3.0045000000 5.6969000000 2.4278000000
3.0042000000 3.9621000000 3.1308000000
3.0040000000 1.6243000000 1.3690000000
3.0037000000 7.2147000000 1.1043000000
3.0033000000 6.8519000000 1.4196000000
3.0030000000 8.1252000000 0.3109000000
3.0028000000 6.3277000000 1.8766000000
3.0025000000 6.6383000000 1.6043000000
3.0020000000 0.4284000000 0.3262000000
3.0016000000 1.8543000000 1.5706000000
3.0014000000 4.6815000000 3.0849000000
3.0011000000 0.0295000000 0.0559000000
3.0008000000 5.3945000000 2.6890000000
3.0002000000 2.8422000000 2.4369000000
2.9991000000 4.1062000000 3.1999000000
2.9953000000 0.0243000000 0.0439000000
2.7632000000 6.1963000000 1.9913000000
2.7620000000 4.4995000000 3.3507000000
2.7608000000 6.5642000000 1.6680000000
2.7603000000 7.1856000000 1.1292000000
2.7598000000 7.4969000000 0.8583000000
2.7588000000 5.7637000000 2.3692000000
2.7585000000 7.2866000000 1.0436000000
2.7582000000 6.4651000000 1.7584000000
2.7580000000 5.9935000000 2.1683000000
2.7577000000 5.2280000000 2.8370000000
2.7572000000 6.5282000000 1.7019000000
2.7571000000 2.5790000000 2.2028000000
2.7567000000 5.8661000000 2.2771000000
2.7565000000 4.3742000000 3.4052000000
2.7563000000 0.6459000000 0.5137000000
2.7559000000 3.9875000000 3.3261000000
2.7558000000 3.4608000000 2.9670000000
2.7556000000 0.1270000000 0.0643000000
2.7554000000 3.9640000000 3.3165000000
2.7551000000 7.6198000000 0.7540000000
2.7548000000 6.7500000000 1.5080000000
2.7548000000 4.5749000000 3.3155000000
2.7544000000 5.1170000000 2.9318000000
2.7543000000 4.9697000000 3.0624000000
2.7541000000 8.0810000000 0.3538000000
2.7540000000 1.1201000000 0.9294000000
2.7538000000 0.8851000000 0.7212000000
2.7531000000 2.4135000000 2.0637000000
2.7528000000 6.3892000000 1.8197000000
2.7525000000 3.5327000000 3.0356000000
2.7521000000 4.8466000000 3.2280000000
2.7519000000 1.3868000000 1.1666000000
2.7516000000 3.3220000000 2.8524000000
2.7512000000 0.3052000000 0.2187000000
2.7510000000 0.1485000000 0.0922000000
2.7508000000 2.5524000000 2.1766000000
2.7500000000 0.0991000000 0.1163000000
2.7495000000 1.3245000000 1.1065000000
2.7488000000 1.0925000000 0.9069000000
2.7486000000 4.0244000000 3.3523000000
2.7472000000 0.3149000000 0.2292000000
2.7464000000 0.7295000000 0.5923000000
2.7386000000 0.3906000000 0.3003000000
2.5125000000 4.9640000000 3.0660000000
2.5120000000 1.7874000000 1.5153000000
2.5113000000 6.5652000000 1.6756000000
2.5103000000 4.9793000000 3.0558000000
2.5101000000 4.6241000000 3.3594000000
2.5099000000 3.5171000000 3.0217000000
2.5092000000 7.6939000000 0.6865000000
2.5088000000 7.8329000000 0.5652000000
2.5087000000 4.9566000000 3.0717000000
2.5080000000 7.6585000000 0.7140000000
2.5079000000 7.6013000000 0.7699000000
2.5076000000 7.9546000000 0.4617000000
2.5074000000 3.3477000000 2.8719000000
2.5071000000 6.3834000000 1.8324000000
2.5070000000 4.1351000000 3.6155000000
2.5068000000 6.8454000000 1.4294000000
2.5067000000 4.0846000000 3.5812000000
2.5064000000 4.5469000000 3.4268000000
2.5059000000 1.4808000000 1.2445000000
2.5057000000 2.3438000000 1.9994000000
2.5055000000 8.0088000000 0.4101000000
2.5053000000 1.5416000000 1.2979000000
2.5051000000 7.7013000000 0.6828000000
2.5047000000 0.3816000000 0.2873000000
2.5045000000 5.1318000000 2.9172000000
2.5042000000 3.9850000000 3.4242000000
2.5039000000 3.9930000000 3.4370000000
2.5036000000 5.4677000000 2.6232000000
2.5034000000 2.9885000000 2.5590000000
2.5030000000 8.0747000000 0.3564000000
2.5029000000 4.4258000000 3.5947000000
2.5026000000 8.2998000000 0.1593000000
2.5025000000 4.3352000000 3.6134000000
2.5019000000 3.2551000000 2.7965000000
2.5014000000 0.0587000000 0.0848000000
2.5011000000 3.1093000000 2.6601000000
2.5009000000 1.6781000000 1.4183000000
2.5005000000 0.9582000000 0.7936000000
2.5001000000 6.2502000000 1.9469000000
2.4988000000 5.3312000000 2.7480000000
2.4974000000 0.8597000000 0.7012000000
2.4946000000 3.9878000000 3.4302000000
2.2634000000 8.1325000000 0.3039000000
2.2610000000 7.7122000000 0.6704000000
2.2601000000 7.1354000000 1.1762000000
2.2596000000 2.9573000000 2.5330000000
2.2591000000 8.2889000000 0.1647000000
2.2587000000 2.8000000000 2.3976000000
2.2581000000 6.0755000000 2.0925000000
2.2579000000 5.3381000000 2.7370000000
2.2575000000 8.1517000000 0.2820000000
2.2573000000 1.6938000000 1.4289000000
2.2570000000 0.2930000000 0.2089000000
2.2568000000 0.4824000000 0.3792000000
2.2566000000 2.1437000000 1.8234000000
2.2564000000 7.1813000000 1.1366000000
2.2562000000 3.2608000000 2.7950000000
2.2560000000 5.3121000000 2.7559000000
2.2558000000 1.6136000000 1.3571000000
2.2556000000 4.1152000000 3.4493000000
2.2554000000 1.2631000000 1.0563000000
2.2553000000 8.2739000000 0.1776000000
2.2550000000 2.6743000000 2.2883000000
2.2548000000 8.4750000000 0.0801000000
2.2545000000 0.4779000000 0.3714000000
2.2543000000 4.2625000000 3.5749000000
2.2540000000 0.8027000000 0.6516000000
2.2539000000 4.5956000000 3.4339000000
2.2536000000 3.9147000000 3.4240000000
2.2534000000 5.0878000000 2.9614000000
2.2531000000 6.0105000000 2.1553000000
2.2530000000 3.5528000000 3.0546000000
2.2527000000 6.9414000000 1.3415000000
2.2525000000 5.6291000000 2.4895000000
2.2523000000 5.3382000000 2.7405000000
2.2520000000 3.8413000000 3.3608000000
2.2519000000 2.0028000000 1.7002000000
2.2517000000 2.7594000000 2.3579000000
2.2514000000 7.8650000000 0.5382000000
2.2512000000 3.6786000000 3.1686000000
2.2501000000 3.8031000000 3.3332000000
2.2498000000 0.4950000000 0.3871000000
2.2493000000 6.0889000000 2.0833000000
2.2487000000 1.1551000000 0.9639000000
2.2484000000 8.5194000000 0.0465000000
2.2478000000 0.4102000000 0.3154000000
2.2465000000 4.8124000000 3.1981000000
2.0136000000 5.5589000000 2.5484000000
2.0122000000 1.9011000000 1.6146000000
2.0114000000 7.0997000000 1.2053000000
2.0099000000 5.8279000000 2.3089000000
2.0094000000 6.3396000000 1.8667000000
2.0090000000 8.0730000000 0.3617000000
2.0086000000 2.8657000000 2.4476000000
2.0084000000 1.4724000000 1.2373000000
2.0082000000 4.8481000000 3.0814000000
2.0076000000 4.8417000000 3.0738000000
2.0074000000 8.3126000000 0.1497000000
2.0071000000 4.7768000000 3.1074000000
2.0068000000 2.0886000000 1.7737000000
2.0065000000 7.3550000000 0.9830000000
2.0059000000 7.2798000000 1.0447000000
2.0057000000 6.1141000000 2.0625000000
2.0056000000 3.6808000000 3.0733000000
2.0054000000 0.1667000000 0.1027000000
2.0050000000 3.9699000000 3.1973000000
2.0047000000 2.8507000000 2.4406000000
2.0045000000 4.3989000000 3.2706000000
2.0042000000 0.9697000000 0.7979000000
2.0039000000 8.3100000000 0.1501000000
2.0038000000 5.3505000000 2.7290000000
2.0035000000 0.0018000000 0.0309000000
2.0032000000 3.7498000000 3.1034000000
2.0027000000 8.0749000000 0.3563000000
2.0024000000 4.8911000000 3.0604000000
2.0021000000 1.4423000000 1.2073000000
2.0019000000 4.3327000000 3.2998000000
2.0016000000 3.0201000000 2.5878000000
2.0010000000 4.7329000000 3.1239000000
2.0004000000 2.3256000000 1.9828000000
2.0000000000 0.0142000000 0.0428000000
1.9997000000 6.8841000000 1.3951000000
1.9992000000 0.4603000000 0.3526000000
1.9986000000 4.1846000000 3.2913000000
1.9982000000 1.8830000000 1.5949000000
1.9970000000 2.0735000000 1.7633000000
1.9955000000 4.4411000000 3.2452000000
1.7626000000 7.8766000000 0.5307000000
1.7617000000 5.2217000000 2.7293000000
1.7609000000 7.7565000000 0.6318000000
1.7599000000 6.4388000000 1.7788000000
1.7593000000 7.4410000000 0.9053000000
1.7588000000 1.4643000000 1.2323000000
1.7585000000 2.9768000000 2.6108000000
1.7583000000 4.8605000000 2.8835000000
1.7579000000 3.5175000000 2.8168000000
1.7578000000 5.0994000000 2.7822000000
1.7575000000 5.6734000000 2.4551000000
1.7574000000 2.8363000000 2.4242000000
1.7570000000 4.7728000000 2.9201000000
1.7569000000 3.9442000000 2.9984000000
1.7564000000 6.8811000000 1.3955000000
1.7558000000 2.8208000000 2.4098000000
1.7553000000 7.4713000000 0.8800000000
1.7552000000 3.1827000000 2.6701000000
1.7550000000 7.0387000000 1.2552000000
1.7548000000 7.6947000000 0.6848000000
1.7545000000 2.1625000000 1.8423000000
1.7544000000 0.4807000000 0.3763000000
1.7541000000 6.1799000000 2.0064000000
1.7540000000 7.9517000000 0.4592000000
1.7538000000 3.2447000000 2.6916000000
1.7536000000 6.0982000000 2.0773000000
1.7534000000 5.9145000000 2.2331000000
1.7530000000 7.7924000000 0.5991000000
1.7528000000 3.0694000000 2.6801000000
1.7525000000 0.5985000000 0.4831000000
1.7523000000 1.7968000000 1.5214000000
1.7517000000 2.4887000000 2.1224000000
1.7512000000 4.4903000000 3.0406000000
1.7510000000 1.6378000000 1.3826000000
1.7506000000 1.7703000000 1.4967000000
1.7500000000 3.4288000000 2.7778000000
1.7494000000 0.5920000000 0.4697000000
1.7492000000 6.3536000000 1.8500000000
1.7484000000 0.7393000000 0.5981000000
1.7481000000 5.6186000000 2.4895000000
1.7475000000 4.9824000000 2.8214000000
1.7471000000 2.1844000000 1.8643000000
1.7464000000 0.9367000000 0.7740000000
1.5114000000 6.7056000000 1.5435000000
1.5101000000 7.7706000000 0.6179000000
1.5098000000 7.6456000000 0.7226000000
1.5094000000 1.1430000000 0.9526000000
1.5091000000 2.6700000000 2.3199000000
1.5086000000 3.1670000000 2.4708000000
1.5082000000 7.6724000000 0.7048000000
1.5080000000 2.2391000000 1.9059000000
1.5078000000 7.3215000000 1.0179000000
1.5075000000 6.2491000000 1.9476000000
1.5074000000 5.2829000000 2.5106000000
1.5071000000 3.3430000000 2.5460000000
1.5070000000 5.5857000000 2.3726000000
1.5067000000 7.8918000000 0.5089000000
1.5064000000 4.5163000000 2.8409000000
1.5062000000 5.3897000000 2.4646000000
1.5060000000 1.8576000000 1.5774000000
1.5058000000 0.2676000000 0.1858000000
1.5056000000 2.7973000000 2.3074000000
1.5055000000 7.1096000000 1.1966000000
1.5053000000 5.8400000000 2.3245000000
1.5051000000 1.4374000000 1.1991000000
1.5047000000 4.0902000000 2.8707000000
1.5045000000 4.8883000000 2.6814000000
1.5043000000 1.1729000000 0.9788000000
1.5041000000 0.3909000000 0.2987000000
1.5037000000 1.9063000000 1.6186000000
1.5036000000 8.0730000000 0.3556000000
1.5033000000 8.5586000000 0.0798000000
1.5032000000 7.3544000000 0.9809000000
1.5030000000 1.5217000000 1.2808000000
1.5026000000 5.7808000000 2.2874000000
1.5025000000 1.9959000000 1.6964000000
1.5020000000 4.7330000000 2.7441000000
1.5018000000 6.4805000000 1.7437000000
1.5015000000 0.2429000000 0.1655000000
1.5012000000 1.4620000000 1.2318000000
1.5009000000 3.4395000000 2.5857000000
1.5005000000 4.1162000000 2.8802000000
1.5002000000 4.3441000000 2.9131000000
1.4990000000 1.5545000000 1.3066000000
1.4980000000 2.0439000000 1.7366000000
1.4976000000 2.5076000000 2.2057000000
1.4918000000 1.7558000000 1.4890000000
1.2622000000 2.5929000000 2.0334000000
1.2608000000 2.0211000000 1.7159000000
1.2606000000 3.6595000000 2.5055000000
1.2603000000 7.3488000000 0.9876000000
1.2593000000 4.8115000000 2.5335000000
1.2589000000 4.0086000000 2.6492000000
1.2587000000 7.3180000000 1.0152000000
1.2582000000 2.7530000000 2.1086000000
1.2579000000 4.9771000000 2.4517000000
1.2577000000 3.6133000000 2.4841000000
1.2572000000 5.7313000000 2.1266000000
1.2568000000 5.8388000000 2.0814000000
1.2567000000 0.4930000000 0.3869000000
1.2563000000 0.2339000000 0.1592000000
1.2561000000 4.5225000000 2.6516000000
1.2558000000 5.0716000000 2.4071000000
1.2553000000 6.9021000000 1.3731000000
1.2549000000 5.6941000000 2.1385000000
1.2547000000 3.1232000000 2.2660000000
1.2544000000 5.4358000000 2.2531000000
1.2542000000 7.1461000000 1.1632000000
1.2538000000 7.1352000000 1.1705000000
1.2536000000 3.7088000000 2.5172000000
1.2534000000 2.0729000000 1.8313000000
1.2532000000 1.0513000000 0.8670000000
1.2530000000 7.5033000000 0.8502000000
1.2529000000 6.8711000000 1.4018000000
1.2525000000 6.6704000000 1.5800000000
1.2524000000 0.4299000000 0.3281000000
1.2521000000 4.4640000000 2.6771000000
1.2519000000 0.6803000000 0.5512000000
1.2517000000 2.4409000000 1.9645000000
1.2513000000 1.1871000000 0.9878000000
1.2508000000 1.1651000000 0.9691000000
1.2506000000 3.9456000000 2.6247000000
1.2502000000 2.3305000000 1.9113000000
1.2498000000 2.1569000000 1.8975000000
1.2488000000 5.5924000000 2.1822000000
1.2482000000 2.0087000000 1.7071000000
1.2471000000 0.7140000000 0.5807000000
1.2453000000 2.1644000000 1.8979000000
1.0128000000 8.0250000000 0.3927000000
1.0120000000 7.7871000000 0.6056000000
1.0103000000 8.5747000000 0.0663000000
1.0099000000 7.4581000000 0.8948000000
1.0096000000 4.8421000000 2.3282000000
1.0093000000 7.7384000000 0.6462000000
1.0082000000 3.1304000000 2.0788000000
1.0078000000 6.1383000000 1.7641000000
1.0072000000 7.7803000000 0.6124000000
1.0069000000 6.8903000000 1.3767000000
1.0067000000 3.7607000000 2.3553000000
1.0063000000 5.1791000000 2.1721000000
1.0061000000 7.3344000000 1.0007000000
1.0057000000 3.1848000000 2.0996000000
1.0054000000 6.2589000000 1.7010000000
1.0052000000 1.4325000000 1.2015000000
1.0050000000 7.2931000000 1.0440000000
1.0048000000 2.9207000000 1.9896000000
1.0044000000 4.0518000000 2.4791000000
1.0043000000 6.0590000000 1.7946000000
1.0039000000 7.3431000000 0.9972000000
1.0038000000 3.0804000000 2.0579000000
1.0036000000 0.6048000000 0.4833000000
1.0035000000 7.0455000000 1.2532000000
1.0030000000 5.8677000000 1.8727000000
1.0029000000 5.0841000000 2.2177000000
1.0028000000 5.0498000000 2.2289000000
1.0025000000 3.4619000000 2.2247000000
1.0023000000 4.3817000000 2.5149000000
1.0019000000 1.7325000000 1.5201000000
1.0018000000 6.4314000000 1.6256000000
1.0013000000 2.0124000000 1.5828000000
1.0010000000 2.0164000000 1.5865000000
1.0010000000 3.0040000000 2.0210000000
1.0004000000 0.4467000000 0.3429000000
1.0003000000 2.2537000000 1.6913000000
0.9997000000 2.7467000000 1.9017000000
0.9995000000 7.9493000000 0.4672000000
0.9991000000 0.3404000000 0.2541000000
0.9985000000 4.7081000000 2.3780000000
0.9979000000 1.9772000000 1.5675000000
0.9975000000 2.4985000000 1.7945000000
0.9953000000 1.8525000000 1.5162000000
0.7643000000 7.3868000000 0.9503000000
0.7630000000 3.6362000000 2.1131000000
0.7619000000 6.8829000000 1.2509000000
0.7600000000 8.0009000000 0.4113000000
0.7593000000 7.0755000000 1.1682000000
0.7589000000 2.6023000000 1.6631000000
0.7585000000 6.9328000000 1.2253000000
0.7582000000 8.4042000000 0.0642000000
0.7578000000 5.6984000000 1.7619000000
0.7574000000 4.6909000000 2.2016000000
0.7568000000 8.5462000000 0.0210000000
0.7565000000 8.0449000000 0.3760000000
0.7562000000 7.2057000000 1.1663000000
0.7559000000 6.8531000000 1.2585000000
0.7556000000 1.9092000000 1.3609000000
0.7554000000 4.8590000000 2.1279000000
0.7552000000 6.0804000000 1.5940000000
0.7550000000 6.6423000000 1.3496000000
0.7548000000 3.8904000000 2.2234000000
0.7545000000 6.6327000000 1.3525000000
0.7543000000 7.0905000000 1.1560000000
0.7541000000 7.2105000000 1.1569000000
0.7538000000 2.2334000000 1.4955000000
0.7537000000 5.6648000000 1.7736000000
0.7535000000 7.3826000000 0.9605000000
0.7534000000 4.3791000000 2.3282000000
0.7532000000 6.3904000000 1.4551000000
0.7530000000 0.7808000000 0.6329000000
0.7528000000 1.1248000000 0.9361000000
0.7525000000 0.0504000000 0.0802000000
0.7524000000 7.6498000000 0.7294000000
0.7520000000 7.4760000000 0.8753000000
0.7516000000 3.6885000000 2.1286000000
0.7513000000 5.2052000000 1.9686000000
0.7509000000 3.7672000000 2.1609000000
0.7508000000 5.9765000000 1.6381000000
0.7499000000 3.0636000000 1.8538000000
0.7493000000 3.6485000000 2.1091000000
0.7485000000 1.8843000000 1.3410000000
0.5132000000 5.4570000000 1.6863000000
0.5106000000 6.4440000000 1.2488000000
0.5096000000 3.1917000000 1.7341000000
0.5092000000 7.7279000000 0.7124000000
0.5089000000 0.5384000000 0.4225000000
0.5085000000 7.5458000000 0.7678000000
0.5082000000 6.6176000000 1.1681000000
0.5076000000 5.5308000000 1.6450000000
0.5072000000 2.1503000000 1.2750000000
0.5067000000 7.2434000000 0.8996000000
0.5064000000 6.3127000000 1.3062000000
0.5062000000 6.3229000000 1.3004000000
0.5060000000 5.6418000000 1.5936000000
0.5059000000 4.5869000000 2.0522000000
0.5055000000 2.6026000000 1.4727000000
0.5053000000 3.2679000000 1.7596000000
0.5050000000 2.4212000000 1.3909000000
0.5049000000 8.5791000000 0.0637000000
0.5047000000 8.1620000000 0.2796000000
0.5042000000 3.3469000000 1.7912000000
0.5040000000 5.9149000000 1.4783000000
0.5039000000 2.7465000000 1.5318000000
0.5036000000 7.5395000000 0.7634000000
0.5033000000 5.1791000000 1.7942000000
0.5031000000 8.5169000000 0.0449000000
0.5029000000 1.8004000000 1.1212000000
0.5026000000 0.1586000000 0.0903000000
0.5025000000 0.7791000000 0.6971000000
0.5023000000 8.0946000000 0.3368000000
0.5018000000 5.7613000000 1.5397000000
0.5016000000 7.5994000000 0.7973000000
0.5015000000 1.6629000000 1.0614000000
0.5013000000 6.7354000000 1.1180000000
0.5009000000 0.1420000000 0.0810000000
0.5007000000 0.5359000000 0.4198000000
0.5004000000 3.9314000000 2.0491000000
0.5001000000 0.6430000000 0.5156000000
0.4999000000 2.6899000000 1.4999000000
0.4994000000 0.0857000000 0.1005000000
0.4987000000 1.1179000000 0.8195000000
0.4981000000 1.4863000000 0.9766000000
0.4974000000 1.9597000000 1.1831000000
0.2616000000 7.5716000000 0.5737000000
0.2606000000 7.1763000000 0.7431000000
0.2600000000 3.4627000000 1.6586000000
0.2599000000 7.2731000000 0.7035000000
0.2592000000 2.3237000000 1.1664000000
0.2586000000 7.4256000000 0.6371000000
0.2580000000 7.2426000000 0.7171000000
0.2576000000 6.6762000000 0.9656000000
0.2574000000 6.3007000000 1.1241000000
0.2571000000 3.4859000000 1.6703000000
0.2567000000 4.5062000000 1.9007000000
0.2562000000 4.7048000000 1.8152000000
0.2558000000 6.2059000000 1.1680000000
0.2556000000 7.2195000000 0.7238000000
0.2554000000 6.3827000000 1.0867000000
0.2553000000 7.5228000000 0.5889000000
0.2549000000 7.7853000000 0.4713000000
0.2545000000 1.0507000000 0.6045000000
0.2544000000 5.3754000000 1.5252000000
0.2541000000 8.5299000000 0.0300000000
0.2540000000 4.7414000000 1.7938000000
0.2538000000 3.8461000000 1.8193000000
0.2537000000 0.9920000000 0.5740000000
0.2534000000 7.0604000000 0.7870000000
0.2531000000 5.1900000000 1.5986000000
0.2530000000 1.3732000000 0.7420000000
0.2528000000 5.9065000000 1.2894000000
0.2527000000 8.2480000000 0.2023000000
0.2524000000 1.0428000000 0.6057000000
0.2521000000 1.6144000000 0.8444000000
0.2518000000 6.8620000000 0.8752000000
0.2516000000 3.0258000000 1.4628000000
0.2515000000 3.0683000000 1.4826000000
0.2513000000 4.0583000000 1.9207000000
0.2510000000 6.9001000000 0.8524000000
0.2507000000 6.0522000000 1.2265000000
0.2502000000 1.3263000000 0.7205000000
0.2499000000 1.2207000000 0.6771000000
0.2496000000 7.6859000000 0.5116000000
0.2491000000 3.0473000000 1.4744000000
0.2490000000 5.9961000000 1.2450000000
0.2485000000 3.6794000000 1.7436000000
0.2471000000 0.4272000000 0.3900000000
0.2462000000 0.4457000000 0.3938000000
0.2433000000 0.3572000000 0.3343000000
0.0121000000 6.5961000000 0.8078000000
0.0099000000 1.1044000000 0.4425000000
0.0096000000 4.4524000000 1.7373000000
0.0090000000 3.2467000000 1.3767000000
0.0086000000 4.0431000000 1.7143000000
0.0083000000 8.5181000000 0.0264000000
0.0081000000 6.7524000000 0.7354000000
0.0078000000 3.0649000000 1.2957000000
0.0076000000 7.3952000000 0.4574000000
0.0074000000 8.3770000000 0.1057000000
0.0070000000 2.1343000000 0.8877000000
0.0068000000 7.5361000000 0.3931000000
0.0063000000 7.3848000000 0.4573000000
0.0061000000 7.8303000000 0.2693000000
0.0059000000 7.6424000000 0.3450000000
0.0057000000 6.9424000000 0.6573000000
0.0055000000 3.3746000000 1.4346000000
0.0053000000 4.8990000000 1.5398000000
0.0051000000 6.4880000000 0.8598000000
0.0048000000 4.5528000000 1.6905000000
0.0046000000 8.3296000000 0.1196000000
0.0045000000 5.4190000000 1.3198000000
0.0043000000 0.1993000000 0.1183000000
0.0042000000 2.9175000000 1.2269000000
0.0038000000 7.0951000000 0.5803000000
0.0037000000 6.4391000000 0.8708000000
0.0035000000 7.5577000000 0.3848000000
0.0033000000 8.1660000000 0.1119000000
0.0030000000 3.3721000000 1.4264000000
0.0027000000 6.7074000000 0.7549000000
0.0026000000 1.4921000000 0.6069000000
0.0023000000 4.5625000000 1.6826000000
0.0022000000 0.5758000000 0.2016000000
0.0017000000 4.0712000000 1.7264000000
0.0016000000 2.5502000000 1.0670000000
0.0014000000 4.7004000000 1.6240000000
0.0012000000 1.5296000000 0.6183000000
0.0010000000 8.0924000000 0.1494000000
0.0008000000 1.5377000000 0.6200000000
0.0001000000 4.4939000000 1.7109000000
-0.0004000000 2.1571000000 0.8992000000
-0.0009000000 3.5867000000 1.5201000000
-0.0014000000 2.0389000000 0.8444000000
-0.0021000000 4.3954000000 1.7580000000
-0.0045000000 2.8643000000 1.2020000000
-0.2392000000 6.2277000000 0.7792000000
-0.2402000000 7.8876000000 0.1301000000
-0.2405000000 6.7842000000 0.5373000000
-0.2408000000 4.8816000000 1.3619000000
-0.2415000000 4.2421000000 1.6786000000
-0.2418000000 8.1133000000 0.0320000000
-0.2421000000 6.1447000000 0.8083000000
-0.2426000000 1.3177000000 0.3408000000
-0.2431000000 5.6197000000 1.0424000000
-0.2435000000 5.4991000000 1.0911000000
-0.2439000000 6.9234000000 0.4725000000
-0.2441000000 5.3043000000 1.1739000000
-0.2444000000 1.9692000000 0.6252000000
-0.2446000000 2.6415000000 0.9238000000
-0.2450000000 6.6783000000 0.5775000000
-0.2450000000 1.4103000000 0.3856000000
-0.2453000000 2.5702000000 0.8861000000
-0.2456000000 5.8918000000 0.9203000000
-0.2457000000 0.9936000000 0.2046000000
-0.2459000000 7.1159000000 0.3858000000
-0.2461000000 3.1719000000 1.1453000000
-0.2465000000 3.8345000000 1.4364000000
-0.2467000000 3.7719000000 1.4126000000
-0.2470000000 1.3849000000 0.3701000000
-0.2474000000 2.6224000000 0.9072000000
-0.2477000000 3.6582000000 1.3577000000
-0.2479000000 7.4406000000 0.2437000000
-0.2481000000 4.9976000000 1.3102000000
-0.2486000000 0.2176000000 0.0089000000
-0.2490000000 3.9637000000 1.4991000000
-0.2491000000 1.0027000000 0.2019000000
-0.2495000000 2.4027000000 0.8148000000
-0.2498000000 7.4155000000 0.2557000000
-0.2501000000 4.1536000000 1.5783000000
-0.2504000000 1.8777000000 0.5851000000
-0.2510000000 3.0301000000 1.0932000000
-0.2515000000 6.7288000000 0.5497000000
-0.2519000000 2.5336000000 0.8678000000
-0.2525000000 4.3309000000 1.5975000000
-0.2541000000 4.5094000000 1.5189000000
-0.4857000000 6.2710000000 0.5717000000
-0.4878000000 3.4886000000 1.1039000000
-0.4885000000 7.6093000000 0.0627000000
-0.4910000000 3.5986000000 1.1560000000
-0.4913000000 7.5731000000 0.0759000000
-0.4917000000 7.6526000000 0.0441000000
-0.4918000000 5.1095000000 1.0780000000
-0.4922000000 2.9592000000 0.8686000000
-0.4926000000 2.5408000000 0.6862000000
-0.4931000000 7.4369000000 0.1337000000
-0.4939000000 5.9346000000 0.7150000000
-0.4943000000 4.7277000000 1.2392000000
-0.4945000000 4.1829000000 1.4089000000
-0.4947000000 2.4967000000 0.6716000000
-0.4950000000 6.3144000000 0.5517000000
-0.4954000000 4.5735000000 1.3066000000
-0.4957000000 4.4997000000 1.3407000000
-0.4958000000 6.0468000000 0.6665000000
-0.4960000000 2.7737000000 0.7864000000
-0.4961000000 4.1747000000 1.4046000000
-0.4963000000 6.6021000000 0.4216000000
-0.4965000000 7.0356000000 0.2360000000
-0.4968000000 7.6792000000 0.0257000000
-0.4971000000 5.1527000000 1.0598000000
-0.4975000000 2.0409000000 0.4656000000
-0.4978000000 3.0064000000 0.8918000000
-0.4980000000 6.8163000000 0.3251000000
-0.4982000000 3.9205000000 1.2884000000
-0.4984000000 3.3437000000 1.0360000000
-0.4991000000 7.2443000000 0.1376000000
-0.4996000000 0.8675000000 0.0328000000
-0.5000000000 1.1109000000 0.0620000000
-0.5004000000 5.3170000000 0.9722000000
-0.5008000000 2.1250000000 0.5083000000
-0.5016000000 1.6458000000 0.2952000000
-0.5032000000 1.7167000000 0.3180000000
-0.7374000000 4.9422000000 0.9650000000
-0.7392000000 5.9868000000 0.5036000000
-0.7410000000 6.4594000000 0.2961000000
-0.7415000000 2.6019000000 0.5323000000
-0.7418000000 3.2196000000 0.7934000000
-0.7422000000 7.3680000000 0.0577000000
-0.7424000000 6.9536000000 0.0874000000
-0.7427000000 1.5591000000 0.0750000000
-0.7429000000 5.6001000000 0.6731000000
-0.7431000000 6.5468000000 0.2531000000
-0.7433000000 3.9123000000 1.0930000000
-0.7439000000 6.8307000000 0.1302000000
-0.7441000000 3.2789000000 0.8224000000
-0.7444000000 5.9724000000 0.5108000000
-0.7446000000 3.3108000000 0.8370000000
-0.7450000000 5.9138000000 0.5300000000
-0.7453000000 6.6768000000 0.2005000000
-0.7457000000 4.5352000000 1.1326000000
-0.7460000000 4.1154000000 1.1862000000
-0.7464000000 3.2268000000 0.7945000000
-0.7468000000 1.0999000000 0.0178000000
-0.7470000000 6.7939000000 0.1522000000
-0.7473000000 4.1905000000 1.2209000000
-0.7476000000 2.4146000000 0.4436000000
-0.7480000000 2.5796000000 0.5150000000
-0.7487000000 3.8708000000 1.0725000000
-0.7494000000 7.3705000000 0.0412000000
-0.7499000000 4.2711000000 1.3067000000
-0.7507000000 1.7231000000 0.1383000000
-0.7511000000 6.1747000000 0.4111000000
-0.7521000000 1.5726000000 0.0681000000
-0.7527000000 2.7632000000 0.5840000000
-0.7547000000 2.4762000000 0.4552000000
-0.9902000000 3.3101000000 0.6504000000
-0.9912000000 6.7330000000 0.0644000000
-0.9916000000 4.7649000000 0.8516000000
-0.9918000000 5.9188000000 0.3447000000
-0.9927000000 6.1786000000 0.2331000000
-0.9931000000 3.0747000000 0.5481000000
-0.9935000000 5.7918000000 0.3987000000
-0.9941000000 4.6612000000 0.8971000000
-0.9946000000 3.0356000000 0.5237000000
-0.9955000000 1.7743000000 0.0504000000
-0.9956000000 6.0358000000 0.2922000000
-0.9958000000 4.4953000000 0.9630000000
-0.9964000000 2.0187000000 0.0815000000
-0.9972000000 5.8484000000 0.3710000000
-0.9976000000 6.7668000000 0.0438000000
-0.9980000000 3.4814000000 0.7152000000
-0.9983000000 3.4818000000 0.7172000000
-0.9989000000 4.6262000000 0.9059000000
-0.9991000000 2.0961000000 0.1169000000
-0.9995000000 5.5649000000 0.4918000000
-1.0005000000 1.7174000000 0.0206000000
-1.0015000000 3.3332000000 0.6508000000
-1.0035000000 2.2398000000 0.1758000000
-1.2375000000 6.3563000000 0.0461000000
-1.2390000000 3.4436000000 0.5189000000
-1.2403000000 5.9367000000 0.1479000000
-1.2412000000 5.3123000000 0.4236000000
-1.2419000000 3.1887000000 0.4108000000
-1.2431000000 4.2075000000 0.8471000000
-1.2435000000 2.4015000000 0.0675000000
-1.2439000000 2.8985000000 0.2832000000
-1.2441000000 5.8360000000 0.1914000000
-1.2448000000 6.4869000000 0.0596000000
-1.2455000000 1.9863000000 0.0291000000
-1.2456000000 3.9655000000 0.7393000000
-1.2462000000 2.6981000000 0.1932000000
-1.2466000000 5.8921000000 0.1672000000
-1.2468000000 3.8609000000 0.6939000000
-1.2472000000 2.6861000000 0.1790000000
-1.2475000000 5.1504000000 0.4888000000
