6.5075000000 3.3683000000 0.3765000000
6.5068000000 4.2163000000 0.8747000000
6.5066000000 4.2078000000 0.8660000000
6.5063000000 5.6683000000 0.0967000000
6.5057000000 5.7046000000 0.0736000000
6.5055000000 3.9177000000 0.6963000000
6.5049000000 4.5508000000 0.7582000000
6.5046000000 3.7783000000 0.6148000000
6.5038000000 5.7671000000 0.1124000000
6.5035000000 4.6718000000 0.6849000000
6.5031000000 2.5925000000 0.0773000000
6.5023000000 6.0657000000 0.0120000000
6.5008000000 4.8312000000 0.5938000000
6.5000000000 4.0576000000 0.7900000000
6.4983000000 3.8034000000 0.6395000000
6.2612000000 5.7799000000 0.2723000000
6.2604000000 5.1982000000 0.6186000000
6.2592000000 3.4802000000 0.6939000000
6.2589000000 4.0036000000 0.9963000000
6.2583000000 6.0965000000 0.0992000000
6.2573000000 5.2239000000 0.6127000000
6.2569000000 5.7178000000 0.3218000000
6.2558000000 5.1935000000 0.6272000000
6.2554000000 2.5069000000 0.1269000000
6.2552000000 2.3787000000 0.1248000000
6.2550000000 4.2212000000 1.1328000000
6.2546000000 2.2897000000 0.0736000000
6.2544000000 4.5180000000 1.0258000000
6.2540000000 2.7766000000 0.2792000000
6.2537000000 3.3965000000 0.6519000000
6.2534000000 2.7713000000 0.2891000000
6.2528000000 3.6339000000 0.7916000000
6.2520000000 4.1043000000 1.0659000000
6.2518000000 3.5769000000 0.7566000000
6.2502000000 3.7027000000 0.8314000000
6.2480000000 2.5103000000 0.1302000000
6.2463000000 6.2186000000 0.1097000000
6.0112000000 5.5980000000 0.6426000000
6.0098000000 2.7997000000 0.5459000000
6.0090000000 5.0352000000 0.9763000000
6.0086000000 3.9995000000 1.2537000000
6.0080000000 2.9744000000 0.6521000000
6.0075000000 3.5281000000 0.9756000000
6.0068000000 5.8456000000 0.4962000000
6.0067000000 5.4413000000 0.7363000000
6.0064000000 5.7514000000 0.5592000000
6.0060000000 4.9241000000 1.0451000000
6.0059000000 6.4328000000 0.1543000000
6.0056000000 4.2779000000 1.4038000000
6.0054000000 5.9633000000 0.4326000000
6.0051000000 4.9786000000 1.0098000000
6.0048000000 6.0063000000 0.4042000000
6.0043000000 5.9684000000 0.4272000000
6.0039000000 6.0537000000 0.3750000000
6.0033000000 6.6191000000 0.1214000000
6.0029000000 6.3494000000 0.2030000000
6.0017000000 2.9783000000 0.6552000000
6.0013000000 2.5528000000 0.4078000000
6.0000000000 4.0024000000 1.2638000000
5.9992000000 3.9281000000 1.2190000000
5.9970000000 4.7390000000 1.1613000000
5.7625000000 6.3178000000 0.4654000000
5.7618000000 6.9279000000 0.1167000000
5.7609000000 5.1120000000 1.1819000000
5.7602000000 3.6096000000 1.2710000000
5.7595000000 2.9843000000 0.9084000000
5.7594000000 6.7991000000 0.1922000000
5.7588000000 6.0152000000 0.6525000000
5.7583000000 3.3732000000 1.1399000000
5.7580000000 5.3012000000 1.0737000000
5.7573000000 6.8967000000 0.1400000000
5.7568000000 4.2725000000 1.6508000000
5.7566000000 4.4114000000 1.5924000000
5.7563000000 1.7740000000 0.1963000000
5.7560000000 2.3790000000 0.5611000000
5.7559000000 4.1722000000 1.6115000000
5.7556000000 2.6433000000 0.7148000000
5.7553000000 2.4981000000 0.6268000000
5.7551000000 6.3638000000 0.4520000000
5.7550000000 1.8914000000 0.2760000000
5.7548000000 2.3390000000 0.5333000000
5.7543000000 5.0403000000 1.2270000000
5.7540000000 4.7396000000 1.4049000000
5.7538000000 5.3000000000 1.0784000000
5.7533000000 6.2851000000 0.4957000000
5.7530000000 2.4000000000 0.5756000000
5.7526000000 2.9550000000 0.8953000000
5.7524000000 6.2647000000 0.5131000000
5.7518000000 4.7303000000 1.4105000000
5.7514000000 2.0189000000 0.3542000000
5.7503000000 5.9943000000 0.6680000000
5.7485000000 3.3568000000 1.1431000000
5.5118000000 7.2401000000 0.1847000000
5.5114000000 0.8250000000 0.0413000000
5.5099000000 6.9512000000 0.3570000000
5.5096000000 1.6081000000 0.3577000000
5.5090000000 4.3851000000 1.8652000000
5.5084000000 6.2460000000 0.7714000000
5.5083000000 4.5926000000 1.7457000000
5.5078000000 2.5729000000 0.9249000000
5.5076000000 2.7801000000 1.0449000000
5.5073000000 4.7148000000 1.6735000000
5.5070000000 1.2827000000 0.1680000000
5.5065000000 6.4240000000 0.6708000000
5.5062000000 2.1639000000 0.6895000000
5.5059000000 4.4509000000 1.8223000000
5.5055000000 2.8332000000 1.0758000000
5.5051000000 2.5878000000 0.9360000000
5.5049000000 7.2889000000 0.1614000000
5.5046000000 5.6695000000 1.1132000000
5.5044000000 7.1647000000 0.2355000000
5.5041000000 4.2682000000 1.9051000000
5.5038000000 3.8391000000 1.6729000000
5.5033000000 4.0232000000 1.7819000000
5.5027000000 6.6700000000 0.5248000000
5.5024000000 0.8070000000 0.0429000000
5.5020000000 3.6088000000 1.5366000000
5.5008000000 5.4829000000 1.2234000000
5.4991000000 6.8788000000 0.4100000000
5.2629000000 4.5321000000 2.0281000000
5.2612000000 4.1943000000 2.1331000000
5.2603000000 6.9275000000 0.6243000000
5.2599000000 6.0884000000 1.1173000000
5.2595000000 4.1673000000 2.1100000000
5.2592000000 6.7139000000 0.7527000000
5.2590000000 5.7187000000 1.3392000000
5.2588000000 7.6576000000 0.1937000000
5.2587000000 1.3127000000 0.4313000000
5.2584000000 5.5627000000 1.4277000000
5.2578000000 3.3643000000 1.6431000000
5.2575000000 7.9687000000 0.0929000000
5.2571000000 3.9827000000 2.0086000000
5.2568000000 5.9856000000 1.1839000000
5.2566000000 7.0403000000 0.5596000000
5.2565000000 5.9618000000 1.1896000000
5.2563000000 2.1333000000 0.9200000000
5.2561000000 4.1641000000 2.1179000000
5.2558000000 5.5923000000 1.4117000000
5.2557000000 5.6606000000 1.3737000000
5.2555000000 2.3347000000 1.0433000000
5.2550000000 2.1604000000 0.9399000000
5.2548000000 4.5123000000 2.0479000000
5.2546000000 7.9083000000 0.1275000000
5.2543000000 1.5692000000 0.5916000000
5.2540000000 5.7249000000 1.3384000000
5.2535000000 3.4657000000 1.7054000000
5.2533000000 3.4238000000 1.6885000000
5.2530000000 1.8400000000 0.7505000000
5.2525000000 1.3686000000 0.4741000000
5.2522000000 0.8877000000 0.1916000000
5.2518000000 2.7157000000 1.2715000000
5.2514000000 6.1003000000 1.1144000000
5.2511000000 6.9802000000 0.6033000000
5.2508000000 7.8181000000 0.1035000000
5.2504000000 3.1579000000 1.5277000000
5.2494000000 0.7082000000 0.0947000000
5.2485000000 6.0166000000 1.1710000000
5.2478000000 1.0186000000 0.2746000000
5.2462000000 5.5526000000 1.4454000000
5.0133000000 6.7479000000 0.9753000000
5.0121000000 5.6732000000 1.6117000000
5.0114000000 8.5494000000 0.0769000000
5.0101000000 4.2044000000 2.3963000000
5.0086000000 6.6952000000 1.0203000000
5.0082000000 2.4671000000 1.3679000000
5.0079000000 5.4583000000 1.7443000000
5.0078000000 6.7192000000 1.0021000000
5.0076000000 7.4562000000 0.5659000000
5.0073000000 7.7189000000 0.4159000000
5.0071000000 7.0949000000 0.7871000000
5.0068000000 8.0553000000 0.2185000000
5.0065000000 2.9562000000 1.6591000000
5.0060000000 2.7225000000 1.5183000000
5.0059000000 4.0452000000 2.2983000000
5.0055000000 7.9336000000 0.2861000000
5.0053000000 7.0145000000 0.8267000000
5.0051000000 3.0223000000 1.6987000000
5.0049000000 1.7082000000 0.9286000000
5.0048000000 2.9655000000 1.6638000000
5.0046000000 5.2529000000 1.8673000000
5.0043000000 1.8726000000 1.0316000000
5.0040000000 6.4137000000 1.1809000000
5.0037000000 4.9694000000 2.0369000000
5.0035000000 0.6462000000 0.3039000000
5.0033000000 5.7537000000 1.5747000000
5.0030000000 2.4291000000 1.3530000000
5.0029000000 0.4091000000 0.1734000000
5.0023000000 3.5242000000 1.9960000000
5.0019000000 0.6835000000 0.3311000000
5.0016000000 1.9836000000 1.0925000000
5.0013000000 1.5572000000 0.8454000000
5.0010000000 0.0654000000 0.0378000000
5.0006000000 3.5627000000 2.0205000000
4.9999000000 5.9962000000 1.4315000000
4.9994000000 0.2404000000 0.0712000000
4.9983000000 6.9397000000 0.8839000000
4.9935000000 0.3445000000 0.1350000000
4.7650000000 3.9863000000 2.5105000000
4.7634000000 2.6345000000 1.7251000000
4.7618000000 3.6421000000 2.3139000000
4.7608000000 1.8500000000 1.2576000000
4.7600000000 1.8593000000 1.2708000000
4.7594000000 2.7922000000 1.8107000000
4.7590000000 6.2013000000 1.5568000000
4.7588000000 5.6547000000 1.8836000000
4.7583000000 8.5573000000 0.0647000000
4.7578000000 4.0342000000 2.5487000000
4.7575000000 4.8138000000 2.3760000000
4.7573000000 1.0220000000 0.7802000000
4.7569000000 8.0628000000 0.4678000000
4.7566000000 7.8171000000 0.6145000000
4.7563000000 5.9437000000 1.7186000000
4.7562000000 6.5627000000 1.3466000000
4.7560000000 2.4550000000 1.6209000000
4.7558000000 6.5549000000 1.3564000000
4.7554000000 2.7330000000 1.7811000000
4.7553000000 1.3963000000 0.9964000000
4.7550000000 1.9927000000 1.3464000000
4.7548000000 1.3152000000 0.9531000000
4.7547000000 2.5427000000 1.6776000000
4.7544000000 0.8369000000 0.6700000000
4.7541000000 8.0015000000 0.5089000000
4.7536000000 8.0997000000 0.4444000000
4.7533000000 6.1130000000 1.6173000000
4.7529000000 6.0688000000 1.6430000000
4.7527000000 0.1300000000 0.1493000000
4.7525000000 5.3977000000 2.0413000000
4.7523000000 7.7696000000 0.6467000000
4.7520000000 3.3049000000 2.1262000000
4.7517000000 1.8554000000 1.2779000000
4.7511000000 5.1088000000 2.2096000000
4.7507000000 3.6220000000 2.3101000000
4.7503000000 4.5771000000 2.5168000000
4.7499000000 1.0035000000 0.7727000000
4.7495000000 0.3956000000 0.3975000000
4.7490000000 1.2832000000 0.9377000000
4.7483000000 0.6363000000 0.5642000000
4.7477000000 1.5048000000 1.0790000000
4.7455000000 0.3486000000 0.3745000000
4.5139000000 7.1979000000 1.2236000000
4.5116000000 8.2468000000 0.3576000000
4.5105000000 7.9510000000 0.7033000000
4.5096000000 8.4278000000 0.1485000000
4.5090000000 2.7016000000 2.0201000000
4.5086000000 6.9834000000 1.3593000000
4.5083000000 2.6392000000 1.9794000000
4.5080000000 8.2852000000 0.3061000000
4.5077000000 6.6670000000 1.5430000000
4.5074000000 5.3848000000 2.2981000000
4.5070000000 3.7437000000 2.6305000000
4.5067000000 8.2247000000 0.3841000000
4.5065000000 8.5909000000 0.1023000000
4.5059000000 3.2258000000 2.3281000000
4.5056000000 0.2797000000 0.3236000000
4.5055000000 3.6689000000 2.5884000000
4.5053000000 7.5192000000 1.0474000000
4.5052000000 1.9158000000 1.5588000000
4.5048000000 1.7865000000 1.4822000000
4.5045000000 3.6300000000 2.5637000000
4.5043000000 8.1625000000 0.4549000000
4.5042000000 4.7305000000 2.6836000000
4.5040000000 4.5941000000 2.7644000000
4.5038000000 7.0353000000 1.3254000000
4.5035000000 2.8296000000 2.0981000000
4.5032000000 3.8945000000 2.7255000000
4.5029000000 3.7234000000 2.6239000000
4.5026000000 4.6510000000 2.7341000000
4.5025000000 5.7355000000 2.0976000000
4.5022000000 7.3208000000 1.1608000000
4.5020000000 0.8680000000 0.9441000000
4.5018000000 0.8510000000 0.9242000000
4.5015000000 5.2849000000 2.3591000000
4.5013000000 8.5343000000 0.0972000000
4.5009000000 3.7069000000 2.6187000000
4.5005000000 2.2076000000 1.7371000000
4.5000000000 0.7785000000 0.8782000000
4.4997000000 1.8956000000 1.5542000000
4.4995000000 4.7393000000 2.6835000000
4.4992000000 3.0555000000 2.2345000000
4.4983000000 0.5449000000 0.6342000000
4.4978000000 1.3421000000 1.2339000000
4.4950000000 5.2166000000 2.4057000000
4.2653000000 7.9987000000 0.6459000000
4.2622000000 7.5825000000 1.1415000000
4.2610000000 3.1983000000 2.5602000000
4.2600000000 3.8241000000 2.9194000000
4.2594000000 6.2614000000 2.0286000000
4.2593000000 7.7987000000 0.8809000000
4.2590000000 5.5270000000 2.4636000000
4.2586000000 6.8337000000 1.6967000000
4.2585000000 7.6291000000 1.0830000000
4.2583000000 5.5424000000 2.4602000000
4.2579000000 6.4125000000 1.9507000000
4.2576000000 8.1781000000 0.4414000000
4.2573000000 3.6023000000 2.8022000000
4.2572000000 3.9579000000 3.0061000000
4.2569000000 7.0979000000 1.5497000000
4.2567000000 6.7988000000 1.7219000000
4.2565000000 0.1617000000 0.1799000000
4.2562000000 4.9911000000 2.7819000000
4.2558000000 8.5155000000 0.1165000000
4.2554000000 5.7611000000 2.3332000000
4.2553000000 5.9531000000 2.2159000000
4.2551000000 6.3576000000 1.9807000000
4.2548000000 3.5607000000 2.7798000000
4.2547000000 8.3568000000 0.2260000000
4.2542000000 3.5791000000 2.7952000000
4.2538000000 5.7915000000 2.3160000000
4.2535000000 6.4909000000 1.9044000000
4.2533000000 2.8106000000 2.3414000000
4.2531000000 7.1720000000 1.5073000000
4.2529000000 6.8647000000 1.6849000000
4.2527000000 6.5990000000 1.8376000000
4.2524000000 6.3701000000 1.9808000000
4.2518000000 1.5116000000 1.5816000000
4.2516000000 3.7910000000 2.9165000000
4.2513000000 7.4884000000 1.2529000000
4.2511000000 4.7401000000 2.9386000000
4.2509000000 2.6528000000 2.2563000000
4.2505000000 1.4181000000 1.5250000000
4.2499000000 5.2291000000 2.6549000000
4.2488000000 0.3857000000 0.4466000000
4.2485000000 0.5573000000 0.6474000000
4.2483000000 4.3998000000 3.1396000000
4.0156000000 5.5864000000 2.6822000000
4.0116000000 6.3872000000 2.2132000000
4.0109000000 7.4466000000 1.2964000000
4.0098000000 3.0246000000 2.7133000000
4.0093000000 7.0635000000 1.7577000000
4.0091000000 8.2695000000 0.3289000000
4.0086000000 7.6930000000 1.0118000000
4.0081000000 4.2485000000 3.4162000000
4.0080000000 6.1591000000 2.3493000000
4.0078000000 5.0458000000 3.0053000000
4.0072000000 8.4772000000 0.0907000000
4.0069000000 2.7758000000 2.5736000000
4.0067000000 7.4809000000 1.2597000000
4.0063000000 2.6217000000 2.4816000000
4.0061000000 6.4761000000 2.1656000000
4.0059000000 7.3767000000 1.3804000000
4.0054000000 3.8965000000 3.2338000000
4.0053000000 3.4395000000 2.9607000000
4.0051000000 0.1252000000 0.1353000000
4.0047000000 2.0807000000 2.1630000000
4.0045000000 2.9320000000 2.6672000000
4.0043000000 8.1740000000 0.4440000000
4.0041000000 7.3915000000 1.3630000000
4.0038000000 1.3611000000 1.5908000000
4.0032000000 5.7613000000 2.5899000000
4.0030000000 1.0438000000 1.2192000000
4.0028000000 2.0174000000 2.1351000000
4.0025000000 5.0719000000 2.9942000000
4.0021000000 2.9950000000 2.7084000000
4.0015000000 2.8289000000 2.6089000000
4.0011000000 2.7757000000 2.5777000000
4.0003000000 0.8667000000 1.0133000000
4.0000000000 7.0760000000 1.7271000000
3.9998000000 4.6978000000 3.2138000000
3.9995000000 2.3427000000 2.3218000000
3.9988000000 0.2977000000 0.3364000000
3.9983000000 0.7330000000 0.8521000000
3.9967000000 0.0991000000 0.1080000000
3.7629000000 7.1454000000 1.6548000000
3.7617000000 3.7310000000 3.3800000000
3.7615000000 7.0610000000 1.7490000000
3.7598000000 7.7523000000 0.9400000000
3.7592000000 3.4623000000 3.2296000000
3.7587000000 2.5770000000 2.7095000000
3.7584000000 4.2747000000 3.6877000000
3.7583000000 0.3994000000 0.4588000000
3.7580000000 5.0496000000 3.2549000000
3.7576000000 6.5760000000 2.3028000000
3.7576000000 7.6365000000 1.0800000000
3.7573000000 1.2695000000 1.4837000000
3.7571000000 3.6634000000 3.3456000000
3.7570000000 8.5083000000 0.1212000000
3.7568000000 8.4338000000 0.1336000000
3.7567000000 4.1577000000 3.6363000000
3.7566000000 8.3247000000 0.2678000000
3.7561000000 6.4260000000 2.4343000000
3.7559000000 0.5390000000 0.6273000000
3.7557000000 4.1252000000 3.6235000000
3.7554000000 8.2954000000 0.3033000000
3.7550000000 1.5564000000 1.8225000000
3.7547000000 5.2098000000 3.1667000000
3.7545000000 5.3236000000 3.1011000000
3.7542000000 1.1014000000 1.2901000000
3.7540000000 6.8333000000 2.0122000000
3.7536000000 3.7358000000 3.3902000000
3.7534000000 0.2631000000 0.3040000000
3.7530000000 5.3138000000 3.1082000000
3.7528000000 0.9393000000 1.0985000000
3.7527000000 1.7123000000 2.0024000000
3.7519000000 2.4404000000 2.6371000000
3.7517000000 3.0700000000 3.0054000000
3.7515000000 1.3764000000 1.6059000000
3.7511000000 8.1162000000 0.5122000000
3.7507000000 3.7931000000 3.4301000000
3.7499000000 4.0258000000 3.5700000000
3.7496000000 5.7163000000 2.8695000000
3.7479000000 7.2259000000 1.5603000000
3.7455000000 0.2166000000 0.2457000000
3.5143000000 2.3462000000 2.7532000000
3.5113000000 6.4566000000 2.4630000000
3.5106000000 6.7509000000 2.1179000000
3.5099000000 3.5487000000 3.5356000000
3.5097000000 5.1878000000 3.4353000000
3.5092000000 7.0053000000 1.8094000000
3.5089000000 4.9936000000 3.5467000000
3.5085000000 5.9907000000 2.9350000000
3.5083000000 7.1010000000 1.7074000000
3.5078000000 2.0029000000 2.3446000000
3.5076000000 4.1064000000 3.8654000000
3.5074000000 5.4594000000 3.2711000000
3.5071000000 6.1293000000 2.8337000000
3.5068000000 7.2384000000 1.5477000000
3.5066000000 2.5109000000 2.9104000000
3.5063000000 2.4505000000 2.8508000000
3.5059000000 1.9380000000 2.2711000000
3.5058000000 4.8015000000 3.6542000000
3.5056000000 1.8363000000 2.1508000000
3.5055000000 2.5425000000 2.9297000000
3.5053000000 4.6142000000 3.7615000000
3.5048000000 7.3642000000 1.3950000000
3.5045000000 3.6713000000 3.6055000000
3.5041000000 4.7234000000 3.7025000000
3.5038000000 6.7264000000 2.1429000000
3.5035000000 1.5602000000 1.8253000000
3.5033000000 1.3810000000 1.6134000000
3.5030000000 6.1655000000 2.7922000000
3.5028000000 2.7552000000 3.0721000000
3.5025000000 0.6982000000 0.8097000000
3.5024000000 5.1603000000 3.4506000000
3.5020000000 5.0883000000 3.4926000000
3.5017000000 4.6550000000 3.7510000000
3.5015000000 6.5486000000 2.3502000000
3.5012000000 4.9524000000 3.5743000000
3.5005000000 2.7500000000 3.0723000000
3.5001000000 0.2872000000 0.3278000000
3.4994000000 6.5477000000 2.3531000000
3.4988000000 0.6889000000 0.7988000000
3.4973000000 2.5692000000 2.9493000000
3.4961000000 1.7402000000 2.0352000000
3.4950000000 0.2424000000 0.2786000000
3.2625000000 0.4001000000 0.4617000000
3.2613000000 6.5327000000 2.3745000000
3.2609000000 5.7822000000 3.2528000000
3.2603000000 5.7635000000 3.2735000000
3.2596000000 7.3094000000 1.4586000000
3.2591000000 4.5680000000 4.0530000000
3.2586000000 7.0684000000 1.7430000000
3.2583000000 8.5840000000 0.0417000000
3.2579000000 6.2565000000 2.6926000000
3.2578000000 4.4492000000 4.1180000000
3.2575000000 7.8542000000 0.8148000000
3.2571000000 3.8465000000 3.9656000000
3.2567000000 6.7727000000 2.0936000000
3.2559000000 5.4003000000 3.5580000000
3.2555000000 4.0134000000 4.0651000000
3.2552000000 8.5222000000 0.1071000000
3.2550000000 0.4677000000 0.5427000000
3.2548000000 1.2650000000 1.4795000000
3.2546000000 1.1222000000 1.3074000000
3.2544000000 4.8809000000 3.8698000000
3.2542000000 0.1397000000 0.1554000000
3.2540000000 0.8378000000 0.9787000000
3.2538000000 0.5699000000 0.6621000000
3.2537000000 4.0269000000 4.0736000000
3.2535000000 2.4841000000 2.9125000000
3.2532000000 4.3755000000 4.1638000000
3.2528000000 5.2346000000 3.6633000000
3.2525000000 2.7950000000 3.2720000000
3.2522000000 3.4703000000 3.7463000000
3.2521000000 4.8212000000 3.9009000000
3.2517000000 7.4289000000 1.3185000000
3.2512000000 7.8304000000 0.8431000000
3.2505000000 3.1626000000 3.5657000000
3.2502000000 6.0662000000 2.9271000000
3.2491000000 0.7411000000 0.8610000000
3.2481000000 6.3286000000 2.6131000000
3.2479000000 0.4542000000 0.5261000000
3.2451000000 2.3227000000 2.7246000000
3.0152000000 8.3776000000 0.2030000000
3.0128000000 6.3258000000 2.6185000000
3.0113000000 7.7487000000 0.9428000000
3.0108000000 0.6248000000 0.7200000000
3.0100000000 7.2301000000 1.5540000000
3.0097000000 0.6259000000 0.7259000000
3.0091000000 7.3618000000 1.4014000000
3.0087000000 4.8521000000 4.1353000000
3.0085000000 7.5262000000 1.2046000000
3.0082000000 1.6140000000 1.8889000000
3.0079000000 7.1923000000 1.5974000000
3.0075000000 5.0524000000 4.0152000000
3.0072000000 1.4395000000 1.6830000000
3.0070000000 8.4841000000 0.0788000000
3.0065000000 2.9785000000 3.4915000000
3.0063000000 4.8050000000 4.1640000000
3.0061000000 1.9636000000 2.3017000000
3.0061000000 3.5009000000 4.0146000000
3.0058000000 4.0756000000 4.3553000000
3.0056000000 0.9711000000 1.1298000000
3.0052000000 0.8971000000 1.0424000000
3.0047000000 4.3975000000 4.4096000000
3.0045000000 1.2181000000 1.4198000000
3.0043000000 8.2755000000 0.3293000000
3.0040000000 3.1941000000 3.7442000000
3.0038000000 4.7334000000 4.2081000000
3.0035000000 7.2765000000 1.5035000000
3.0030000000 0.7657000000 0.8898000000
3.0026000000 3.5087000000 4.0273000000
3.0024000000 7.4971000000 1.2388000000
3.0021000000 3.7616000000 4.1759000000
3.0020000000 0.1193000000 0.1307000000
3.0018000000 2.1618000000 2.5319000000
3.0015000000 5.3035000000 3.8057000000
3.0012000000 7.0047000000 1.8193000000
3.0004000000 2.4343000000 2.8474000000
2.9999000000 5.7799000000 3.2555000000
2.9990000000 2.4510000000 2.8769000000
2.9975000000 5.1640000000 3.9440000000
2.9958000000 1.3836000000 1.6211000000
2.7635000000 8.1411000000 0.4842000000
2.7619000000 5.0118000000 4.1604000000
2.7613000000 8.3316000000 0.2560000000
2.7610000000 8.1376000000 0.4884000000
2.7604000000 3.5259000000 4.1331000000
2.7600000000 2.8428000000 3.3320000000
2.7595000000 6.1469000000 2.8255000000
2.7589000000 7.5687000000 1.1575000000
2.7585000000 8.0947000000 0.5370000000
2.7582000000 7.8108000000 0.8691000000
2.7580000000 7.0952000000 1.7129000000
2.7578000000 8.2495000000 0.3525000000
2.7576000000 3.4390000000 4.0342000000
2.7573000000 6.4802000000 2.4234000000
2.7571000000 3.5203000000 4.1292000000
2.7567000000 2.7548000000 3.2306000000
2.7565000000 1.7454000000 2.0459000000
2.7563000000 8.0824000000 0.5487000000
2.7561000000 1.6806000000 1.9684000000
2.7560000000 0.8450000000 0.9788000000
2.7558000000 1.8933000000 2.2154000000
2.7555000000 7.9663000000 0.6842000000
2.7553000000 7.0476000000 1.7695000000
2.7550000000 0.7519000000 0.8742000000
2.7548000000 0.0429000000 0.1188000000
2.7546000000 1.6110000000 1.8885000000
2.7544000000 4.1861000000 4.6721000000
2.7542000000 1.2102000000 1.4109000000
2.7538000000 3.3857000000 3.9690000000
2.7535000000 4.4114000000 4.6512000000
2.7531000000 3.6061000000 4.2266000000
2.7527000000 1.4089000000 1.6495000000
2.7525000000 2.3685000000 2.7724000000
2.7520000000 4.3354000000 4.6949000000
2.7518000000 1.1477000000 1.3440000000
2.7517000000 0.0474000000 0.1211000000
2.7513000000 3.2796000000 3.8474000000
2.7507000000 5.1623000000 3.9825000000
2.7503000000 3.8727000000 4.4770000000
2.7500000000 6.3234000000 2.6138000000
2.7496000000 1.6298000000 1.9048000000
2.7490000000 1.8385000000 2.1470000000
2.7477000000 0.2603000000 0.2932000000
2.7469000000 7.9804000000 0.6710000000
2.7451000000 2.4554000000 2.8749000000
2.5128000000 7.0881000000 1.7184000000
2.5118000000 3.1939000000 3.7422000000
2.5109000000 6.9641000000 1.8629000000
2.5100000000 7.4745000000 1.2603000000
2.5097000000 1.4921000000 1.7422000000
2.5093000000 8.4714000000 0.0965000000
2.5087000000 8.2733000000 0.3274000000
2.5084000000 8.2096000000 0.4054000000
2.5080000000 6.9064000000 1.9330000000
2.5078000000 4.3656000000 4.9260000000
2.5075000000 7.0051000000 1.8158000000
2.5072000000 2.0720000000 2.4321000000
2.5070000000 4.6911000000 4.5359000000
2.5069000000 6.8210000000 2.0334000000
2.5065000000 7.3710000000 1.3879000000
2.5063000000 6.8551000000 1.9939000000
2.5060000000 3.8293000000 4.4931000000
2.5058000000 6.9368000000 1.8968000000
2.5055000000 3.1123000000 3.6526000000
2.5052000000 2.1134000000 2.4780000000
2.5046000000 7.1893000000 1.6004000000
2.5044000000 5.5355000000 3.5479000000
2.5042000000 1.6382000000 1.9137000000
2.5040000000 2.1898000000 2.5676000000
2.5038000000 6.1490000000 2.8193000000
2.5037000000 2.8009000000 3.2829000000
2.5035000000 3.5746000000 4.1935000000
2.5033000000 1.9071000000 2.2330000000
2.5029000000 4.4279000000 4.8332000000
2.5026000000 7.5946000000 1.1298000000
2.5024000000 6.6077000000 2.2830000000
2.5018000000 7.0626000000 1.7523000000
2.5017000000 2.9945000000 3.5097000000
2.5015000000 0.4262000000 0.4852000000
2.5013000000 0.7674000000 0.8927000000
2.5005000000 2.0382000000 2.3870000000
2.5003000000 3.0662000000 3.5968000000
2.5000000000 3.1612000000 3.7016000000
2.4993000000 1.8159000000 2.1220000000
2.4990000000 0.0915000000 0.1000000000
2.4985000000 0.2440000000 0.2748000000
2.4966000000 5.2246000000 3.9117000000
2.2615000000 3.1169000000 3.6537000000
2.2613000000 8.4358000000 0.1377000000
2.2608000000 8.3059000000 0.2868000000
2.2603000000 7.0887000000 1.7180000000
2.2590000000 8.3194000000 0.2705000000
2.2583000000 7.1897000000 1.5926000000
2.2581000000 1.8037000000 2.1128000000
2.2578000000 7.6969000000 1.0008000000
2.2573000000 5.3662000000 3.7441000000
2.2571000000 6.7908000000 2.0690000000
2.2568000000 0.6290000000 0.7319000000
2.2564000000 4.9763000000 4.2054000000
2.2561000000 3.1534000000 3.6979000000
2.2557000000 2.0605000000 2.4089000000
2.2555000000 6.9608000000 1.8715000000
2.2552000000 0.8279000000 0.9633000000
2.2550000000 5.3664000000 3.7463000000
2.2548000000 7.7023000000 0.9963000000
2.2546000000 3.9284000000 4.5756000000
2.2543000000 6.8731000000 1.9721000000
2.2542000000 3.2345000000 3.7957000000
2.2538000000 1.0068000000 1.1732000000
2.2537000000 5.9876000000 3.0139000000
2.2535000000 0.4107000000 0.4717000000
2.2534000000 3.5294000000 4.1401000000
2.2533000000 4.7273000000 4.4766000000
2.2531000000 1.1610000000 1.3513000000
2.2529000000 2.6032000000 3.0492000000
2.2526000000 0.0535000000 0.1306000000
2.2525000000 6.2055000000 2.7596000000
2.2523000000 6.4311000000 2.4915000000
2.2519000000 0.0118000000 0.0837000000
2.2517000000 3.4089000000 4.0057000000
2.2515000000 1.9614000000 2.2977000000
2.2513000000 6.4634000000 2.4529000000
2.2510000000 5.5743000000 3.4934000000
2.2504000000 1.5059000000 1.7602000000
2.2498000000 2.2399000000 2.6262000000
2.2496000000 1.7262000000 2.0249000000
2.2491000000 1.4511000000 1.6974000000
2.2479000000 1.8334000000 2.1402000000
2.2468000000 1.7852000000 2.0853000000
2.2452000000 2.8946000000 3.3907000000
2.0138000000 8.0901000000 0.5413000000
2.0119000000 2.3163000000 2.7127000000
2.0109000000 8.3900000000 0.1861000000
2.0105000000 7.6007000000 1.1166000000
2.0096000000 4.2747000000 4.5292000000
2.0090000000 6.5595000000 2.3413000000
2.0084000000 2.3899000000 2.7958000000
2.0082000000 7.7131000000 0.9904000000
2.0080000000 4.4539000000 4.4482000000
2.0076000000 2.1955000000 2.5691000000
2.0073000000 8.5308000000 0.0988000000
2.0070000000 0.8771000000 1.0264000000
2.0068000000 3.1017000000 3.6408000000
2.0063000000 2.9970000000 3.5162000000
2.0059000000 5.8126000000 3.2265000000
2.0057000000 5.9289000000 3.0766000000
2.0053000000 8.3038000000 0.2957000000
2.0050000000 3.4345000000 4.0099000000
2.0048000000 4.8967000000 4.1888000000
2.0046000000 1.7811000000 2.0804000000
2.0045000000 0.5503000000 0.6379000000
2.0044000000 0.1309000000 0.1468000000
2.0043000000 4.4390000000 4.4562000000
2.0040000000 6.9930000000 1.8361000000
2.0038000000 7.5910000000 1.1305000000
2.0035000000 1.2256000000 1.4277000000
2.0033000000 7.4205000000 1.3282000000
2.0030000000 7.0633000000 1.7512000000
2.0028000000 5.5693000000 3.5086000000
2.0026000000 1.3468000000 1.5731000000
2.0023000000 1.1406000000 1.3323000000
2.0020000000 4.1543000000 4.4663000000
2.0018000000 6.5436000000 2.3602000000
2.0015000000 8.2679000000 0.3359000000
2.0010000000 6.9437000000 1.8860000000
2.0008000000 3.5150000000 4.0745000000
2.0004000000 0.1591000000 0.1832000000
2.0002000000 2.7690000000 3.2490000000
1.9997000000 4.4160000000 4.4642000000
1.9993000000 4.1708000000 4.4738000000
1.9988000000 0.2525000000 0.2900000000
1.9985000000 6.1694000000 2.8032000000
1.9978000000 1.4873000000 1.7407000000
1.9966000000 2.7159000000 3.1834000000
1.7637000000 5.8976000000 3.1184000000
1.7604000000 7.9488000000 0.7101000000
1.7598000000 2.0836000000 2.4425000000
1.7595000000 3.7628000000 3.9857000000
1.7592000000 5.6097000000 3.4424000000
1.7587000000 3.5376000000 3.8645000000
1.7583000000 7.7503000000 0.9422000000
1.7580000000 5.4832000000 3.5717000000
1.7575000000 6.7626000000 2.1097000000
1.7574000000 0.3949000000 0.4556000000
1.7572000000 5.1588000000 3.7744000000
1.7569000000 7.8880000000 0.7816000000
1.7567000000 0.3469000000 0.3957000000
1.7565000000 7.5055000000 1.2279000000
1.7563000000 7.4601000000 1.2855000000
1.7561000000 0.8364000000 0.9766000000
1.7560000000 3.9646000000 4.1108000000
1.7556000000 8.3888000000 0.1909000000
1.7555000000 7.9346000000 0.7265000000
1.7553000000 6.5063000000 2.3991000000
1.7549000000 3.8108000000 4.0158000000
1.7544000000 6.6054000000 2.2844000000
1.7541000000 2.8695000000 3.3600000000
1.7538000000 3.3625000000 3.7575000000
1.7535000000 7.9042000000 0.7621000000
1.7532000000 7.2051000000 1.5791000000
1.7528000000 3.0578000000 3.5590000000
1.7525000000 2.6302000000 3.0880000000
1.7524000000 5.0492000000 3.8414000000
1.7522000000 2.3622000000 2.7618000000
1.7520000000 6.1902000000 2.7731000000
1.7518000000 2.4294000000 2.8506000000
1.7515000000 6.5971000000 2.2990000000
1.7513000000 6.4262000000 2.4927000000
1.7507000000 4.4921000000 4.1652000000
1.7504000000 2.0345000000 2.3798000000
1.7500000000 5.4539000000 3.5781000000
1.7494000000 2.4315000000 2.8525000000
1.7489000000 2.2122000000 2.5924000000
1.7485000000 2.5950000000 3.0438000000
1.7482000000 2.4717000000 2.8926000000
1.7478000000 0.3363000000 0.3851000000
1.7473000000 1.1782000000 1.3700000000
1.7464000000 3.3699000000 3.7483000000
1.7457000000 0.5921000000 0.6857000000
1.5128000000 5.5200000000 3.3171000000
1.5110000000 7.4106000000 1.3389000000
1.5103000000 7.6234000000 1.0912000000
1.5097000000 5.6133000000 3.2587000000
1.5093000000 7.7671000000 0.9238000000
1.5091000000 7.6714000000 1.0309000000
1.5085000000 5.9395000000 3.0521000000
1.5079000000 8.0721000000 0.5618000000
1.5075000000 1.3387000000 1.5696000000
1.5074000000 1.2036000000 1.4076000000
1.5072000000 5.0902000000 3.5698000000
1.5067000000 4.6375000000 3.8216000000
1.5066000000 5.9549000000 3.0295000000
1.5065000000 4.8595000000 3.6978000000
1.5063000000 0.2389000000 0.2694000000
1.5058000000 7.1224000000 1.6799000000
1.5056000000 2.9756000000 3.2737000000
1.5054000000 5.1354000000 3.5387000000
1.5053000000 6.3348000000 2.6033000000
1.5050000000 7.7592000000 0.9280000000
1.5049000000 2.5449000000 2.9651000000
1.5048000000 0.3009000000 0.3483000000
1.5044000000 8.1355000000 0.4888000000
1.5043000000 3.8188000000 3.7655000000
1.5040000000 1.6138000000 1.8918000000
1.5036000000 3.8860000000 3.8072000000
1.5033000000 4.0092000000 3.8759000000
1.5030000000 4.9098000000 3.6625000000
1.5026000000 4.6048000000 3.8489000000
1.5023000000 4.3850000000 3.9711000000
1.5019000000 1.2131000000 1.4165000000
1.5015000000 3.8041000000 3.7525000000
1.5010000000 4.4779000000 3.9168000000
1.5002000000 2.6281000000 3.0423000000
1.4998000000 6.0952000000 2.8877000000
1.4988000000 2.7699000000 3.1435000000
1.4983000000 2.6872000000 3.0768000000
1.4975000000 0.1068000000 0.1173000000
1.4969000000 3.6604000000 3.6661000000
1.4959000000 0.0091000000 0.0733000000
1.2619000000 3.2846000000 3.2079000000
1.2610000000 7.4964000000 1.2373000000
1.2605000000 6.1916000000 2.6660000000
1.2601000000 1.0879000000 1.2722000000
1.2595000000 5.5095000000 3.0612000000
1.2587000000 4.4836000000 3.6629000000
1.2585000000 8.1995000000 0.4133000000
1.2583000000 7.5726000000 1.1515000000
1.2578000000 4.9613000000 3.3833000000
1.2575000000 0.8261000000 0.9623000000
1.2573000000 3.3655000000 3.2448000000
1.2572000000 7.6658000000 1.0477000000
1.2569000000 0.2723000000 0.3109000000
1.2567000000 4.8886000000 3.4309000000
1.2562000000 8.2531000000 0.3523000000
1.2561000000 4.6956000000 3.5357000000
1.2559000000 2.1317000000 2.4725000000
1.2558000000 0.2435000000 0.2755000000
1.2555000000 5.7063000000 2.9459000000
1.2551000000 7.3931000000 1.3608000000
1.2550000000 4.3278000000 3.7404000000
1.2548000000 5.2544000000 3.2115000000
1.2547000000 2.8716000000 2.9558000000
1.2545000000 8.4741000000 0.0931000000
1.2543000000 1.6088000000 1.8804000000
1.2539000000 6.4288000000 2.4743000000
1.2536000000 0.6126000000 0.7086000000
1.2535000000 4.9955000000 3.3579000000
1.2533000000 0.5143000000 0.5946000000
1.2530000000 7.6232000000 1.0908000000
1.2528000000 1.9516000000 2.2822000000
1.2527000000 5.3980000000 3.1190000000
1.2521000000 3.0809000000 3.0790000000
1.2519000000 2.2299000000 2.5581000000
1.2516000000 1.5491000000 1.8100000000
1.2513000000 4.0041000000 3.6170000000
1.2512000000 3.6295000000 3.3994000000
1.2507000000 0.5363000000 0.6193000000
1.2505000000 5.2367000000 3.2197000000
1.2502000000 1.6815000000 1.9622000000
1.2497000000 3.1886000000 3.1349000000
1.2496000000 1.6824000000 1.9615000000
1.2494000000 3.9904000000 3.6011000000
1.2490000000 5.4698000000 3.0780000000
1.2485000000 1.8495000000 2.1661000000
1.2470000000 1.5230000000 1.7788000000
1.0113000000 6.5820000000 2.1823000000
1.0104000000 5.0142000000 3.1026000000
1.0101000000 6.1358000000 2.4437000000
1.0095000000 3.0937000000 2.8358000000
1.0093000000 6.1641000000 2.4218000000
1.0086000000 6.4213000000 2.2736000000
1.0082000000 5.7802000000 2.6478000000
1.0077000000 3.9883000000 3.3644000000
1.0073000000 7.6757000000 1.0298000000
1.0071000000 6.2679000000 2.3606000000
1.0068000000 7.1302000000 1.6736000000
1.0065000000 0.7242000000 0.8426000000
1.0062000000 6.4733000000 2.2384000000
1.0060000000 4.0537000000 3.3968000000
1.0058000000 4.7480000000 3.2552000000
1.0054000000 7.8355000000 0.8423000000
1.0052000000 5.1538000000 3.0175000000
1.0048000000 3.5001000000 3.0764000000
1.0045000000 4.0667000000 3.4085000000
1.0043000000 1.9077000000 2.1341000000
1.0041000000 6.8495000000 1.9832000000
1.0038000000 5.8672000000 2.5982000000
1.0035000000 2.6578000000 2.5762000000
1.0033000000 3.5699000000 3.1075000000
1.0029000000 3.2043000000 2.8929000000
1.0025000000 6.9087000000 1.9132000000
1.0023000000 6.4699000000 2.2366000000
1.0021000000 5.3332000000 2.9087000000
1.0018000000 0.3707000000 0.4310000000
1.0014000000 2.4359000000 2.4416000000
1.0008000000 3.1871000000 2.8843000000
1.0003000000 1.3276000000 1.5478000000
1.0000000000 3.2559000000 2.9208000000
0.9997000000 5.9835000000 2.5199000000
0.9991000000 0.9553000000 1.1172000000
0.9986000000 0.8497000000 0.9924000000
0.9970000000 7.7652000000 0.9218000000
0.9956000000 0.1035000000 0.1123000000
0.7639000000 4.5384000000 3.1336000000
0.7624000000 7.2784000000 1.4778000000
0.7618000000 6.3188000000 2.0859000000
0.7615000000 4.9190000000 2.9088000000
0.7609000000 7.6068000000 1.1133000000
0.7605000000 7.0913000000 1.6274000000
0.7593000000 2.7833000000 2.3993000000
0.7591000000 7.6990000000 0.9968000000
0.7587000000 0.2428000000 0.2794000000
0.7584000000 5.8319000000 2.3651000000
0.7579000000 8.4671000000 0.1005000000
0.7576000000 8.4357000000 0.1371000000
0.7573000000 8.0553000000 0.5862000000
0.7568000000 5.9133000000 2.3185000000
0.7565000000 7.2256000000 1.5286000000
0.7560000000 4.0407000000 3.1428000000
0.7558000000 2.0764000000 1.9781000000
0.7555000000 8.3088000000 0.2852000000
0.7553000000 8.5654000000 0.0598000000
0.7551000000 5.4052000000 2.6116000000
0.7550000000 1.6539000000 1.7277000000
0.7547000000 7.9184000000 0.7407000000
0.7545000000 6.2258000000 2.1252000000
0.7543000000 4.1775000000 3.2136000000
0.7540000000 3.5557000000 2.8446000000
0.7538000000 4.4990000000 3.1461000000
0.7537000000 0.0628000000 0.0601000000
0.7534000000 5.6039000000 2.4930000000
0.7532000000 3.4505000000 2.7795000000
0.7530000000 3.8119000000 2.9957000000
0.7528000000 6.6795000000 1.8682000000
0.7525000000 0.4377000000 0.5055000000
0.7523000000 4.2054000000 3.2286000000
0.7522000000 6.2620000000 2.1011000000
0.7520000000 4.5941000000 3.0860000000
0.7518000000 4.5724000000 3.0981000000
0.7515000000 4.2321000000 3.2291000000
0.7514000000 0.6326000000 0.7353000000
0.7511000000 2.4140000000 2.1785000000
0.7510000000 5.2067000000 2.7156000000
0.7505000000 6.5443000000 1.9436000000
0.7498000000 0.5670000000 0.6594000000
0.7495000000 1.4304000000 1.5991000000
0.7490000000 1.5866000000 1.6913000000
0.7487000000 1.5747000000 1.6805000000
0.7467000000 0.7688000000 0.9000000000
0.7445000000 1.4482000000 1.5990000000
0.5138000000 7.7340000000 0.9472000000
0.5109000000 8.0913000000 0.5370000000
0.5105000000 8.0729000000 0.5580000000
0.5103000000 7.3075000000 1.2406000000
0.5092000000 5.7493000000 2.1602000000
0.5088000000 5.2560000000 2.4504000000
0.5083000000 1.6301000000 1.4680000000
0.5081000000 5.4807000000 2.3189000000
0.5080000000 3.2969000000 2.4488000000
0.5078000000 6.5979000000 1.6586000000
0.5075000000 6.7300000000 1.5819000000
0.5073000000 3.0331000000 2.2899000000
0.5071000000 6.8367000000 1.5187000000
0.5070000000 3.6651000000 2.6619000000
0.5066000000 7.0408000000 1.4033000000
0.5064000000 6.6075000000 1.6526000000
0.5060000000 1.9137000000 1.6270000000
0.5058000000 6.2702000000 1.8431000000
0.5056000000 7.1803000000 1.3121000000
0.5055000000 3.2227000000 2.3984000000
0.5052000000 6.9514000000 1.4525000000
0.5049000000 6.6211000000 1.6375000000
0.5047000000 5.0037000000 2.5919000000
0.5043000000 4.4022000000 2.9460000000
0.5042000000 2.1988000000 1.8003000000
0.5040000000 4.7890000000 2.7175000000
0.5038000000 0.7514000000 0.8790000000
0.5035000000 7.3232000000 1.2315000000
0.5033000000 2.2598000000 1.8296000000
0.5032000000 5.6401000000 2.2142000000
0.5031000000 3.5769000000 2.6032000000
0.5028000000 1.9797000000 1.6603000000
0.5027000000 2.7327000000 2.1080000000
0.5024000000 0.0491000000 0.1251000000
0.5021000000 7.3311000000 1.2296000000
0.5020000000 2.3266000000 1.8704000000
0.5018000000 0.1578000000 0.1793000000
0.5015000000 3.4094000000 2.5013000000
0.5010000000 5.8591000000 2.0899000000
0.5008000000 0.2624000000 0.3034000000
0.5007000000 0.8872000000 1.0039000000
0.5003000000 1.4327000000 1.3433000000
0.5000000000 1.0003000000 1.0909000000
0.4998000000 1.0133000000 1.0940000000
0.4995000000 0.6166000000 0.7137000000
0.4985000000 0.0619000000 0.0660000000
0.4970000000 4.2197000000 2.9722000000
0.4925000000 2.7357000000 2.1053000000
0.2649000000 7.6067000000 0.8166000000
0.2623000000 5.3146000000 2.1631000000
0.2605000000 2.3188000000 1.6160000000
0.2594000000 5.1244000000 2.2693000000
0.2589000000 4.5022000000 2.6375000000
0.2584000000 4.6982000000 2.5239000000
0.2580000000 4.5998000000 2.5791000000
0.2575000000 8.3765000000 0.2066000000
0.2572000000 3.7217000000 2.4469000000
0.2570000000 6.9628000000 1.1875000000
0.2566000000 4.5112000000 2.6339000000
0.2564000000 8.0608000000 0.5276000000
0.2558000000 2.7597000000 1.8714000000
0.2555000000 0.9238000000 0.7918000000
0.2551000000 1.9300000000 1.3831000000
0.2550000000 0.2391000000 0.2696000000
0.2548000000 5.8127000000 1.8654000000
0.2547000000 6.1769000000 1.6486000000
0.2544000000 4.7068000000 2.5088000000
0.2543000000 5.4134000000 2.0950000000
0.2540000000 0.5032000000 0.5248000000
0.2538000000 5.0172000000 2.3367000000
0.2535000000 2.5903000000 1.7692000000
0.2533000000 3.9607000000 2.5749000000
0.2530000000 7.4533000000 0.8988000000
0.2528000000 0.4218000000 0.4615000000
0.2525000000 2.2888000000 1.5917000000
0.2522000000 7.3442000000 0.9587000000
0.2519000000 6.4230000000 1.5025000000
0.2512000000 5.0574000000 2.3038000000
0.2510000000 5.2701000000 2.1777000000
0.2505000000 4.2651000000 2.7283000000
0.2504000000 8.0721000000 0.5138000000
0.2500000000 0.5940000000 0.5967000000
0.2494000000 1.3148000000 1.0248000000
0.2483000000 7.7826000000 0.6972000000
0.2470000000 0.7656000000 0.6951000000
0.2463000000 1.0473000000 0.8610000000
0.0138000000 2.8304000000 1.6665000000
0.0108000000 6.1383000000 1.4261000000
0.0100000000 7.3708000000 0.7031000000
0.0094000000 1.8631000000 1.0954000000
0.0088000000 5.0889000000 2.0417000000
0.0078000000 7.6151000000 0.5521000000
0.0075000000 3.9015000000 2.2903000000
0.0072000000 3.6391000000 2.1286000000
0.0066000000 7.1331000000 0.8339000000
0.0063000000 8.5273000000 0.0729000000
0.0059000000 4.8046000000 2.1994000000
0.0055000000 6.4049000000 1.2605000000
0.0053000000 5.3275000000 1.8964000000
0.0051000000 6.1397000000 1.4173000000
0.0049000000 1.7285000000 1.0175000000
0.0047000000 6.4715000000 1.2250000000
0.0045000000 4.0549000000 2.3776000000
0.0044000000 7.1265000000 0.8394000000
0.0039000000 1.1043000000 0.6519000000
0.0037000000 5.7239000000 1.6624000000
0.0034000000 2.6176000000 1.5316000000
0.0032000000 7.2541000000 0.7598000000
0.0030000000 4.8508000000 2.1742000000
0.0027000000 5.8298000000 1.5967000000
0.0025000000 1.3640000000 0.7947000000
0.0023000000 5.7950000000 1.6190000000
0.0019000000 6.9061000000 0.9613000000
0.0017000000 5.7393000000 1.6486000000
0.0012000000 1.6552000000 0.9621000000
0.0009000000 8.0641000000 0.2780000000
0.0005000000 1.2188000000 0.7089000000
0.0003000000 4.1788000000 2.4469000000
-0.0001000000 1.0278000000 0.5975000000
-0.0003000000 0.3624000000 0.2035000000
-0.0006000000 0.5930000000 0.3349000000
-0.0010000000 4.8670000000 2.1587000000
-0.0017000000 0.0059000000 0.0532000000
-0.0030000000 0.4693000000 0.2692000000
-0.2361000000 7.7902000000 0.2055000000
-0.2385000000 6.6329000000 0.8775000000
-0.2399000000 2.6985000000 1.3315000000
-0.2405000000 7.2486000000 0.5163000000
-0.2415000000 5.5513000000 1.5083000000
-0.2417000000 5.3142000000 1.6473000000
-0.2421000000 6.7744000000 0.7933000000
-0.2424000000 3.4473000000 1.7756000000
-0.2427000000 4.2944000000 2.2310000000
-0.2430000000 2.9350000000 1.4702000000
-0.2432000000 4.8327000000 1.9310000000
-0.2437000000 7.8516000000 0.1628000000
-0.2442000000 5.9526000000 1.2729000000
-0.2447000000 3.7545000000 1.9488000000
-0.2450000000 5.4179000000 1.5877000000
-0.2453000000 2.4621000000 1.1874000000
-0.2455000000 7.1777000000 0.5487000000
-0.2457000000 3.0130000000 1.5145000000
-0.2459000000 7.2263000000 0.5219000000
-0.2463000000 5.5502000000 1.5121000000
-0.2465000000 8.0154000000 0.1288000000
-0.2468000000 3.7806000000 1.9575000000
-0.2470000000 0.5771000000 0.0776000000
-0.2475000000 4.4857000000 2.1329000000
-0.2482000000 3.5339000000 1.8109000000
-0.2484000000 4.1760000000 2.1926000000
-0.2487000000 6.7922000000 0.7793000000
-0.2491000000 3.2317000000 1.6372000000
-0.2495000000 1.5874000000 0.6676000000
-0.2500000000 4.0997000000 2.1467000000
-0.2502000000 1.0615000000 0.3667000000
-0.2512000000 3.1105000000 1.5624000000
-0.2518000000 0.7701000000 0.1880000000
-0.2524000000 2.3586000000 1.1229000000
-0.2534000000 1.9568000000 0.8808000000
-0.2584000000 2.4701000000 1.1797000000
-0.4890000000 2.0052000000 0.6731000000
-0.4897000000 5.4636000000 1.3167000000
-0.4904000000 6.8792000000 0.4797000000
-0.4906000000 7.6131000000 0.1225000000
-0.4910000000 2.4376000000 0.9293000000
-0.4913000000 6.9793000000 0.4160000000
-0.4916000000 7.8791000000 0.0411000000
-0.4919000000 1.9575000000 0.6443000000
-0.4925000000 7.8877000000 0.0397000000
-0.4928000000 4.1276000000 1.9198000000
-0.4931000000 7.6401000000 0.1046000000
-0.4935000000 5.7378000000 1.1454000000
-0.4937000000 4.2182000000 1.9719000000
-0.4940000000 3.7280000000 1.6787000000
-0.4943000000 7.0319000000 0.3883000000
-0.4946000000 2.2364000000 0.8003000000
-0.4948000000 4.1619000000 1.9356000000
-0.4953000000 3.6736000000 1.6423000000
-0.4956000000 5.2462000000 1.4346000000
-0.4959000000 2.5552000000 0.9832000000
-0.4963000000 7.1567000000 0.3014000000
-0.4966000000 7.7058000000 0.0619000000
-0.4967000000 4.9035000000 1.6312000000
-0.4970000000 4.5256000000 1.8602000000
-0.4974000000 4.7960000000 1.7012000000
-0.4977000000 1.3554000000 0.2802000000
-0.4982000000 0.9792000000 0.1309000000
-0.4985000000 0.9584000000 0.1264000000
-0.4989000000 1.7363000000 0.5027000000
-0.4997000000 5.8490000000 1.0730000000
-0.5005000000 5.3686000000 1.3525000000
-0.5015000000 2.7095000000 1.0752000000
-0.5027000000 2.1752000000 0.7568000000
-0.5040000000 1.4737000000 0.3417000000
-0.7384000000 3.5043000000 1.2940000000
-0.7395000000 6.3741000000 0.5238000000
-0.7402000000 3.5661000000 1.3336000000
-0.7412000000 2.3354000000 0.6110000000
-0.7417000000 4.1055000000 1.6480000000
-0.7419000000 6.0693000000 0.7014000000
-0.7422000000 5.2708000000 1.1702000000
-0.7425000000 3.3949000000 1.2293000000
-0.7430000000 4.6578000000 1.5238000000
-0.7435000000 4.5365000000 1.6040000000
-0.7441000000 4.9753000000 1.3440000000
-0.7444000000 3.1919000000 1.1077000000
-0.7447000000 6.7133000000 0.3172000000
-0.7448000000 5.0049000000 1.3205000000
-0.7451000000 7.0945000000 0.0892000000
-0.7456000000 1.8800000000 0.3348000000
-0.7460000000 3.7797000000 1.4549000000
-0.7462000000 4.5065000000 1.6113000000
-0.7463000000 5.1565000000 1.2326000000
-0.7467000000 6.5643000000 0.4016000000
-0.7471000000 6.0999000000 0.6774000000
-0.7473000000 5.0724000000 1.2759000000
-0.7477000000 7.2296000000 0.0831000000
-0.7482000000 6.2653000000 0.5830000000
-0.7487000000 2.1824000000 0.5152000000
-0.7492000000 1.6445000000 0.1954000000
-0.7495000000 6.4245000000 0.4794000000
-0.7500000000 1.3288000000 0.0856000000
-0.7505000000 4.9388000000 1.3522000000
-0.7510000000 5.3053000000 1.1321000000
-0.7512000000 1.6601000000 0.1958000000
-0.7515000000 3.8479000000 1.4857000000
-0.7555000000 5.6425000000 0.9341000000
-0.9904000000 2.4022000000 0.3926000000
-0.9910000000 3.0010000000 0.7466000000
-0.9917000000 6.0637000000 0.4451000000
-0.9925000000 5.7861000000 0.6133000000
-0.9931000000 1.5242000000 0.0242000000
-0.9936000000 4.8686000000 1.1448000000
-0.9938000000 1.7138000000 0.0590000000
-0.9942000000 2.1424000000 0.2383000000
-0.9946000000 6.9432000000 0.0818000000
-0.9948000000 2.3735000000 0.3725000000
-0.9952000000 1.8747000000 0.0868000000
-0.9955000000 2.8897000000 0.6729000000
-0.9958000000 6.1310000000 0.4040000000
-0.9965000000 2.8736000000 0.6691000000
-0.9968000000 6.1204000000 0.4095000000
-0.9972000000 4.1955000000 1.4374000000
-0.9975000000 5.9088000000 0.5334000000
-0.9977000000 6.9848000000 0.0494000000
-0.9978000000 4.8633000000 1.1451000000
-0.9981000000 4.6163000000 1.2981000000
-0.9985000000 4.6225000000 1.2900000000
-0.9987000000 6.5689000000 0.1415000000
-0.9992000000 4.6774000000 1.2505000000
-1.0000000000 1.9185000000 0.1012000000
-1.0003000000 6.3767000000 0.2544000000
-1.0011000000 5.3008000000 0.8817000000
-1.0031000000 3.2581000000 0.8846000000
-1.2398000000 4.6670000000 1.0132000000
-1.2407000000 5.9875000000 0.2336000000
-1.2421000000 5.4955000000 0.5257000000
-1.2429000000 2.9720000000 0.4728000000
-1.2433000000 4.8739000000 0.8921000000
-1.2438000000 6.2042000000 0.1129000000
-1.2440000000 4.5168000000 1.1033000000
-1.2444000000 4.4530000000 1.1393000000
-1.2450000000 4.1709000000 1.1745000000
-1.2451000000 5.8068000000 0.3453000000
-1.2457000000 4.4899000000 1.1138000000
-1.2460000000 5.1230000000 0.7408000000
-1.2462000000 2.8150000000 0.3774000000
-1.2465000000 2.7587000000 0.3381000000
-1.2471000000 4.1991000000 1.1874000000
-1.2475000000 6.5857000000 0.0331000000
-1.2478000000 3.6666000000 0.8766000000
-1.2479000000 4.8481000000 0.8999000000
-1.2487000000 2.5847000000 0.2372000000
-1.2488000000 2.0481000000 0.0720000000
-1.2494000000 4.9518000000 0.8363000000
-1.2505000000 4.6462000000 1.0171000000
-1.2514000000 6.0951000000 0.1593000000
-1.2523000000 4.1781000000 1.1659000000
-1.4906000000 3.6328000000 0.6033000000
-1.4914000000 3.9374000000 0.7830000000
-1.4924000000 3.1930000000 0.3453000000
-1.4932000000 4.5732000000 0.8083000000
-1.4938000000 2.4139000000 0.0387000000
-1.4942000000 4.7745000000 0.6910000000
-1.4948000000 5.6191000000 0.2018000000
-1.4950000000 5.4849000000 0.2681000000
-1.4955000000 3.3608000000 0.4473000000
-1.4957000000 3.9570000000 0.7940000000
-1.4960000000 5.2219000000 0.4287000000
-1.4966000000 2.5357000000 0.0386000000
-1.4967000000 3.7961000000 0.6978000000
-1.4972000000 3.0341000000 0.2522000000
-1.4975000000 5.4826000000 0.2762000000
-1.4981000000 6.0447000000 0.0889000000
-1.4990000000 2.9448000000 0.1942000000
-1.4995000000 2.4762000000 0.0754000000
-1.4998000000 2.6926000000 0.1203000000
-1.5011000000 4.7144000000 0.7258000000
-1.7411000000 5.5290000000 0.0764000000
-1.7434000000 4.5387000000 0.5780000000
-1.7447000000 5.5047000000 0.0758000000
-1.7453000000 2.9935000000 0.0469000000
-1.7463000000 3.1560000000 0.0678000000
-1.7477000000 3.9298000000 0.5214000000
-1.7486000000 2.9687000000 0.0254000000
-1.7491000000 3.8402000000 0.4690000000
-1.7499000000 3.1652000000 0.0707000000
-1.7516000000 3.2472000000 0.1179000000
-1.7550000000 5.3450000000 0.0955000000
-1.9898000000 5.1785000000 0.1051000000
-1.9919000000 3.8703000000 0.2364000000
-1.9939000000 3.6710000000 0.1125000000
-1.9945000000 4.4205000000 0.3977000000
