3.7599000000 3.7224000000 0.1124000000
3.7590000000 3.6746000000 0.1355000000
3.7580000000 1.2692000000 0.0187000000
3.7578000000 3.3011000000 0.2734000000
3.7573000000 4.0850000000 0.0559000000
3.7573000000 2.7694000000 0.4701000000
3.7570000000 2.3293000000 0.4161000000
3.7562000000 1.7654000000 0.2049000000
3.7562000000 2.5325000000 0.4926000000
3.7560000000 1.1407000000 0.0516000000
3.7560000000 1.5009000000 0.1076000000
3.7556000000 1.8252000000 0.2277000000
3.7553000000 3.8612000000 0.0686000000
3.7550000000 1.6138000000 0.1453000000
3.7546000000 1.5539000000 0.1252000000
3.7537000000 1.0800000000 0.0275000000
3.7536000000 3.1204000000 0.3387000000
3.7536000000 1.0897000000 0.0242000000
3.7535000000 3.9679000000 0.0224000000
3.7533000000 1.5272000000 0.1130000000
3.7532000000 2.8059000000 0.4545000000
3.7531000000 3.6733000000 0.1275000000
3.7529000000 2.3279000000 0.4138000000
3.7528000000 3.7827000000 0.0962000000
3.7527000000 1.2873000000 0.0256000000
3.7527000000 1.9125000000 0.2617000000
3.7525000000 3.4951000000 0.2026000000
3.7525000000 1.3187000000 0.0395000000
3.7518000000 2.5555000000 0.5040000000
3.7517000000 3.1239000000 0.3424000000
3.7515000000 1.0695000000 0.0221000000
3.7515000000 1.8895000000 0.2591000000
3.7513000000 1.9398000000 0.2761000000
3.7512000000 2.0848000000 0.3272000000
3.7508000000 1.5545000000 0.1327000000
3.7507000000 3.4402000000 0.2190000000
3.7505000000 3.9572000000 0.0327000000
3.7504000000 2.2518000000 0.3911000000
3.7498000000 1.5811000000 0.1387000000
3.7496000000 1.4057000000 0.0758000000
3.7491000000 2.1225000000 0.3457000000
3.7486000000 1.5949000000 0.1427000000
3.7464000000 1.0537000000 0.0162000000
3.5114000000 4.5788000000 0.0295000000
3.5110000000 2.5229000000 0.6478000000
3.5100000000 2.4353000000 0.6122000000
3.5089000000 1.5230000000 0.2785000000
3.5087000000 3.8737000000 0.2168000000
3.5086000000 4.6156000000 0.0206000000
3.5074000000 1.4410000000 0.2368000000
3.5072000000 4.1361000000 0.1202000000
3.5067000000 2.6626000000 0.6551000000
3.5067000000 0.8507000000 0.0218000000
3.5065000000 4.3289000000 0.0486000000
3.5060000000 4.1255000000 0.1265000000
3.5059000000 1.8959000000 0.4084000000
3.5060000000 2.9962000000 0.5523000000
3.5058000000 1.8378000000 0.3891000000
3.5057000000 2.1082000000 0.4934000000
3.5056000000 1.4040000000 0.2329000000
3.5055000000 4.4140000000 0.0227000000
3.5055000000 1.5386000000 0.2760000000
3.5053000000 3.1512000000 0.4914000000
3.5053000000 2.3364000000 0.5777000000
3.5052000000 3.0087000000 0.5517000000
3.5050000000 0.9575000000 0.0647000000
3.5050000000 1.2813000000 0.1836000000
3.5049000000 0.9955000000 0.0737000000
3.5048000000 2.3549000000 0.5849000000
3.5048000000 3.5605000000 0.3366000000
3.5046000000 3.3033000000 0.4355000000
3.5044000000 2.6187000000 0.6712000000
3.5041000000 2.4176000000 0.6041000000
3.5040000000 2.9584000000 0.5636000000
3.5039000000 4.1759000000 0.1081000000
3.5038000000 4.1725000000 0.1113000000
3.5038000000 1.8629000000 0.4008000000
3.5035000000 2.9049000000 0.5880000000
3.5033000000 0.8022000000 0.0843000000
3.5033000000 2.9790000000 0.5580000000
3.5031000000 1.2760000000 0.1872000000
3.5030000000 3.7615000000 0.2599000000
3.5030000000 2.4007000000 0.6061000000
3.5028000000 4.4984000000 0.0689000000
3.5026000000 0.8525000000 0.0267000000
3.5025000000 1.1017000000 0.1211000000
3.5023000000 0.5873000000 0.0112000000
3.5018000000 2.3473000000 0.5865000000
3.5017000000 2.3236000000 0.5796000000
3.5017000000 1.9771000000 0.4472000000
3.5015000000 4.5976000000 0.0281000000
3.5015000000 2.1242000000 0.5034000000
3.5014000000 2.7095000000 0.6618000000
3.5011000000 1.5952000000 0.3037000000
3.5008000000 4.3699000000 0.0376000000
3.5006000000 3.3623000000 0.4130000000
3.5002000000 2.1110000000 0.4981000000
3.4999000000 3.4241000000 0.3939000000
3.4998000000 0.6161000000 0.0192000000
3.4995000000 2.0989000000 0.4951000000
3.4995000000 0.6644000000 0.0347000000
3.4993000000 0.9720000000 0.0699000000
3.4990000000 3.8063000000 0.2461000000
3.4979000000 2.6261000000 0.6771000000
3.4974000000 1.8818000000 0.4097000000
3.4968000000 2.9768000000 0.5556000000
3.4961000000 2.4878000000 0.6388000000
3.4955000000 3.4367000000 0.3897000000
3.2613000000 0.2843000000 0.0506000000
3.2608000000 1.9549000000 0.5982000000
3.2604000000 4.0947000000 0.2963000000
3.2585000000 1.3783000000 0.3826000000
3.2583000000 1.0567000000 0.2584000000
3.2575000000 0.9457000000 0.2213000000
3.2575000000 5.0041000000 0.0375000000
3.2572000000 0.6666000000 0.1175000000
3.2571000000 4.1800000000 0.2696000000
3.2570000000 3.1985000000 0.6305000000
3.2569000000 3.7268000000 0.4326000000
3.2566000000 2.4264000000 0.7758000000
3.2563000000 4.6597000000 0.0976000000
3.2558000000 1.6117000000 0.4666000000
3.2554000000 4.6560000000 0.0926000000
3.2553000000 3.2280000000 0.6312000000
3.2552000000 1.3861000000 0.3841000000
3.2550000000 3.8222000000 0.4039000000
3.2550000000 1.8888000000 0.5688000000
3.2549000000 2.9084000000 0.7423000000
3.2547000000 3.2242000000 0.6245000000
3.2546000000 3.3283000000 0.5859000000
3.2544000000 4.3019000000 0.2238000000
3.2542000000 3.2098000000 0.6325000000
3.2540000000 0.6085000000 0.0975000000
3.2538000000 3.6044000000 0.4846000000
3.2537000000 3.4368000000 0.5522000000
3.2535000000 0.3561000000 0.0781000000
3.2535000000 2.8283000000 0.7669000000
3.2534000000 2.1306000000 0.6649000000
3.2533000000 3.1621000000 0.6527000000
3.2533000000 2.3372000000 0.7429000000
3.2531000000 1.0667000000 0.2703000000
3.2528000000 4.8474000000 0.0226000000
3.2528000000 4.6565000000 0.0909000000
3.2526000000 1.5644000000 0.4530000000
3.2525000000 3.2302000000 0.6279000000
3.2525000000 2.2422000000 0.7086000000
3.2525000000 1.5410000000 0.4455000000
3.2524000000 2.2678000000 0.7187000000
3.2521000000 3.2019000000 0.6370000000
3.2514000000 4.7177000000 0.0710000000
3.2514000000 1.6458000000 0.4879000000
3.2513000000 4.0989000000 0.2992000000
3.2513000000 0.2591000000 0.0445000000
3.2512000000 2.7473000000 0.8009000000
3.2510000000 0.3565000000 0.0815000000
3.2508000000 1.3025000000 0.3643000000
3.2504000000 0.4460000000 0.0388000000
3.2502000000 3.1332000000 0.6624000000
3.2501000000 3.3094000000 0.5974000000
3.2496000000 1.0916000000 0.2758000000
3.2496000000 0.6222000000 0.1082000000
3.2495000000 3.1498000000 0.6546000000
3.2493000000 2.5296000000 0.8123000000
3.2493000000 4.6397000000 0.1020000000
3.2477000000 0.6857000000 0.1291000000
3.2475000000 3.6913000000 0.4582000000
3.2473000000 2.0245000000 0.6331000000
3.2454000000 0.9133000000 0.2092000000
3.0097000000 1.0198000000 0.4125000000
3.0088000000 0.2551000000 0.1255000000
3.0086000000 1.3554000000 0.5304000000
3.0081000000 2.7179000000 0.9738000000
3.0079000000 4.0615000000 0.4701000000
3.0078000000 2.3429000000 0.9060000000
3.0078000000 3.7232000000 0.5939000000
3.0075000000 0.3320000000 0.1548000000
3.0075000000 0.4094000000 0.1797000000
3.0074000000 3.6664000000 0.6165000000
3.0071000000 2.1636000000 0.8372000000
3.0070000000 2.8689000000 0.9141000000
3.0068000000 5.1584000000 0.0559000000
3.0065000000 4.4551000000 0.3311000000
3.0063000000 0.4024000000 0.1864000000
3.0063000000 0.3518000000 0.1636000000
3.0060000000 0.0030000000 0.0036000000
3.0059000000 3.9134000000 0.5301000000
3.0058000000 1.1621000000 0.4680000000
3.0057000000 1.0305000000 0.4168000000
3.0056000000 0.5400000000 0.2359000000
3.0055000000 4.0236000000 0.4896000000
3.0055000000 2.8157000000 0.9391000000
3.0053000000 3.6278000000 0.6381000000
3.0051000000 1.1116000000 0.4494000000
3.0050000000 4.2795000000 0.3919000000
3.0049000000 2.6168000000 0.9895000000
3.0048000000 4.1330000000 0.4497000000
3.0045000000 0.6357000000 0.2672000000
3.0045000000 2.7821000000 0.9578000000
3.0042000000 1.1618000000 0.4651000000
3.0041000000 1.8155000000 0.7054000000
3.0039000000 3.9428000000 0.5150000000
3.0037000000 0.5956000000 0.2518000000
3.0035000000 0.0940000000 0.0572000000
3.0035000000 1.0000000000 0.4067000000
3.0034000000 2.1000000000 0.8072000000
3.0033000000 0.1955000000 0.1023000000
3.0030000000 1.4125000000 0.5607000000
3.0028000000 4.3481000000 0.3712000000
3.0028000000 3.4543000000 0.7002000000
3.0027000000 2.4203000000 0.9319000000
3.0026000000 4.3037000000 0.3815000000
3.0025000000 4.3322000000 0.3790000000
3.0024000000 3.2118000000 0.7928000000
3.0023000000 2.7382000000 0.9702000000
3.0023000000 2.3220000000 0.9002000000
3.0022000000 2.6647000000 0.9880000000
3.0021000000 1.1993000000 0.4758000000
3.0020000000 2.2974000000 0.8941000000
3.0018000000 0.7226000000 0.3054000000
3.0018000000 4.3411000000 0.3670000000
3.0017000000 3.5006000000 0.6885000000
3.0015000000 1.1825000000 0.4705000000
3.0011000000 4.8451000000 0.1823000000
3.0010000000 0.4963000000 0.2178000000
3.0010000000 0.9359000000 0.3846000000
3.0008000000 1.7942000000 0.7010000000
3.0004000000 4.3504000000 0.3701000000
3.0004000000 2.1644000000 0.8389000000
3.0001000000 0.1560000000 0.0836000000
3.0000000000 0.4444000000 0.1974000000
2.9999000000 1.2760000000 0.5120000000
2.9998000000 0.8365000000 0.3417000000
2.9996000000 2.5669000000 0.9877000000
2.9993000000 1.8163000000 0.7160000000
2.9990000000 4.8892000000 0.1698000000
2.9990000000 3.6088000000 0.6399000000
2.9989000000 3.1513000000 0.8188000000
2.9987000000 2.4533000000 0.9488000000
2.9986000000 0.6234000000 0.2688000000
2.9980000000 3.4747000000 0.7018000000
2.9980000000 0.7598000000 0.3222000000
2.9974000000 3.3124000000 0.7537000000
2.9973000000 0.9010000000 0.3707000000
2.9967000000 0.6262000000 0.2739000000
2.9960000000 2.1131000000 0.8258000000
2.9944000000 5.0698000000 0.1089000000
2.9943000000 0.2952000000 0.1463000000
2.9935000000 1.1498000000 0.4718000000
2.7608000000 3.7296000000 0.7543000000
2.7600000000 0.0869000000 0.0775000000
2.7590000000 1.7995000000 0.8603000000
2.7585000000 0.0436000000 0.0532000000
2.7583000000 3.9335000000 0.6836000000
2.7580000000 2.2477000000 1.0313000000
2.7580000000 3.8023000000 0.7303000000
2.7576000000 0.5467000000 0.3760000000
2.7576000000 2.7054000000 1.1426000000
2.7573000000 0.8429000000 0.5068000000
2.7573000000 1.8988000000 0.8987000000
2.7570000000 5.0764000000 0.1424000000
2.7569000000 2.4731000000 1.1147000000
2.7567000000 0.3386000000 0.2662000000
2.7561000000 1.6760000000 0.8099000000
2.7561000000 2.7854000000 1.1043000000
2.7560000000 3.6329000000 0.7963000000
2.7559000000 4.0752000000 0.6276000000
2.7558000000 1.0925000000 0.6022000000
2.7558000000 3.1096000000 0.9885000000
2.7556000000 4.3098000000 0.5412000000
2.7556000000 3.0081000000 1.0334000000
2.7555000000 3.3827000000 0.8852000000
2.7555000000 3.8752000000 0.7001000000
2.7550000000 3.3188000000 0.9117000000
2.7549000000 0.3924000000 0.2896000000
2.7548000000 3.1409000000 0.9809000000
2.7547000000 4.3020000000 0.5474000000
2.7546000000 3.6027000000 0.8066000000
2.7545000000 4.7680000000 0.3604000000
2.7544000000 2.2576000000 1.0341000000
2.7543000000 2.3591000000 1.0762000000
2.7542000000 5.1012000000 0.1264000000
2.7541000000 2.0485000000 0.9610000000
2.7540000000 1.4445000000 0.7287000000
2.7538000000 5.2163000000 0.0433000000
2.7537000000 1.9572000000 0.9160000000
2.7534000000 1.6740000000 0.8143000000
2.7534000000 1.3915000000 0.7125000000
2.7533000000 4.3380000000 0.5349000000
2.7527000000 0.4327000000 0.3236000000
2.7525000000 0.7310000000 0.4652000000
2.7523000000 2.5522000000 1.1457000000
2.7516000000 2.5047000000 1.1215000000
2.7513000000 1.4406000000 0.7322000000
2.7513000000 4.2173000000 0.5782000000
2.7512000000 2.8358000000 1.0961000000
2.7511000000 0.7933000000 0.4945000000
2.7510000000 2.9574000000 1.0464000000
2.7508000000 0.5216000000 0.3731000000
2.7505000000 1.7471000000 0.8461000000
2.7504000000 2.4391000000 1.1019000000
2.7503000000 2.1247000000 0.9897000000
2.7494000000 0.4550000000 0.3422000000
2.7491000000 0.0773000000 0.0724000000
2.7490000000 2.8805000000 1.0828000000
2.7489000000 3.0156000000 1.0306000000
2.7474000000 0.9987000000 0.5665000000
2.7473000000 1.8623000000 0.8905000000
2.7462000000 2.7074000000 1.1476000000
2.7454000000 1.6303000000 0.8055000000
2.7452000000 1.4955000000 0.7551000000
2.7443000000 0.3138000000 0.2543000000
2.5142000000 2.1201000000 1.1360000000
2.5106000000 2.4089000000 1.2474000000
2.5090000000 4.4188000000 0.6209000000
2.5085000000 2.6795000000 1.3030000000
2.5083000000 1.8725000000 1.0514000000
2.5083000000 1.3330000000 0.8441000000
2.5080000000 4.7466000000 0.3914000000
2.5077000000 1.5389000000 0.9304000000
2.5076000000 3.3057000000 1.0754000000
2.5074000000 2.8012000000 1.2682000000
2.5071000000 0.2488000000 0.1994000000
2.5070000000 0.2443000000 0.1916000000
2.5069000000 4.5455000000 0.5432000000
2.5068000000 1.8143000000 1.0329000000
2.5068000000 3.9508000000 0.8340000000
2.5065000000 0.9645000000 0.6974000000
2.5064000000 1.6694000000 0.9756000000
2.5063000000 1.8497000000 1.0403000000
2.5062000000 3.3953000000 1.0437000000
2.5060000000 0.3510000000 0.2730000000
2.5057000000 2.9651000000 1.2091000000
2.5056000000 3.5655000000 0.9840000000
2.5055000000 5.1139000000 0.1171000000
2.5055000000 1.6489000000 0.9643000000
2.5054000000 4.3300000000 0.6868000000
2.5053000000 4.8680000000 0.3009000000
2.5052000000 3.7147000000 0.9267000000
2.5053000000 1.2192000000 0.8101000000
2.5049000000 2.7219000000 1.2930000000
2.5050000000 2.6417000000 1.3094000000
2.5048000000 2.1438000000 1.1567000000
2.5046000000 4.1984000000 0.7439000000
2.5044000000 2.7559000000 1.2817000000
2.5043000000 2.6223000000 1.3210000000
2.5043000000 3.9777000000 0.8373000000
2.5041000000 1.1466000000 0.7829000000
2.5041000000 0.0658000000 0.0596000000
2.5040000000 0.4333000000 0.3343000000
2.5040000000 3.5960000000 0.9728000000
2.5038000000 2.7594000000 1.2848000000
2.5034000000 4.4681000000 0.5970000000
2.5033000000 2.0341000000 1.1143000000
2.5030000000 3.6886000000 0.9372000000
2.5029000000 1.1476000000 0.7807000000
2.5027000000 1.9131000000 1.0671000000
2.5026000000 3.8751000000 0.8698000000
2.5026000000 2.4908000000 1.2857000000
2.5025000000 4.8308000000 0.3337000000
2.5024000000 3.3277000000 1.0753000000
2.5022000000 2.4510000000 1.2695000000
2.5020000000 2.1737000000 1.1671000000
2.5019000000 1.6780000000 0.9817000000
2.5018000000 5.1952000000 0.0574000000
2.5017000000 0.4859000000 0.3757000000
2.5016000000 0.1430000000 0.1180000000
2.5014000000 3.0275000000 1.1869000000
2.5013000000 3.0191000000 1.1866000000
2.5012000000 0.8804000000 0.6580000000
2.5012000000 4.0469000000 0.8035000000
2.5011000000 4.1059000000 0.7823000000
2.5009000000 2.7142000000 1.3035000000
2.5007000000 4.9255000000 0.2606000000
2.5003000000 3.2130000000 1.1153000000
2.5003000000 0.7888000000 0.6068000000
2.5002000000 2.0594000000 1.1242000000
2.4999000000 0.3170000000 0.2530000000
2.4998000000 2.6155000000 1.3213000000
2.4998000000 3.0540000000 1.1747000000
2.4996000000 1.4571000000 0.8973000000
2.4994000000 4.9923000000 0.2110000000
2.4992000000 0.2636000000 0.2131000000
2.4991000000 2.0272000000 1.1167000000
2.4990000000 1.5347000000 0.9299000000
2.4978000000 2.2998000000 1.2119000000
2.4976000000 3.7940000000 0.9025000000
2.4975000000 1.5190000000 0.9243000000
2.4974000000 1.1639000000 0.7967000000
2.4962000000 0.9879000000 0.7187000000
2.4958000000 0.9835000000 0.7148000000
2.2606000000 4.0396000000 0.9180000000
2.2604000000 0.8106000000 0.6172000000
2.2604000000 2.1284000000 1.3043000000
2.2602000000 3.3707000000 1.2105000000
2.2594000000 3.3908000000 1.2040000000
2.2590000000 5.2279000000 0.0285000000
2.2590000000 1.4288000000 1.0452000000
2.2585000000 4.6535000000 0.4601000000
2.2580000000 1.2721000000 0.9541000000
2.2579000000 1.8489000000 1.1964000000
2.2578000000 3.4108000000 1.2036000000
2.2579000000 4.5450000000 0.5458000000
2.2577000000 0.7297000000 0.5583000000
2.2575000000 1.7227000000 1.1544000000
2.2574000000 4.6584000000 0.4566000000
2.2573000000 4.4523000000 0.6132000000
2.2572000000 0.2117000000 0.1685000000
2.2571000000 1.2650000000 0.9393000000
2.2570000000 4.7668000000 0.3742000000
2.2569000000 1.7006000000 1.1449000000
2.2569000000 4.5094000000 0.5731000000
2.2568000000 4.0143000000 0.9324000000
2.2566000000 2.1026000000 1.2975000000
2.2565000000 4.3881000000 0.6569000000
2.2564000000 1.7074000000 1.1476000000
2.2564000000 5.1809000000 0.0664000000
2.2561000000 4.6361000000 0.4772000000
2.2560000000 3.7155000000 1.0858000000
2.2555000000 0.6579000000 0.5051000000
2.2555000000 5.0855000000 0.1405000000
2.2551000000 1.8959000000 1.2202000000
2.2550000000 3.0637000000 1.3314000000
2.2549000000 4.5865000000 0.5095000000
2.2547000000 3.0509000000 1.3363000000
2.2546000000 0.6632000000 0.5132000000
2.2545000000 0.4494000000 0.3550000000
2.2545000000 2.5872000000 1.4716000000
2.2544000000 3.3109000000 1.2348000000
2.2542000000 4.0890000000 0.8834000000
2.2540000000 1.5850000000 1.1068000000
2.2539000000 1.2341000000 0.9354000000
2.2538000000 2.0520000000 1.2845000000
2.2538000000 3.4364000000 1.1930000000
2.2532000000 1.6651000000 1.1401000000
2.2530000000 3.6426000000 1.1102000000
2.2530000000 5.0375000000 0.1783000000
2.2528000000 0.4352000000 0.3377000000
2.2528000000 2.8964000000 1.3963000000
2.2525000000 3.7331000000 1.0780000000
2.2525000000 2.5107000000 1.4511000000
2.2523000000 1.3915000000 1.0200000000
2.2521000000 4.2690000000 0.7406000000
2.2520000000 2.1687000000 1.3225000000
2.2520000000 1.7350000000 1.1630000000
2.2518000000 3.9834000000 0.9480000000
2.2518000000 1.4609000000 1.0588000000
2.2513000000 0.0490000000 0.0547000000
2.2512000000 3.4639000000 1.1820000000
2.2509000000 0.4622000000 0.3612000000
2.2510000000 2.2910000000 1.3739000000
2.2508000000 1.0745000000 0.8140000000
2.2506000000 1.7407000000 1.1646000000
2.2505000000 5.2430000000 0.0214000000
2.2504000000 1.8475000000 1.2106000000
2.2503000000 2.3209000000 1.3815000000
2.2503000000 0.2749000000 0.2185000000
2.2502000000 4.0879000000 0.8845000000
2.2498000000 0.6542000000 0.4982000000
2.2497000000 2.1816000000 1.3316000000
2.2495000000 3.0257000000 1.3527000000
2.2495000000 0.6886000000 0.5258000000
2.2494000000 2.5927000000 1.4765000000
2.2492000000 2.2866000000 1.3715000000
2.2490000000 0.4723000000 0.3667000000
2.2489000000 3.0425000000 1.3427000000
2.2486000000 4.4779000000 0.5859000000
2.2484000000 4.7492000000 0.3925000000
2.2466000000 2.8223000000 1.4271000000
2.2465000000 0.6872000000 0.5291000000
2.2449000000 0.0341000000 0.0425000000
2.0105000000 3.7319000000 1.1511000000
2.0094000000 4.5101000000 0.5712000000
2.0083000000 5.1400000000 0.0999000000
2.0077000000 3.2911000000 1.4037000000
2.0075000000 5.1639000000 0.0800000000
2.0075000000 3.8789000000 1.0388000000
2.0073000000 0.8175000000 0.6254000000
2.0071000000 1.1733000000 0.8895000000
2.0070000000 4.6262000000 0.4808000000
2.0066000000 2.1647000000 1.4828000000
2.0063000000 0.6490000000 0.4990000000
2.0061000000 3.2080000000 1.4367000000
2.0060000000 3.5544000000 1.2636000000
2.0059000000 3.3868000000 1.3568000000
2.0059000000 1.2576000000 0.9499000000
2.0058000000 1.5099000000 1.1414000000
2.0057000000 4.2397000000 0.7655000000
2.0057000000 1.9194000000 1.3942000000
2.0056000000 1.7436000000 1.2993000000
2.0056000000 2.3782000000 1.5632000000
2.0055000000 0.4863000000 0.3747000000
2.0053000000 4.8433000000 0.3182000000
2.0051000000 1.7065000000 1.2776000000
2.0050000000 3.7001000000 1.1692000000
2.0048000000 3.6623000000 1.1965000000
2.0047000000 5.1191000000 0.1115000000
2.0046000000 1.0201000000 0.7726000000
2.0045000000 3.8525000000 1.0532000000
2.0045000000 3.8592000000 1.0468000000
2.0045000000 1.9203000000 1.3939000000
2.0043000000 3.6765000000 1.1951000000
2.0043000000 5.0197000000 0.1842000000
2.0041000000 2.7196000000 1.6189000000
2.0038000000 3.6180000000 1.2323000000
2.0037000000 4.3506000000 0.6861000000
2.0036000000 2.5928000000 1.6305000000
2.0035000000 3.1308000000 1.4680000000
2.0034000000 4.8366000000 0.3284000000
2.0033000000 4.1116000000 0.8634000000
2.0032000000 4.6310000000 0.4787000000
2.0031000000 4.5258000000 0.5627000000
2.0030000000 5.0134000000 0.1850000000
2.0028000000 2.4612000000 1.5967000000
2.0027000000 4.1982000000 0.7945000000
2.0026000000 4.4851000000 0.5843000000
2.0025000000 0.5205000000 0.3995000000
2.0023000000 0.4650000000 0.3633000000
2.0021000000 3.6960000000 1.1729000000
2.0021000000 1.7171000000 1.2857000000
2.0020000000 2.7439000000 1.6140000000
2.0020000000 3.3782000000 1.3593000000
2.0019000000 3.3116000000 1.4018000000
2.0018000000 4.8565000000 0.3061000000
2.0018000000 4.9056000000 0.2662000000
2.0017000000 1.0915000000 0.8273000000
2.0016000000 3.1296000000 1.4678000000
2.0016000000 2.6860000000 1.6355000000
2.0015000000 0.3814000000 0.3001000000
2.0010000000 4.6900000000 0.4297000000
2.0010000000 3.7521000000 1.1347000000
2.0010000000 2.5472000000 1.6226000000
2.0009000000 2.7572000000 1.6062000000
2.0007000000 0.7835000000 0.6012000000
2.0007000000 0.3926000000 0.3050000000
2.0006000000 2.6389000000 1.6396000000
2.0006000000 1.1453000000 0.8697000000
2.0005000000 0.7862000000 0.6005000000
2.0003000000 0.7671000000 0.5832000000
2.0002000000 1.7105000000 1.2726000000
2.0001000000 1.0090000000 0.7681000000
1.9995000000 2.2829000000 1.5326000000
1.9994000000 0.1902000000 0.1612000000
1.9993000000 1.4434000000 1.0889000000
1.9988000000 0.3867000000 0.3047000000
1.9986000000 1.8785000000 1.3702000000
1.9986000000 0.7541000000 0.5739000000
1.9976000000 0.6500000000 0.5048000000
1.9975000000 1.8460000000 1.3596000000
1.9974000000 4.0893000000 0.8818000000
1.9973000000 0.9155000000 0.6952000000
1.9970000000 4.8558000000 0.3098000000
1.9958000000 5.2255000000 0.0348000000
1.7608000000 1.5751000000 1.1916000000
1.7602000000 3.6545000000 1.2038000000
1.7587000000 5.1075000000 0.1218000000
1.7586000000 1.2919000000 0.9776000000
1.7585000000 3.3795000000 1.4078000000
1.7584000000 4.0013000000 0.9445000000
1.7581000000 0.8014000000 0.6103000000
1.7576000000 0.1052000000 0.0911000000
1.7573000000 5.2340000000 0.0257000000
1.7573000000 3.7471000000 1.1324000000
1.7572000000 0.5087000000 0.3948000000
1.7571000000 4.4426000000 0.6167000000
1.7570000000 3.5946000000 1.2447000000
1.7569000000 4.2182000000 0.7792000000
1.7565000000 1.0654000000 0.8084000000
1.7564000000 4.2376000000 0.7765000000
1.7560000000 4.1316000000 0.8485000000
1.7560000000 1.7836000000 1.3408000000
1.7560000000 2.9016000000 1.7107000000
1.7559000000 4.8107000000 0.3474000000
1.7559000000 5.0840000000 0.1406000000
1.7558000000 2.9451000000 1.6898000000
1.7558000000 2.9859000000 1.6691000000
1.7557000000 4.8934000000 0.2822000000
1.7557000000 2.4223000000 1.7357000000
1.7556000000 5.0166000000 0.1941000000
1.7555000000 5.1924000000 0.0591000000
1.7554000000 2.6181000000 1.8094000000
1.7553000000 1.4651000000 1.1031000000
1.7553000000 4.3179000000 0.7088000000
1.7552000000 2.9983000000 1.6638000000
1.7550000000 3.8649000000 1.0502000000
1.7550000000 4.0288000000 0.9254000000
1.7549000000 3.3900000000 1.4031000000
1.7547000000 3.7652000000 1.1246000000
1.7540000000 3.8245000000 1.0764000000
1.7540000000 1.3093000000 0.9918000000
1.7539000000 5.0114000000 0.2002000000
1.7538000000 0.0164000000 0.0277000000
1.7536000000 2.7443000000 1.7760000000
1.7535000000 2.6762000000 1.7911000000
1.7533000000 0.0506000000 0.0560000000
1.7529000000 2.4737000000 1.7571000000
1.7527000000 2.0098000000 1.5117000000
1.7526000000 3.5970000000 1.2454000000
1.7525000000 0.9539000000 0.7202000000
1.7524000000 4.4801000000 0.5885000000
1.7523000000 3.5778000000 1.2557000000
1.7524000000 2.2693000000 1.6725000000
1.7522000000 3.5079000000 1.3118000000
1.7521000000 1.3596000000 1.0294000000
1.7520000000 4.4090000000 0.6426000000
1.7519000000 0.2939000000 0.2343000000
1.7518000000 2.9084000000 1.7121000000
1.7518000000 0.9341000000 0.7108000000
1.7517000000 3.7407000000 1.1357000000
1.7516000000 3.5144000000 1.3064000000
1.7512000000 4.4459000000 0.6160000000
1.7510000000 4.7278000000 0.4042000000
1.7509000000 3.1530000000 1.5768000000
1.7508000000 5.2639000000 0.0784000000
1.7506000000 1.8803000000 1.4191000000
1.7506000000 2.8076000000 1.7543000000
1.7504000000 4.4520000000 0.6109000000
1.7496000000 1.1857000000 0.8954000000
1.7495000000 4.1958000000 0.8037000000
1.7494000000 2.7948000000 1.7520000000
1.7490000000 3.9208000000 1.0012000000
1.7488000000 1.7654000000 1.3288000000
1.7483000000 3.4161000000 1.3805000000
1.7478000000 0.3356000000 0.2671000000
1.7476000000 2.2390000000 1.6666000000
1.7470000000 0.5007000000 0.3820000000
1.7462000000 0.0259000000 0.0298000000
1.7451000000 0.1271000000 0.1098000000
1.5100000000 5.1832000000 0.0681000000
1.5093000000 1.9045000000 1.4383000000
1.5092000000 3.2253000000 1.5268000000
1.5090000000 4.3834000000 0.6569000000
1.5087000000 1.3258000000 1.0076000000
1.5079000000 4.7486000000 0.3899000000
1.5078000000 4.9024000000 0.2690000000
1.5075000000 0.4658000000 0.3677000000
1.5070000000 3.3185000000 1.4548000000
1.5070000000 3.2724000000 1.4852000000
1.5062000000 5.1126000000 0.1153000000
1.5062000000 5.0823000000 0.1390000000
1.5061000000 4.9775000000 0.2171000000
1.5060000000 3.0061000000 1.6879000000
1.5059000000 4.2815000000 0.7341000000
1.5058000000 4.7237000000 0.4059000000
1.5055000000 4.1037000000 0.8677000000
1.5055000000 0.6876000000 0.5311000000
1.5055000000 4.3375000000 0.6944000000
1.5053000000 3.6950000000 1.1744000000
1.5052000000 5.2385000000 0.0224000000
1.5052000000 3.4102000000 1.3842000000
1.5049000000 1.2545000000 0.9494000000
1.5049000000 3.1281000000 1.6022000000
1.5048000000 3.7863000000 1.1075000000
1.5048000000 3.4272000000 1.3720000000
1.5047000000 4.2521000000 0.7581000000
1.5046000000 0.3605000000 0.2838000000
1.5046000000 0.4959000000 0.3871000000
1.5043000000 3.6994000000 1.1663000000
1.5041000000 3.7621000000 1.1195000000
1.5040000000 1.3441000000 1.0134000000
1.5038000000 4.9932000000 0.2108000000
1.5033000000 1.5776000000 1.1943000000
1.5030000000 5.2014000000 0.0503000000
1.5030000000 1.8077000000 1.3666000000
1.5029000000 4.5179000000 0.5655000000
1.5028000000 0.9842000000 0.7454000000
1.5027000000 2.7832000000 1.8537000000
1.5026000000 1.5338000000 1.1561000000
1.5025000000 0.9790000000 0.7440000000
1.5024000000 2.2389000000 1.6814000000
1.5022000000 1.8494000000 1.3918000000
1.5020000000 0.4697000000 0.3663000000
1.5019000000 1.6542000000 1.2441000000
1.5018000000 1.1226000000 0.8518000000
1.5018000000 0.4381000000 0.3407000000
1.5017000000 0.8163000000 0.6272000000
1.5017000000 2.7279000000 1.8678000000
1.5016000000 0.4244000000 0.3304000000
1.5015000000 0.3763000000 0.2906000000
1.5015000000 1.2745000000 0.9595000000
1.5014000000 0.6440000000 0.4948000000
1.5012000000 0.8498000000 0.6487000000
1.5011000000 2.3243000000 1.7433000000
1.5009000000 0.4467000000 0.3497000000
1.5006000000 1.5480000000 1.1650000000
1.5004000000 3.1265000000 1.6009000000
1.5000000000 3.3718000000 1.4189000000
1.4996000000 1.2853000000 0.9662000000
1.4993000000 0.2201000000 0.1823000000
1.4992000000 1.5431000000 1.1623000000
1.4988000000 1.5415000000 1.1655000000
1.4986000000 0.0517000000 0.0576000000
1.4982000000 0.2417000000 0.1972000000
1.4978000000 2.1875000000 1.6450000000
1.4977000000 3.5303000000 1.2955000000
1.4935000000 1.9300000000 1.4569000000
1.2613000000 3.0305000000 1.6425000000
1.2605000000 4.7078000000 0.4160000000
1.2601000000 3.5292000000 1.3003000000
1.2597000000 4.5868000000 0.5107000000
1.2593000000 3.4624000000 1.3480000000
1.2587000000 2.4408000000 1.7375000000
1.2584000000 2.6483000000 1.7805000000
1.2583000000 3.9852000000 0.9621000000
1.2582000000 2.2531000000 1.6589000000
1.2579000000 3.7048000000 1.1694000000
1.2578000000 3.6321000000 1.2182000000
1.2577000000 1.3164000000 0.9996000000
1.2574000000 3.2567000000 1.5037000000
1.2573000000 2.1397000000 1.5982000000
1.2572000000 4.0157000000 0.9339000000
1.2571000000 4.7573000000 0.3802000000
1.2567000000 3.4222000000 1.3754000000
1.2562000000 0.4740000000 0.3712000000
1.2558000000 2.5487000000 1.7773000000
1.2557000000 0.3724000000 0.2897000000
1.2556000000 3.7369000000 1.1448000000
1.2555000000 3.0390000000 1.6359000000
1.2552000000 4.6435000000 0.4662000000
1.2551000000 2.9556000000 1.6767000000
1.2550000000 4.9572000000 0.2372000000
1.2548000000 2.2905000000 1.6777000000
1.2548000000 0.5530000000 0.4268000000
1.2546000000 4.7075000000 0.4198000000
1.2544000000 2.3586000000 1.7087000000
1.2543000000 2.1476000000 1.6029000000
1.2543000000 2.7636000000 1.7509000000
1.2539000000 1.0403000000 0.7928000000
1.2538000000 3.3788000000 1.4095000000
1.2537000000 3.9428000000 0.9921000000
1.2536000000 4.9319000000 0.2560000000
1.2533000000 4.8435000000 0.3179000000
1.2533000000 1.8148000000 1.3674000000
1.2532000000 1.2423000000 0.9373000000
1.2531000000 0.7475000000 0.5686000000
1.2530000000 4.6988000000 0.4217000000
1.2530000000 3.7253000000 1.1505000000
1.2528000000 3.3196000000 1.4572000000
1.2528000000 2.1308000000 1.5829000000
1.2527000000 2.5708000000 1.7763000000
1.2527000000 2.2303000000 1.6455000000
1.2525000000 2.5028000000 1.7549000000
1.2523000000 2.8858000000 1.7057000000
1.2522000000 3.2573000000 1.5058000000
1.2522000000 2.1198000000 1.5788000000
1.2518000000 1.4544000000 1.0998000000
1.2518000000 1.0898000000 0.8241000000
1.2515000000 2.7448000000 1.7540000000
1.2513000000 2.8007000000 1.7328000000
1.2512000000 0.8870000000 0.6760000000
1.2509000000 0.3879000000 0.2985000000
1.2509000000 3.1038000000 1.6084000000
1.2505000000 0.8629000000 0.6560000000
1.2503000000 2.0077000000 1.5102000000
1.2500000000 0.3922000000 0.3018000000
1.2498000000 3.5844000000 1.2488000000
1.2494000000 2.8331000000 1.7160000000
1.2487000000 1.9120000000 1.4346000000
1.2483000000 2.6494000000 1.7757000000
1.2480000000 0.9838000000 0.7477000000
1.2478000000 3.9332000000 1.0019000000
1.2475000000 1.5883000000 1.1953000000
1.2473000000 2.9449000000 1.6755000000
1.2470000000 4.5172000000 0.5634000000
1.2465000000 0.8166000000 0.6265000000
1.2451000000 3.2336000000 1.5227000000
1.2450000000 3.1383000000 1.5697000000
1.2436000000 3.8216000000 1.0749000000
1.0143000000 3.4552000000 1.3305000000
1.0122000000 5.2562000000 0.0836000000
1.0117000000 3.9352000000 0.9944000000
1.0110000000 5.2468000000 0.0174000000
1.0100000000 4.9975000000 0.2074000000
1.0093000000 1.4523000000 1.0973000000
1.0093000000 0.4590000000 0.3561000000
1.0088000000 4.7647000000 0.3764000000
1.0080000000 4.4953000000 0.5788000000
1.0078000000 0.1844000000 0.1509000000
1.0075000000 3.9208000000 1.0063000000
1.0073000000 0.3072000000 0.2420000000
1.0069000000 2.2170000000 1.4908000000
1.0068000000 3.4543000000 1.3175000000
1.0068000000 3.2240000000 1.4249000000
1.0067000000 3.5332000000 1.2875000000
1.0064000000 2.2538000000 1.5075000000
1.0060000000 2.7989000000 1.5753000000
1.0059000000 5.2481000000 0.0210000000
1.0059000000 1.8648000000 1.3561000000
1.0056000000 4.7119000000 0.4148000000
1.0055000000 4.9304000000 0.2524000000
1.0052000000 3.9558000000 0.9792000000
1.0051000000 3.8196000000 1.0775000000
1.0047000000 3.7392000000 1.1363000000
1.0044000000 4.4492000000 0.6135000000
1.0043000000 1.0275000000 0.7795000000
1.0041000000 4.1603000000 0.8266000000
1.0040000000 0.7100000000 0.5481000000
1.0040000000 1.4752000000 1.1155000000
1.0039000000 0.0535000000 0.0537000000
1.0038000000 3.6236000000 1.2268000000
1.0036000000 4.8550000000 0.3099000000
1.0035000000 3.8464000000 1.0571000000
1.0035000000 1.5798000000 1.1942000000
1.0033000000 3.6541000000 1.2045000000
1.0033000000 3.7226000000 1.1511000000
1.0030000000 0.2691000000 0.2149000000
1.0030000000 1.3419000000 1.0137000000
1.0029000000 5.0423000000 0.1699000000
1.0026000000 2.7066000000 1.6134000000
1.0026000000 0.2017000000 0.1685000000
1.0024000000 2.9857000000 1.5021000000
1.0023000000 0.0313000000 0.0382000000
1.0022000000 1.2635000000 0.9558000000
1.0020000000 1.9207000000 1.3783000000
1.0017000000 4.1789000000 0.8117000000
1.0017000000 1.4703000000 1.1120000000
1.0016000000 0.4606000000 0.3580000000
1.0016000000 3.5846000000 1.2485000000
1.0015000000 4.3225000000 0.7083000000
1.0012000000 2.4090000000 1.5598000000
1.0012000000 1.4749000000 1.1122000000
1.0010000000 0.5603000000 0.4305000000
1.0010000000 0.5297000000 0.4118000000
1.0009000000 0.4820000000 0.3714000000
1.0008000000 2.4203000000 1.5619000000
1.0005000000 4.2404000000 0.7679000000
1.0005000000 4.5747000000 0.5187000000
1.0003000000 3.9992000000 0.9457000000
1.0003000000 0.8398000000 0.6441000000
1.0002000000 1.4070000000 1.0629000000
1.0001000000 5.1005000000 0.1266000000
1.0028000000 2.0186000000 1.4111000000
0.9994000000 4.6309000000 0.4785000000
0.9988000000 0.3106000000 0.2443000000
0.9986000000 2.9697000000 1.5084000000
0.9983000000 5.2006000000 0.0545000000
0.9979000000 0.5034000000 0.3904000000
0.9979000000 1.2356000000 0.9379000000
0.9973000000 2.3778000000 1.5408000000
0.9970000000 2.4597000000 1.5725000000
0.9954000000 3.6524000000 1.2038000000
0.9953000000 0.8891000000 0.6774000000
0.7605000000 3.8292000000 1.0296000000
0.7601000000 4.0081000000 0.9279000000
0.7597000000 3.4566000000 1.1797000000
0.7595000000 4.4686000000 0.6020000000
0.7588000000 4.1093000000 0.8659000000
0.7584000000 5.0970000000 0.1360000000
0.7583000000 0.6142000000 0.4695000000
0.7581000000 4.9298000000 0.2547000000
0.7577000000 4.9285000000 0.2573000000
0.7576000000 3.4987000000 1.1536000000
0.7574000000 5.1965000000 0.0549000000
0.7572000000 4.1332000000 0.8459000000
0.7570000000 2.0256000000 1.2563000000
0.7570000000 0.8546000000 0.6521000000
0.7568000000 1.9469000000 1.2235000000
0.7568000000 4.7839000000 0.3612000000
0.7565000000 4.6939000000 0.4308000000
0.7565000000 3.6681000000 1.0901000000
0.7564000000 1.2899000000 0.9650000000
0.7562000000 4.3450000000 0.6930000000
0.7562000000 3.5222000000 1.1511000000
0.7561000000 2.5219000000 1.4447000000
0.7560000000 5.2195000000 0.0391000000
0.7560000000 2.9364000000 1.3700000000
0.7559000000 1.4551000000 1.0507000000
0.7558000000 5.1407000000 0.0956000000
0.7557000000 4.4909000000 0.5795000000
0.7554000000 2.8117000000 1.4121000000
0.7551000000 5.0340000000 0.1789000000
0.7552000000 0.9655000000 0.7341000000
0.7548000000 5.1745000000 0.0676000000
0.7548000000 4.2191000000 0.7901000000
0.7547000000 2.4450000000 1.4103000000
0.7545000000 1.3762000000 1.0017000000
0.7545000000 5.0226000000 0.1870000000
0.7545000000 2.4686000000 1.4181000000
0.7544000000 2.3517000000 1.3787000000
0.7543000000 2.0407000000 1.2648000000
0.7541000000 3.1257000000 1.2956000000
0.7540000000 5.2323000000 0.0244000000
0.7539000000 1.6822000000 1.1250000000
0.7538000000 4.4031000000 0.6455000000
0.7538000000 2.7032000000 1.4482000000
0.7538000000 1.8570000000 1.1858000000
0.7536000000 3.5992000000 1.1177000000
0.7533000000 5.0078000000 0.1912000000
0.7533000000 3.1965000000 1.2676000000
0.7531000000 2.6351000000 1.4630000000
0.7529000000 4.4997000000 0.5715000000
0.7528000000 1.1861000000 0.9015000000
0.7525000000 0.5290000000 0.4124000000
0.7525000000 4.2396000000 0.7642000000
0.7523000000 4.7401000000 0.3980000000
0.7521000000 4.5437000000 0.5439000000
0.7520000000 3.2909000000 1.2305000000
0.7520000000 0.9741000000 0.7383000000
0.7518000000 3.5191000000 1.1429000000
0.7518000000 4.9613000000 0.2341000000
0.7515000000 4.0667000000 0.8987000000
0.7514000000 3.9575000000 0.9687000000
0.7513000000 0.8692000000 0.6591000000
0.7510000000 2.4006000000 1.3902000000
0.7510000000 0.5009000000 0.3903000000
0.7508000000 3.0950000000 1.3032000000
0.7508000000 1.2678000000 0.9517000000
0.7503000000 2.0278000000 1.2484000000
0.7502000000 2.3970000000 1.3945000000
0.7501000000 1.0537000000 0.7978000000
0.7500000000 1.0260000000 0.7806000000
0.7499000000 3.7414000000 1.0651000000
0.7495000000 0.7664000000 0.5868000000
0.7489000000 3.9758000000 0.9526000000
0.7485000000 1.8509000000 1.1890000000
0.7483000000 2.5433000000 1.4491000000
0.7478000000 1.4260000000 1.0245000000
0.7473000000 3.1941000000 1.2614000000
0.7469000000 3.8766000000 1.0030000000
0.7468000000 4.3293000000 0.7055000000
0.7466000000 4.9684000000 0.2270000000
0.7460000000 0.7039000000 0.5408000000
0.7454000000 0.2650000000 0.2076000000
0.7438000000 3.6063000000 1.1141000000
0.7437000000 0.3380000000 0.2690000000
0.5131000000 4.2716000000 0.7050000000
0.5113000000 2.1624000000 1.1491000000
0.5098000000 2.9799000000 1.1858000000
0.5088000000 1.5915000000 0.9381000000
0.5085000000 3.0921000000 1.1462000000
0.5083000000 5.0027000000 0.2015000000
0.5082000000 2.6871000000 1.2940000000
0.5081000000 4.9211000000 0.2594000000
0.5079000000 3.0293000000 1.1700000000
0.5071000000 4.0957000000 0.7738000000
0.5069000000 0.7167000000 0.5471000000
0.5069000000 3.5144000000 0.9908000000
0.5068000000 1.1501000000 0.7763000000
0.5065000000 2.2960000000 1.2013000000
0.5065000000 2.9653000000 1.1923000000
0.5062000000 2.6507000000 1.2971000000
0.5060000000 1.4160000000 0.8685000000
0.5060000000 1.0967000000 0.7479000000
0.5059000000 3.5698000000 0.9690000000
0.5058000000 4.2808000000 0.6957000000
0.5054000000 4.1138000000 0.7618000000
0.5052000000 4.9264000000 0.2584000000
0.5049000000 3.8832000000 0.8481000000
0.5048000000 1.7317000000 0.9867000000
0.5048000000 1.6795000000 0.9640000000
0.5048000000 3.9573000000 0.8198000000
0.5047000000 2.5979000000 1.2941000000
0.5045000000 1.9778000000 1.0784000000
0.5041000000 4.9380000000 0.2499000000
0.5040000000 2.2168000000 1.1633000000
0.5040000000 2.1651000000 1.1452000000
0.5039000000 2.4886000000 1.2669000000
0.5038000000 1.1062000000 0.7512000000
0.5036000000 2.2577000000 1.1839000000
0.5033000000 1.7278000000 0.9785000000
0.5032000000 2.5595000000 1.2937000000
0.5031000000 2.1604000000 1.1423000000
0.5030000000 4.9630000000 0.2321000000
0.5028000000 0.2659000000 0.2081000000
0.5028000000 5.0884000000 0.1354000000
0.5028000000 0.1451000000 0.1249000000
0.5027000000 0.6877000000 0.5266000000
0.5026000000 1.3851000000 0.8533000000
0.5025000000 2.7707000000 1.2630000000
0.5024000000 3.1612000000 1.1199000000
0.5022000000 2.9346000000 1.2000000000
0.5022000000 1.3457000000 0.8434000000
0.5021000000 1.3499000000 0.8439000000
0.5020000000 1.2961000000 0.8204000000
0.5019000000 2.6342000000 1.3013000000
0.5019000000 3.0419000000 1.1624000000
0.5018000000 1.1435000000 0.7626000000
0.5017000000 2.3933000000 1.2339000000
0.5015000000 0.2852000000 0.2313000000
0.5014000000 0.3133000000 0.2536000000
0.5014000000 0.2298000000 0.1865000000
0.5013000000 2.0401000000 1.0937000000
0.5012000000 0.7535000000 0.5714000000
0.5010000000 4.3699000000 0.6523000000
0.5009000000 0.2776000000 0.2220000000
0.5009000000 2.9194000000 1.2041000000
0.5008000000 2.4817000000 1.2620000000
0.5007000000 1.3016000000 0.8229000000
0.5007000000 3.6734000000 0.9264000000
0.5005000000 2.2827000000 1.1868000000
0.5005000000 4.1015000000 0.7640000000
0.5003000000 0.8258000000 0.6141000000
0.5003000000 3.8323000000 0.8700000000
0.5003000000 0.0154000000 0.0302000000
0.5001000000 3.3990000000 1.0282000000
0.4999000000 0.6375000000 0.4861000000
0.4995000000 2.5634000000 1.2930000000
0.4995000000 1.0054000000 0.7140000000
0.4994000000 0.2497000000 0.2013000000
0.4993000000 4.3262000000 0.6687000000
0.4989000000 1.5829000000 0.9299000000
0.4985000000 2.0566000000 1.1037000000
0.4978000000 2.9152000000 1.2053000000
0.4977000000 2.4571000000 1.2475000000
0.4973000000 0.4193000000 0.3287000000
0.2609000000 0.1068000000 0.0955000000
0.2608000000 1.8139000000 0.8570000000
0.2595000000 3.8213000000 0.7111000000
0.2592000000 1.2748000000 0.6601000000
0.2592000000 2.9180000000 1.0509000000
0.2587000000 1.4845000000 0.7363000000
0.2584000000 5.1953000000 0.0548000000
0.2580000000 4.1061000000 0.6099000000
0.2580000000 4.4616000000 0.4750000000
0.2575000000 1.6649000000 0.8013000000
0.2570000000 3.0650000000 0.9992000000
0.2568000000 1.9971000000 0.9234000000
0.2566000000 4.1531000000 0.5917000000
0.2565000000 1.6796000000 0.8102000000
0.2563000000 3.8660000000 0.6955000000
0.2561000000 1.3799000000 0.6940000000
0.2561000000 1.5726000000 0.7649000000
0.2560000000 2.6211000000 1.1508000000
0.2560000000 1.0757000000 0.5843000000
0.2555000000 5.0375000000 0.1758000000
0.2554000000 3.2066000000 0.9398000000
0.2551000000 4.6035000000 0.4190000000
0.2550000000 1.6890000000 0.8065000000
0.2549000000 0.5908000000 0.4018000000
0.2549000000 4.7085000000 0.3754000000
0.2548000000 5.1531000000 0.0847000000
0.2548000000 3.5223000000 0.8252000000
0.2543000000 4.6686000000 0.3965000000
0.2543000000 3.7697000000 0.7356000000
0.2541000000 1.6730000000 0.7967000000
0.2541000000 4.5504000000 0.4413000000
0.2540000000 0.3928000000 0.2981000000
0.2537000000 3.0030000000 1.0151000000
0.2537000000 0.1630000000 0.1404000000
0.2536000000 3.7064000000 0.7535000000
0.2536000000 0.5638000000 0.3886000000
0.2535000000 4.8042000000 0.3313000000
0.2534000000 5.1432000000 0.0929000000
0.2533000000 2.7912000000 1.1003000000
0.2533000000 2.5276000000 1.1187000000
0.2532000000 1.6576000000 0.7937000000
0.2530000000 1.8110000000 0.8540000000
0.2529000000 2.4414000000 1.0839000000
0.2528000000 2.7511000000 1.1160000000
0.2528000000 1.2632000000 0.6489000000
0.2527000000 4.9046000000 0.2612000000
0.2526000000 3.0706000000 0.9833000000
0.2525000000 1.4377000000 0.7198000000
0.2525000000 4.8683000000 0.2852000000
0.2524000000 4.0095000000 0.6388000000
0.2522000000 2.5224000000 1.1167000000
0.2521000000 0.5475000000 0.3803000000
0.2517000000 1.4033000000 0.6893000000
0.2516000000 4.6030000000 0.4168000000
0.2514000000 2.6646000000 1.1296000000
0.2512000000 1.1608000000 0.6079000000
0.2512000000 0.3835000000 0.2851000000
0.2510000000 0.9708000000 0.5349000000
0.2508000000 1.4543000000 0.7152000000
0.2507000000 3.5923000000 0.7925000000
0.2502000000 3.8083000000 0.7176000000
0.2500000000 3.0683000000 0.9886000000
0.2499000000 2.8781000000 1.0637000000
0.2498000000 4.4308000000 0.4811000000
0.2498000000 0.6096000000 0.4078000000
0.2497000000 1.6547000000 0.7942000000
0.2496000000 0.4177000000 0.3116000000
0.2494000000 0.5427000000 0.3754000000
0.2493000000 4.0120000000 0.6380000000
0.2493000000 3.1209000000 0.9658000000
0.2492000000 0.4782000000 0.3385000000
0.2491000000 1.2502000000 0.6424000000
0.2489000000 2.6693000000 1.1295000000
0.2482000000 4.9749000000 0.2176000000
0.2479000000 0.8365000000 0.4857000000
0.2476000000 0.1776000000 0.1449000000
0.2475000000 4.5785000000 0.4280000000
0.2473000000 0.2721000000 0.2140000000
0.2471000000 0.8509000000 0.4916000000
0.2459000000 0.4624000000 0.3342000000
0.2458000000 1.1991000000 0.6206000000
0.2450000000 1.0954000000 0.5846000000
0.2445000000 0.1887000000 0.1561000000
0.2444000000 4.2999000000 0.5276000000
0.2436000000 1.4551000000 0.7167000000
0.0140000000 3.6235000000 0.6311000000
0.0119000000 2.9154000000 0.8939000000
0.0109000000 0.2695000000 0.1220000000
0.0095000000 1.4698000000 0.5661000000
0.0090000000 0.3613000000 0.1535000000
0.0079000000 2.7496000000 0.9512000000
0.0079000000 2.7317000000 0.9539000000
0.0076000000 4.0942000000 0.4527000000
0.0073000000 4.8036000000 0.1819000000
0.0072000000 3.8670000000 0.5371000000
0.0070000000 3.7390000000 0.5821000000
0.0068000000 0.2014000000 0.0956000000
0.0067000000 3.7659000000 0.5734000000
0.0066000000 4.2494000000 0.3928000000
0.0066000000 0.2725000000 0.1242000000
0.0065000000 3.6415000000 0.6184000000
0.0063000000 5.1893000000 0.0287000000
0.0063000000 0.1789000000 0.0868000000
0.0062000000 3.6836000000 0.6050000000
0.0061000000 4.6057000000 0.2554000000
0.0060000000 2.6771000000 0.9659000000
0.0058000000 3.5238000000 0.6598000000
0.0057000000 2.7716000000 0.9397000000
0.0055000000 4.9877000000 0.1170000000
0.0054000000 3.4349000000 0.6946000000
0.0053000000 0.1462000000 0.0751000000
0.0050000000 2.0682000000 0.7822000000
0.0050000000 1.4660000000 0.5587000000
0.0049000000 3.6628000000 0.6103000000
0.0047000000 4.6926000000 0.2267000000
0.0045000000 5.2031000000 0.0266000000
0.0044000000 4.1790000000 0.4197000000
0.0043000000 3.4432000000 0.6902000000
0.0041000000 2.6719000000 0.9734000000
0.0039000000 1.8900000000 0.7153000000
0.0038000000 0.7735000000 0.3022000000
0.0038000000 5.1535000000 0.0391000000
0.0035000000 1.0760000000 0.4144000000
0.0035000000 0.6856000000 0.2745000000
0.0033000000 2.8246000000 0.9193000000
0.0033000000 3.0377000000 0.8433000000
0.0032000000 2.5920000000 0.9736000000
0.0031000000 4.3252000000 0.3622000000
0.0029000000 1.6500000000 0.6305000000
0.0028000000 3.9983000000 0.4819000000
0.0028000000 3.8455000000 0.5455000000
0.0028000000 1.4833000000 0.5709000000
0.0027000000 0.3684000000 0.1484000000
0.0025000000 2.0271000000 0.7674000000
0.0025000000 4.8101000000 0.1791000000
0.0024000000 2.7942000000 0.9316000000
0.0023000000 1.9526000000 0.7423000000
0.0019000000 1.6911000000 0.6421000000
0.0018000000 3.0240000000 0.8436000000
0.0017000000 4.1607000000 0.4196000000
0.0013000000 5.0803000000 0.0810000000
0.0013000000 1.8352000000 0.6973000000
0.0012000000 1.4143000000 0.5395000000
0.0011000000 1.3170000000 0.4983000000
0.0010000000 2.5438000000 0.9600000000
0.0009000000 4.4048000000 0.3299000000
0.0008000000 4.4575000000 0.3125000000
0.0006000000 1.1442000000 0.4446000000
0.0006000000 2.4951000000 0.9428000000
0.0004000000 2.9613000000 0.8692000000
0.0003000000 4.3336000000 0.3605000000
0.0003000000 4.5257000000 0.2875000000
-0.0002000000 0.0299000000 0.0127000000
-0.0006000000 4.0945000000 0.4475000000
-0.0009000000 1.8622000000 0.7033000000
-0.0010000000 4.6836000000 0.2222000000
-0.0017000000 0.5507000000 0.2164000000
-0.0040000000 2.0223000000 0.7638000000
-0.0052000000 0.1769000000 0.0752000000
-0.2339000000 2.1316000000 0.6653000000
-0.2385000000 5.0403000000 0.0159000000
-0.2388000000 3.9354000000 0.3489000000
-0.2405000000 0.2815000000 0.0411000000
-0.2405000000 3.5550000000 0.4907000000
-0.2408000000 2.7935000000 0.7724000000
-0.2410000000 4.6327000000 0.0878000000
-0.2417000000 3.1809000000 0.6312000000
-0.2419000000 0.7271000000 0.1310000000
-0.2421000000 2.7031000000 0.8072000000
-0.2428000000 4.9524000000 0.0433000000
-0.2427000000 4.6134000000 0.0923000000
-0.2440000000 1.8024000000 0.5280000000
-0.2441000000 4.9374000000 0.0488000000
-0.2444000000 1.7667000000 0.5078000000
-0.2446000000 2.8962000000 0.7362000000
-0.2447000000 4.4158000000 0.1705000000
-0.2447000000 3.0128000000 0.6868000000
-0.2450000000 3.5043000000 0.5070000000
-0.2451000000 0.4594000000 0.0296000000
-0.2451000000 5.0402000000 0.0107000000
-0.2452000000 1.3946000000 0.3699000000
-0.2452000000 3.7301000000 0.4219000000
-0.2453000000 0.6640000000 0.1069000000
-0.2454000000 0.8869000000 0.1837000000
-0.2455000000 1.9732000000 0.5896000000
-0.2456000000 0.7386000000 0.1261000000
-0.2457000000 5.0133000000 0.0198000000
-0.2457000000 2.6591000000 0.8099000000
-0.2458000000 4.9055000000 0.0604000000
-0.2458000000 0.3729000000 0.0643000000
-0.2459000000 2.5404000000 0.8044000000
-0.2461000000 4.8793000000 0.0719000000
-0.2462000000 2.6133000000 0.8170000000
-0.2464000000 5.0621000000 -0.0004000000
-0.2465000000 3.9487000000 0.3428000000
-0.2466000000 5.0022000000 0.0207000000
-0.2467000000 4.6696000000 0.0699000000
-0.2468000000 3.3829000000 0.5496000000
-0.2469000000 2.0960000000 0.6394000000
-0.2470000000 4.2925000000 0.2129000000
-0.2470000000 1.7484000000 0.5121000000
-0.2471000000 2.5027000000 0.7853000000
-0.2472000000 2.5230000000 0.7938000000
-0.2472000000 0.9029000000 0.1988000000
-0.2472000000 4.8638000000 0.0764000000
-0.2474000000 3.1005000000 0.6548000000
-0.2475000000 4.1757000000 0.2594000000
-0.2476000000 0.2945000000 0.0342000000
-0.2479000000 0.2023000000 0.0052000000
-0.2483000000 0.6742000000 0.1039000000
-0.2484000000 3.7852000000 0.4045000000
-0.2484000000 1.9637000000 0.5841000000
-0.2485000000 4.1974000000 0.2464000000
-0.2487000000 0.3302000000 0.0559000000
-0.2486000000 5.0382000000 0.0078000000
-0.2487000000 3.7734000000 0.4050000000
-0.2489000000 5.0088000000 0.0256000000
-0.2490000000 2.3954000000 0.7423000000
-0.2492000000 0.3985000000 0.0781000000
-0.2492000000 4.3425000000 0.1871000000
-0.2495000000 2.3561000000 0.7304000000
-0.2495000000 0.5371000000 0.0544000000
-0.2496000000 2.3545000000 0.7287000000
-0.2497000000 1.5885000000 0.4448000000
