3.0053000000 4.8001000000 0.5944000000
3.0053000000 3.9715000000 0.8878000000
3.0052000000 2.5243000000 1.1164000000
3.0049000000 4.7416000000 0.6197000000
3.0043000000 3.4029000000 1.0881000000
3.0043000000 3.5990000000 1.0189000000
3.0043000000 0.6826000000 0.4588000000
3.0042000000 4.6584000000 0.6532000000
3.0042000000 3.6304000000 1.0079000000
3.0040000000 3.1446000000 1.1818000000
3.0041000000 1.2390000000 0.6669000000
3.0040000000 3.4910000000 1.0563000000
3.0036000000 3.2989000000 1.1245000000
3.0035000000 5.0244000000 0.5158000000
3.0034000000 0.5396000000 0.3810000000
3.0033000000 2.9750000000 1.2356000000
3.0033000000 1.8299000000 0.8821000000
3.0032000000 5.5197000000 0.2404000000
3.0031000000 1.4640000000 0.7484000000
3.0029000000 2.5372000000 1.1253000000
3.0027000000 0.7332000000 0.4847000000
3.0026000000 4.6777000000 0.6418000000
3.0026000000 4.6408000000 0.6562000000
3.0025000000 3.4279000000 1.0817000000
3.0025000000 4.7540000000 0.6131000000
3.0024000000 4.9098000000 0.5615000000
3.0023000000 0.5638000000 0.3925000000
3.0022000000 0.3014000000 0.2150000000
3.0020000000 1.0697000000 0.6089000000
3.0020000000 2.7478000000 1.2054000000
3.0020000000 4.1995000000 0.8100000000
3.0017000000 2.3215000000 1.0498000000
3.0015000000 0.9283000000 0.5626000000
3.0014000000 2.7384000000 1.1996000000
3.0014000000 1.0467000000 0.6003000000
3.0013000000 2.7575000000 1.2008000000
3.0010000000 0.6654000000 0.4562000000
3.0011000000 0.2071000000 0.1600000000
3.0008000000 2.6988000000 1.1807000000
3.0006000000 4.4498000000 0.7182000000
3.0007000000 4.7033000000 0.6376000000
3.0005000000 5.3063000000 0.3823000000
3.0003000000 5.7665000000 0.0674000000
3.0002000000 0.8070000000 0.5179000000
3.0000000000 0.0625000000 0.0484000000
3.0000000000 4.3253000000 0.7646000000
2.9999000000 0.4774000000 0.3438000000
2.9998000000 3.8502000000 0.9297000000
2.9995000000 5.8256000000 0.0199000000
2.9994000000 0.5083000000 0.3667000000
2.9991000000 2.0274000000 0.9448000000
2.9990000000 0.8065000000 0.5194000000
2.9987000000 2.1236000000 0.9864000000
2.9986000000 0.5632000000 0.3926000000
2.9984000000 0.3238000000 0.2378000000
2.9983000000 1.6711000000 0.8229000000
2.9977000000 2.8268000000 1.2279000000
2.9964000000 0.0920000000 0.0742000000
2.9961000000 4.0043000000 0.8834000000
2.9957000000 0.2545000000 0.1879000000
2.9955000000 1.7055000000 0.8290000000
2.9953000000 4.8198000000 0.5966000000
2.9948000000 5.2468000000 0.4158000000
2.9944000000 0.0169000000 0.0204000000
2.9942000000 1.0826000000 0.6234000000
2.9934000000 2.0504000000 0.9582000000
2.7628000000 4.4652000000 0.8621000000
2.7624000000 4.2528000000 0.9369000000
2.7616000000 5.3415000000 0.3594000000
2.7605000000 4.4659000000 0.8620000000
2.7601000000 5.7811000000 0.0552000000
2.7591000000 3.9853000000 1.0329000000
2.7590000000 5.0935000000 0.5311000000
2.7587000000 1.7267000000 0.9822000000
2.7585000000 0.9498000000 0.6740000000
2.7583000000 3.4645000000 1.2164000000
2.7582000000 1.7679000000 1.0006000000
2.7578000000 3.4273000000 1.2313000000
2.7577000000 2.1440000000 1.1348000000
2.7572000000 4.5598000000 0.8259000000
2.7570000000 4.9885000000 0.6133000000
2.7570000000 4.3946000000 0.8921000000
2.7569000000 0.4146000000 0.3018000000
2.7566000000 4.7942000000 0.7314000000
2.7565000000 4.3334000000 0.9123000000
2.7563000000 4.7167000000 0.7708000000
2.7562000000 2.7414000000 1.3494000000
2.7560000000 5.4752000000 0.2631000000
2.7559000000 1.9154000000 1.0565000000
2.7559000000 4.5691000000 0.8283000000
2.7558000000 2.8050000000 1.3695000000
2.7558000000 2.9356000000 1.3942000000
2.7557000000 3.0781000000 1.3532000000
2.7556000000 4.9673000000 0.6215000000
2.7556000000 1.6491000000 0.9624000000
2.7552000000 0.3382000000 0.2436000000
2.7551000000 3.3774000000 1.2495000000
2.7550000000 1.4299000000 0.8898000000
2.7547000000 1.3141000000 0.8445000000
2.7545000000 2.0713000000 1.1115000000
2.7545000000 5.5851000000 0.1879000000
2.7544000000 2.1481000000 1.1402000000
2.7543000000 3.3291000000 1.2693000000
2.7543000000 4.3419000000 0.9137000000
2.7542000000 0.0404000000 0.0400000000
2.7538000000 3.3580000000 1.2578000000
2.7539000000 0.3778000000 0.2710000000
2.7538000000 2.1223000000 1.1302000000
2.7540000000 0.6068000000 0.4364000000
2.7537000000 0.2690000000 0.2004000000
2.7536000000 5.3916000000 0.3186000000
2.7533000000 2.2330000000 1.1729000000
2.7532000000 3.5393000000 1.1946000000
2.7531000000 3.5536000000 1.1899000000
2.7530000000 1.4178000000 0.8892000000
2.7530000000 2.2031000000 1.1612000000
2.7530000000 2.5358000000 1.2784000000
2.7529000000 4.2340000000 0.9449000000
2.7527000000 4.5095000000 0.8573000000
2.7527000000 3.6049000000 1.1741000000
2.7525000000 2.6704000000 1.3280000000
2.7524000000 3.8899000000 1.0694000000
2.7524000000 2.7277000000 1.3389000000
2.7523000000 1.1026000000 0.7648000000
2.7522000000 0.0861000000 0.0726000000
2.7520000000 1.3554000000 0.8646000000
2.7516000000 1.6467000000 0.9624000000
2.7515000000 1.9751000000 1.0846000000
2.7512000000 0.0747000000 0.0649000000
2.7510000000 5.3741000000 0.3403000000
2.7507000000 3.3029000000 1.2794000000
2.7504000000 2.7446000000 1.3538000000
2.7504000000 3.0070000000 1.3818000000
2.7503000000 2.2611000000 1.1772000000
2.7501000000 1.4083000000 0.8814000000
2.7500000000 4.1588000000 0.9828000000
2.7499000000 2.0569000000 1.1094000000
2.7495000000 1.6192000000 0.9593000000
2.7494000000 0.4458000000 0.3238000000
2.7492000000 1.1688000000 0.7928000000
2.7491000000 5.5477000000 0.2134000000
2.7491000000 1.2472000000 0.8266000000
2.7490000000 2.6715000000 1.3316000000
2.7483000000 0.2247000000 0.1654000000
2.7477000000 2.7830000000 1.3723000000
2.7477000000 0.1695000000 0.1321000000
2.7473000000 3.1168000000 1.3479000000
2.7449000000 1.1901000000 0.8023000000
2.7407000000 2.7933000000 1.3759000000
2.5112000000 4.5878000000 0.8859000000
2.5107000000 4.5055000000 0.9476000000
2.5092000000 3.3973000000 1.3877000000
2.5088000000 2.8489000000 1.5403000000
2.5085000000 4.1272000000 1.1342000000
2.5083000000 4.7672000000 0.7585000000
2.5082000000 4.9684000000 0.6224000000
2.5078000000 3.8553000000 1.2369000000
2.5077000000 4.9118000000 0.6640000000
2.5075000000 4.5498000000 0.9158000000
2.5074000000 4.0717000000 1.1558000000
2.5073000000 2.2685000000 1.3330000000
2.5068000000 1.3476000000 0.9578000000
2.5068000000 5.2620000000 0.4115000000
2.5067000000 2.1606000000 1.2916000000
2.5067000000 1.1072000000 0.7941000000
2.5066000000 4.6194000000 0.8640000000
2.5064000000 2.9649000000 1.5372000000
2.5064000000 3.7132000000 1.2852000000
2.5063000000 5.1278000000 0.5058000000
2.5061000000 3.4049000000 1.3856000000
2.5061000000 4.9059000000 0.6660000000
2.5059000000 2.5145000000 1.4225000000
2.5057000000 1.5831000000 1.0821000000
2.5056000000 2.5934000000 1.4438000000
2.5055000000 3.4168000000 1.3829000000
2.5053000000 1.8903000000 1.2019000000
2.5053000000 5.3197000000 0.3762000000
2.5051000000 0.6677000000 0.4817000000
2.5052000000 3.0654000000 1.5138000000
2.5049000000 2.6614000000 1.4741000000
2.5048000000 2.9687000000 1.5393000000
2.5046000000 2.1407000000 1.2937000000
2.5045000000 5.2459000000 0.4302000000
2.5044000000 3.7324000000 1.2755000000
2.5044000000 0.1599000000 0.1177000000
2.5043000000 2.3373000000 1.3616000000
2.5043000000 1.5849000000 1.0859000000
2.5042000000 2.9422000000 1.5414000000
2.5042000000 2.8495000000 1.5356000000
2.5041000000 3.5286000000 1.3558000000
2.5039000000 3.4395000000 1.3847000000
2.5038000000 3.5714000000 1.3312000000
2.5038000000 4.2715000000 1.0778000000
2.5035000000 2.5075000000 1.4225000000
2.5033000000 3.0924000000 1.5034000000
2.5032000000 2.5988000000 1.4519000000
2.5030000000 3.4054000000 1.3926000000
2.5030000000 1.5328000000 1.0580000000
2.5029000000 0.4856000000 0.3542000000
2.5027000000 5.3539000000 0.3528000000
2.5026000000 1.1092000000 0.7870000000
2.5025000000 2.0955000000 1.2725000000
2.5025000000 0.3881000000 0.2794000000
2.5023000000 2.4654000000 1.4013000000
2.5023000000 1.9333000000 1.2189000000
2.5022000000 4.1101000000 1.1496000000
2.5022000000 1.3838000000 0.9809000000
2.5021000000 1.0709000000 0.7600000000
2.5020000000 3.5545000000 1.3396000000
2.5017000000 3.8418000000 1.2389000000
2.5015000000 3.0247000000 1.5287000000
2.5015000000 1.3512000000 0.9613000000
2.5013000000 3.7303000000 1.2807000000
2.5012000000 3.0075000000 1.5356000000
2.5010000000 3.2831000000 1.4387000000
2.5009000000 4.3904000000 1.0162000000
2.5008000000 4.7657000000 0.7657000000
2.5006000000 1.7605000000 1.1606000000
2.5005000000 0.6107000000 0.4361000000
2.5001000000 1.4075000000 0.9914000000
2.5001000000 4.3256000000 1.0585000000
2.4999000000 1.1045000000 0.7834000000
2.4998000000 5.5340000000 0.2241000000
2.4995000000 0.8795000000 0.6237000000
2.4994000000 3.5925000000 1.3313000000
2.4991000000 1.8904000000 1.2040000000
2.4988000000 0.7779000000 0.5583000000
2.4978000000 0.4909000000 0.3570000000
2.4978000000 0.6086000000 0.4362000000
2.4970000000 3.6769000000 1.3008000000
2.4969000000 2.9735000000 1.5454000000
2.4968000000 0.7991000000 0.5758000000
2.4966000000 2.9744000000 1.5450000000
2.4963000000 1.3611000000 0.9640000000
2.4963000000 1.4303000000 1.0041000000
2.4956000000 0.5146000000 0.3690000000
2.2623000000 4.9089000000 0.6617000000
2.2611000000 4.6282000000 0.8658000000
2.2608000000 5.0395000000 0.5719000000
2.2604000000 4.5660000000 0.9023000000
2.2599000000 4.9361000000 0.6493000000
2.2596000000 3.7541000000 1.4171000000
2.2594000000 4.8741000000 0.6868000000
2.2590000000 4.8033000000 0.7366000000
2.2590000000 3.8128000000 1.3938000000
2.2588000000 5.0657000000 0.5578000000
2.2589000000 4.3154000000 1.0815000000
2.2587000000 0.1820000000 0.1342000000
2.2585000000 3.1443000000 1.6339000000
2.2578000000 1.4786000000 1.0519000000
2.2576000000 3.3685000000 1.5531000000
2.2575000000 2.3253000000 1.5023000000
2.2574000000 5.2127000000 0.4530000000
2.2573000000 5.2615000000 0.4155000000
2.2573000000 3.2278000000 1.6014000000
2.2572000000 2.9351000000 1.6947000000
2.2570000000 3.7675000000 1.4128000000
2.2569000000 2.6519000000 1.6261000000
2.2568000000 4.6393000000 0.8555000000
2.2567000000 2.7424000000 1.6540000000
2.2564000000 2.5517000000 1.5858000000
2.2562000000 4.7830000000 0.7514000000
2.2560000000 1.5348000000 1.0909000000
2.2559000000 0.4719000000 0.3418000000
2.2559000000 4.6862000000 0.8257000000
2.2557000000 0.1206000000 0.0953000000
2.2556000000 3.1980000000 1.6130000000
2.2555000000 3.4892000000 1.5141000000
2.2555000000 5.6738000000 0.1276000000
2.2554000000 1.2223000000 0.8730000000
2.2551000000 1.4581000000 1.0359000000
2.2550000000 4.3547000000 1.0559000000
2.2548000000 0.0235000000 0.0314000000
2.2546000000 5.5288000000 0.2268000000
2.2545000000 3.2947000000 1.5806000000
2.2545000000 3.1529000000 1.6336000000
2.2544000000 3.8561000000 1.3811000000
2.2544000000 1.0235000000 0.7331000000
2.2543000000 3.5348000000 1.5003000000
2.2542000000 0.2524000000 0.1875000000
2.2542000000 5.6807000000 0.1232000000
2.2541000000 5.1983000000 0.4586000000
2.2540000000 1.6009000000 1.1371000000
2.2539000000 0.9107000000 0.6519000000
2.2538000000 3.5693000000 1.4906000000
2.2537000000 3.3634000000 1.5536000000
2.2535000000 4.7736000000 0.7663000000
2.2534000000 0.3817000000 0.2800000000
2.2534000000 1.9914000000 1.3775000000
2.2533000000 0.1323000000 0.1042000000
2.2531000000 3.1987000000 1.6203000000
2.2529000000 0.2856000000 0.2088000000
2.2529000000 4.2458000000 1.1317000000
2.2528000000 0.7710000000 0.5541000000
2.2528000000 2.6671000000 1.6291000000
2.2527000000 2.8945000000 1.6916000000
2.2527000000 2.5519000000 1.5877000000
2.2526000000 5.4609000000 0.2822000000
2.2525000000 4.3555000000 1.0489000000
2.2525000000 1.6231000000 1.1470000000
2.2524000000 1.6496000000 1.1743000000
2.2524000000 2.8037000000 1.6789000000
2.2523000000 5.7676000000 0.0583000000
2.2523000000 4.9800000000 0.6073000000
2.2522000000 5.4255000000 0.3010000000
2.2520000000 4.4468000000 0.9883000000
2.2519000000 2.4298000000 1.5501000000
2.2518000000 3.0821000000 1.6568000000
2.2516000000 3.3501000000 1.5650000000
2.2517000000 0.6139000000 0.4359000000
2.2513000000 4.3894000000 1.0261000000
2.2512000000 4.9908000000 0.6076000000
2.2511000000 2.5831000000 1.5991000000
2.2504000000 3.8884000000 1.3666000000
2.2500000000 3.4836000000 1.5231000000
2.2498000000 3.6008000000 1.4767000000
2.2494000000 2.3643000000 1.5220000000
2.2494000000 5.3656000000 0.3413000000
2.2492000000 0.2311000000 0.1707000000
2.2492000000 0.3177000000 0.2291000000
2.2489000000 0.5189000000 0.3745000000
2.2488000000 1.5067000000 1.0678000000
2.2486000000 4.8353000000 0.7168000000
2.2485000000 2.5345000000 1.5863000000
2.2482000000 0.4418000000 0.3230000000
2.2477000000 0.9657000000 0.6869000000
2.2453000000 0.1279000000 0.0962000000
2.2444000000 3.4269000000 1.5430000000
2.0149000000 5.6691000000 0.1291000000
2.0105000000 5.6404000000 0.1527000000
2.0102000000 0.1216000000 0.0941000000
2.0099000000 4.6679000000 0.8349000000
2.0098000000 5.5501000000 0.2120000000
2.0091000000 1.4025000000 0.9946000000
2.0089000000 4.5812000000 0.8896000000
2.0088000000 4.1469000000 1.1981000000
2.0087000000 2.8359000000 1.8365000000
2.0085000000 2.9801000000 1.8464000000
2.0085000000 3.6559000000 1.5415000000
2.0084000000 1.9937000000 1.4129000000
2.0084000000 2.5790000000 1.7448000000
2.0080000000 4.7111000000 0.8055000000
2.0078000000 1.1298000000 0.8035000000
2.0077000000 3.4295000000 1.6764000000
2.0075000000 4.0096000000 1.3019000000
2.0074000000 1.0359000000 0.7353000000
2.0073000000 4.1851000000 1.1736000000
2.0073000000 3.6962000000 1.5154000000
2.0072000000 5.4939000000 0.2503000000
2.0071000000 4.8795000000 0.6809000000
2.0070000000 4.2212000000 1.1444000000
2.0069000000 1.7981000000 1.2770000000
2.0068000000 2.2190000000 1.5709000000
2.0067000000 0.4926000000 0.3516000000
2.0066000000 0.2387000000 0.1754000000
2.0065000000 5.6428000000 0.1469000000
2.0065000000 5.7430000000 0.0743000000
2.0063000000 1.3552000000 0.9613000000
2.0060000000 4.2079000000 1.1564000000
2.0060000000 1.9006000000 1.3465000000
2.0058000000 2.7744000000 1.8124000000
2.0057000000 1.7007000000 1.2078000000
2.0055000000 1.0232000000 0.7318000000
2.0054000000 4.6710000000 0.8292000000
2.0053000000 5.3679000000 0.3438000000
2.0052000000 0.5562000000 0.4014000000
2.0051000000 4.5274000000 0.9314000000
2.0050000000 5.6667000000 0.1258000000
2.0050000000 5.4717000000 0.2692000000
2.0050000000 5.1237000000 0.5113000000
2.0049000000 0.4234000000 0.3041000000
2.0047000000 2.1717000000 1.5355000000
2.0046000000 5.6723000000 0.1277000000
2.0046000000 1.6679000000 1.1870000000
2.0045000000 4.3048000000 1.0890000000
2.0045000000 0.4049000000 0.2966000000
2.0044000000 3.0565000000 1.8240000000
2.0043000000 2.7620000000 1.8099000000
2.0042000000 2.1910000000 1.5490000000
2.0040000000 2.9766000000 1.8495000000
2.0040000000 5.5405000000 0.2234000000
2.0039000000 2.7175000000 1.7940000000
2.0038000000 1.3555000000 0.9594000000
2.0037000000 5.3852000000 0.3301000000
2.0035000000 3.8944000000 1.3747000000
2.0035000000 2.4960000000 1.7263000000
2.0033000000 2.4295000000 1.6801000000
2.0033000000 5.6560000000 0.1387000000
2.0031000000 4.5488000000 0.9143000000
2.0031000000 3.4559000000 1.6694000000
2.0030000000 0.1648000000 0.1273000000
2.0028000000 5.7708000000 0.0594000000
2.0027000000 4.8665000000 0.6904000000
2.0020000000 4.4375000000 0.9958000000
2.0019000000 3.1300000000 1.7978000000
2.0015000000 4.5849000000 0.8951000000
2.0014000000 3.0955000000 1.8091000000
2.0011000000 2.2782000000 1.6070000000
2.0008000000 1.2920000000 0.9187000000
2.0005000000 5.6053000000 0.1788000000
2.0005000000 4.7833000000 0.7541000000
2.0003000000 1.5529000000 1.1013000000
2.0002000000 0.7829000000 0.5586000000
2.0000000000 2.9807000000 1.8503000000
1.9998000000 1.9938000000 1.4120000000
1.9993000000 1.6398000000 1.1602000000
1.9988000000 0.4213000000 0.3045000000
1.9976000000 1.6938000000 1.2051000000
1.9975000000 0.1737000000 0.1302000000
1.9974000000 2.3640000000 1.6587000000
1.9973000000 2.2891000000 1.6114000000
1.9969000000 4.5478000000 0.9184000000
1.9960000000 1.8085000000 1.2810000000
1.9958000000 0.2691000000 0.2022000000
1.7624000000 1.6288000000 1.1560000000
1.7614000000 5.6830000000 0.1249000000
1.7607000000 5.1923000000 0.4627000000
1.7600000000 4.5731000000 0.9005000000
1.7594000000 2.0226000000 1.4326000000
1.7591000000 4.8960000000 0.6656000000
1.7588000000 5.6478000000 0.1441000000
1.7581000000 0.6389000000 0.4556000000
1.7579000000 5.7371000000 0.0795000000
1.7579000000 5.6748000000 0.1223000000
1.7575000000 0.0412000000 0.0376000000
1.7573000000 0.9286000000 0.6657000000
1.7570000000 4.6387000000 0.8558000000
1.7568000000 1.2326000000 0.8782000000
1.7568000000 5.7946000000 0.0388000000
1.7568000000 2.1772000000 1.5421000000
1.7564000000 2.5599000000 1.8089000000
1.7563000000 4.2899000000 1.1007000000
1.7563000000 4.9145000000 0.6615000000
1.7562000000 4.6561000000 0.8393000000
1.7562000000 5.7157000000 0.1011000000
1.7560000000 4.4066000000 1.0211000000
1.7559000000 2.8889000000 1.9629000000
1.7559000000 2.7668000000 1.9401000000
1.7555000000 5.7754000000 0.0584000000
1.7555000000 3.0750000000 1.9449000000
1.7557000000 1.2643000000 0.8943000000
1.7555000000 2.7718000000 1.9461000000
1.7554000000 1.3137000000 0.9382000000
1.7553000000 0.5617000000 0.4035000000
1.7553000000 2.3391000000 1.6532000000
1.7552000000 4.6587000000 0.8411000000
1.7550000000 5.1205000000 0.5161000000
1.7548000000 1.2710000000 0.9084000000
1.7548000000 4.0725000000 1.2511000000
1.7546000000 1.0605000000 0.7489000000
1.7545000000 5.3478000000 0.3578000000
1.7544000000 1.5608000000 1.1062000000
1.7543000000 4.5597000000 0.9117000000
1.7543000000 4.5356000000 0.9239000000
1.7541000000 5.5262000000 0.2294000000
1.7540000000 2.3211000000 1.6418000000
1.7540000000 4.2877000000 1.1021000000
1.7538000000 3.0702000000 1.9483000000
1.7537000000 3.9204000000 1.3679000000
1.7538000000 4.4946000000 0.9519000000
1.7535000000 3.8549000000 1.4083000000
1.7534000000 1.6411000000 1.1611000000
1.7533000000 2.3027000000 1.6302000000
1.7532000000 1.3059000000 0.9270000000
1.7531000000 0.0225000000 0.0274000000
1.7530000000 5.0883000000 0.5370000000
1.7529000000 4.1217000000 1.2150000000
1.7528000000 1.9256000000 1.3605000000
1.7527000000 3.7660000000 1.4682000000
1.7525000000 0.9770000000 0.6966000000
1.7524000000 3.8515000000 1.4014000000
1.7523000000 5.7496000000 0.0767000000
1.7522000000 4.4254000000 1.0055000000
1.7521000000 4.6188000000 0.8603000000
1.7520000000 0.0926000000 0.0755000000
1.7518000000 3.6408000000 1.5590000000
1.7518000000 4.9281000000 0.6462000000
1.7517000000 1.9564000000 1.3828000000
1.7516000000 2.6345000000 1.8614000000
1.7515000000 0.2075000000 0.1493000000
1.7515000000 4.2281000000 1.1439000000
1.7513000000 1.3094000000 0.9320000000
1.7512000000 3.7326000000 1.4912000000
1.7510000000 2.7445000000 1.9250000000
1.7509000000 0.1484000000 0.1130000000
1.7508000000 0.3267000000 0.2406000000
1.7508000000 1.2429000000 0.8773000000
1.7506000000 3.5802000000 1.5993000000
1.7505000000 1.1865000000 0.8399000000
1.7504000000 2.0391000000 1.4433000000
1.7503000000 5.7056000000 0.1045000000
1.7502000000 3.0558000000 1.9584000000
1.7502000000 0.8434000000 0.6037000000
1.7501000000 3.8305000000 1.4241000000
1.7498000000 2.0726000000 1.4697000000
1.7500000000 2.3987000000 1.6966000000
1.7496000000 1.1059000000 0.7834000000
1.7495000000 1.4393000000 1.0241000000
1.7491000000 0.3060000000 0.2213000000
1.7488000000 4.7369000000 0.7875000000
1.7487000000 2.5430000000 1.7943000000
1.7483000000 4.0354000000 1.2778000000
1.7482000000 2.6903000000 1.9003000000
1.7473000000 0.0640000000 0.0552000000
1.7471000000 0.8588000000 0.6147000000
1.7467000000 2.7072000000 1.9094000000
1.7464000000 5.1643000000 0.4898000000
1.7455000000 1.3974000000 0.9847000000
1.7454000000 2.9570000000 1.9737000000
1.7451000000 2.2585000000 1.5960000000
1.7445000000 2.2994000000 1.6226000000
1.5124000000 3.0763000000 1.9030000000
1.5121000000 2.2307000000 1.5711000000
1.5115000000 5.3860000000 0.3273000000
1.5112000000 3.5728000000 1.6008000000
1.5108000000 2.9328000000 1.9405000000
1.5100000000 4.5445000000 0.9227000000
1.5099000000 0.9200000000 0.6583000000
1.5095000000 4.8770000000 0.6812000000
1.5092000000 0.2221000000 0.1637000000
1.5086000000 5.1316000000 0.5062000000
1.5080000000 1.0520000000 0.7472000000
1.5079000000 1.8628000000 1.3204000000
1.5079000000 3.9791000000 1.3190000000
1.5078000000 3.8328000000 1.4183000000
1.5074000000 3.9603000000 1.3344000000
1.5073000000 3.7897000000 1.4503000000
1.5071000000 1.6941000000 1.2021000000
1.5070000000 3.0956000000 1.8920000000
1.5069000000 2.7899000000 1.9063000000
1.5066000000 5.3703000000 0.3426000000
1.5063000000 3.4620000000 1.6807000000
1.5063000000 4.3700000000 1.0379000000
1.5061000000 3.4922000000 1.6561000000
1.5061000000 1.2563000000 0.8900000000
1.5060000000 0.6205000000 0.4462000000
1.5060000000 2.0408000000 1.4430000000
1.5058000000 4.5672000000 0.9047000000
1.5058000000 4.8337000000 0.7194000000
1.5057000000 3.2102000000 1.8356000000
1.5055000000 2.0739000000 1.4671000000
1.5055000000 3.0995000000 1.8917000000
1.5053000000 4.6130000000 0.8754000000
1.5053000000 2.8978000000 1.9314000000
1.5051000000 2.5451000000 1.7881000000
1.5050000000 4.2414000000 1.1342000000
1.5050000000 0.5897000000 0.4259000000
1.5046000000 0.8492000000 0.6064000000
1.5044000000 4.8810000000 0.6784000000
1.5043000000 2.3952000000 1.6974000000
1.5043000000 5.2851000000 0.3948000000
1.5042000000 2.6870000000 1.8573000000
1.5041000000 4.2207000000 1.1476000000
1.5041000000 0.2952000000 0.2166000000
1.5040000000 2.2358000000 1.5803000000
1.5039000000 2.1595000000 1.5271000000
1.5038000000 0.5505000000 0.3967000000
1.5037000000 4.1330000000 1.2090000000
1.5036000000 0.0022000000 0.0145000000
1.5035000000 4.0202000000 1.2890000000
1.5035000000 0.2450000000 0.1801000000
1.5035000000 2.1135000000 1.4977000000
1.5034000000 0.9939000000 0.7064000000
1.5033000000 3.6100000000 1.5792000000
1.5032000000 2.0214000000 1.4342000000
1.5031000000 3.5959000000 1.5919000000
1.5029000000 0.0617000000 0.0508000000
1.5029000000 3.5928000000 1.5891000000
1.5028000000 4.2804000000 1.1048000000
1.5028000000 1.6080000000 1.1421000000
1.5028000000 4.7229000000 0.7941000000
1.5026000000 4.0594000000 1.2588000000
1.5025000000 3.2728000000 1.8051000000
1.5023000000 0.8866000000 0.6325000000
1.5023000000 0.7399000000 0.5307000000
1.5022000000 5.7411000000 0.0808000000
1.5020000000 0.1490000000 0.1168000000
1.5019000000 1.0253000000 0.7343000000
1.5018000000 1.2740000000 0.9040000000
1.5016000000 1.9053000000 1.3500000000
1.5014000000 3.4822000000 1.6675000000
1.5013000000 2.7975000000 1.9035000000
1.5013000000 2.2587000000 1.5966000000
1.5011000000 2.5949000000 1.8236000000
1.5010000000 1.7787000000 1.2611000000
1.5010000000 1.6013000000 1.1337000000
1.5007000000 4.7502000000 0.7748000000
1.5005000000 0.1592000000 0.1197000000
1.5005000000 4.0063000000 1.3023000000
1.5001000000 3.4954000000 1.6525000000
1.4999000000 2.5010000000 1.7587000000
1.4998000000 4.1554000000 1.1936000000
1.4998000000 1.6409000000 1.1674000000
1.4995000000 0.2727000000 0.1986000000
1.4993000000 3.4296000000 1.7048000000
1.4994000000 4.9603000000 0.6297000000
1.4990000000 4.4757000000 0.9721000000
1.4988000000 2.6252000000 1.8384000000
1.4986000000 4.6010000000 0.8821000000
1.4978000000 2.4564000000 1.7358000000
1.4976000000 0.2446000000 0.1803000000
1.4974000000 2.3395000000 1.6541000000
1.4973000000 0.8154000000 0.5833000000
1.4964000000 0.5775000000 0.4144000000
1.4963000000 0.0770000000 0.0627000000
1.4962000000 1.2682000000 0.9032000000
1.2611000000 5.1622000000 0.4817000000
1.2609000000 2.7999000000 1.7605000000
1.2608000000 1.5129000000 1.0701000000
1.2590000000 4.1441000000 1.1978000000
1.2582000000 5.2831000000 0.3942000000
1.2578000000 5.2308000000 0.4380000000
1.2576000000 4.6643000000 0.8331000000
1.2572000000 1.5122000000 1.0767000000
1.2570000000 4.2834000000 1.1068000000
1.2567000000 5.5334000000 0.2246000000
1.2566000000 3.5555000000 1.5793000000
1.2565000000 0.2962000000 0.2151000000
1.2565000000 2.9106000000 1.7847000000
1.2564000000 1.3106000000 0.9299000000
1.2563000000 4.6980000000 0.8106000000
1.2563000000 1.4022000000 0.9966000000
1.2562000000 4.3395000000 1.0665000000
1.2560000000 2.4735000000 1.6457000000
1.2560000000 4.6774000000 0.8223000000
1.2555000000 4.6788000000 0.8304000000
1.2555000000 2.7716000000 1.7461000000
1.2553000000 4.7943000000 0.7459000000
1.2552000000 2.2438000000 1.5545000000
1.2551000000 4.1456000000 1.1989000000
1.2550000000 5.6394000000 0.1497000000
1.2550000000 1.2966000000 0.9158000000
1.2550000000 5.2192000000 0.4477000000
1.2549000000 3.7021000000 1.4973000000
1.2549000000 5.7098000000 0.0989000000
1.2544000000 4.7340000000 0.7828000000
1.2543000000 4.2960000000 1.0956000000
1.2542000000 1.1695000000 0.8268000000
1.2542000000 2.6634000000 1.7108000000
1.2540000000 5.6524000000 0.1469000000
1.2539000000 2.2366000000 1.5477000000
1.2538000000 5.7471000000 0.0750000000
1.2536000000 1.3687000000 0.9753000000
1.2534000000 3.2506000000 1.6840000000
1.2533000000 0.8636000000 0.6140000000
1.2532000000 0.5196000000 0.3747000000
1.2531000000 4.7723000000 0.7608000000
1.2530000000 1.5392000000 1.0962000000
1.2529000000 3.2864000000 1.6708000000
1.2528000000 2.5576000000 1.6720000000
1.2528000000 1.4020000000 0.9950000000
1.2527000000 3.6116000000 1.5454000000
1.2527000000 1.6710000000 1.1879000000
1.2526000000 5.1030000000 0.5306000000
1.2525000000 0.5683000000 0.4058000000
1.2525000000 0.3511000000 0.2550000000
1.2525000000 3.8502000000 1.4078000000
1.2524000000 3.1344000000 1.7192000000
1.2522000000 2.2005000000 1.5342000000
1.2520000000 1.7107000000 1.2104000000
1.2519000000 4.3630000000 1.0501000000
1.2518000000 3.5712000000 1.5628000000
1.2518000000 3.2966000000 1.6682000000
1.2514000000 4.0770000000 1.2470000000
1.2514000000 1.4543000000 1.0334000000
1.2513000000 5.5921000000 0.1875000000
1.2512000000 2.2983000000 1.5803000000
1.2511000000 1.7623000000 1.2466000000
1.2509000000 5.4168000000 0.3045000000
1.2508000000 4.7830000000 0.7512000000
1.2508000000 0.2470000000 0.1883000000
1.2506000000 1.8775000000 1.3289000000
1.2506000000 2.8785000000 1.7692000000
1.2505000000 2.9751000000 1.7699000000
1.2505000000 0.5106000000 0.3718000000
1.2504000000 0.9127000000 0.6527000000
1.2502000000 4.6690000000 0.8279000000
1.2503000000 5.1547000000 0.4920000000
1.2501000000 1.5039000000 1.0677000000
1.2493000000 5.8106000000 0.0312000000
1.2493000000 3.0513000000 1.7493000000
1.2490000000 0.5841000000 0.4188000000
1.2489000000 1.2193000000 0.8658000000
1.2487000000 5.5013000000 0.2414000000
1.2481000000 1.7737000000 1.2574000000
1.2480000000 0.4982000000 0.3646000000
1.2479000000 3.9505000000 1.3362000000
1.2473000000 4.7881000000 0.7498000000
1.2468000000 1.7987000000 1.2739000000
1.2463000000 4.7115000000 0.8039000000
1.2459000000 0.0924000000 0.0741000000
1.2454000000 2.3650000000 1.6007000000
1.2450000000 5.6412000000 0.1493000000
1.0118000000 4.7508000000 0.7778000000
1.0115000000 5.1047000000 0.5310000000
1.0106000000 1.1265000000 0.8005000000
1.0095000000 4.3273000000 1.0714000000
1.0093000000 1.7478000000 1.2287000000
1.0087000000 4.3937000000 1.0262000000
1.0087000000 5.8263000000 0.0246000000
1.0086000000 4.3197000000 1.0747000000
1.0084000000 5.6795000000 0.1258000000
1.0083000000 2.9230000000 1.6413000000
1.0081000000 2.1999000000 1.3983000000
1.0078000000 5.6204000000 0.1681000000
1.0078000000 4.6799000000 0.8269000000
1.0077000000 3.0215000000 1.6175000000
1.0075000000 3.2753000000 1.5225000000
1.0075000000 4.8695000000 0.6918000000
1.0073000000 0.9773000000 0.6945000000
1.0071000000 4.0073000000 1.2592000000
1.0070000000 2.0679000000 1.3493000000
1.0066000000 5.4994000000 0.2458000000
1.0066000000 4.3181000000 1.0792000000
1.0065000000 5.5743000000 0.1955000000
1.0062000000 4.3709000000 1.0405000000
1.0062000000 2.9572000000 1.6247000000
1.0061000000 2.2332000000 1.4063000000
1.0052000000 4.5584000000 0.9115000000
1.0052000000 2.6217000000 1.5446000000
1.0051000000 3.5927000000 1.4094000000
1.0049000000 1.3863000000 0.9810000000
1.0047000000 1.3906000000 0.9857000000
1.0045000000 3.5093000000 1.4422000000
1.0043000000 1.6922000000 1.1899000000
1.0040000000 3.9829000000 1.2744000000
1.0039000000 3.3867000000 1.4797000000
1.0038000000 2.9610000000 1.6226000000
1.0037000000 0.3868000000 0.2788000000
1.0036000000 5.2186000000 0.4475000000
1.0033000000 1.2484000000 0.8859000000
1.0033000000 4.7570000000 0.7751000000
1.0029000000 1.5903000000 1.1239000000
1.0028000000 4.4068000000 1.0233000000
1.0026000000 3.7506000000 1.3551000000
1.0025000000 1.3570000000 0.9648000000
1.0023000000 0.0183000000 0.0249000000
1.0023000000 0.6541000000 0.4671000000
1.0022000000 3.8334000000 1.3269000000
1.0021000000 5.7844000000 0.0454000000
1.0020000000 3.7698000000 1.3432000000
1.0019000000 1.1341000000 0.8065000000
1.0016000000 1.4726000000 1.0446000000
1.0015000000 3.2752000000 1.5196000000
1.0011000000 3.1276000000 1.5679000000
1.0011000000 5.6352000000 0.1524000000
1.0010000000 1.5672000000 1.1101000000
1.0010000000 0.2747000000 0.2035000000
1.0006000000 4.6356000000 0.8549000000
1.0001000000 0.1594000000 0.1171000000
1.0000000000 2.6171000000 1.5414000000
0.9998000000 5.1288000000 0.5092000000
0.9991000000 4.4591000000 0.9809000000
0.9990000000 0.1939000000 0.1450000000
0.9989000000 2.6043000000 1.5341000000
0.9987000000 2.4357000000 1.4758000000
0.9987000000 0.6063000000 0.4358000000
0.9985000000 0.9333000000 0.6638000000
0.9981000000 2.0198000000 1.3276000000
0.9965000000 1.7133000000 1.1991000000
0.9960000000 0.6064000000 0.4424000000
0.9958000000 0.4466000000 0.3281000000
0.9953000000 0.4511000000 0.3288000000
0.9942000000 0.2681000000 0.2030000000
0.9940000000 1.0313000000 0.7342000000
0.9938000000 0.8624000000 0.6159000000
0.9935000000 3.2072000000 1.5339000000
0.9923000000 0.2071000000 0.1571000000
0.7642000000 3.4010000000 1.3338000000
0.7628000000 4.3682000000 0.9905000000
0.7607000000 3.7395000000 1.2091000000
0.7588000000 4.5067000000 0.9255000000
0.7587000000 2.5539000000 1.3726000000
0.7586000000 0.9878000000 0.7082000000
0.7585000000 3.0358000000 1.4598000000
0.7583000000 4.7595000000 0.7653000000
0.7578000000 3.0941000000 1.4361000000
0.7573000000 4.1963000000 1.0488000000
0.7571000000 0.0863000000 0.0735000000
0.7570000000 5.5123000000 0.2388000000
0.7570000000 2.1025000000 1.2044000000
0.7568000000 5.1300000000 0.5090000000
0.7566000000 3.6953000000 1.2287000000
0.7565000000 5.3882000000 0.3223000000
0.7564000000 5.3631000000 0.3422000000
0.7563000000 4.3658000000 0.9912000000
0.7562000000 5.0381000000 0.5751000000
0.7560000000 2.4573000000 1.3346000000
0.7555000000 4.2551000000 1.0253000000
0.7554000000 0.6970000000 0.4957000000
0.7553000000 5.1030000000 0.5316000000
0.7549000000 5.7568000000 0.0686000000
0.7550000000 4.4962000000 0.9293000000
0.7548000000 5.1062000000 0.5247000000
0.7547000000 5.4313000000 0.2934000000
0.7546000000 3.0983000000 1.4315000000
0.7546000000 1.3190000000 0.9258000000
0.7545000000 2.9290000000 1.4799000000
0.7545000000 1.2671000000 0.8908000000
0.7543000000 4.5672000000 0.8936000000
0.7543000000 5.0156000000 0.5926000000
0.7542000000 2.0333000000 1.1834000000
0.7542000000 1.5009000000 0.9939000000
0.7541000000 4.5225000000 0.9230000000
0.7540000000 4.8267000000 0.7220000000
0.7540000000 5.3979000000 0.3246000000
0.7539000000 5.0370000000 0.5728000000
0.7537000000 5.5283000000 0.2273000000
0.7537000000 3.2029000000 1.3908000000
0.7533000000 4.6093000000 0.8627000000
0.7531000000 3.3466000000 1.3418000000
0.7530000000 2.4130000000 1.3205000000
0.7530000000 3.1851000000 1.4001000000
0.7529000000 1.6614000000 1.0447000000
0.7526000000 1.8847000000 1.1296000000
0.7526000000 5.3955000000 0.3181000000
0.7523000000 3.5948000000 1.2636000000
0.7523000000 3.1169000000 1.4271000000
0.7521000000 2.3357000000 1.2906000000
0.7522000000 0.2178000000 0.1606000000
0.7521000000 4.0273000000 1.1039000000
0.7520000000 2.6485000000 1.4051000000
0.7519000000 4.9725000000 0.6229000000
0.7518000000 1.0544000000 0.7493000000
0.7518000000 5.2240000000 0.4392000000
0.7517000000 1.0438000000 0.7428000000
0.7515000000 3.3470000000 1.3441000000
0.7514000000 0.2808000000 0.2044000000
0.7513000000 1.2756000000 0.8924000000
0.7511000000 1.1550000000 0.8240000000
0.7510000000 0.9142000000 0.6560000000
0.7510000000 2.7192000000 1.4191000000
0.7509000000 0.8098000000 0.5831000000
0.7508000000 5.4269000000 0.2999000000
0.7506000000 0.2683000000 0.1941000000
0.7505000000 3.4481000000 1.3052000000
0.7500000000 2.7654000000 1.4400000000
0.7498000000 2.2004000000 1.2444000000
0.7497000000 2.2534000000 1.2563000000
0.7494000000 2.2508000000 1.2526000000
0.7493000000 2.9311000000 1.4794000000
0.7490000000 1.0183000000 0.7274000000
0.7485000000 3.4200000000 1.3153000000
0.7484000000 1.4887000000 0.9914000000
0.7478000000 1.7865000000 1.0907000000
0.7473000000 0.2024000000 0.1520000000
0.7473000000 2.7571000000 1.4363000000
0.7468000000 2.7214000000 1.4175000000
0.7463000000 3.8961000000 1.1516000000
0.7439000000 5.1038000000 0.5251000000
0.5116000000 5.7772000000 0.0540000000
0.5106000000 2.8204000000 1.3148000000
0.5102000000 5.3714000000 0.3446000000
0.5095000000 5.2397000000 0.4321000000
0.5093000000 3.8802000000 1.0103000000
0.5092000000 0.9295000000 0.6327000000
0.5091000000 1.8785000000 0.9841000000
0.5090000000 1.7875000000 0.9495000000
0.5081000000 4.9186000000 0.6330000000
0.5080000000 4.7308000000 0.7043000000
0.5079000000 5.4839000000 0.2623000000
0.5075000000 5.6128000000 0.1716000000
0.5072000000 4.4128000000 0.8217000000
0.5071000000 5.2959000000 0.3884000000
0.5068000000 5.3728000000 0.3341000000
0.5068000000 5.6451000000 0.1455000000
0.5065000000 4.3064000000 0.8547000000
0.5063000000 3.7894000000 1.0371000000
0.5061000000 1.3839000000 0.8045000000
0.5060000000 5.4644000000 0.2757000000
0.5056000000 3.2655000000 1.2210000000
0.5053000000 0.3927000000 0.2852000000
0.5052000000 1.5486000000 0.8632000000
0.5051000000 3.9479000000 0.9836000000
0.5051000000 0.3368000000 0.2422000000
0.5050000000 5.1565000000 0.4894000000
0.5049000000 1.0325000000 0.6794000000
0.5048000000 1.6264000000 0.8892000000
0.5046000000 4.9802000000 0.6032000000
0.5046000000 0.5639000000 0.4122000000
0.5045000000 2.9647000000 1.3136000000
0.5045000000 3.1163000000 1.2736000000
0.5043000000 1.7168000000 0.9201000000
0.5042000000 3.3447000000 1.1909000000
0.5041000000 5.1250000000 0.5142000000
0.5038000000 3.1142000000 1.2792000000
0.5038000000 2.3921000000 1.1594000000
0.5037000000 0.1665000000 0.1321000000
0.5033000000 1.4382000000 0.8222000000
0.5033000000 0.1893000000 0.1414000000
0.5031000000 0.2386000000 0.1762000000
0.5031000000 0.3529000000 0.2602000000
0.5030000000 1.4090000000 0.8137000000
0.5030000000 4.0338000000 0.9520000000
0.5027000000 5.8362000000 0.0085000000
0.5027000000 3.7606000000 1.0476000000
0.5023000000 2.0537000000 1.0405000000
0.5021000000 1.9908000000 1.0148000000
0.5020000000 1.3955000000 0.8068000000
0.5020000000 2.7825000000 1.2912000000
0.5019000000 2.5522000000 1.2144000000
0.5018000000 5.2980000000 0.3879000000
0.5016000000 1.6320000000 0.8923000000
0.5014000000 0.8150000000 0.5735000000
0.5010000000 0.2503000000 0.1827000000
0.5009000000 3.9513000000 0.9792000000
0.5007000000 1.0854000000 0.6981000000
0.5004000000 0.8511000000 0.5974000000
0.5004000000 4.7040000000 0.7141000000
0.4996000000 0.5860000000 0.4201000000
0.4995000000 0.7332000000 0.5272000000
0.4993000000 1.1292000000 0.7136000000
0.4984000000 1.0445000000 0.6796000000
0.4983000000 3.3908000000 1.1722000000
0.4981000000 5.5792000000 0.1936000000
0.4978000000 1.1440000000 0.7174000000
0.4978000000 2.2171000000 1.0880000000
0.4931000000 1.4565000000 0.8239000000
0.2609000000 4.2258000000 0.7311000000
0.2599000000 4.0105000000 0.8115000000
0.2596000000 5.0121000000 0.4575000000
0.2596000000 5.2595000000 0.3721000000
0.2595000000 5.7404000000 0.0809000000
0.2589000000 2.6976000000 1.1144000000
0.2588000000 5.6425000000 0.1479000000
0.2587000000 3.7684000000 0.8907000000
0.2586000000 5.0727000000 0.4380000000
0.2583000000 0.9819000000 0.5056000000
0.2581000000 4.9694000000 0.4723000000
0.2581000000 4.0071000000 0.8072000000
0.2578000000 4.4161000000 0.6664000000
0.2576000000 0.5259000000 0.3369000000
0.2573000000 3.9679000000 0.8226000000
0.2573000000 5.5107000000 0.2450000000
0.2572000000 3.7103000000 0.9197000000
0.2568000000 4.2500000000 0.7248000000
0.2567000000 1.9352000000 0.8514000000
0.2565000000 5.7635000000 0.0696000000
0.2565000000 3.2626000000 1.0700000000
0.2564000000 3.4951000000 0.9890000000
0.2561000000 4.4068000000 0.6714000000
0.2560000000 4.3141000000 0.7010000000
0.2559000000 2.2163000000 0.9475000000
0.2559000000 5.7698000000 0.0559000000
0.2558000000 3.4406000000 1.0113000000
0.2557000000 2.4522000000 1.0255000000
0.2556000000 4.3700000000 0.6835000000
0.2555000000 2.4887000000 1.0422000000
0.2554000000 4.8596000000 0.5125000000
0.2553000000 1.0824000000 0.5409000000
0.2551000000 0.9365000000 0.4949000000
0.2548000000 2.3679000000 0.9989000000
0.2547000000 1.5055000000 0.6935000000
0.2546000000 3.6490000000 0.9383000000
0.2545000000 4.7614000000 0.5395000000
0.2545000000 1.8570000000 0.8175000000
0.2544000000 0.5339000000 0.3424000000
0.2544000000 4.0442000000 0.7937000000
0.2543000000 0.0437000000 0.0445000000
0.2543000000 0.2207000000 0.1599000000
0.2542000000 2.4297000000 1.0182000000
0.2541000000 3.4803000000 0.9935000000
0.2540000000 4.3338000000 0.6952000000
0.2538000000 5.6299000000 0.1569000000
0.2538000000 2.0484000000 0.8798000000
0.2533000000 2.1723000000 0.9287000000
0.2534000000 3.6957000000 0.9194000000
0.2533000000 3.0047000000 1.1582000000
0.2532000000 1.4714000000 0.6872000000
0.2531000000 5.8324000000 0.0145000000
0.2532000000 4.2508000000 0.7188000000
0.2531000000 0.3489000000 0.2464000000
0.2528000000 3.1214000000 1.1186000000
0.2528000000 1.4036000000 0.6515000000
0.2525000000 0.9251000000 0.4894000000
0.2524000000 1.3375000000 0.6420000000
0.2523000000 3.5577000000 0.9633000000
0.2523000000 4.7641000000 0.5403000000
0.2521000000 2.2038000000 0.9401000000
0.2520000000 5.2552000000 0.3727000000
0.2520000000 5.7655000000 0.0619000000
0.2519000000 1.2151000000 0.5893000000
0.2518000000 1.5242000000 0.7003000000
0.2517000000 4.6992000000 0.5666000000
0.2516000000 4.7341000000 0.5526000000
0.2515000000 2.4907000000 1.0358000000
0.2516000000 4.1688000000 0.7510000000
0.2513000000 0.6537000000 0.3905000000
0.2512000000 5.4423000000 0.2824000000
0.2511000000 1.7011000000 0.7619000000
0.2510000000 0.8749000000 0.4677000000
0.2510000000 2.8565000000 1.1656000000
0.2509000000 5.0877000000 0.4222000000
0.2509000000 3.6207000000 0.9394000000
0.2503000000 1.0410000000 0.5269000000
0.2501000000 3.3811000000 1.0269000000
0.2500000000 5.0673000000 0.4311000000
0.2499000000 5.4475000000 0.2753000000
0.2495000000 4.5743000000 0.6065000000
0.2491000000 0.7191000000 0.4118000000
0.2489000000 2.3518000000 0.9867000000
0.2489000000 2.2507000000 0.9510000000
0.2488000000 2.5363000000 1.0581000000
0.2481000000 1.8190000000 0.7978000000
0.2477000000 3.2227000000 1.0827000000
0.2475000000 0.7952000000 0.4394000000
0.2472000000 0.6848000000 0.4009000000
0.2464000000 4.8196000000 0.5169000000
0.2459000000 2.4206000000 1.0091000000
0.2458000000 3.0610000000 1.1390000000
0.0128000000 2.2928000000 0.8208000000
0.0114000000 5.2999000000 0.2067000000
0.0105000000 4.6112000000 0.4468000000
0.0104000000 3.8635000000 0.7140000000
0.0098000000 5.6553000000 0.0843000000
0.0094000000 4.8770000000 0.3518000000
0.0090000000 0.7156000000 0.2687000000
0.0089000000 1.9620000000 0.7013000000
0.0087000000 4.9441000000 0.3248000000
0.0084000000 1.6715000000 0.6050000000
0.0084000000 3.2044000000 0.9461000000
0.0083000000 3.4843000000 0.8421000000
0.0080000000 1.8580000000 0.6687000000
0.0077000000 5.2882000000 0.2028000000
0.0076000000 5.1856000000 0.2431000000
0.0069000000 2.1528000000 0.7712000000
0.0070000000 1.2943000000 0.4701000000
0.0068000000 1.2747000000 0.4613000000
0.0065000000 4.0052000000 0.6640000000
0.0066000000 4.5901000000 0.4510000000
0.0064000000 5.8135000000 0.0882000000
0.0061000000 4.9142000000 0.3368000000
0.0057000000 3.1690000000 0.9525000000
0.0054000000 1.8707000000 0.6731000000
0.0053000000 1.8991000000 0.6749000000
0.0051000000 5.1823000000 0.2390000000
0.0051000000 5.7843000000 0.0271000000
0.0049000000 0.3612000000 0.1398000000
0.0049000000 5.5634000000 0.1040000000
0.0048000000 3.0910000000 0.9747000000
0.0046000000 1.2236000000 0.4419000000
0.0045000000 5.4920000000 0.1299000000
0.0045000000 3.1376000000 0.9583000000
0.0045000000 4.3947000000 0.5193000000
0.0043000000 1.0737000000 0.3892000000
0.0043000000 3.7477000000 0.7471000000
0.0042000000 2.1085000000 0.7541000000
0.0040000000 4.7851000000 0.3849000000
0.0040000000 5.1478000000 0.2492000000
0.0040000000 1.5699000000 0.5665000000
0.0039000000 1.9757000000 0.7077000000
0.0039000000 1.1200000000 0.4059000000
0.0038000000 0.3293000000 0.1248000000
0.0038000000 1.2831000000 0.4588000000
0.0038000000 2.1416000000 0.7643000000
0.0037000000 2.3740000000 0.8459000000
0.0036000000 4.6185000000 0.4402000000
0.0035000000 1.7448000000 0.6256000000
0.0035000000 0.1433000000 0.0570000000
0.0032000000 0.2182000000 0.0900000000
0.0032000000 3.3621000000 0.8885000000
0.0031000000 5.8188000000 0.0843000000
0.0030000000 4.1056000000 0.6199000000
0.0031000000 4.6978000000 0.4175000000
0.0029000000 4.3818000000 0.5228000000
0.0027000000 0.3216000000 0.1203000000
0.0026000000 2.7348000000 0.9692000000
0.0024000000 1.2110000000 0.4392000000
0.0023000000 2.6127000000 0.9285000000
0.0021000000 2.3034000000 0.8212000000
0.0019000000 4.7538000000 0.3953000000
0.0016000000 3.4925000000 0.8364000000
0.0015000000 1.0539000000 0.3829000000
0.0015000000 4.1664000000 0.5981000000
0.0013000000 3.5434000000 0.8215000000
0.0013000000 1.1419000000 0.4151000000
0.0011000000 0.1942000000 0.0786000000
0.0009000000 1.0408000000 0.3762000000
0.0007000000 0.7774000000 0.2882000000
0.0007000000 0.2517000000 0.0951000000
0.0003000000 1.5145000000 0.5438000000
0.0000000000 1.1840000000 0.4247000000
-0.0002000000 0.1451000000 0.0582000000
-0.0007000000 4.6656000000 0.4175000000
-0.0008000000 4.0286000000 0.6420000000
-0.0010000000 1.6053000000 0.5721000000
-0.0014000000 5.0013000000 0.3011000000
-0.0018000000 2.3601000000 0.8414000000
-0.0019000000 0.4674000000 0.1741000000
-0.0022000000 2.0046000000 0.7120000000
-0.0024000000 3.7429000000 0.7453000000
-0.0025000000 2.1170000000 0.7553000000
-0.0027000000 1.9495000000 0.6915000000
-0.0034000000 3.9835000000 0.6606000000
-0.0049000000 2.6811000000 0.9507000000
-0.2357000000 3.3943000000 0.7236000000
-0.2402000000 2.0899000000 0.5979000000
-0.2406000000 1.5425000000 0.4035000000
-0.2407000000 5.4342000000 0.0816000000
-0.2410000000 4.2369000000 0.4274000000
-0.2420000000 3.5994000000 0.6465000000
-0.2422000000 3.7470000000 0.6011000000
-0.2423000000 4.3980000000 0.3686000000
-0.2429000000 5.6426000000 0.0058000000
-0.2431000000 2.2624000000 0.6586000000
-0.2432000000 0.8121000000 0.1478000000
-0.2432000000 3.0241000000 0.8507000000
-0.2435000000 4.7007000000 0.2578000000
-0.2436000000 5.3778000000 0.0249000000
-0.2437000000 5.1088000000 0.1207000000
-0.2437000000 3.3411000000 0.7370000000
-0.2438000000 4.2235000000 0.4333000000
-0.2439000000 3.0075000000 0.8561000000
-0.2440000000 4.8303000000 0.2182000000
-0.2440000000 3.5995000000 0.6499000000
-0.2444000000 3.7936000000 0.5793000000
-0.2446000000 0.2105000000 0.0107000000
-0.2446000000 1.0994000000 0.2458000000
-0.2447000000 5.5247000000 0.0431000000
-0.2447000000 1.6048000000 0.4252000000
-0.2448000000 4.6832000000 0.2629000000
-0.2449000000 1.8071000000 0.4906000000
-0.2449000000 4.3314000000 0.3877000000
-0.2450000000 0.2219000000 0.0181000000
-0.2452000000 1.4325000000 0.3651000000
-0.2453000000 3.4965000000 0.6800000000
-0.2453000000 1.6148000000 0.4290000000
-0.2455000000 4.3378000000 0.3952000000
-0.2456000000 0.9100000000 0.1762000000
-0.2458000000 0.6593000000 0.0911000000
-0.2460000000 4.8136000000 0.2217000000
-0.2462000000 4.5307000000 0.3235000000
-0.2463000000 0.7639000000 0.1326000000
-0.2464000000 3.8409000000 0.5617000000
-0.2465000000 1.1869000000 0.2725000000
-0.2470000000 2.1615000000 0.6168000000
-0.2472000000 3.1355000000 0.8095000000
-0.2473000000 0.3781000000 0.0685000000
-0.2473000000 2.9649000000 0.8581000000
-0.2475000000 0.9018000000 0.1761000000
-0.2478000000 3.7221000000 0.5980000000
-0.2478000000 2.8473000000 0.8640000000
-0.2477000000 2.7810000000 0.8313000000
-0.2482000000 3.2774000000 0.7588000000
-0.2482000000 3.0265000000 0.8513000000
-0.2484000000 1.0773000000 0.2431000000
-0.2485000000 2.7029000000 0.8089000000
-0.2485000000 3.2525000000 0.7624000000
-0.2486000000 3.9629000000 0.5117000000
-0.2487000000 0.6756000000 0.0972000000
-0.2488000000 4.8772000000 0.1958000000
-0.2489000000 2.6216000000 0.7854000000
-0.2490000000 3.1767000000 0.7906000000
-0.2490000000 5.5984000000 0.0193000000
-0.2491000000 2.9739000000 0.8550000000
-0.2492000000 2.3539000000 0.6830000000
-0.2492000000 1.4457000000 0.3676000000
-0.2497000000 0.6693000000 0.0917000000
-0.2499000000 4.2625000000 0.4122000000
-0.2500000000 0.6511000000 0.0875000000
-0.2500000000 5.1394000000 0.1029000000
-0.2502000000 2.5380000000 0.7461000000
-0.2506000000 5.6309000000 0.0065000000
-0.2508000000 0.3077000000 0.0361000000
-0.2509000000 1.8580000000 0.5081000000
-0.2509000000 3.3968000000 0.7152000000
-0.2512000000 0.6803000000 0.0988000000
-0.2514000000 4.6105000000 0.2866000000
-0.2515000000 5.4932000000 0.0525000000
-0.2519000000 1.1658000000 0.2690000000
-0.2524000000 3.4634000000 0.6933000000
-0.2527000000 5.6399000000 -0.0022000000
-0.2529000000 1.6428000000 0.4360000000
-0.2530000000 1.4767000000 0.3694000000
-0.4911000000 4.6678000000 0.1187000000
-0.4914000000 0.8090000000 0.0663000000
-0.4916000000 5.0762000000 0.0585000000
-0.4917000000 1.8123000000 0.3448000000
-0.4925000000 2.9074000000 0.7264000000
-0.4930000000 3.3311000000 0.5967000000
-0.4931000000 0.7158000000 0.0411000000
-0.4931000000 4.5495000000 0.1661000000
-0.4934000000 5.0353000000 0.0661000000
-0.4938000000 2.3621000000 0.5375000000
-0.4941000000 3.4109000000 0.5628000000
-0.4942000000 1.9097000000 0.3781000000
-0.4943000000 4.8485000000 0.0559000000
-0.4947000000 2.7720000000 0.6798000000
-0.4947000000 5.1456000000 0.0292000000
-0.4950000000 2.1612000000 0.4641000000
-0.4950000000 3.9545000000 0.3708000000
-0.4950000000 2.2324000000 0.4956000000
-0.4951000000 2.4659000000 0.5792000000
-0.4953000000 1.4929000000 0.2352000000
-0.4953000000 3.8540000000 0.4101000000
-0.4955000000 3.3776000000 0.5695000000
-0.4958000000 2.2243000000 0.4918000000
-0.4959000000 3.1704000000 0.6443000000
-0.4959000000 3.5610000000 0.5091000000
-0.4963000000 1.5506000000 0.2515000000
-0.4964000000 4.9719000000 0.0134000000
-0.4968000000 3.2414000000 0.6286000000
-0.4968000000 2.4220000000 0.5587000000
-0.4970000000 2.2304000000 0.4904000000
-0.4970000000 4.4633000000 0.1935000000
-0.4971000000 0.9404000000 0.0371000000
-0.4971000000 3.3119000000 0.5966000000
-0.4972000000 3.2250000000 0.6304000000
-0.4975000000 3.0285000000 0.6914000000
-0.4976000000 2.0570000000 0.4246000000
-0.4977000000 2.2198000000 0.4898000000
-0.4985000000 1.4964000000 0.2354000000
-0.4986000000 1.9517000000 0.3887000000
-0.4994000000 2.1064000000 0.4417000000
-0.4994000000 4.6592000000 0.1207000000
-0.4995000000 2.1031000000 0.4494000000
-0.4996000000 1.9098000000 0.3723000000
-0.4997000000 3.1450000000 0.6531000000
-0.5001000000 4.8668000000 0.0487000000
-0.5005000000 3.3108000000 0.5887000000
-0.5006000000 0.9812000000 0.0473000000
-0.5010000000 4.1788000000 0.2900000000
-0.5015000000 1.3906000000 0.1983000000
-0.5022000000 1.7885000000 0.3258000000
-0.5026000000 2.2840000000 0.5049000000
-0.5034000000 3.3055000000 0.5945000000
-0.5037000000 1.6000000000 0.2651000000
