5.2582000000 4.0927000000 0.7142000000
5.2581000000 3.9177000000 0.7799000000
5.2578000000 1.5244000000 0.0752000000
5.2575000000 2.7624000000 0.4526000000
5.2573000000 4.9212000000 0.4016000000
5.2572000000 4.3027000000 0.6318000000
5.2565000000 2.6250000000 0.4047000000
5.2563000000 5.5450000000 0.1778000000
5.2562000000 4.5050000000 0.5582000000
5.2558000000 2.0056000000 0.1804000000
5.2555000000 3.0784000000 0.5661000000
5.2553000000 4.8808000000 0.4190000000
5.2551000000 3.0583000000 0.5638000000
5.2549000000 4.7065000000 0.4875000000
5.2545000000 1.6273000000 0.0413000000
5.2543000000 4.2420000000 0.6593000000
5.2541000000 2.3140000000 0.2931000000
5.2540000000 1.4875000000 0.0718000000
5.2536000000 6.0929000000 0.0511000000
5.2535000000 2.2803000000 0.2843000000
5.2528000000 1.3413000000 0.0134000000
5.2526000000 2.8114000000 0.4760000000
5.2521000000 1.4138000000 0.0411000000
5.2519000000 1.6284000000 0.0409000000
5.2518000000 2.6279000000 0.4140000000
5.2517000000 2.5296000000 0.3722000000
5.2515000000 1.6209000000 0.0464000000
5.2509000000 4.5735000000 0.5344000000
5.2506000000 1.3400000000 0.0091000000
5.2500000000 2.1430000000 0.2378000000
5.2491000000 2.1725000000 0.2463000000
5.2487000000 5.5073000000 0.1953000000
5.0150000000 6.2421000000 0.0805000000
5.0121000000 5.2754000000 0.4322000000
5.0115000000 1.2837000000 0.0705000000
5.0099000000 2.8651000000 0.6458000000
5.0095000000 3.5562000000 0.8992000000
5.0094000000 3.7753000000 0.9707000000
5.0090000000 6.2802000000 0.0681000000
5.0083000000 4.5193000000 0.7131000000
5.0075000000 6.3358000000 0.0510000000
5.0073000000 3.3522000000 0.8252000000
5.0070000000 4.0591000000 0.8800000000
5.0068000000 5.3897000000 0.3948000000
5.0065000000 3.5758000000 0.9070000000
5.0064000000 0.9020000000 0.0107000000
5.0061000000 5.3179000000 0.4233000000
5.0060000000 5.3059000000 0.4258000000
5.0059000000 6.0847000000 0.1402000000
5.0057000000 2.9924000000 0.7011000000
5.0056000000 2.7722000000 0.6130000000
5.0055000000 2.5156000000 0.5179000000
5.0053000000 3.4628000000 0.8690000000
5.0050000000 4.6412000000 0.6691000000
5.0049000000 5.1605000000 0.4845000000
5.0046000000 4.8203000000 0.6013000000
5.0043000000 2.9109000000 0.6661000000
5.0041000000 0.9196000000 0.0228000000
5.0038000000 1.4563000000 0.1404000000
5.0035000000 5.2942000000 0.4304000000
5.0033000000 4.2902000000 0.7983000000
5.0033000000 2.3705000000 0.4760000000
5.0031000000 1.5472000000 0.1742000000
5.0029000000 3.7045000000 0.9632000000
5.0028000000 1.6841000000 0.2254000000
5.0026000000 3.0869000000 0.7362000000
5.0023000000 6.1919000000 0.1045000000
5.0018000000 2.4583000000 0.5098000000
5.0018000000 1.8943000000 0.2971000000
5.0012000000 0.9191000000 0.0175000000
5.0007000000 1.1241000000 0.0165000000
5.0004000000 5.9066000000 0.2060000000
5.0000000000 4.3329000000 0.7850000000
4.9997000000 1.4097000000 0.1222000000
4.9993000000 3.7885000000 0.9701000000
4.9982000000 3.9712000000 0.9218000000
4.9977000000 1.9644000000 0.3246000000
4.9970000000 1.6381000000 0.2030000000
4.9944000000 1.4845000000 0.1563000000
4.7618000000 2.7782000000 0.7761000000
4.7609000000 6.5139000000 0.1375000000
4.7605000000 6.3531000000 0.1988000000
4.7599000000 4.7928000000 0.7695000000
4.7589000000 6.6551000000 0.0889000000
4.7587000000 6.3805000000 0.1908000000
4.7584000000 3.4237000000 1.0097000000
4.7583000000 3.7371000000 1.1102000000
4.7580000000 6.5697000000 0.1229000000
4.7578000000 3.8408000000 1.1184000000
4.7577000000 4.0223000000 1.0499000000
4.7574000000 2.0771000000 0.5181000000
4.7574000000 5.8317000000 0.3940000000
4.7572000000 5.6965000000 0.4413000000
4.7571000000 3.4903000000 1.0419000000
4.7568000000 2.7677000000 0.7740000000
4.7565000000 5.9065000000 0.3662000000
4.7561000000 4.5131000000 0.8730000000
4.7560000000 3.7794000000 1.1311000000
4.7556000000 6.6933000000 0.0817000000
4.7553000000 3.5069000000 1.0407000000
4.7551000000 3.4163000000 1.0128000000
4.7548000000 4.2839000000 0.9573000000
4.7546000000 2.1530000000 0.5505000000
4.7545000000 4.2449000000 0.9730000000
4.7543000000 0.9426000000 0.1093000000
4.7541000000 6.7308000000 0.0632000000
4.7539000000 2.8466000000 0.7997000000
4.7537000000 4.4747000000 0.8872000000
4.7535000000 0.9126000000 0.1010000000
4.7530000000 3.0675000000 0.8853000000
4.7529000000 3.8320000000 1.1183000000
4.7528000000 5.4394000000 0.5352000000
4.7524000000 5.6250000000 0.4716000000
4.7523000000 2.3380000000 0.6196000000
4.7521000000 1.5286000000 0.3205000000
4.7519000000 1.8760000000 0.4521000000
4.7517000000 5.4190000000 0.5455000000
4.7515000000 2.4357000000 0.6541000000
4.7512000000 3.5079000000 1.0512000000
4.7506000000 2.9221000000 0.8310000000
4.7503000000 3.8949000000 1.1026000000
4.7499000000 3.3131000000 0.9755000000
4.7495000000 4.2182000000 0.9829000000
4.7491000000 3.4344000000 1.0185000000
4.7486000000 2.7058000000 0.7533000000
4.7474000000 2.1310000000 0.5451000000
4.7465000000 0.9229000000 0.1038000000
4.5153000000 7.2576000000 0.0229000000
4.5125000000 5.0611000000 0.8289000000
4.5122000000 5.3391000000 0.7244000000
4.5106000000 2.6094000000 0.8705000000
4.5097000000 7.2997000000 0.0888000000
4.5091000000 4.2865000000 1.1121000000
4.5086000000 1.7361000000 0.5513000000
4.5083000000 1.4084000000 0.4331000000
4.5079000000 5.2328000000 0.7736000000
4.5076000000 6.2398000000 0.4036000000
4.5074000000 6.9953000000 0.1255000000
4.5068000000 1.9254000000 0.6241000000
4.5066000000 6.1370000000 0.4383000000
4.5064000000 3.7396000000 1.2743000000
4.5063000000 7.0035000000 0.1333000000
4.5061000000 6.9179000000 0.1583000000
4.5058000000 3.7845000000 1.2827000000
4.5058000000 3.9761000000 1.2276000000
4.5056000000 6.6470000000 0.2511000000
4.5055000000 2.7310000000 0.9164000000
4.5053000000 3.1026000000 1.0531000000
4.5051000000 3.3894000000 1.1586000000
4.5050000000 5.4290000000 0.6936000000
4.5048000000 0.8238000000 0.2238000000
4.5045000000 2.6929000000 0.9055000000
4.5043000000 6.2872000000 0.3820000000
4.5042000000 4.5562000000 1.0139000000
4.5041000000 5.0324000000 0.8446000000
4.5040000000 6.6013000000 0.2704000000
4.5040000000 6.5229000000 0.2987000000
4.5038000000 0.1647000000 0.0550000000
4.5037000000 6.4451000000 0.3274000000
4.5034000000 1.3374000000 0.4197000000
4.5033000000 1.2157000000 0.3630000000
4.5030000000 2.0161000000 0.6590000000
4.5026000000 3.0533000000 1.0387000000
4.5025000000 2.6189000000 0.8823000000
4.5022000000 3.7269000000 1.2724000000
4.5018000000 3.6227000000 1.2435000000
4.5014000000 1.1092000000 0.3234000000
4.5010000000 1.2102000000 0.3720000000
4.5008000000 0.8895000000 0.2484000000
4.5006000000 5.3757000000 0.7234000000
4.5004000000 1.0732000000 0.3221000000
4.5003000000 1.6107000000 0.5087000000
4.5002000000 1.9551000000 0.6379000000
4.4996000000 1.7584000000 0.5714000000
4.4990000000 0.5137000000 0.1113000000
4.4982000000 4.4714000000 1.0521000000
4.4968000000 4.1053000000 1.1877000000
4.4950000000 0.7053000000 0.1849000000
4.4908000000 1.4629000000 0.4616000000
4.2620000000 4.0137000000 1.3650000000
4.2611000000 4.0523000000 1.3554000000
4.2604000000 6.6693000000 0.4008000000
4.2592000000 5.5987000000 0.7939000000
4.2590000000 5.2825000000 0.9055000000
4.2588000000 4.1849000000 1.3107000000
4.2583000000 7.4564000000 0.0709000000
4.2581000000 2.9226000000 1.1448000000
4.2579000000 3.4508000000 1.3418000000
4.2575000000 3.0229000000 1.1787000000
4.2573000000 2.0964000000 0.8462000000
4.2573000000 3.9143000000 1.4069000000
4.2571000000 4.1220000000 1.3340000000
4.2569000000 5.3663000000 0.8779000000
4.2567000000 1.3706000000 0.5837000000
4.2562000000 1.7014000000 0.6942000000
4.2560000000 5.3972000000 0.8678000000
4.2556000000 6.6260000000 0.4203000000
4.2555000000 4.7722000000 1.1003000000
4.2552000000 0.1674000000 0.1220000000
4.2551000000 0.9256000000 0.4179000000
4.2550000000 4.9759000000 1.0226000000
4.2548000000 5.6633000000 0.7692000000
4.2547000000 0.3427000000 0.2074000000
4.2545000000 5.6514000000 0.7759000000
4.2543000000 5.0070000000 1.0122000000
4.2542000000 5.9237000000 0.6742000000
4.2541000000 2.0408000000 0.8289000000
4.2540000000 6.6756000000 0.4050000000
4.2539000000 4.6294000000 1.1443000000
4.2538000000 3.0841000000 1.2052000000
4.2537000000 0.6946000000 0.3341000000
4.2535000000 1.7062000000 0.7030000000
4.2533000000 4.2197000000 1.3020000000
4.2533000000 0.2897000000 0.1827000000
4.2530000000 6.8493000000 0.3411000000
4.2528000000 2.4509000000 0.9768000000
4.2526000000 2.1466000000 0.8663000000
4.2524000000 1.3089000000 0.5560000000
4.2523000000 4.3560000000 1.2504000000
4.2520000000 1.0723000000 0.4768000000
4.2518000000 5.5715000000 0.8027000000
4.2515000000 0.2372000000 0.1507000000
4.2512000000 4.3009000000 1.2643000000
4.2511000000 1.5209000000 0.6354000000
4.2501000000 0.2710000000 0.1644000000
4.2500000000 3.1536000000 1.2418000000
4.2498000000 2.7401000000 1.0843000000
4.2492000000 2.7105000000 1.0726000000
4.2488000000 1.2335000000 0.5329000000
4.2486000000 6.5066000000 0.4683000000
4.2481000000 2.6075000000 1.0391000000
4.2469000000 1.6903000000 0.7014000000
4.2440000000 0.0269000000 0.0275000000
4.0114000000 0.3149000000 0.2405000000
4.0109000000 2.2599000000 1.0577000000
4.0096000000 5.9829000000 0.8102000000
4.0093000000 5.9137000000 0.8385000000
4.0083000000 1.9705000000 0.9606000000
4.0080000000 5.7192000000 0.9031000000
4.0078000000 5.3443000000 1.0459000000
4.0074000000 2.0798000000 0.9979000000
4.0073000000 1.1334000000 0.6476000000
4.0070000000 1.8086000000 0.8959000000
4.0068000000 6.5717000000 0.5959000000
4.0067000000 6.6574000000 0.5643000000
4.0063000000 2.2004000000 1.0429000000
4.0061000000 5.4499000000 1.0089000000
4.0057000000 4.6992000000 1.2842000000
4.0054000000 6.4411000000 0.6448000000
4.0053000000 4.4442000000 1.3701000000
4.0052000000 6.7020000000 0.5497000000
4.0050000000 5.6825000000 0.9190000000
4.0046000000 1.5142000000 0.7883000000
4.0044000000 3.7561000000 1.6029000000
4.0043000000 5.3545000000 1.0405000000
4.0043000000 0.6130000000 0.4487000000
4.0039000000 4.3277000000 1.4170000000
4.0038000000 6.0462000000 0.7900000000
4.0036000000 5.9601000000 0.8213000000
4.0035000000 1.7849000000 0.8905000000
4.0034000000 4.6740000000 1.2921000000
4.0031000000 3.4415000000 1.4947000000
4.0030000000 6.1831000000 0.7364000000
4.0028000000 7.5482000000 0.0238000000
4.0026000000 3.7946000000 1.5965000000
4.0023000000 0.4518000000 0.3452000000
4.0023000000 2.6588000000 1.2102000000
4.0019000000 5.4815000000 1.0007000000
4.0015000000 1.4590000000 0.7696000000
4.0014000000 4.5270000000 1.3466000000
4.0010000000 1.0837000000 0.6365000000
4.0008000000 1.4257000000 0.7595000000
4.0004000000 0.9762000000 0.5936000000
4.0001000000 2.0750000000 1.0005000000
3.9999000000 1.2335000000 0.6929000000
3.9994000000 0.3607000000 0.2776000000
3.9991000000 2.9900000000 1.3275000000
3.9983000000 0.9245000000 0.5772000000
3.9967000000 3.3880000000 1.4827000000
3.7637000000 6.1602000000 0.9023000000
3.7625000000 5.6399000000 1.0901000000
3.7613000000 6.4385000000 0.7844000000
3.7609000000 4.0194000000 1.6796000000
3.7597000000 4.0434000000 1.6706000000
3.7593000000 5.8521000000 1.0170000000
3.7589000000 6.6428000000 0.6766000000
3.7585000000 4.1802000000 1.6242000000
3.7578000000 6.4808000000 0.7758000000
3.7575000000 5.7770000000 1.0432000000
3.7573000000 0.7618000000 0.5685000000
3.7571000000 5.2536000000 1.2382000000
3.7568000000 6.6011000000 0.6969000000
3.7565000000 4.4136000000 1.5397000000
3.7564000000 5.3021000000 1.2181000000
3.7561000000 5.7229000000 1.0673000000
3.7559000000 6.7931000000 0.5732000000
3.7558000000 4.7933000000 1.4030000000
3.7554000000 5.3608000000 1.1965000000
3.7552000000 3.9523000000 1.7095000000
3.7550000000 7.1667000000 0.2936000000
3.7549000000 2.2212000000 1.2052000000
3.7547000000 6.8704000000 0.5078000000
3.7546000000 5.7685000000 1.0470000000
3.7541000000 0.7674000000 0.5718000000
3.7540000000 0.9487000000 0.7024000000
3.7538000000 0.9024000000 0.6692000000
3.7537000000 4.7445000000 1.4296000000
3.7536000000 7.0738000000 0.3621000000
3.7534000000 3.4233000000 1.6498000000
3.7533000000 5.2437000000 1.2438000000
3.7532000000 3.4078000000 1.6387000000
3.7531000000 6.3608000000 0.8372000000
3.7529000000 3.4021000000 1.6424000000
3.7528000000 3.7668000000 1.7600000000
3.7527000000 0.3002000000 0.2371000000
3.7526000000 5.0132000000 1.3301000000
3.7523000000 1.0865000000 0.7780000000
3.7522000000 6.3331000000 0.8456000000
3.7521000000 3.8510000000 1.7485000000
3.7514000000 4.6499000000 1.4619000000
3.7513000000 3.9472000000 1.7138000000
3.7511000000 1.3494000000 0.8927000000
3.7510000000 3.5482000000 1.6909000000
3.7507000000 1.7953000000 1.0566000000
3.7504000000 5.7394000000 1.0545000000
3.7501000000 6.0373000000 0.9576000000
3.7497000000 1.0646000000 0.7753000000
3.7496000000 7.0262000000 0.4007000000
3.7487000000 2.8902000000 1.4542000000
3.7478000000 3.7511000000 1.7611000000
3.7472000000 0.3954000000 0.2973000000
3.7465000000 2.0141000000 1.1363000000
3.7442000000 2.4219000000 1.2878000000
3.5135000000 6.4629000000 0.8060000000
3.5123000000 1.3723000000 1.0072000000
3.5120000000 5.0017000000 1.4796000000
3.5108000000 5.3341000000 1.3656000000
3.5103000000 7.4169000000 0.1113000000
3.5100000000 6.9330000000 0.4675000000
3.5093000000 2.1474000000 1.3341000000
3.5089000000 7.1078000000 0.3444000000
3.5082000000 6.3735000000 0.8753000000
3.5078000000 5.4671000000 1.3177000000
3.5073000000 0.6783000000 0.5081000000
3.5070000000 1.1799000000 0.8702000000
3.5069000000 2.6915000000 1.5371000000
3.5066000000 4.6157000000 1.6268000000
3.5065000000 6.9668000000 0.4426000000
3.5063000000 4.8294000000 1.5428000000
3.5061000000 5.6955000000 1.2311000000
3.5060000000 3.0716000000 1.6816000000
3.5056000000 4.3435000000 1.7298000000
3.5055000000 3.8051000000 1.9104000000
3.5052000000 0.8801000000 0.6557000000
3.5051000000 1.0507000000 0.7852000000
3.5050000000 3.6196000000 1.8722000000
3.5048000000 4.9386000000 1.5073000000
3.5047000000 4.1187000000 1.8108000000
3.5045000000 5.0479000000 1.4673000000
3.5043000000 2.9233000000 1.6292000000
3.5042000000 3.8833000000 1.8964000000
3.5041000000 4.8604000000 1.5400000000
3.5040000000 1.2794000000 0.9501000000
3.5040000000 2.4245000000 1.4348000000
3.5038000000 6.9448000000 0.4661000000
3.5037000000 2.1770000000 1.3518000000
3.5035000000 4.1864000000 1.7839000000
3.5032000000 1.7839000000 1.2093000000
3.5028000000 2.0051000000 1.2921000000
3.5027000000 0.9219000000 0.6849000000
3.5026000000 1.7222000000 1.1861000000
3.5025000000 7.2806000000 0.2160000000
3.5023000000 3.4743000000 1.8260000000
3.5020000000 5.9351000000 1.1502000000
3.5017000000 2.3732000000 1.4241000000
3.5015000000 2.1199000000 1.3302000000
3.5013000000 3.5419000000 1.8454000000
3.5011000000 0.1962000000 0.1613000000
3.5009000000 5.0514000000 1.4716000000
3.5003000000 1.5602000000 1.1146000000
3.4998000000 0.9183000000 0.6883000000
3.4996000000 0.2410000000 0.1926000000
3.4990000000 0.4497000000 0.3449000000
3.4984000000 0.1308000000 0.1080000000
3.4983000000 3.9009000000 1.8909000000
3.4978000000 0.4323000000 0.3302000000
3.2608000000 7.1364000000 0.3220000000
3.2603000000 2.1376000000 1.4910000000
3.2597000000 4.7854000000 1.7174000000
3.2590000000 4.3409000000 1.8855000000
3.2588000000 6.8184000000 0.5510000000
3.2584000000 5.8390000000 1.2695000000
3.2582000000 3.7285000000 2.0612000000
3.2581000000 7.3421000000 0.1707000000
3.2579000000 4.9434000000 1.6603000000
3.2574000000 4.4240000000 1.8521000000
3.2571000000 6.6912000000 0.6418000000
3.2567000000 5.6008000000 1.4156000000
3.2565000000 2.3559000000 1.5750000000
3.2563000000 4.5905000000 1.7940000000
3.2561000000 7.2906000000 0.2014000000
3.2561000000 5.2366000000 1.5611000000
3.2560000000 5.3179000000 1.5310000000
3.2555000000 2.5334000000 1.6366000000
3.2553000000 6.8628000000 0.5197000000
3.2552000000 5.8851000000 1.2280000000
3.2548000000 3.2953000000 1.9141000000
3.2545000000 3.7768000000 2.0760000000
3.2544000000 7.1378000000 0.3144000000
3.2543000000 0.4530000000 0.3423000000
3.2542000000 3.9492000000 2.0370000000
3.2538000000 1.1168000000 0.8236000000
3.2535000000 5.3016000000 1.5368000000
3.2533000000 3.9587000000 2.0272000000
3.2532000000 4.7157000000 1.7539000000
3.2531000000 1.2612000000 0.9322000000
3.2529000000 4.4479000000 1.8482000000
3.2527000000 1.8260000000 1.3364000000
3.2522000000 7.5534000000 0.0162000000
3.2523000000 4.1348000000 1.9589000000
3.2520000000 1.1739000000 0.8667000000
3.2518000000 6.6947000000 0.6381000000
3.2515000000 2.4087000000 1.5924000000
3.2515000000 2.9237000000 1.7821000000
3.2514000000 5.9207000000 1.2053000000
3.2506000000 2.6147000000 1.6717000000
3.2505000000 4.3208000000 1.8949000000
3.2503000000 0.2244000000 0.1729000000
3.2498000000 3.3393000000 1.9302000000
3.2490000000 1.4177000000 1.0491000000
3.2488000000 3.3670000000 1.9475000000
3.2486000000 2.2988000000 1.5457000000
3.2478000000 0.6837000000 0.5087000000
3.2475000000 6.1573000000 1.0368000000
3.2461000000 1.4880000000 1.0928000000
3.0173000000 5.9343000000 1.1939000000
3.0110000000 5.8256000000 1.2778000000
3.0102000000 7.0915000000 0.3557000000
3.0095000000 5.6176000000 1.4310000000
3.0088000000 4.8599000000 1.8535000000
3.0084000000 2.7632000000 1.8747000000
3.0081000000 6.0132000000 1.1434000000
3.0076000000 1.3593000000 1.0066000000
3.0074000000 4.5787000000 1.9540000000
3.0072000000 2.3338000000 1.7057000000
3.0070000000 5.4661000000 1.5401000000
3.0069000000 0.6409000000 0.4841000000
3.0068000000 1.4722000000 1.0890000000
3.0065000000 1.5818000000 1.1717000000
3.0064000000 3.3263000000 2.0813000000
3.0063000000 0.5250000000 0.3991000000
3.0062000000 7.5866000000 0.0709000000
3.0059000000 5.5266000000 1.4926000000
3.0053000000 1.6794000000 1.2364000000
3.0051000000 3.0651000000 1.9873000000
3.0049000000 7.0587000000 0.3774000000
3.0044000000 2.1490000000 1.5856000000
3.0043000000 4.8522000000 1.8529000000
3.0041000000 5.3498000000 1.6182000000
3.0040000000 3.6665000000 2.2112000000
3.0039000000 1.9984000000 1.4680000000
3.0038000000 4.4070000000 2.0138000000
3.0036000000 4.2430000000 2.0834000000
3.0035000000 6.3905000000 0.8601000000
3.0033000000 5.0239000000 1.8015000000
3.0032000000 3.3936000000 2.1113000000
3.0031000000 3.2559000000 2.0591000000
3.0030000000 4.7375000000 1.8997000000
3.0028000000 1.0505000000 0.7737000000
3.0027000000 2.8649000000 1.9212000000
3.0024000000 6.5382000000 0.7593000000
3.0023000000 0.5198000000 0.3878000000
3.0016000000 5.3884000000 1.5934000000
3.0015000000 2.4515000000 1.7585000000
3.0012000000 2.5615000000 1.8070000000
3.0011000000 2.9293000000 1.9464000000
3.0010000000 0.8582000000 0.6386000000
3.0007000000 4.2939000000 2.0615000000
3.0002000000 3.4633000000 2.1401000000
3.0001000000 4.2508000000 2.0819000000
2.9998000000 1.2751000000 0.9393000000
2.9997000000 1.8674000000 1.3755000000
2.9995000000 0.0353000000 0.0413000000
2.9985000000 6.0504000000 1.1070000000
2.9972000000 2.8225000000 1.9061000000
2.9970000000 0.0687000000 0.0609000000
2.9931000000 0.7175000000 0.5316000000
2.7625000000 4.9105000000 1.9420000000
2.7623000000 4.5899000000 2.1069000000
2.7611000000 6.4099000000 0.8524000000
2.7598000000 4.7417000000 2.0432000000
2.7593000000 3.2676000000 2.2180000000
2.7587000000 5.7377000000 1.3445000000
2.7585000000 7.1624000000 0.3005000000
2.7583000000 3.5653000000 2.3313000000
2.7581000000 2.9689000000 2.1126000000
2.7577000000 0.5652000000 0.4220000000
2.7575000000 6.7445000000 0.6067000000
2.7573000000 6.2412000000 0.9712000000
2.7570000000 7.5451000000 0.0250000000
2.7568000000 5.0370000000 1.8494000000
2.7567000000 3.5271000000 2.3207000000
2.7566000000 4.9240000000 1.9350000000
2.7559000000 6.4081000000 0.8520000000
2.7557000000 0.4419000000 0.3384000000
2.7555000000 7.3202000000 0.1839000000
2.7554000000 6.6634000000 0.6650000000
2.7552000000 0.8326000000 0.6248000000
2.7551000000 3.5997000000 2.3449000000
2.7550000000 3.5537000000 2.3246000000
2.7546000000 6.3265000000 0.9091000000
2.7545000000 7.1808000000 0.2909000000
2.7545000000 1.3454000000 0.9945000000
2.7541000000 6.7567000000 0.5955000000
2.7538000000 7.3680000000 0.1470000000
2.7535000000 1.2491000000 0.9241000000
2.7532000000 1.9330000000 1.4268000000
2.7530000000 0.3805000000 0.2892000000
2.7529000000 0.6794000000 0.5097000000
2.7526000000 2.0707000000 1.5236000000
2.7524000000 0.2586000000 0.2045000000
2.7523000000 2.1461000000 1.5805000000
2.7517000000 0.8103000000 0.6052000000
2.7515000000 0.4279000000 0.3248000000
2.7512000000 4.8468000000 1.9778000000
2.7510000000 6.6914000000 0.6429000000
2.7505000000 3.9781000000 2.3393000000
2.7503000000 0.8620000000 0.6432000000
2.7498000000 0.9934000000 0.7355000000
2.7496000000 1.4980000000 1.1055000000
2.7482000000 4.4100000000 2.1855000000
2.7471000000 0.7669000000 0.5714000000
2.7466000000 3.6370000000 2.3585000000
2.7455000000 0.8994000000 0.6708000000
2.5106000000 6.4076000000 0.8471000000
2.5099000000 2.8929000000 2.1210000000
2.5097000000 5.3439000000 1.6252000000
2.5093000000 4.9095000000 1.9483000000
2.5089000000 7.2586000000 0.2340000000
2.5085000000 4.5302000000 2.2201000000
2.5085000000 7.2952000000 0.2060000000
2.5082000000 4.5679000000 2.1924000000
2.5080000000 6.3508000000 0.8924000000
2.5080000000 4.6633000000 2.1241000000
2.5078000000 4.6372000000 2.1394000000
2.5075000000 4.0049000000 2.4814000000
2.5073000000 6.6728000000 0.6568000000
2.5071000000 4.7101000000 2.0867000000
2.5070000000 7.0142000000 0.4056000000
2.5068000000 6.7286000000 0.6165000000
2.5062000000 2.9863000000 2.1879000000
2.5052000000 3.3668000000 2.4166000000
2.5050000000 1.8505000000 1.3647000000
2.5051000000 6.6694000000 0.6639000000
2.5047000000 0.8744000000 0.6549000000
2.5046000000 2.5425000000 1.8686000000
2.5045000000 4.2499000000 2.3864000000
2.5045000000 6.0483000000 1.1125000000
2.5042000000 0.9045000000 0.6745000000
2.5040000000 1.2724000000 0.9389000000
2.5038000000 1.0167000000 0.7573000000
2.5035000000 0.9068000000 0.6746000000
2.5034000000 3.8511000000 2.5395000000
2.5029000000 3.5114000000 2.4709000000
2.5028000000 5.0462000000 1.8425000000
2.5027000000 7.3754000000 0.1413000000
2.5025000000 1.5418000000 1.1379000000
2.5023000000 5.0477000000 1.8446000000
2.5022000000 2.8195000000 2.0723000000
2.5020000000 3.9336000000 2.5095000000
2.5018000000 0.0817000000 0.0702000000
2.5016000000 6.1953000000 1.0083000000
2.5015000000 2.5958000000 1.9051000000
2.5013000000 3.4982000000 2.4635000000
2.5011000000 3.7844000000 2.5578000000
2.5008000000 1.2485000000 0.9280000000
2.5007000000 6.1566000000 1.0376000000
2.5005000000 0.2727000000 0.2090000000
2.5003000000 4.1168000000 2.4430000000
2.4998000000 1.4962000000 1.1029000000
2.4997000000 4.1840000000 2.4197000000
2.4994000000 3.5216000000 2.4753000000
2.4973000000 2.8763000000 2.1113000000
2.4969000000 1.4535000000 1.0788000000
2.4967000000 0.6489000000 0.4889000000
2.4943000000 2.0567000000 1.5137000000
2.4897000000 3.5915000000 2.5065000000
2.2616000000 4.0158000000 2.5907000000
2.2605000000 7.3015000000 0.1968000000
2.2601000000 3.3735000000 2.4758000000
2.2599000000 3.4628000000 2.5390000000
2.2590000000 5.5046000000 1.5083000000
2.2589000000 5.9415000000 1.1874000000
2.2584000000 1.5197000000 1.1227000000
2.2580000000 6.6990000000 0.6355000000
2.2574000000 7.3314000000 0.1794000000
2.2573000000 5.5953000000 1.4450000000
2.2571000000 5.1425000000 1.7709000000
2.2568000000 6.9354000000 0.4602000000
2.2565000000 7.4290000000 0.1054000000
2.2563000000 5.2367000000 1.7056000000
2.2563000000 1.7568000000 1.2942000000
2.2560000000 6.6617000000 0.6702000000
2.2558000000 6.9670000000 0.4435000000
2.2558000000 2.1125000000 1.5534000000
2.2554000000 5.3359000000 1.6330000000
2.2552000000 5.9654000000 1.1749000000
2.2551000000 6.5567000000 0.7457000000
2.2550000000 2.8175000000 2.0706000000
2.2548000000 3.6238000000 2.6424000000
2.2546000000 6.8229000000 0.5454000000
2.2545000000 6.5269000000 0.7661000000
2.2544000000 0.4294000000 0.3299000000
2.2543000000 3.4377000000 2.5248000000
2.2541000000 1.7109000000 1.2565000000
2.2539000000 6.4068000000 0.8579000000
2.2533000000 0.3884000000 0.2934000000
2.2532000000 5.4547000000 1.5489000000
2.2531000000 2.7836000000 2.0449000000
2.2528000000 4.9761000000 1.8963000000
2.2526000000 3.4037000000 2.4948000000
2.2525000000 2.6947000000 1.9868000000
2.2523000000 2.3736000000 1.7480000000
2.2520000000 1.3000000000 0.9696000000
2.2517000000 1.4537000000 1.0661000000
2.2515000000 6.8083000000 0.5621000000
2.2513000000 3.5771000000 2.6174000000
2.2511000000 3.3925000000 2.4826000000
2.2510000000 2.7087000000 1.9853000000
2.2508000000 1.2395000000 0.9176000000
2.2505000000 6.8642000000 0.5177000000
2.2494000000 3.9313000000 2.6479000000
2.2493000000 6.1371000000 1.0538000000
2.2487000000 0.1932000000 0.1533000000
2.2485000000 0.2139000000 0.1670000000
2.2480000000 2.2764000000 1.6736000000
2.2477000000 2.9613000000 2.1715000000
2.2473000000 5.9415000000 1.1936000000
2.2471000000 0.3889000000 0.2978000000
2.0144000000 3.6736000000 2.6281000000
2.0137000000 6.8041000000 0.5663000000
2.0104000000 4.3017000000 2.3899000000
2.0098000000 1.4284000000 1.0563000000
2.0095000000 6.7749000000 0.5803000000
2.0092000000 4.0523000000 2.5459000000
2.0088000000 1.8721000000 1.3818000000
2.0085000000 4.6458000000 2.1407000000
2.0083000000 1.2962000000 0.9651000000
2.0081000000 0.2080000000 0.1620000000
2.0077000000 3.3502000000 2.4515000000
2.0076000000 2.5887000000 1.9004000000
2.0075000000 2.9843000000 2.1924000000
2.0073000000 1.7200000000 1.2649000000
2.0070000000 2.2303000000 1.6374000000
2.0068000000 2.3934000000 1.7623000000
2.0065000000 2.6373000000 1.9406000000
2.0063000000 3.3173000000 2.4282000000
2.0062000000 3.4937000000 2.5475000000
2.0058000000 0.3002000000 0.2326000000
2.0057000000 6.8181000000 0.5541000000
2.0055000000 2.8676000000 2.1035000000
2.0053000000 1.2208000000 0.9020000000
2.0052000000 7.2443000000 0.2400000000
2.0049000000 4.8162000000 2.0142000000
2.0048000000 3.2095000000 2.3531000000
2.0047000000 2.3182000000 1.7072000000
2.0043000000 0.2589000000 0.2000000000
2.0041000000 0.5765000000 0.4358000000
2.0038000000 2.7572000000 2.0248000000
2.0036000000 5.8296000000 1.2734000000
2.0033000000 0.0795000000 0.0787000000
2.0033000000 5.7490000000 1.3289000000
2.0030000000 2.2945000000 1.6828000000
2.0030000000 3.4377000000 2.5123000000
2.0026000000 4.8199000000 2.0118000000
2.0022000000 2.9121000000 2.1406000000
2.0019000000 1.6750000000 1.2381000000
2.0019000000 0.6587000000 0.4913000000
2.0017000000 6.2138000000 0.9904000000
2.0015000000 2.9172000000 2.1361000000
2.0010000000 4.1289000000 2.4985000000
2.0009000000 5.4557000000 1.5422000000
2.0006000000 3.2681000000 2.4006000000
2.0003000000 2.2992000000 1.6950000000
1.9997000000 2.4996000000 1.8352000000
1.9994000000 1.9074000000 1.4050000000
1.9988000000 0.9018000000 0.6697000000
1.9982000000 2.4506000000 1.7985000000
1.9980000000 2.0796000000 1.5265000000
1.9973000000 7.3595000000 0.1598000000
1.9969000000 4.1872000000 2.4577000000
1.9953000000 1.0285000000 0.7589000000
1.9945000000 7.4484000000 0.0865000000
1.7608000000 5.2925000000 1.6635000000
1.7598000000 4.3786000000 2.2844000000
1.7596000000 1.1299000000 0.8362000000
1.7591000000 7.4309000000 0.1036000000
1.7585000000 2.0820000000 1.5317000000
1.7582000000 6.8160000000 0.5539000000
1.7580000000 2.9317000000 2.1527000000
1.7578000000 6.1811000000 1.0153000000
1.7575000000 0.0292000000 0.0306000000
1.7573000000 1.0828000000 0.8007000000
1.7572000000 3.9619000000 2.4329000000
1.7571000000 6.6676000000 0.6575000000
1.7569000000 1.7188000000 1.2694000000
1.7568000000 0.6628000000 0.4997000000
1.7566000000 7.5642000000 0.0813000000
1.7564000000 2.3491000000 1.7276000000
1.7562000000 2.4788000000 1.8220000000
1.7560000000 4.8051000000 2.0190000000
1.7558000000 4.8640000000 1.9759000000
1.7556000000 0.7496000000 0.5562000000
1.7555000000 3.7986000000 2.4857000000
1.7555000000 4.5912000000 2.1667000000
1.7552000000 6.0769000000 1.0868000000
1.7551000000 5.7807000000 1.3114000000
1.7550000000 2.7317000000 2.0059000000
1.7548000000 7.5008000000 0.0561000000
1.7546000000 1.6568000000 1.2239000000
1.7544000000 6.7527000000 0.6024000000
1.7542000000 1.0257000000 0.7624000000
1.7541000000 6.6276000000 0.6926000000
1.7540000000 1.4708000000 1.0863000000
1.7538000000 4.1536000000 2.3609000000
1.7536000000 5.2692000000 1.6776000000
1.7535000000 2.3468000000 1.7233000000
1.7534000000 5.6419000000 1.4046000000
1.7532000000 5.9046000000 1.2214000000
1.7529000000 3.0278000000 2.2173000000
1.7528000000 5.4483000000 1.5491000000
1.7527000000 4.7663000000 2.0555000000
1.7523000000 5.3804000000 1.6015000000
1.7520000000 3.2853000000 2.3189000000
1.7517000000 1.2574000000 0.9313000000
1.7514000000 2.7085000000 1.9884000000
1.7512000000 4.0209000000 2.4137000000
1.7507000000 3.4750000000 2.3898000000
1.7503000000 0.5537000000 0.4174000000
1.7498000000 0.4109000000 0.3156000000
1.7492000000 5.7331000000 1.3408000000
1.7490000000 0.2264000000 0.1740000000
1.7486000000 3.2749000000 2.3144000000
1.7464000000 2.3454000000 1.7233000000
1.7440000000 2.4596000000 1.8128000000
1.5131000000 7.0906000000 0.3521000000
1.5128000000 4.7671000000 1.9868000000
1.5116000000 4.3162000000 2.1506000000
1.5103000000 7.5266000000 0.0307000000
1.5097000000 6.3611000000 0.8838000000
1.5085000000 7.5117000000 0.0463000000
1.5080000000 6.1416000000 1.0471000000
1.5075000000 6.9564000000 0.4488000000
1.5075000000 7.2032000000 0.2650000000
1.5073000000 4.5621000000 2.0621000000
1.5070000000 2.8522000000 1.9994000000
1.5068000000 5.3834000000 1.5925000000
1.5067000000 3.8969000000 2.3010000000
1.5065000000 6.4817000000 0.7977000000
1.5060000000 0.4423000000 0.3405000000
1.5059000000 4.5298000000 2.0679000000
1.5058000000 6.6685000000 0.6560000000
1.5057000000 4.7099000000 2.0050000000
1.5056000000 7.0033000000 0.4160000000
1.5055000000 4.8562000000 1.9381000000
1.5052000000 4.2944000000 2.1548000000
1.5048000000 2.5974000000 1.8968000000
1.5047000000 2.2516000000 1.6533000000
1.5045000000 4.6434000000 2.0285000000
1.5044000000 2.3204000000 1.7045000000
1.5042000000 0.3732000000 0.2875000000
1.5042000000 1.2221000000 0.9039000000
1.5040000000 3.2361000000 2.1444000000
1.5040000000 0.7280000000 0.5444000000
1.5038000000 1.5746000000 1.1613000000
1.5033000000 7.4420000000 0.0945000000
1.5032000000 6.6290000000 0.6883000000
1.5029000000 6.8541000000 0.5255000000
1.5028000000 0.4392000000 0.3321000000
1.5027000000 6.8939000000 0.4949000000
1.5025000000 3.8267000000 2.3166000000
1.5021000000 2.4950000000 1.8262000000
1.5020000000 2.9060000000 2.0226000000
1.5016000000 0.8950000000 0.6653000000
1.5014000000 2.6264000000 1.9041000000
1.5013000000 5.7712000000 1.3197000000
1.5010000000 1.1051000000 0.8200000000
1.5008000000 2.5606000000 1.8693000000
1.5005000000 5.5293000000 1.4973000000
1.5001000000 4.6463000000 2.0239000000
1.5000000000 5.1912000000 1.7366000000
1.4998000000 4.5362000000 2.0638000000
1.4987000000 3.7596000000 2.3238000000
1.4963000000 0.2744000000 0.2098000000
1.4958000000 0.8142000000 0.6067000000
1.4946000000 0.5710000000 0.4293000000
1.2613000000 6.7284000000 0.6185000000
1.2602000000 7.0143000000 0.4080000000
1.2598000000 3.0124000000 1.9086000000
1.2594000000 4.3847000000 1.9628000000
1.2590000000 6.6770000000 0.6588000000
1.2584000000 4.9181000000 1.7787000000
1.2581000000 7.5407000000 0.0264000000
1.2580000000 6.8117000000 0.5575000000
1.2578000000 2.9791000000 1.8965000000
1.2575000000 1.5910000000 1.1757000000
1.2574000000 4.4431000000 1.9432000000
1.2571000000 1.4136000000 1.0499000000
1.2568000000 5.1606000000 1.6873000000
1.2566000000 1.8455000000 1.3591000000
1.2565000000 1.1948000000 0.8847000000
1.2562000000 4.5948000000 1.8895000000
1.2560000000 1.5143000000 1.1166000000
1.2559000000 1.0186000000 0.7567000000
1.2557000000 7.1864000000 0.2800000000
1.2556000000 6.9845000000 0.4236000000
1.2553000000 4.4148000000 1.9464000000
1.2552000000 0.8085000000 0.5965000000
1.2550000000 4.5292000000 1.9149000000
1.2546000000 1.9133000000 1.4123000000
1.2545000000 6.6750000000 0.6542000000
1.2544000000 3.2517000000 1.9902000000
1.2543000000 6.3024000000 0.9298000000
1.2541000000 1.7989000000 1.3252000000
1.2539000000 0.7813000000 0.5837000000
1.2538000000 0.8191000000 0.6126000000
1.2537000000 3.1221000000 1.9467000000
1.2536000000 2.8057000000 1.8282000000
1.2535000000 3.1897000000 1.9670000000
1.2534000000 2.7522000000 1.8113000000
1.2532000000 4.9272000000 1.7682000000
1.2531000000 4.8699000000 1.7853000000
1.2530000000 5.3539000000 1.5918000000
1.2528000000 1.1263000000 0.8362000000
1.2525000000 3.7135000000 2.1574000000
1.2520000000 4.6209000000 1.8742000000
1.2518000000 2.8196000000 1.8327000000
1.2515000000 0.8922000000 0.6684000000
1.2513000000 1.4170000000 1.0532000000
1.2512000000 5.1919000000 1.6629000000
1.2510000000 3.4702000000 2.0662000000
1.2509000000 0.6413000000 0.4789000000
1.2505000000 0.3033000000 0.2330000000
1.2501000000 2.5355000000 1.7282000000
1.2499000000 1.3544000000 0.9988000000
1.2498000000 5.7320000000 1.3442000000
1.2492000000 0.0415000000 0.0449000000
1.2492000000 3.1368000000 1.9506000000
1.2485000000 0.7384000000 0.5551000000
1.2477000000 2.3451000000 1.6523000000
1.2474000000 0.6018000000 0.4514000000
1.2462000000 3.6351000000 2.1306000000
1.2427000000 2.1105000000 1.5383000000
1.0123000000 7.4757000000 0.0712000000
1.0118000000 6.9151000000 0.4794000000
1.0109000000 2.2622000000 1.4715000000
1.0106000000 7.4475000000 0.0954000000
1.0102000000 5.2123000000 1.5048000000
1.0098000000 5.7781000000 1.2831000000
1.0090000000 3.5425000000 1.9420000000
1.0079000000 3.3815000000 1.8849000000
1.0075000000 6.5975000000 0.7131000000
1.0073000000 4.7080000000 1.6851000000
1.0070000000 4.2701000000 1.8491000000
1.0068000000 4.9060000000 1.6156000000
1.0065000000 0.6821000000 0.5040000000
1.0065000000 4.5301000000 1.7443000000
1.0063000000 4.9927000000 1.5854000000
1.0061000000 1.7832000000 1.2862000000
1.0060000000 6.7821000000 0.5790000000
1.0055000000 2.8755000000 1.6998000000
1.0053000000 2.8429000000 1.6906000000
1.0052000000 2.5024000000 1.5573000000
1.0050000000 7.2480000000 0.2402000000
1.0049000000 1.7846000000 1.2836000000
1.0048000000 6.9878000000 0.4276000000
1.0045000000 2.6477000000 1.6111000000
1.0044000000 3.9296000000 1.9696000000
1.0042000000 2.5867000000 1.5882000000
1.0040000000 3.1314000000 1.7885000000
1.0039000000 0.9603000000 0.7130000000
1.0038000000 3.9969000000 1.9484000000
1.0037000000 1.2781000000 0.9435000000
1.0034000000 3.2667000000 1.8387000000
1.0031000000 4.5208000000 1.7509000000
1.0030000000 0.8971000000 0.6678000000
1.0029000000 1.5895000000 1.1739000000
1.0024000000 5.1221000000 1.5360000000
1.0022000000 3.1229000000 1.7921000000
1.0021000000 2.0241000000 1.3879000000
1.0018000000 3.4057000000 1.8890000000
1.0014000000 3.7021000000 1.9945000000
1.0011000000 3.8062000000 1.9947000000
1.0011000000 0.8875000000 0.6586000000
1.0010000000 1.8864000000 1.3366000000
1.0008000000 6.5346000000 0.7609000000
1.0006000000 5.0989000000 1.5411000000
1.0005000000 4.1213000000 1.8968000000
1.0002000000 6.0074000000 1.1359000000
0.9995000000 2.7378000000 1.6458000000
0.9991000000 3.6000000000 1.9570000000
0.9982000000 4.0806000000 1.9120000000
0.9979000000 3.4520000000 1.9106000000
0.9974000000 2.2524000000 1.4668000000
0.9970000000 1.7547000000 1.2749000000
0.9962000000 3.8721000000 1.9858000000
0.9948000000 2.6282000000 1.6053000000
0.7610000000 5.9082000000 1.0966000000
0.7604000000 6.3053000000 0.9124000000
0.7601000000 5.0412000000 1.4073000000
0.7595000000 7.3858000000 0.1341000000
0.7592000000 2.0894000000 1.2579000000
0.7591000000 2.8026000000 1.5215000000
0.7588000000 6.6045000000 0.7111000000
0.7586000000 6.4940000000 0.7899000000
0.7584000000 4.2364000000 1.7030000000
0.7583000000 7.5683000000 0.0751000000
0.7577000000 6.4068000000 0.8525000000
0.7575000000 5.8174000000 1.1221000000
0.7573000000 3.6555000000 1.8254000000
0.7571000000 6.1995000000 0.9775000000
0.7569000000 4.9741000000 1.4296000000
0.7567000000 5.4971000000 1.2413000000
0.7563000000 2.6422000000 1.4559000000
0.7561000000 6.1101000000 1.0161000000
0.7560000000 6.4713000000 0.8010000000
0.7557000000 7.2097000000 0.2669000000
0.7553000000 7.4688000000 0.0779000000
0.7550000000 3.0544000000 1.6103000000
0.7549000000 4.4469000000 1.6231000000
0.7548000000 1.6847000000 1.1041000000
0.7547000000 2.3120000000 1.3360000000
0.7545000000 0.2146000000 0.1722000000
0.7542000000 1.4900000000 1.0311000000
0.7540000000 3.0604000000 1.6045000000
0.7540000000 1.3083000000 0.9502000000
0.7535000000 5.0005000000 1.4255000000
0.7534000000 1.3279000000 0.9585000000
0.7530000000 5.0393000000 1.4055000000
0.7523000000 0.5245000000 0.3975000000
0.7522000000 0.5934000000 0.4424000000
0.7520000000 0.7030000000 0.5240000000
0.7518000000 1.9908000000 1.2162000000
0.7516000000 0.5631000000 0.4226000000
0.7514000000 2.3450000000 1.3444000000
0.7512000000 6.9523000000 0.4575000000
0.7510000000 1.5185000000 1.0419000000
0.7509000000 0.3471000000 0.2646000000
0.7505000000 5.3903000000 1.2779000000
0.7503000000 2.2948000000 1.3235000000
0.7501000000 7.5275000000 0.0368000000
0.7500000000 3.0193000000 1.5907000000
0.7496000000 0.1782000000 0.1426000000
0.7495000000 4.5004000000 1.6035000000
0.7495000000 2.2378000000 1.2963000000
0.7492000000 3.3750000000 1.7200000000
0.7490000000 1.7720000000 1.1324000000
0.7490000000 3.8012000000 1.8437000000
0.7486000000 2.5026000000 1.3990000000
0.7485000000 2.8733000000 1.5305000000
0.7480000000 2.3899000000 1.3566000000
0.7473000000 3.0855000000 1.6121000000
0.7468000000 0.1929000000 0.1549000000
0.7426000000 0.4048000000 0.3091000000
0.5124000000 1.9865000000 1.0606000000
0.5115000000 2.7144000000 1.3267000000
0.5110000000 1.3290000000 0.8229000000
0.5107000000 6.6489000000 0.6561000000
0.5096000000 6.4139000000 0.7518000000
0.5088000000 7.0585000000 0.3754000000
0.5085000000 7.5786000000 0.0683000000
0.5084000000 5.8260000000 0.9623000000
0.5082000000 1.5725000000 0.9116000000
0.5080000000 5.7991000000 0.9809000000
0.5077000000 2.1206000000 1.1008000000
0.5075000000 4.8802000000 1.3110000000
0.5072000000 7.1883000000 0.2844000000
0.5069000000 4.1767000000 1.5710000000
0.5068000000 6.3379000000 0.7799000000
0.5064000000 4.3029000000 1.5202000000
0.5063000000 4.6941000000 1.3753000000
0.5061000000 3.1498000000 1.4807000000
0.5060000000 7.3678000000 0.1509000000
0.5058000000 2.1902000000 1.1335000000
0.5056000000 6.4214000000 0.7447000000
0.5054000000 7.2723000000 0.2152000000
0.5053000000 5.5498000000 1.0627000000
0.5052000000 7.2030000000 0.2743000000
0.5049000000 6.9800000000 0.4347000000
0.5047000000 1.0612000000 0.7189000000
0.5046000000 5.9185000000 0.9324000000
0.5045000000 1.6907000000 0.9464000000
0.5043000000 5.0845000000 1.2333000000
0.5042000000 1.0585000000 0.7186000000
0.5040000000 5.9195000000 0.9292000000
0.5038000000 3.1063000000 1.4656000000
0.5036000000 6.1946000000 0.8259000000
0.5034000000 5.5256000000 1.0722000000
0.5033000000 4.9448000000 1.2827000000
0.5030000000 4.7997000000 1.3376000000
0.5030000000 4.2094000000 1.5516000000
0.5028000000 5.3785000000 1.1237000000
0.5027000000 0.5267000000 0.3955000000
0.5023000000 1.1876000000 0.7658000000
0.5021000000 1.7040000000 0.9558000000
0.5019000000 1.6078000000 0.9148000000
0.5020000000 2.1502000000 1.1170000000
0.5017000000 6.3575000000 0.7721000000
0.5015000000 1.8019000000 0.9851000000
0.5013000000 4.1113000000 1.5853000000
0.5010000000 3.3390000000 1.5488000000
0.5008000000 7.2457000000 0.2387000000
0.5007000000 0.4371000000 0.3328000000
0.5006000000 3.2626000000 1.5199000000
0.4999000000 0.3300000000 0.2551000000
0.4995000000 1.4075000000 0.8458000000
0.4992000000 1.0073000000 0.6919000000
0.4982000000 0.9909000000 0.6868000000
0.4981000000 1.6764000000 0.9407000000
0.4977000000 6.2374000000 0.8054000000
0.4976000000 1.7365000000 0.9578000000
0.4967000000 1.2983000000 0.8017000000
0.4941000000 0.4954000000 0.3743000000
0.2651000000 3.7871000000 1.5410000000
0.2634000000 3.6331000000 1.5089000000
0.2624000000 6.4818000000 0.5654000000
0.2611000000 0.2406000000 0.1860000000
0.2605000000 6.4805000000 0.5714000000
0.2599000000 7.0888000000 0.3398000000
0.2592000000 7.4738000000 0.0713000000
0.2590000000 3.1571000000 1.3306000000
0.2588000000 4.6978000000 1.2225000000
0.2582000000 3.7734000000 1.5390000000
0.2577000000 0.9748000000 0.5274000000
0.2573000000 7.0823000000 0.3364000000
0.2568000000 4.9665000000 1.1179000000
0.2565000000 4.0903000000 1.4401000000
0.2563000000 6.3805000000 0.5986000000
0.2560000000 7.5573000000 0.0889000000
0.2555000000 3.7077000000 1.5315000000
0.2554000000 6.3646000000 0.6146000000
0.2553000000 4.2438000000 1.3782000000
0.2550000000 1.6661000000 0.7822000000
0.2548000000 0.3944000000 0.2896000000
0.2545000000 7.1446000000 0.3027000000
0.2541000000 6.9667000000 0.3902000000
0.2538000000 5.3563000000 0.9773000000
0.2534000000 3.1778000000 1.3279000000
0.2533000000 2.0585000000 0.9310000000
0.2532000000 2.5146000000 1.0840000000
0.2530000000 0.1963000000 0.1552000000
0.2529000000 2.5633000000 1.1040000000
0.2529000000 3.0866000000 1.3003000000
0.2526000000 0.6097000000 0.3974000000
0.2524000000 2.5072000000 1.0830000000
0.2523000000 0.0007000000 0.0123000000
0.2522000000 0.9040000000 0.5043000000
0.2521000000 6.0814000000 0.7085000000
0.2519000000 3.3089000000 1.3777000000
0.2515000000 5.3599000000 0.9743000000
0.2512000000 3.8019000000 1.5297000000
0.2510000000 5.4852000000 0.9256000000
0.2507000000 5.6854000000 0.8558000000
0.2503000000 1.6823000000 0.7906000000
0.2502000000 0.3347000000 0.2446000000
0.2499000000 3.7284000000 1.5236000000
0.2495000000 1.4946000000 0.7095000000
0.2478000000 1.7408000000 0.7999000000
0.2469000000 2.9747000000 1.2518000000
0.2452000000 3.1210000000 1.3057000000
0.0112000000 6.7000000000 0.3356000000
0.0103000000 4.9072000000 0.9815000000
0.0095000000 3.0380000000 1.1244000000
0.0092000000 5.0377000000 0.9372000000
0.0087000000 6.1027000000 0.5478000000
0.0086000000 3.6316000000 1.3392000000
0.0080000000 2.1722000000 0.8104000000
0.0080000000 0.6500000000 0.2567000000
0.0076000000 1.4100000000 0.5321000000
0.0073000000 1.6678000000 0.6208000000
0.0069000000 3.7314000000 1.3639000000
0.0068000000 5.0217000000 0.9390000000
0.0065000000 4.8559000000 1.0017000000
0.0064000000 4.6756000000 1.0695000000
0.0062000000 4.1457000000 1.2650000000
0.0059000000 2.2673000000 0.8379000000
0.0058000000 0.9412000000 0.3603000000
0.0055000000 2.7933000000 1.0392000000
0.0053000000 3.6388000000 1.3409000000
0.0051000000 5.4833000000 0.7732000000
0.0050000000 7.4570000000 0.0456000000
0.0047000000 4.6769000000 1.0654000000
0.0046000000 7.0493000000 0.2067000000
0.0045000000 5.3967000000 0.8025000000
0.0043000000 6.2387000000 0.4987000000
0.0043000000 5.2154000000 0.8716000000
0.0042000000 2.3316000000 0.8678000000
0.0039000000 5.4714000000 0.7769000000
0.0038000000 5.0804000000 0.9172000000
0.0036000000 0.6769000000 0.2609000000
0.0035000000 0.0418000000 0.0180000000
0.0033000000 2.0501000000 0.7578000000
0.0033000000 0.1365000000 0.0640000000
0.0031000000 1.9458000000 0.7282000000
0.0029000000 5.4463000000 0.7887000000
0.0028000000 2.9611000000 1.0969000000
0.0027000000 4.0606000000 1.2913000000
0.0026000000 1.4449000000 0.5384000000
0.0024000000 1.8559000000 0.6884000000
0.0021000000 7.3494000000 0.0938000000
0.0019000000 7.5119000000 0.0123000000
0.0017000000 7.1017000000 0.1763000000
0.0015000000 5.3464000000 0.8192000000
0.0015000000 3.4876000000 1.2918000000
0.0012000000 5.8609000000 0.6340000000
0.0010000000 0.2812000000 0.1159000000
0.0008000000 1.2977000000 0.4869000000
0.0007000000 6.6964000000 0.3286000000
0.0005000000 4.7919000000 1.0226000000
0.0001000000 4.1588000000 1.2501000000
-0.0001000000 1.3237000000 0.5001000000
-0.0001000000 5.7854000000 0.6647000000
-0.0003000000 4.4821000000 1.1338000000
-0.0010000000 1.9228000000 0.7146000000
-0.0018000000 5.5922000000 0.7317000000
-0.0022000000 3.6951000000 1.3568000000
-0.0025000000 6.7339000000 0.3156000000
-0.0035000000 0.3385000000 0.1275000000
-0.0060000000 0.6408000000 0.2435000000
-0.2367000000 5.4606000000 0.6299000000
-0.2397000000 2.8015000000 0.8826000000
-0.2402000000 0.6527000000 0.1022000000
-0.2411000000 1.8807000000 0.5452000000
-0.2415000000 3.0097000000 0.9544000000
-0.2420000000 6.4875000000 0.2523000000
-0.2424000000 5.7663000000 0.5096000000
-0.2427000000 6.8211000000 0.1272000000
-0.2431000000 3.6238000000 1.1845000000
-0.2432000000 3.3940000000 1.0964000000
-0.2435000000 1.7822000000 0.5116000000
-0.2439000000 4.1859000000 1.0895000000
-0.2442000000 5.6927000000 0.5371000000
-0.2443000000 4.9500000000 0.8059000000
-0.2445000000 7.1395000000 0.0826000000
-0.2448000000 5.6287000000 0.5602000000
-0.2451000000 0.3196000000 0.0498000000
-0.2454000000 7.1833000000 0.0680000000
-0.2455000000 5.2968000000 0.6815000000
-0.2457000000 6.2747000000 0.3273000000
-0.2459000000 4.8372000000 0.8480000000
-0.2460000000 4.8349000000 0.8524000000
-0.2462000000 4.6518000000 0.9210000000
-0.2463000000 3.6741000000 1.1980000000
-0.2465000000 3.6462000000 1.1919000000
-0.2468000000 1.6271000000 0.4480000000
-0.2470000000 2.2347000000 0.6717000000
-0.2472000000 1.3193000000 0.3387000000
-0.2473000000 6.9118000000 0.0912000000
-0.2475000000 5.1174000000 0.7411000000
-0.2476000000 6.8800000000 0.1075000000
-0.2477000000 4.0431000000 1.1365000000
-0.2480000000 1.0533000000 0.2424000000
-0.2481000000 0.4095000000 0.0807000000
-0.2485000000 6.2896000000 0.3211000000
-0.2487000000 2.5161000000 0.7723000000
-0.2490000000 1.3296000000 0.3391000000
-0.2492000000 4.5214000000 0.9609000000
-0.2498000000 2.3468000000 0.7129000000
-0.2502000000 1.0674000000 0.2479000000
-0.2507000000 3.3459000000 1.0738000000
-0.2512000000 1.1607000000 0.2760000000
-0.4884000000 6.4130000000 0.1188000000
-0.4889000000 5.5800000000 0.4268000000
-0.4892000000 4.7109000000 0.7409000000
-0.4894000000 2.5603000000 0.6337000000
-0.4898000000 2.6957000000 0.6885000000
-0.4904000000 6.3203000000 0.1508000000
-0.4914000000 2.1851000000 0.5009000000
-0.4916000000 6.0518000000 0.2523000000
-0.4920000000 2.5311000000 0.6236000000
-0.4921000000 3.7912000000 1.0617000000
-0.4925000000 5.5143000000 0.4483000000
-0.4927000000 3.6403000000 1.0318000000
-0.4928000000 5.8617000000 0.3174000000
-0.4933000000 4.9354000000 0.6603000000
-0.4934000000 2.5976000000 0.6419000000
-0.4935000000 2.9594000000 0.7776000000
-0.4938000000 2.9741000000 0.7860000000
-0.4941000000 1.4286000000 0.2196000000
-0.4942000000 2.1973000000 0.5031000000
-0.4946000000 2.2727000000 0.5302000000
-0.4949000000 3.6900000000 1.0482000000
-0.4950000000 4.1753000000 0.9266000000
-0.4952000000 5.8991000000 0.3071000000
-0.4954000000 1.9020000000 0.3981000000
-0.4956000000 5.5679000000 0.4235000000
-0.4961000000 0.7854000000 0.0577000000
-0.4963000000 4.1355000000 0.9513000000
-0.4964000000 1.6240000000 0.2959000000
-0.4965000000 4.9675000000 0.6497000000
-0.4969000000 1.3684000000 0.1934000000
-0.4970000000 1.2775000000 0.1640000000
-0.4971000000 3.9934000000 0.9956000000
-0.4972000000 4.3888000000 0.8547000000
-0.4973000000 2.5842000000 0.6400000000
-0.4975000000 4.3346000000 0.8740000000
-0.4978000000 1.2408000000 0.1522000000
-0.4979000000 6.1168000000 0.2240000000
-0.4980000000 2.4000000000 0.5746000000
-0.4984000000 6.8738000000 0.0208000000
-0.4986000000 5.0898000000 0.5928000000
-0.4988000000 5.6263000000 0.4000000000
-0.4988000000 4.5906000000 0.7770000000
-0.4992000000 2.3421000000 0.5432000000
-0.4992000000 4.8880000000 0.6747000000
-0.5000000000 3.0598000000 0.8090000000
-0.5001000000 0.7367000000 0.0361000000
-0.5005000000 3.8466000000 1.0492000000
-0.5006000000 1.1702000000 0.1259000000
-0.5011000000 4.6973000000 0.7417000000
-0.5015000000 4.6016000000 0.7719000000
-0.5044000000 1.1995000000 0.1344000000
-0.5049000000 3.0352000000 0.7989000000
-0.7379000000 5.0436000000 0.4668000000
-0.7385000000 2.9377000000 0.6195000000
-0.7406000000 5.3096000000 0.3661000000
-0.7413000000 5.1322000000 0.4211000000
-0.7416000000 5.9342000000 0.1310000000
