5.5100000000 3.4274000000 0.0209000000
5.5089000000 3.1212000000 0.0406000000
5.5080000000 3.2194000000 0.0697000000
5.5059000000 3.6110000000 0.0280000000
5.5055000000 2.8103000000 -0.0036000000
5.5047000000 2.9847000000 0.0671000000
5.5042000000 3.3369000000 0.0615000000
5.5020000000 3.5394000000 0.0581000000
5.5018000000 3.4948000000 0.0821000000
5.2608000000 3.7660000000 0.0512000000
5.2585000000 4.1060000000 0.0039000000
5.2581000000 3.6770000000 0.0952000000
5.2578000000 3.3637000000 0.2158000000
5.2572000000 4.0242000000 0.0373000000
5.2571000000 3.1914000000 0.2384000000
5.2550000000 3.4595000000 0.1802000000
5.2540000000 3.7920000000 0.0513000000
5.2539000000 2.9191000000 0.1404000000
5.2530000000 3.0411000000 0.1861000000
5.2516000000 3.1808000000 0.2436000000
5.2513000000 4.0548000000 0.0321000000
5.2498000000 3.3375000000 0.2368000000
5.2462000000 4.0818000000 0.0219000000
5.0070000000 2.3464000000 0.0828000000
5.0063000000 3.1317000000 0.3836000000
5.0060000000 2.1868000000 0.0178000000
5.0054000000 2.4816000000 0.1352000000
5.0050000000 3.8378000000 0.2077000000
5.0040000000 3.1481000000 0.3951000000
5.0035000000 3.4041000000 0.3763000000
5.0029000000 2.5517000000 0.1687000000
5.0017000000 1.9408000000 0.0030000000
5.0005000000 2.7555000000 0.2448000000
4.9995000000 2.1193000000 0.0734000000
4.9992000000 3.7050000000 0.2549000000
4.9970000000 3.2306000000 0.4273000000
4.7606000000 3.7559000000 0.3955000000
4.7601000000 2.9439000000 0.4849000000
4.7597000000 3.9191000000 0.3402000000
4.7596000000 4.1515000000 0.2476000000
4.7581000000 2.8997000000 0.4683000000
4.7577000000 4.6697000000 0.0491000000
4.7570000000 2.5376000000 0.3256000000
4.7558000000 4.7197000000 0.0227000000
4.7556000000 4.0641000000 0.2908000000
4.7554000000 4.6965000000 0.0360000000
4.7550000000 2.8038000000 0.4348000000
4.7548000000 4.1793000000 0.2374000000
4.7545000000 3.2470000000 0.5882000000
4.7540000000 3.8916000000 0.3543000000
4.7537000000 1.7183000000 0.0876000000
4.7531000000 2.7686000000 0.4172000000
4.7526000000 3.7794000000 0.3953000000
4.7517000000 2.5762000000 0.3484000000
4.7510000000 4.9418000000 0.0234000000
4.7497000000 3.6581000000 0.4470000000
4.7483000000 3.4220000000 0.5389000000
4.7478000000 1.8307000000 0.0548000000
4.5138000000 4.6472000000 0.2213000000
4.5114000000 4.1867000000 0.3982000000
4.5105000000 3.7750000000 0.5580000000
4.5102000000 3.8917000000 0.5213000000
4.5096000000 2.6697000000 0.5463000000
4.5086000000 1.3656000000 0.0374000000
4.5075000000 1.7981000000 0.2102000000
4.5070000000 1.2326000000 0.0608000000
4.5069000000 4.9930000000 0.0840000000
4.5065000000 3.7212000000 0.5924000000
4.5057000000 4.1532000000 0.4214000000
4.5055000000 2.9870000000 0.6667000000
4.5052000000 5.3790000000 0.0122000000
4.5044000000 4.3615000000 0.3376000000
4.5036000000 5.1831000000 0.0902000000
4.5035000000 3.7500000000 0.5799000000
4.5032000000 4.5059000000 0.2790000000
4.5029000000 4.1588000000 0.4171000000
4.5025000000 3.0716000000 0.7120000000
4.5023000000 1.7669000000 0.1956000000
4.5021000000 3.8674000000 0.5326000000
4.5019000000 1.9791000000 0.2831000000
4.5014000000 5.3623000000 0.0239000000
4.5013000000 3.6429000000 0.6195000000
4.5011000000 3.4870000000 0.6838000000
4.5010000000 2.7972000000 0.6019000000
4.5007000000 3.5317000000 0.6652000000
4.4903000000 1.9202000000 0.2661000000
4.2599000000 1.0191000000 0.0715000000
4.2596000000 4.7938000000 0.3347000000
4.2594000000 5.1826000000 0.1845000000
4.2584000000 2.1406000000 0.5105000000
4.2579000000 2.4031000000 0.6137000000
4.2575000000 4.7177000000 0.3645000000
4.2569000000 5.2489000000 0.1659000000
4.2568000000 4.6004000000 0.4120000000
4.2564000000 3.4753000000 0.8536000000
4.2563000000 2.8913000000 0.8085000000
4.2560000000 3.7712000000 0.7355000000
4.2558000000 4.5414000000 0.4345000000
4.2556000000 5.1037000000 0.2191000000
4.2555000000 3.0532000000 0.8669000000
4.2554000000 3.8418000000 0.7135000000
4.2551000000 1.0201000000 0.0757000000
4.2548000000 3.9069000000 0.6868000000
4.2547000000 2.1444000000 0.5186000000
4.2545000000 5.0121000000 0.2525000000
4.2543000000 2.3892000000 0.6099000000
4.2542000000 5.0171000000 0.2456000000
4.2538000000 4.1417000000 0.5927000000
4.2536000000 4.6474000000 0.4006000000
4.2530000000 1.3129000000 0.1868000000
4.2528000000 1.2775000000 0.1769000000
4.2523000000 3.6715000000 0.7858000000
4.2518000000 4.3072000000 0.5308000000
4.2516000000 4.4645000000 0.4704000000
4.2514000000 2.1443000000 0.5130000000
4.2510000000 3.1777000000 0.9239000000
4.2506000000 1.8846000000 0.4202000000
4.2505000000 3.7764000000 0.7398000000
4.2503000000 2.7380000000 0.7501000000
4.2497000000 1.6935000000 0.3398000000
4.2494000000 1.1079000000 0.1082000000
4.2490000000 5.8554000000 0.0007000000
4.2488000000 4.3677000000 0.5086000000
4.2485000000 1.6464000000 0.3242000000
4.2478000000 1.3057000000 0.1934000000
4.2471000000 2.2554000000 0.5607000000
4.2465000000 2.5549000000 0.6847000000
4.2453000000 2.1091000000 0.5020000000
4.0145000000 5.7351000000 0.1355000000
4.0118000000 4.8394000000 0.4827000000
4.0105000000 3.5577000000 0.9906000000
4.0093000000 4.2468000000 0.7156000000
4.0088000000 3.4839000000 1.0152000000
4.0085000000 3.7286000000 0.9198000000
4.0081000000 4.9669000000 0.4393000000
4.0079000000 4.9726000000 0.4377000000
4.0074000000 5.9970000000 0.0345000000
4.0070000000 5.0279000000 0.4162000000
4.0067000000 3.9462000000 0.8355000000
4.0064000000 1.8670000000 0.5785000000
4.0062000000 5.3912000000 0.2735000000
4.0058000000 6.1049000000 0.0705000000
4.0057000000 3.1902000000 1.0857000000
4.0054000000 4.5570000000 0.5972000000
4.0050000000 5.7849000000 0.1194000000
4.0045000000 4.2576000000 0.7207000000
4.0042000000 2.1297000000 0.6737000000
4.0041000000 0.5996000000 0.0771000000
4.0040000000 4.4178000000 0.6595000000
4.0038000000 2.3000000000 0.7412000000
4.0036000000 3.0339000000 1.0314000000
4.0033000000 4.3998000000 0.6646000000
4.0032000000 0.5968000000 0.0788000000
4.0029000000 1.8989000000 0.5879000000
4.0028000000 4.3263000000 0.6937000000
4.0026000000 3.5388000000 0.9996000000
4.0024000000 5.0620000000 0.4041000000
4.0021000000 0.6695000000 0.1028000000
4.0018000000 1.6150000000 0.4784000000
4.0016000000 5.2229000000 0.3380000000
4.0013000000 4.0263000000 0.8056000000
4.0009000000 1.0662000000 0.2638000000
4.0007000000 0.9999000000 0.2388000000
4.0006000000 5.5874000000 0.1968000000
4.0004000000 0.4415000000 0.0199000000
4.0001000000 6.0248000000 0.0324000000
3.9995000000 5.0649000000 0.4072000000
3.9958000000 5.9609000000 0.0589000000
3.7621000000 3.9422000000 1.0022000000
3.7619000000 4.4013000000 0.8204000000
3.7605000000 3.9192000000 1.0099000000
3.7593000000 2.9528000000 1.1630000000
3.7583000000 1.5952000000 0.6341000000
3.7579000000 0.7570000000 0.3086000000
3.7578000000 4.9529000000 0.6102000000
3.7575000000 5.9124000000 0.2429000000
3.7574000000 5.2891000000 0.4815000000
3.7568000000 3.9690000000 1.0003000000
3.7565000000 5.0068000000 0.5903000000
3.7563000000 5.7243000000 0.3077000000
3.7563000000 5.7845000000 0.2840000000
3.7561000000 4.3024000000 0.8684000000
3.7558000000 1.0503000000 0.4213000000
3.7555000000 3.4994000000 1.1837000000
3.7552000000 1.9156000000 0.7664000000
3.7550000000 4.2050000000 0.8998000000
3.7547000000 3.4448000000 1.2083000000
3.7544000000 1.9252000000 0.7653000000
3.7543000000 5.0885000000 0.5633000000
3.7540000000 3.8031000000 1.0660000000
3.7540000000 3.9243000000 1.0217000000
3.7536000000 5.8049000000 0.2799000000
3.7535000000 1.2866000000 0.5184000000
3.7531000000 1.1139000000 0.4437000000
3.7528000000 3.5662000000 1.1610000000
3.7526000000 1.2164000000 0.4919000000
3.7525000000 3.2500000000 1.2734000000
3.7522000000 3.1375000000 1.2440000000
3.7521000000 0.4266000000 0.1820000000
3.7520000000 1.5846000000 0.6359000000
3.7518000000 6.3000000000 0.0934000000
3.7516000000 1.9763000000 0.7913000000
3.7513000000 4.2146000000 0.9119000000
3.7511000000 0.0485000000 0.0162000000
3.7505000000 6.3220000000 0.0861000000
3.7503000000 5.7465000000 0.3098000000
3.7501000000 3.9586000000 1.0084000000
3.7500000000 3.1492000000 1.2462000000
3.7496000000 1.7659000000 0.7048000000
3.7493000000 2.2713000000 0.8985000000
3.7490000000 1.4112000000 0.5655000000
3.7483000000 2.3879000000 0.9529000000
3.7457000000 0.0562000000 0.0285000000
3.5155000000 4.5647000000 0.9327000000
3.5123000000 4.2074000000 1.0704000000
3.5110000000 5.1786000000 0.6902000000
3.5100000000 0.6337000000 0.4246000000
3.5092000000 3.9052000000 1.1924000000
3.5090000000 2.2859000000 1.0729000000
3.5083000000 6.3915000000 0.0994000000
3.5079000000 5.8619000000 0.4262000000
3.5078000000 4.3705000000 1.0143000000
3.5075000000 6.2094000000 0.2418000000
3.5073000000 0.8230000000 0.5035000000
3.5069000000 5.4963000000 0.5681000000
3.5067000000 2.3475000000 1.1023000000
3.5064000000 4.8020000000 0.8361000000
3.5060000000 0.2594000000 0.2230000000
3.5058000000 3.9501000000 1.1786000000
3.5053000000 3.8205000000 1.2303000000
3.5051000000 1.1200000000 0.6190000000
3.5051000000 4.4988000000 0.9645000000
3.5050000000 1.1096000000 0.6189000000
3.5048000000 5.9385000000 0.3975000000
3.5046000000 2.6530000000 1.2157000000
3.5045000000 3.1199000000 1.4014000000
3.5043000000 5.5191000000 0.5616000000
3.5040000000 0.1715000000 0.1545000000
3.5036000000 6.2999000000 0.1708000000
3.5033000000 2.5351000000 1.1752000000
3.5032000000 2.3098000000 1.0884000000
3.5030000000 4.8272000000 0.8362000000
3.5028000000 0.8949000000 0.5323000000
3.5028000000 3.5655000000 1.3306000000
3.5027000000 6.2769000000 0.1926000000
3.5026000000 1.8120000000 0.8948000000
3.5025000000 3.0701000000 1.3798000000
3.5022000000 1.7797000000 0.8816000000
3.5020000000 2.0765000000 0.9959000000
3.5019000000 2.4967000000 1.1667000000
3.5018000000 0.8615000000 0.5233000000
3.5015000000 0.4510000000 0.3510000000
3.5013000000 2.0634000000 0.9927000000
3.5011000000 0.6692000000 0.4437000000
3.5009000000 0.8627000000 0.5247000000
3.5008000000 0.6379000000 0.4360000000
3.5001000000 2.0626000000 0.9920000000
3.4998000000 1.8216000000 0.8939000000
3.4996000000 3.5184000000 1.3492000000
3.4994000000 0.7476000000 0.4819000000
3.4992000000 5.0794000000 0.7395000000
3.4986000000 4.2415000000 1.0687000000
3.4980000000 1.5376000000 0.7913000000
3.4975000000 0.4498000000 0.3534000000
3.4970000000 2.1994000000 1.0468000000
3.4943000000 2.3585000000 1.1168000000
3.2634000000 5.7657000000 0.5846000000
3.2618000000 2.7911000000 1.4340000000
3.2599000000 5.9580000000 0.4318000000
3.2591000000 4.3937000000 1.1684000000
3.2588000000 5.4621000000 0.7514000000
3.2584000000 3.6826000000 1.4474000000
3.2581000000 4.0516000000 1.3055000000
3.2573000000 5.1176000000 0.8918000000
3.2568000000 2.5390000000 1.3435000000
3.2566000000 2.9638000000 1.5050000000
3.2564000000 5.2933000000 0.8151000000
3.2562000000 5.3560000000 0.7973000000
3.2561000000 0.0549000000 0.0568000000
3.2560000000 5.3783000000 0.7843000000
3.2558000000 6.2615000000 0.1980000000
3.2558000000 5.1175000000 0.8879000000
3.2555000000 5.2220000000 0.8487000000
3.2553000000 5.9664000000 0.4282000000
3.2549000000 3.2883000000 1.5906000000
3.2548000000 0.0662000000 0.0674000000
3.2545000000 3.6460000000 1.4629000000
3.2545000000 0.0183000000 0.0332000000
3.2542000000 3.4549000000 1.5361000000
3.2541000000 6.2190000000 0.2299000000
3.2540000000 2.8006000000 1.4460000000
3.2538000000 2.8137000000 1.4566000000
3.2536000000 2.5263000000 1.3389000000
3.2534000000 3.4617000000 1.5355000000
3.2532000000 0.4268000000 0.3528000000
3.2530000000 3.1338000000 1.5831000000
3.2528000000 0.4007000000 0.3272000000
3.2525000000 2.7130000000 1.4171000000
3.2524000000 5.5905000000 0.6926000000
3.2519000000 1.5925000000 0.9732000000
3.2518000000 1.9343000000 1.1151000000
3.2516000000 2.4028000000 1.2986000000
3.2513000000 3.5633000000 1.5024000000
3.2512000000 0.6229000000 0.4999000000
3.2509000000 2.6718000000 1.4014000000
3.2506000000 6.2322000000 0.2227000000
3.2504000000 0.2512000000 0.2135000000
3.2501000000 0.3001000000 0.2545000000
3.2499000000 1.4640000000 0.9302000000
3.2495000000 6.1153000000 0.3120000000
3.2491000000 0.9798000000 0.7375000000
3.2485000000 0.0115000000 0.0312000000
3.2485000000 1.2256000000 0.8366000000
3.2477000000 5.2449000000 0.8434000000
3.2443000000 3.4058000000 1.5699000000
3.0120000000 4.0752000000 1.4593000000
3.0105000000 5.7420000000 0.6053000000
3.0098000000 6.3535000000 0.1309000000
3.0089000000 0.9011000000 0.7240000000
3.0086000000 5.5210000000 0.7803000000
3.0083000000 3.3298000000 1.7523000000
3.0081000000 4.5776000000 1.2695000000
3.0077000000 3.4741000000 1.6952000000
3.0073000000 6.0250000000 0.3812000000
3.0071000000 4.7404000000 1.2025000000
3.0068000000 6.0388000000 0.3724000000
3.0066000000 1.9459000000 1.2784000000
3.0063000000 5.4842000000 0.8035000000
3.0060000000 6.1073000000 0.3205000000
3.0060000000 3.9703000000 1.5083000000
3.0058000000 3.8022000000 1.5757000000
3.0057000000 4.9828000000 1.1152000000
3.0055000000 0.9904000000 0.7970000000
3.0052000000 3.9906000000 1.4952000000
3.0050000000 3.2572000000 1.7736000000
3.0048000000 5.7381000000 0.6045000000
3.0046000000 4.9221000000 1.1360000000
3.0044000000 2.1926000000 1.3820000000
3.0042000000 3.0150000000 1.7043000000
3.0041000000 5.8978000000 0.4844000000
3.0040000000 4.7823000000 1.1948000000
3.0036000000 6.3415000000 0.1342000000
3.0035000000 6.2730000000 0.1861000000
3.0034000000 1.6558000000 1.1715000000
3.0032000000 0.8515000000 0.6859000000
3.0030000000 5.7718000000 0.5817000000
3.0028000000 4.3008000000 1.3829000000
3.0027000000 1.1151000000 0.8940000000
3.0024000000 4.4412000000 1.3187000000
3.0022000000 0.7422000000 0.5969000000
3.0018000000 1.0310000000 0.8249000000
3.0013000000 0.8222000000 0.6611000000
3.0013000000 0.3213000000 0.2685000000
3.0007000000 2.1600000000 1.3745000000
3.0003000000 2.9267000000 1.6699000000
2.9999000000 4.5261000000 1.2949000000
2.9998000000 0.4409000000 0.3682000000
2.9995000000 1.5007000000 1.1121000000
2.9991000000 0.2109000000 0.1842000000
2.9986000000 0.6546000000 0.5319000000
2.9981000000 0.3065000000 0.2615000000
2.9975000000 0.7450000000 0.6038000000
2.9932000000 0.0267000000 0.0395000000
2.7622000000 5.9582000000 0.4407000000
2.7608000000 6.2108000000 0.2411000000
2.7597000000 1.0483000000 0.8393000000
2.7591000000 3.5156000000 1.8531000000
2.7594000000 6.3341000000 0.1463000000
2.7582000000 1.2562000000 1.0055000000
2.7576000000 5.8436000000 0.5275000000
2.7573000000 2.0747000000 1.5034000000
2.7573000000 3.5633000000 1.8334000000
2.7570000000 3.5412000000 1.8447000000
2.7564000000 3.5550000000 1.8403000000
2.7563000000 5.5313000000 0.7683000000
2.7562000000 5.4169000000 0.8654000000
2.7560000000 5.8505000000 0.5177000000
2.7558000000 6.0327000000 0.3845000000
2.7555000000 4.3863000000 1.5147000000
2.7553000000 0.9201000000 0.7364000000
2.7548000000 0.0678000000 0.0659000000
2.7548000000 4.6618000000 1.3988000000
2.7545000000 3.3005000000 1.9386000000
2.7543000000 5.0962000000 1.1094000000
2.7542000000 0.9866000000 0.7860000000
2.7541000000 1.3563000000 1.0795000000
2.7540000000 1.6544000000 1.2996000000
2.7539000000 0.0122000000 0.0255000000
2.7537000000 2.3923000000 1.6252000000
2.7536000000 1.9897000000 1.4723000000
2.7533000000 3.7661000000 1.7577000000
2.7528000000 4.0868000000 1.6312000000
2.7526000000 1.2274000000 0.9849000000
2.7525000000 4.1768000000 1.6015000000
2.7523000000 0.8781000000 0.7039000000
2.7520000000 4.6605000000 1.3997000000
2.7514000000 3.8359000000 1.7277000000
2.7511000000 0.9668000000 0.7719000000
2.7510000000 3.4894000000 1.8664000000
2.7509000000 3.9225000000 1.6986000000
2.7506000000 3.6346000000 1.8106000000
2.7504000000 2.7248000000 1.7609000000
2.7503000000 5.4798000000 0.8108000000
2.7499000000 2.6744000000 1.7450000000
2.7492000000 2.3379000000 1.6083000000
2.7485000000 2.8284000000 1.8030000000
2.7480000000 0.9462000000 0.7597000000
2.7479000000 0.5158000000 0.4212000000
2.7469000000 2.8941000000 1.8244000000
2.7458000000 1.3595000000 1.0816000000
2.7444000000 0.0413000000 0.0518000000
2.5135000000 6.1650000000 0.2692000000
2.5109000000 5.5488000000 0.7563000000
2.5098000000 3.9321000000 1.8559000000
2.5096000000 4.3295000000 1.6902000000
2.5093000000 4.9730000000 1.2106000000
2.5088000000 0.1329000000 0.1284000000
2.5083000000 5.4374000000 0.8462000000
2.5078000000 6.3766000000 0.1108000000
2.5073000000 3.1690000000 2.1020000000
2.5071000000 2.4550000000 1.8184000000
2.5063000000 0.1673000000 0.1463000000
2.5062000000 3.1400000000 2.0861000000
2.5053000000 1.4066000000 1.1239000000
2.5051000000 6.5003000000 0.0854000000
2.5048000000 5.4165000000 0.8615000000
2.5047000000 2.5664000000 1.8654000000
2.5045000000 4.6607000000 1.4558000000
2.5044000000 5.6734000000 0.6586000000
2.5043000000 5.2767000000 0.9705000000
2.5041000000 1.2896000000 1.0182000000
2.5039000000 3.5125000000 2.0264000000
2.5035000000 1.5891000000 1.2573000000
2.5034000000 4.2963000000 1.7006000000
2.5032000000 6.2627000000 0.2007000000
2.5031000000 0.1807000000 0.1596000000
2.5030000000 3.7208000000 1.9401000000
2.5027000000 1.4128000000 1.1312000000
2.5024000000 5.2948000000 0.9548000000
2.5022000000 2.1895000000 1.7016000000
2.5020000000 4.4375000000 1.6173000000
2.5018000000 1.4813000000 1.1781000000
2.5014000000 2.9511000000 2.0130000000
2.5011000000 1.6005000000 1.2710000000
2.5008000000 0.1394000000 0.1349000000
2.5005000000 5.0087000000 1.1849000000
2.5003000000 4.4476000000 1.6194000000
2.5002000000 2.1143000000 1.6644000000
2.5000000000 3.3193000000 2.1068000000
2.4995000000 1.4890000000 1.1842000000
2.4992000000 1.8640000000 1.4734000000
2.4988000000 0.1027000000 0.0960000000
2.4982000000 1.3282000000 1.0591000000
2.4979000000 4.6397000000 1.4562000000
2.4948000000 3.9038000000 1.8819000000
2.2644000000 4.1925000000 1.8192000000
2.2617000000 6.2944000000 0.1719000000
2.2611000000 0.1339000000 0.1286000000
2.2608000000 2.6344000000 2.0356000000
2.2591000000 5.7955000000 0.5605000000
2.2576000000 5.1713000000 1.0532000000
2.2573000000 4.5356000000 1.5481000000
2.2571000000 4.4196000000 1.6411000000
2.2570000000 4.6720000000 1.4463000000
2.2568000000 5.5786000000 0.7351000000
2.2564000000 4.8061000000 1.3345000000
2.2563000000 2.5216000000 1.9776000000
2.2563000000 5.8370000000 0.5300000000
2.2561000000 6.2610000000 0.2041000000
2.2560000000 3.1810000000 2.2735000000
2.2558000000 4.5944000000 1.5066000000
2.2556000000 0.0640000000 0.0660000000
2.2556000000 3.9143000000 2.0271000000
2.2555000000 4.3005000000 1.7334000000
2.2552000000 5.9820000000 0.4171000000
2.2550000000 1.3878000000 1.1068000000
2.2547000000 5.3560000000 0.9111000000
2.2545000000 3.8188000000 2.0720000000
2.2543000000 4.7970000000 1.3446000000
2.2541000000 1.6313000000 1.2932000000
2.2540000000 0.5503000000 0.4434000000
2.2536000000 0.8132000000 0.6567000000
2.2535000000 0.8801000000 0.7040000000
2.2532000000 1.1880000000 0.9515000000
2.2529000000 1.3892000000 1.1054000000
2.2526000000 2.2841000000 1.8009000000
2.2524000000 4.5255000000 1.5595000000
2.2521000000 4.7221000000 1.4033000000
2.2520000000 4.2522000000 1.7686000000
2.2518000000 5.8789000000 0.4996000000
2.2515000000 4.1220000000 1.8707000000
2.2514000000 2.1574000000 1.7115000000
2.2510000000 5.7031000000 0.6321000000
2.2506000000 3.0126000000 2.2121000000
2.2503000000 6.3715000000 0.1184000000
2.2500000000 0.2700000000 0.2264000000
2.2495000000 0.8931000000 0.7224000000
2.2488000000 1.1894000000 0.9476000000
2.2487000000 3.1155000000 2.2516000000
2.2478000000 5.4133000000 0.8579000000
2.2470000000 4.7482000000 1.3831000000
2.0127000000 6.2567000000 0.2007000000
2.0115000000 5.1217000000 1.0846000000
2.0111000000 2.8558000000 2.2533000000
2.0102000000 6.1417000000 0.2940000000
2.0094000000 3.4540000000 2.3705000000
2.0086000000 1.9278000000 1.5265000000
2.0083000000 6.2388000000 0.2211000000
2.0077000000 4.3975000000 1.6507000000
2.0073000000 3.9632000000 1.9946000000
2.0070000000 3.1183000000 2.4132000000
2.0070000000 3.5023000000 2.3475000000
2.0067000000 4.2318000000 1.7870000000
2.0063000000 2.0440000000 1.6209000000
2.0062000000 2.1448000000 1.6970000000
2.0059000000 3.2957000000 2.4420000000
2.0058000000 6.1384000000 0.2952000000
2.0055000000 5.6652000000 0.6665000000
2.0053000000 5.4419000000 0.8448000000
2.0051000000 3.1960000000 2.4369000000
2.0050000000 4.0626000000 1.9185000000
2.0048000000 3.8522000000 2.0838000000
2.0044000000 2.9458000000 2.3148000000
2.0043000000 5.6725000000 0.6623000000
2.0041000000 2.9325000000 2.2960000000
2.0040000000 4.2931000000 1.7364000000
2.0038000000 4.5253000000 1.5568000000
2.0035000000 5.7885000000 0.5668000000
2.0033000000 0.2608000000 0.2242000000
2.0032000000 3.2985000000 2.4421000000
2.0029000000 2.7105000000 2.1385000000
2.0027000000 4.4699000000 1.6014000000
2.0026000000 0.3914000000 0.3293000000
2.0025000000 4.7860000000 1.3526000000
2.0023000000 0.7950000000 0.6411000000
2.0020000000 1.0465000000 0.8369000000
2.0018000000 2.8764000000 2.2688000000
2.0015000000 4.6238000000 1.4807000000
2.0010000000 1.9775000000 1.5573000000
2.0007000000 0.1677000000 0.1454000000
2.0002000000 1.8048000000 1.4296000000
2.0000000000 4.3305000000 1.7093000000
1.9997000000 1.9850000000 1.5688000000
1.9996000000 3.6381000000 2.2519000000
1.9993000000 1.0931000000 0.8689000000
1.9990000000 0.2904000000 0.2471000000
1.9986000000 0.0595000000 0.0643000000
1.9980000000 1.9572000000 1.5489000000
1.9975000000 1.0004000000 0.7968000000
1.9964000000 1.3429000000 1.0689000000
1.9943000000 5.0014000000 1.1818000000
1.7648000000 5.6308000000 0.6888000000
1.7609000000 6.4122000000 0.0845000000
1.7585000000 1.3307000000 1.0657000000
1.7581000000 3.8167000000 2.1097000000
1.7576000000 3.4952000000 2.3459000000
1.7574000000 4.0339000000 1.9441000000
1.7572000000 5.3028000000 0.9463000000
1.7566000000 3.5264000000 2.3226000000
1.7564000000 5.3970000000 0.8764000000
1.7561000000 0.3723000000 0.3133000000
1.7558000000 4.7532000000 1.3779000000
1.7556000000 6.1163000000 0.3113000000
1.7555000000 1.1022000000 0.8858000000
1.7552000000 5.3815000000 0.8908000000
1.7549000000 4.9766000000 1.2051000000
1.7547000000 3.0527000000 2.3895000000
1.7545000000 5.8006000000 0.5571000000
1.7543000000 4.5855000000 1.5088000000
1.7542000000 2.1912000000 1.7273000000
1.7539000000 5.2936000000 0.9535000000
1.7536000000 0.2841000000 0.2398000000
1.7531000000 5.7377000000 0.6122000000
1.7527000000 2.6384000000 2.0852000000
1.7525000000 1.2814000000 1.0240000000
1.7524000000 4.9378000000 1.2357000000
1.7516000000 6.1227000000 0.3049000000
1.7512000000 3.8091000000 2.1193000000
1.7506000000 4.6849000000 1.4395000000
1.7492000000 3.9142000000 2.0389000000
1.7490000000 0.0562000000 0.0615000000
1.7485000000 2.3074000000 1.8221000000
1.7480000000 0.7215000000 0.5824000000
1.7478000000 2.8069000000 2.2166000000
1.7458000000 2.8770000000 2.2697000000
1.7442000000 4.4197000000 1.6411000000
1.5129000000 1.9135000000 1.5217000000
1.5097000000 1.0157000000 0.8142000000
1.5095000000 4.6951000000 1.4234000000
1.5090000000 3.0805000000 2.2447000000
1.5087000000 6.2217000000 0.2278000000
1.5081000000 1.7757000000 1.4054000000
1.5076000000 6.0463000000 0.3647000000
1.5072000000 3.4850000000 2.2090000000
1.5071000000 5.8106000000 0.5505000000
1.5070000000 5.3590000000 0.9009000000
1.5068000000 5.3384000000 0.9214000000
1.5063000000 5.3762000000 0.8945000000
1.5062000000 3.2776000000 2.2831000000
1.5059000000 4.9254000000 1.2426000000
1.5053000000 4.1220000000 1.8768000000
1.5052000000 0.0923000000 0.0927000000
1.5050000000 3.8151000000 2.0681000000
1.5046000000 5.5352000000 0.7687000000
1.5043000000 2.9471000000 2.1924000000
1.5040000000 5.4578000000 0.8224000000
1.5039000000 3.0523000000 2.2323000000
1.5038000000 4.4473000000 1.6182000000
1.5034000000 4.4724000000 1.5988000000
1.5033000000 1.1817000000 0.9437000000
1.5030000000 1.9942000000 1.5785000000
1.5030000000 3.9484000000 1.9961000000
1.5026000000 3.2687000000 2.2857000000
1.5025000000 0.8998000000 0.7209000000
1.5024000000 4.2039000000 1.8127000000
1.5023000000 3.8883000000 2.0429000000
1.5021000000 5.5120000000 0.7889000000
1.5020000000 2.6131000000 2.0451000000
1.5019000000 2.9621000000 2.1951000000
1.5017000000 0.4580000000 0.3792000000
1.5015000000 2.8150000000 2.1420000000
1.5010000000 3.5533000000 2.1847000000
1.5007000000 0.7544000000 0.6146000000
1.5004000000 2.3567000000 1.8620000000
1.4998000000 2.5922000000 2.0284000000
1.4993000000 4.2442000000 1.7771000000
1.4993000000 0.7213000000 0.5776000000
1.4977000000 0.2834000000 0.2408000000
1.4973000000 6.1506000000 0.2878000000
1.2619000000 5.1523000000 1.0683000000
1.2604000000 3.1675000000 2.1117000000
1.2599000000 5.7345000000 0.6109000000
1.2589000000 4.1258000000 1.7980000000
1.2585000000 5.9554000000 0.4357000000
1.2580000000 5.6415000000 0.6869000000
1.2580000000 5.9278000000 0.4616000000
1.2578000000 3.4752000000 2.0569000000
1.2575000000 0.6260000000 0.5060000000
1.2572000000 0.7166000000 0.5794000000
1.2569000000 4.2169000000 1.7545000000
1.2566000000 4.1590000000 1.7849000000
1.2562000000 5.2982000000 0.9501000000
1.2560000000 2.9367000000 2.0214000000
1.2556000000 0.8792000000 0.7136000000
1.2554000000 1.3634000000 1.0887000000
1.2556000000 3.7365000000 1.9454000000
1.2553000000 2.1037000000 1.6518000000
1.2551000000 2.0694000000 1.6346000000
1.2548000000 5.5998000000 0.7094000000
1.2547000000 4.1347000000 1.7924000000
1.2544000000 1.7909000000 1.4251000000
1.2543000000 6.3800000000 0.1078000000
1.2539000000 0.8821000000 0.7118000000
1.2537000000 4.3807000000 1.6596000000
1.2535000000 4.6366000000 1.4755000000
1.2535000000 4.3194000000 1.7039000000
1.2532000000 0.6295000000 0.5098000000
1.2531000000 3.9290000000 1.8747000000
1.2530000000 1.5368000000 1.2247000000
1.2529000000 0.2710000000 0.2259000000
1.2528000000 5.6158000000 0.7034000000
1.2527000000 2.1653000000 1.6980000000
1.2525000000 5.3040000000 0.9473000000
1.2521000000 4.0999000000 1.8048000000
1.2516000000 2.9481000000 2.0096000000
1.2512000000 1.5626000000 1.2376000000
1.2510000000 0.0193000000 0.0355000000
1.2505000000 2.9365000000 2.0114000000
1.2503000000 3.3626000000 2.0910000000
1.2500000000 3.3649000000 2.0903000000
1.2497000000 0.8753000000 0.7070000000
1.2495000000 4.1761000000 1.7729000000
1.2490000000 1.1298000000 0.9015000000
1.2488000000 4.1454000000 1.7827000000
1.2485000000 1.0501000000 0.8398000000
1.2479000000 1.8818000000 1.4885000000
1.2474000000 4.6661000000 1.4498000000
1.2460000000 0.4444000000 0.3666000000
1.0145000000 5.6859000000 0.6466000000
1.0107000000 6.2153000000 0.2330000000
1.0100000000 2.8210000000 1.8075000000
1.0095000000 4.7764000000 1.3464000000
1.0087000000 5.2463000000 0.9908000000
1.0083000000 4.4541000000 1.5001000000
1.0081000000 1.8633000000 1.4345000000
1.0078000000 5.0184000000 1.1696000000
1.0075000000 5.9600000000 0.4336000000
1.0074000000 1.8847000000 1.4396000000
1.0072000000 4.8797000000 1.2779000000
1.0070000000 2.0557000000 1.4969000000
1.0070000000 5.0195000000 1.1701000000
1.0065000000 5.6240000000 0.6888000000
1.0065000000 5.9091000000 0.4777000000
1.0062000000 4.6398000000 1.4203000000
1.0059000000 1.0179000000 0.8109000000
1.0058000000 2.8121000000 1.8052000000
1.0055000000 5.9620000000 0.4333000000
1.0053000000 4.2478000000 1.5779000000
1.0051000000 1.8487000000 1.4159000000
1.0049000000 2.2321000000 1.5722000000
1.0048000000 2.9480000000 1.8538000000
1.0047000000 3.7592000000 1.7696000000
1.0046000000 4.1794000000 1.6024000000
1.0043000000 4.5236000000 1.4688000000
1.0043000000 4.7787000000 1.3468000000
1.0041000000 1.5131000000 1.1996000000
1.0039000000 0.1031000000 0.1017000000
1.0038000000 3.6345000000 1.8168000000
1.0037000000 5.7084000000 0.6295000000
1.0035000000 6.2943000000 0.1748000000
1.0033000000 4.2973000000 1.5556000000
1.0031000000 4.5587000000 1.4517000000
1.0030000000 1.7438000000 1.3740000000
1.0028000000 5.1495000000 1.0742000000
1.0027000000 1.6750000000 1.3188000000
1.0026000000 5.9204000000 0.4618000000
1.0025000000 3.8363000000 1.7396000000
1.0023000000 3.2663000000 1.9494000000
1.0020000000 0.0572000000 0.0590000000
1.0019000000 0.0286000000 0.0445000000
1.0016000000 0.6510000000 0.5304000000
1.0013000000 6.3535000000 0.1234000000
1.0009000000 0.9963000000 0.8006000000
1.0007000000 3.0490000000 1.8871000000
1.0002000000 0.2818000000 0.2363000000
0.9997000000 0.7671000000 0.6266000000
0.9990000000 0.8928000000 0.7164000000
0.9985000000 4.7351000000 1.3715000000
0.9976000000 3.3439000000 1.9272000000
0.9970000000 1.7539000000 1.3678000000
0.9968000000 3.0513000000 1.8877000000
0.9958000000 1.3609000000 1.0866000000
0.9940000000 0.6440000000 0.5189000000
0.9920000000 3.3376000000 1.9263000000
0.7612000000 6.3475000000 0.1300000000
0.7601000000 3.8541000000 1.5677000000
0.7593000000 5.9518000000 0.4451000000
0.7591000000 3.7295000000 1.6103000000
0.7583000000 3.3425000000 1.7673000000
0.7581000000 6.0498000000 0.3610000000
0.7579000000 5.5856000000 0.7283000000
0.7576000000 4.8874000000 1.1571000000
0.7572000000 4.7006000000 1.2363000000
0.7571000000 5.3297000000 0.9233000000
0.7569000000 0.8588000000 0.6914000000
0.7568000000 5.1018000000 1.0611000000
0.7562000000 6.2599000000 0.2031000000
0.7560000000 5.0140000000 1.1074000000
0.7556000000 4.5886000000 1.2766000000
0.7551000000 1.1359000000 0.9072000000
0.7550000000 2.9202000000 1.6762000000
0.7549000000 4.2735000000 1.4019000000
0.7547000000 4.8826000000 1.1543000000
0.7545000000 3.3422000000 1.7585000000
0.7544000000 3.0321000000 1.7134000000
0.7543000000 0.5176000000 0.4271000000
0.7543000000 1.4211000000 1.0882000000
0.7540000000 2.8789000000 1.6492000000
0.7538000000 6.0021000000 0.4001000000
0.7537000000 0.3288000000 0.2746000000
0.7535000000 3.3938000000 1.7461000000
0.7531000000 1.1651000000 0.9244000000
0.7528000000 4.8004000000 1.1882000000
0.7527000000 2.7227000000 1.6003000000
0.7527000000 2.0469000000 1.3290000000
0.7525000000 2.7795000000 1.6147000000
0.7523000000 6.1657000000 0.2751000000
0.7523000000 6.1572000000 0.2799000000
0.7520000000 3.6236000000 1.6522000000
0.7519000000 5.2958000000 0.9459000000
0.7518000000 4.5341000000 1.2914000000
0.7516000000 1.1678000000 0.9294000000
0.7513000000 1.6581000000 1.1712000000
0.7510000000 0.6274000000 0.5104000000
0.7508000000 3.5750000000 1.6676000000
0.7507000000 0.8123000000 0.6559000000
0.7502000000 0.1309000000 0.1208000000
0.7500000000 4.0664000000 1.4755000000
0.7492000000 1.6825000000 1.1874000000
0.7491000000 0.6586000000 0.5327000000
0.7489000000 0.0463000000 0.0543000000
0.7486000000 2.0932000000 1.3459000000
0.7485000000 4.1746000000 1.4285000000
0.7481000000 3.4285000000 1.7169000000
0.7458000000 5.9497000000 0.4489000000
0.7453000000 3.1678000000 1.7587000000
0.5141000000 5.2103000000 0.8651000000
0.5114000000 5.6223000000 0.6881000000
0.5099000000 4.8811000000 0.9915000000
0.5090000000 4.6971000000 1.0683000000
0.5085000000 4.1539000000 1.2820000000
0.5081000000 2.7059000000 1.4232000000
0.5077000000 4.8474000000 1.0047000000
0.5071000000 5.1764000000 0.8738000000
0.5064000000 2.9645000000 1.5204000000
0.5062000000 1.5502000000 0.9656000000
0.5060000000 5.8324000000 0.5345000000
0.5058000000 1.8468000000 1.0824000000
0.5055000000 2.1622000000 1.2062000000
0.5053000000 4.5153000000 1.1365000000
0.5050000000 1.8774000000 1.0969000000
0.5049000000 4.5043000000 1.1387000000
0.5046000000 0.7812000000 0.6233000000
0.5046000000 3.4418000000 1.5557000000
0.5045000000 5.8697000000 0.5104000000
0.5041000000 1.3923000000 0.9011000000
0.5038000000 0.3041000000 0.2571000000
0.5038000000 1.3547000000 0.8907000000
0.5033000000 4.0426000000 1.3165000000
0.5031000000 1.0071000000 0.7545000000
0.5030000000 6.0533000000 0.3593000000
0.5029000000 3.0424000000 1.5486000000
0.5028000000 3.2236000000 1.6089000000
0.5027000000 4.2056000000 1.2535000000
0.5025000000 4.9869000000 0.9463000000
0.5023000000 0.0351000000 0.0456000000
0.5021000000 3.9786000000 1.3413000000
0.5020000000 3.8507000000 1.3917000000
0.5018000000 2.6929000000 1.4126000000
0.5013000000 5.7201000000 0.6133000000
0.5012000000 5.9047000000 0.4751000000
0.5010000000 0.0792000000 0.0846000000
0.5005000000 3.6099000000 1.4803000000
0.5003000000 1.7762000000 1.0603000000
0.5000000000 3.6641000000 1.4660000000
0.4993000000 0.4888000000 0.4076000000
0.4991000000 4.3627000000 1.1904000000
0.4989000000 1.0003000000 0.7507000000
0.4978000000 3.4225000000 1.5550000000
0.4974000000 0.0751000000 0.0761000000
0.4969000000 0.6823000000 0.5590000000
0.4963000000 3.1066000000 1.5687000000
0.4957000000 3.4600000000 1.5351000000
0.2640000000 5.1192000000 0.7357000000
0.2611000000 4.8340000000 0.8460000000
0.2595000000 2.4875000000 1.1679000000
0.2589000000 1.2396000000 0.6785000000
0.2584000000 5.6021000000 0.5438000000
0.2579000000 4.2126000000 1.0862000000
0.2574000000 3.0326000000 1.3831000000
0.2568000000 1.9037000000 0.9406000000
0.2566000000 6.4689000000 0.0343000000
0.2560000000 1.4041000000 0.7432000000
0.2558000000 6.1146000000 0.3012000000
0.2554000000 3.4294000000 1.3908000000
0.2553000000 0.3341000000 0.2800000000
0.2551000000 2.3151000000 1.0897000000
0.2549000000 0.5769000000 0.4191000000
0.2548000000 5.3746000000 0.6294000000
0.2547000000 0.8874000000 0.5365000000
0.2546000000 2.7339000000 1.2619000000
0.2543000000 2.2392000000 1.0653000000
0.2542000000 4.5632000000 0.9426000000
0.2541000000 2.7355000000 1.2575000000
0.2537000000 5.1432000000 0.7177000000
0.2535000000 4.8459000000 0.8358000000
0.2533000000 2.8277000000 1.2967000000
0.2529000000 5.0830000000 0.7402000000
0.2528000000 0.7672000000 0.4913000000
0.2525000000 0.7462000000 0.4805000000
0.2522000000 0.9117000000 0.5457000000
0.2520000000 5.3856000000 0.6191000000
0.2518000000 1.2356000000 0.6712000000
0.2516000000 1.9027000000 0.9302000000
0.2515000000 2.4612000000 1.1486000000
0.2510000000 5.2020000000 0.6962000000
0.2507000000 1.1331000000 0.6330000000
0.2505000000 2.2984000000 1.0850000000
0.2504000000 5.9065000000 0.4197000000
0.2501000000 3.0366000000 1.3742000000
0.2499000000 1.7567000000 0.8758000000
0.2488000000 4.9319000000 0.7970000000
0.2478000000 2.5254000000 1.1783000000
0.2475000000 0.1656000000 0.1496000000
0.2468000000 4.6199000000 0.9195000000
0.2456000000 0.5359000000 0.3890000000
0.0145000000 3.5115000000 1.1936000000
0.0118000000 3.6837000000 1.1294000000
0.0105000000 3.5655000000 1.1713000000
0.0095000000 4.1227000000 0.9586000000
0.0090000000 1.9086000000 0.7732000000
0.0083000000 4.4633000000 0.8179000000
0.0075000000 3.2974000000 1.2630000000
0.0071000000 6.4816000000 0.0135000000
0.0070000000 5.7801000000 0.3056000000
0.0068000000 4.4773000000 0.8088000000
0.0065000000 3.9581000000 1.0115000000
0.0063000000 6.0832000000 0.1810000000
0.0058000000 6.3649000000 0.0724000000
0.0057000000 4.2256000000 0.9120000000
0.0053000000 4.5423000000 0.7835000000
0.0051000000 1.5543000000 0.6350000000
0.0050000000 1.0279000000 0.4223000000
0.0050000000 6.1669000000 0.1508000000
0.0048000000 2.8526000000 1.1370000000
0.0047000000 5.2544000000 0.5074000000
0.0045000000 3.5552000000 1.1654000000
0.0044000000 6.3350000000 0.0865000000
0.0042000000 4.1922000000 0.9218000000
0.0041000000 5.8422000000 0.2793000000
0.0039000000 5.7767000000 0.3050000000
0.0038000000 1.5255000000 0.6127000000
0.0038000000 0.6494000000 0.2747000000
0.0034000000 4.0639000000 0.9687000000
0.0031000000 5.6314000000 0.3549000000
0.0028000000 2.9023000000 1.1581000000
0.0027000000 5.8949000000 0.2561000000
0.0025000000 2.9662000000 1.1865000000
0.0023000000 4.5514000000 0.7835000000
0.0020000000 0.4860000000 0.2138000000
0.0013000000 1.8273000000 0.7338000000
0.0008000000 3.4895000000 1.1951000000
0.0006000000 0.2016000000 0.0998000000
0.0004000000 3.9001000000 1.0342000000
0.0002000000 0.0742000000 0.0349000000
0.0002000000 0.4070000000 0.1764000000
-0.0001000000 1.6654000000 0.6652000000
-0.0004000000 1.9604000000 0.7852000000
-0.0007000000 1.1321000000 0.4640000000
-0.0010000000 0.6190000000 0.2603000000
-0.0011000000 3.4619000000 1.2056000000
-0.0013000000 4.1851000000 0.9209000000
-0.0023000000 1.7746000000 0.7057000000
-0.0033000000 1.2651000000 0.5132000000
-0.0037000000 0.4478000000 0.1890000000
-0.0045000000 3.3020000000 1.2632000000
-0.2375000000 4.7983000000 0.5131000000
-0.2398000000 2.2626000000 0.7437000000
-0.2417000000 5.3426000000 0.3080000000
-0.2420000000 5.2636000000 0.3344000000
-0.2430000000 1.1472000000 0.3002000000
-0.2435000000 2.4556000000 0.8165000000
-0.2437000000 4.2495000000 0.7332000000
-0.2440000000 0.4549000000 0.0261000000
-0.2441000000 4.3961000000 0.6759000000
-0.2443000000 3.1278000000 1.0723000000
-0.2445000000 3.2962000000 1.0900000000
-0.2446000000 5.0289000000 0.4279000000
-0.2447000000 2.4087000000 0.7961000000
-0.2448000000 4.0104000000 0.8172000000
-0.2451000000 6.1303000000 0.0721000000
-0.2454000000 2.8241000000 0.9596000000
-0.2457000000 1.9979000000 0.6315000000
-0.2459000000 4.3739000000 0.6762000000
-0.2461000000 4.9118000000 0.4712000000
-0.2464000000 5.4355000000 0.2647000000
-0.2467000000 4.4443000000 0.6528000000
-0.2466000000 4.6548000000 0.5666000000
-0.2470000000 5.1591000000 0.3699000000
-0.2472000000 2.4582000000 0.8111000000
-0.2475000000 5.7326000000 0.1474000000
-0.2477000000 1.8537000000 0.5779000000
-0.2481000000 3.1958000000 1.0926000000
-0.2482000000 4.0419000000 0.8123000000
-0.2484000000 0.8257000000 0.1728000000
-0.2485000000 2.3665000000 0.7747000000
-0.2488000000 3.3080000000 1.0945000000
-0.2490000000 4.1129000000 0.7794000000
-0.2493000000 4.1768000000 0.7598000000
-0.2495000000 3.6312000000 0.9716000000
-0.2497000000 2.9854000000 1.0198000000
-0.2499000000 5.6611000000 0.1747000000
-0.2502000000 2.4842000000 0.8234000000
-0.2503000000 2.0780000000 0.6655000000
-0.2505000000 0.2012000000 0.0056000000
-0.2512000000 3.6751000000 0.9465000000
-0.2516000000 2.6048000000 0.8653000000
-0.2520000000 3.8395000000 0.8819000000
-0.2522000000 3.4568000000 1.0270000000
-0.2527000000 1.0521000000 0.2586000000
-0.2531000000 0.7656000000 0.1463000000
-0.2549000000 5.5671000000 0.2116000000
-0.4888000000 1.2817000000 0.1912000000
-0.4895000000 5.2353000000 0.1800000000
-0.4915000000 2.4609000000 0.6480000000
-0.4924000000 4.2397000000 0.5705000000
-0.4929000000 5.7271000000 0.0608000000
-0.4930000000 1.0614000000 0.1057000000
-0.4935000000 4.8041000000 0.3338000000
-0.4938000000 3.8432000000 0.7189000000
-0.4943000000 3.1863000000 0.9301000000
-0.4947000000 5.2629000000 0.1609000000
-0.4951000000 4.2923000000 0.5436000000
-0.4955000000 3.7956000000 0.7393000000
-0.4960000000 3.8188000000 0.7291000000
-0.4963000000 1.3608000000 0.2157000000
-0.4967000000 4.6079000000 0.4164000000
-0.4969000000 2.8352000000 0.7905000000
-0.4970000000 3.0476000000 0.8683000000
-0.4972000000 4.8868000000 0.3099000000
-0.4973000000 2.0483000000 0.4825000000
-0.4982000000 5.7172000000 0.0604000000
-0.4983000000 4.8015000000 0.3414000000
-0.4986000000 4.7653000000 0.3558000000
-0.4987000000 3.8377000000 0.7139000000
-0.4991000000 3.8908000000 0.6963000000
-0.4996000000 3.4710000000 0.8594000000
-0.4998000000 2.1072000000 0.4987000000
-0.5007000000 2.3326000000 0.5886000000
-0.5020000000 3.4524000000 0.8727000000
-0.5039000000 2.3446000000 0.5944000000
-0.5049000000 5.5753000000 0.0400000000
-0.7408000000 1.9064000000 0.2656000000
-0.7417000000 2.5659000000 0.5217000000
-0.7424000000 1.3465000000 0.0389000000
-0.7427000000 1.6604000000 0.1653000000
-0.7435000000 4.9966000000 0.1083000000
-0.7442000000 2.7736000000 0.5949000000
-0.7445000000 3.3951000000 0.7291000000
-0.7449000000 4.0755000000 0.4556000000
-0.7450000000 2.5341000000 0.5084000000
-0.7453000000 2.9784000000 0.6816000000
-0.7455000000 2.5479000000 0.5099000000
-0.7457000000 3.1217000000 0.7361000000
-0.7460000000 1.6568000000 0.1657000000
-0.7469000000 4.5403000000 0.2767000000
-0.7472000000 5.2113000000 0.0899000000
-0.7478000000 2.8948000000 0.6396000000
-0.7481000000 2.2220000000 0.3891000000
-0.7489000000 1.5443000000 0.1133000000
-0.7492000000 4.6163000000 0.2475000000
-0.7498000000 3.2473000000 0.7696000000
-0.7502000000 1.2410000000 0.0692000000
-0.7515000000 1.1275000000 0.0295000000
-0.7517000000 2.0939000000 0.3284000000
-0.7527000000 1.2786000000 0.0837000000
-0.7562000000 3.5690000000 0.6506000000
-0.9894000000 4.0242000000 0.3165000000
-0.9907000000 2.8477000000 0.4591000000
-0.9921000000 3.6510000000 0.4598000000
-0.9923000000 3.0262000000 0.5254000000
-0.9930000000 3.6378000000 0.4622000000
-0.9932000000 3.8366000000 0.3863000000
-0.9940000000 2.7483000000 0.4216000000
-0.9946000000 3.4455000000 0.5400000000
-0.9950000000 3.9905000000 0.3249000000
-0.9955000000 3.2150000000 0.5873000000
-0.9959000000 3.6769000000 0.4429000000
-0.9960000000 1.7422000000 0.0275000000
-0.9968000000 2.6886000000 0.3884000000
-0.9971000000 1.8009000000 0.0464000000
-0.9973000000 4.3272000000 0.1918000000
-0.9976000000 3.1136000000 0.5551000000
-0.9980000000 2.7360000000 0.4124000000
-0.9987000000 3.7378000000 0.4199000000
-0.9990000000 1.5043000000 0.0072000000
-1.0000000000 4.3064000000 0.1961000000
-1.0008000000 4.1016000000 0.2742000000
-1.0011000000 1.7169000000 0.0867000000
-1.0019000000 3.1266000000 0.5647000000
-1.0042000000 3.7903000000 0.3986000000
-1.0049000000 4.1299000000 0.2658000000
-1.2388000000 4.0280000000 0.1441000000
-1.2420000000 1.9634000000 0.0237000000
-1.2429000000 2.7389000000 0.2455000000
-1.2433000000 2.3551000000 0.0945000000
-1.2437000000 3.1819000000 0.4207000000
-1.2450000000 4.3797000000 0.0763000000
-1.2461000000 4.1920000000 0.0707000000
-1.2468000000 4.0196000000 0.1370000000
-1.2474000000 2.3155000000 0.0812000000
-1.2477000000 2.3654000000 0.1020000000
-1.2479000000 4.1173000000 0.1012000000
-1.2482000000 2.0877000000 0.0689000000
-1.2483000000 4.0063000000 0.1429000000
-1.2491000000 3.1957000000 0.4085000000
-1.2502000000 4.3686000000 0.0825000000
-1.2518000000 2.5699000000 0.1812000000
-1.2529000000 2.6700000000 0.2109000000
-1.2568000000 4.0410000000 0.1240000000
-1.4910000000 3.8539000000 0.0400000000
-1.4928000000 3.3926000000 0.2212000000
-1.4950000000 3.8991000000 0.0945000000
-1.4958000000 3.0010000000 0.1791000000
-1.4960000000 2.9297000000 0.1517000000
-1.4980000000 3.8806000000 0.0210000000
-1.4986000000 3.1436000000 0.2322000000
-1.4997000000 2.9935000000 0.1773000000
-1.5006000000 3.6636000000 0.1092000000
-1.7369000000 3.3761000000 0.0594000000
-1.7422000000 3.0909000000 0.0488000000
-1.7442000000 3.5506000000 0.0604000000
-1.7450000000 2.9604000000 0.0674000000
-1.7465000000 3.1846000000 0.0828000000
-1.7479000000 3.5272000000 0.0677000000
-1.7486000000 3.4282000000 0.0317000000
-1.7498000000 3.1494000000 0.0644000000
-1.7516000000 3.6791000000 0.0063000000
