5.5065000000 5.3137000000 0.0175000000
5.5063000000 3.4266000000 0.6033000000
5.5060000000 2.5569000000 0.1544000000
5.5048000000 4.4350000000 0.3304000000
5.5044000000 5.1527000000 0.0296000000
5.5042000000 2.7139000000 0.2427000000
5.5034000000 5.2658000000 0.0432000000
5.5029000000 3.0970000000 0.4403000000
5.5026000000 2.5577000000 0.1608000000
5.5020000000 5.2929000000 0.0344000000
5.5014000000 3.2393000000 0.5113000000
5.5010000000 4.0515000000 0.5287000000
5.5003000000 2.2168000000 0.0555000000
5.4984000000 2.9034000000 0.3409000000
5.4977000000 3.4189000000 0.6133000000
5.4928000000 2.2896000000 0.1033000000
5.2601000000 4.2032000000 0.6685000000
5.2598000000 3.6269000000 0.9121000000
5.2592000000 3.1189000000 0.6675000000
5.2588000000 1.7285000000 0.0190000000
5.2583000000 1.9061000000 0.0389000000
5.2579000000 4.9917000000 0.2621000000
5.2578000000 3.9415000000 0.8052000000
5.2573000000 5.1711000000 0.1680000000
5.2565000000 1.5963000000 0.0283000000
5.2557000000 2.2123000000 0.2025000000
5.2555000000 2.8500000000 0.5298000000
5.2551000000 1.9842000000 0.0825000000
5.2548000000 4.8649000000 0.3304000000
5.2545000000 2.4837000000 0.3399000000
5.2543000000 4.8999000000 0.3140000000
5.2539000000 5.5664000000 0.0396000000
5.2538000000 2.0513000000 0.1154000000
5.2537000000 1.5923000000 0.0302000000
5.2531000000 2.1859000000 0.1868000000
5.2526000000 5.0532000000 0.2339000000
5.2522000000 3.7416000000 0.9181000000
5.2515000000 1.5704000000 0.0213000000
5.2507000000 5.1458000000 0.1852000000
5.2504000000 3.5860000000 0.9219000000
5.2498000000 3.9749000000 0.7969000000
5.2494000000 1.6497000000 0.0594000000
5.2484000000 2.0638000000 0.1263000000
5.0100000000 6.1204000000 0.0483000000
5.0094000000 5.8200000000 0.0558000000
5.0091000000 6.0528000000 0.0832000000
5.0085000000 3.3955000000 1.0441000000
5.0084000000 1.6780000000 0.1495000000
5.0083000000 4.4359000000 0.7731000000
5.0080000000 5.8046000000 0.0659000000
5.0075000000 3.8867000000 1.0641000000
5.0072000000 5.3115000000 0.3207000000
5.0069000000 1.2305000000 0.0681000000
5.0065000000 3.4700000000 1.0830000000
5.0060000000 6.0497000000 0.0875000000
5.0049000000 1.8786000000 0.2496000000
5.0048000000 4.4363000000 0.7813000000
5.0047000000 5.8754000000 0.1090000000
5.0045000000 3.5046000000 1.0973000000
5.0042000000 2.3557000000 0.4982000000
5.0042000000 1.9256000000 0.2760000000
5.0040000000 2.6622000000 0.6670000000
5.0034000000 4.7061000000 0.6393000000
5.0032000000 2.8815000000 0.7802000000
5.0030000000 3.3509000000 1.0271000000
5.0028000000 5.4065000000 0.2735000000
5.0024000000 4.3737000000 0.8129000000
5.0019000000 3.7865000000 1.1175000000
5.0013000000 3.0823000000 0.8835000000
5.0004000000 5.7840000000 0.0829000000
5.0003000000 2.1655000000 0.4061000000
4.9973000000 2.9504000000 0.8176000000
4.9966000000 5.0266000000 0.4766000000
4.7630000000 5.8135000000 0.2784000000
4.7613000000 2.2678000000 0.6768000000
4.7602000000 6.0942000000 0.1339000000
4.7595000000 4.6183000000 0.9062000000
4.7593000000 4.2881000000 1.0817000000
4.7588000000 3.8223000000 1.3205000000
4.7583000000 6.4848000000 0.0828000000
4.7581000000 4.5095000000 0.9656000000
4.7577000000 3.0686000000 1.0948000000
4.7575000000 4.0216000000 1.2164000000
4.7571000000 1.8049000000 0.4343000000
4.7570000000 5.5323000000 0.4335000000
4.7569000000 1.9977000000 0.5397000000
4.7566000000 5.8175000000 0.2864000000
4.7564000000 4.7432000000 0.8433000000
4.7563000000 3.0132000000 1.0668000000
4.7562000000 3.1399000000 1.1316000000
4.7560000000 3.6150000000 1.3632000000
4.7559000000 2.6735000000 0.8896000000
4.7556000000 3.0850000000 1.1048000000
4.7553000000 2.9420000000 1.0360000000
4.7551000000 4.8478000000 0.7890000000
4.7548000000 2.2178000000 0.6548000000
4.7548000000 1.2145000000 0.1304000000
4.7545000000 1.1122000000 0.0755000000
4.7543000000 2.3300000000 0.7078000000
4.7539000000 4.3902000000 1.0242000000
4.7537000000 1.2798000000 0.1619000000
4.7536000000 5.3741000000 0.5156000000
4.7532000000 5.9650000000 0.2096000000
4.7530000000 2.7409000000 0.9299000000
4.7526000000 4.0555000000 1.2005000000
4.7521000000 0.8781000000 0.0417000000
4.7514000000 6.5545000000 0.0528000000
4.7510000000 6.2627000000 0.0548000000
4.7509000000 1.2108000000 0.1404000000
4.7499000000 3.0649000000 1.1026000000
4.7496000000 0.6838000000 0.0050000000
4.7488000000 0.7769000000 0.0642000000
4.7477000000 3.8989000000 1.2899000000
4.7465000000 5.3511000000 0.5398000000
4.7437000000 2.1116000000 0.6107000000
4.5122000000 1.6220000000 0.5639000000
4.5118000000 3.7387000000 1.5883000000
4.5091000000 4.1144000000 1.4007000000
4.5088000000 2.3358000000 0.9369000000
4.5081000000 5.5776000000 0.6337000000
4.5080000000 1.3694000000 0.4283000000
4.5074000000 1.0010000000 0.2482000000
4.5072000000 2.1067000000 0.8212000000
4.5068000000 3.9783000000 1.4733000000
4.5067000000 4.6479000000 1.1186000000
4.5066000000 4.5093000000 1.1851000000
4.5064000000 5.1667000000 0.8480000000
4.5063000000 7.0663000000 0.0050000000
4.5062000000 6.2469000000 0.2813000000
4.5061000000 6.5716000000 0.1148000000
4.5060000000 5.7501000000 0.5435000000
4.5056000000 4.8994000000 0.9934000000
4.5053000000 0.3449000000 0.0559000000
4.5052000000 4.6353000000 1.1273000000
4.5048000000 5.3485000000 0.7534000000
4.5048000000 6.5917000000 0.1032000000
4.5045000000 5.0002000000 0.9352000000
4.5044000000 0.6135000000 0.0442000000
4.5043000000 5.8266000000 0.5050000000
4.5042000000 0.6522000000 0.0656000000
4.5038000000 4.2060000000 1.3513000000
4.5036000000 6.4405000000 0.1839000000
4.5035000000 1.7373000000 0.6344000000
4.5032000000 4.2424000000 1.3340000000
4.5031000000 6.7735000000 0.0847000000
4.5030000000 3.6785000000 1.6139000000
4.5027000000 6.7013000000 0.0536000000
4.5026000000 6.1499000000 0.3380000000
4.5025000000 2.4876000000 1.0300000000
4.5023000000 4.7854000000 1.0507000000
4.5020000000 6.9306000000 0.0801000000
4.5018000000 2.1037000000 0.8288000000
4.5014000000 1.7067000000 0.6190000000
4.5011000000 1.6678000000 0.5960000000
4.5005000000 2.8976000000 1.2373000000
4.5002000000 5.0249000000 0.9248000000
4.5000000000 0.5646000000 0.1068000000
4.4989000000 3.6530000000 1.6199000000
4.4986000000 0.9529000000 0.2286000000
4.4982000000 0.9059000000 0.2020000000
4.4972000000 2.2824000000 0.9217000000
4.4964000000 3.9043000000 1.5141000000
4.4950000000 0.8246000000 0.1606000000
4.2635000000 7.3101000000 0.0084000000
4.2616000000 4.0152000000 1.6710000000
4.2614000000 4.3111000000 1.5144000000
4.2610000000 4.8284000000 1.2457000000
4.2598000000 1.3618000000 0.6550000000
4.2592000000 6.0948000000 0.5878000000
4.2583000000 2.9015000000 1.4565000000
4.2578000000 6.1647000000 0.5553000000
4.2576000000 4.3823000000 1.4811000000
4.2571000000 6.3832000000 0.4386000000
4.2570000000 1.9766000000 0.9844000000
4.2569000000 6.5927000000 0.3283000000
4.2566000000 1.6379000000 0.7964000000
4.2563000000 1.8343000000 0.9097000000
4.2562000000 6.0997000000 0.5878000000
4.2560000000 3.7856000000 1.7964000000
4.2559000000 2.4973000000 1.2528000000
4.2557000000 5.2945000000 1.0125000000
4.2555000000 2.0249000000 1.0061000000
4.2553000000 6.5000000000 0.3819000000
4.2551000000 5.2396000000 1.0364000000
4.2550000000 4.9421000000 1.1907000000
4.2549000000 0.4501000000 0.1860000000
4.2545000000 4.0498000000 1.6598000000
4.2544000000 0.4511000000 0.1867000000
4.2543000000 6.4428000000 0.4122000000
4.2542000000 3.5851000000 1.8240000000
4.2540000000 3.0628000000 1.5469000000
4.2540000000 4.5291000000 1.4095000000
4.2537000000 2.7738000000 1.3991000000
4.2536000000 3.6495000000 1.8404000000
4.2533000000 0.9768000000 0.4568000000
4.2531000000 2.3050000000 1.1466000000
4.2530000000 0.3435000000 0.1324000000
4.2528000000 0.5694000000 0.2461000000
4.2524000000 6.1778000000 0.5476000000
4.2521000000 0.1335000000 0.0972000000
4.2520000000 1.0699000000 0.5144000000
4.2519000000 6.6590000000 0.2991000000
4.2517000000 5.8225000000 0.7354000000
4.2516000000 5.6356000000 0.8362000000
4.2514000000 3.4582000000 1.7599000000
4.2510000000 5.3253000000 0.9975000000
4.2506000000 1.3667000000 0.6632000000
4.2497000000 4.8314000000 1.2538000000
4.2493000000 2.4343000000 1.2232000000
4.2489000000 0.7711000000 0.3607000000
4.2488000000 3.7863000000 1.8102000000
4.2486000000 1.0590000000 0.5145000000
4.2477000000 2.0813000000 1.0402000000
4.2458000000 5.0659000000 1.1368000000
4.0150000000 1.6012000000 1.0041000000
4.0123000000 5.0238000000 1.3630000000
4.0103000000 6.3195000000 0.6963000000
4.0098000000 3.7095000000 2.0460000000
4.0092000000 3.4472000000 1.9652000000
4.0090000000 7.3666000000 0.0808000000
4.0088000000 4.9885000000 1.3940000000
4.0083000000 3.0159000000 1.7417000000
4.0080000000 5.1308000000 1.3229000000
4.0078000000 2.1265000000 1.2835000000
4.0076000000 6.3374000000 0.6914000000
4.0075000000 4.6484000000 1.5745000000
4.0072000000 1.0253000000 0.7044000000
4.0070000000 3.7267000000 2.0459000000
4.0065000000 3.4398000000 1.9652000000
4.0064000000 4.0961000000 1.8597000000
4.0063000000 6.3905000000 0.6588000000
4.0062000000 5.8985000000 0.9227000000
4.0060000000 4.3574000000 1.7217000000
4.0059000000 4.8971000000 1.4410000000
4.0056000000 7.1917000000 0.1196000000
4.0054000000 4.5511000000 1.6202000000
4.0053000000 6.8616000000 0.4021000000
4.0050000000 0.6891000000 0.5404000000
4.0048000000 2.3087000000 1.3793000000
4.0047000000 6.4146000000 0.6543000000
4.0045000000 6.1063000000 0.8078000000
4.0043000000 6.5235000000 0.5962000000
4.0040000000 6.8935000000 0.3905000000
4.0037000000 4.1419000000 1.8322000000
4.0033000000 0.7159000000 0.5521000000
4.0033000000 0.4904000000 0.4252000000
4.0030000000 6.1225000000 0.8053000000
4.0030000000 2.9960000000 1.7414000000
4.0028000000 4.1807000000 1.8150000000
4.0027000000 4.8902000000 1.4511000000
4.0024000000 4.7573000000 1.5192000000
4.0022000000 1.1993000000 0.8016000000
4.0021000000 5.9978000000 0.8718000000
4.0020000000 5.9373000000 0.9026000000
4.0019000000 0.7609000000 0.5738000000
4.0015000000 0.8487000000 0.6237000000
4.0013000000 1.2259000000 0.8204000000
4.0010000000 3.2867000000 1.8944000000
4.0009000000 3.2663000000 1.8819000000
4.0005000000 0.9672000000 0.6817000000
4.0001000000 7.2783000000 0.0940000000
3.9998000000 1.3062000000 0.8621000000
3.9993000000 0.0082000000 0.0541000000
3.9991000000 3.9757000000 1.9290000000
3.9989000000 3.3797000000 1.9385000000
3.9975000000 7.0819000000 0.2313000000
3.9966000000 2.3094000000 1.3883000000
3.7638000000 5.9420000000 1.1078000000
3.7620000000 6.0894000000 1.0415000000
3.7616000000 6.1950000000 0.9831000000
3.7603000000 6.9987000000 0.3160000000
3.7599000000 3.7399000000 2.2611000000
3.7595000000 6.4961000000 0.8104000000
3.7592000000 2.6188000000 1.7660000000
3.7590000000 6.4259000000 0.8541000000
3.7587000000 2.9363000000 1.9285000000
3.7581000000 5.0244000000 1.5944000000
3.7577000000 6.7081000000 0.6205000000
3.7573000000 7.2926000000 0.0792000000
3.7571000000 5.3788000000 1.4107000000
3.7570000000 6.1910000000 0.9949000000
3.7568000000 7.2088000000 0.0968000000
3.7567000000 2.9349000000 1.9253000000
3.7565000000 4.3626000000 1.9503000000
3.7563000000 4.1663000000 2.0491000000
3.7560000000 3.5482000000 2.2497000000
3.7559000000 4.6449000000 1.7954000000
3.7556000000 6.1640000000 1.0065000000
3.7553000000 3.7681000000 2.2582000000
3.7552000000 0.0430000000 0.1016000000
3.7550000000 1.1720000000 1.0134000000
3.7549000000 6.5802000000 0.7321000000
3.7548000000 4.0873000000 2.0913000000
3.7548000000 6.4426000000 0.8450000000
3.7546000000 4.0355000000 2.1192000000
3.7544000000 0.6730000000 0.6757000000
3.7543000000 0.5645000000 0.5681000000
3.7540000000 0.2341000000 0.2202000000
3.7538000000 4.1010000000 2.0836000000
3.7530000000 2.3683000000 1.6394000000
3.7529000000 2.2383000000 1.5624000000
3.7528000000 1.2682000000 1.0609000000
3.7523000000 2.6213000000 1.7711000000
3.7520000000 0.8309000000 0.8209000000
3.7520000000 3.5831000000 2.2719000000
3.7518000000 4.3172000000 1.9769000000
3.7516000000 1.7696000000 1.3258000000
3.7513000000 6.9878000000 0.3319000000
3.7512000000 2.6029000000 1.7587000000
3.7511000000 4.0393000000 2.1188000000
3.7509000000 7.0879000000 0.2275000000
3.7507000000 2.7356000000 1.8294000000
3.7503000000 5.7534000000 1.2205000000
3.7500000000 1.6164000000 1.2539000000
3.7499000000 5.2443000000 1.4923000000
3.7496000000 4.4008000000 1.9281000000
3.7494000000 1.2640000000 1.0652000000
3.7488000000 7.1868000000 0.1203000000
3.7482000000 2.1161000000 1.5101000000
3.7458000000 1.6957000000 1.2940000000
3.5132000000 1.7899000000 1.5578000000
3.5123000000 5.8982000000 1.3644000000
3.5114000000 3.5968000000 2.4948000000
3.5110000000 5.4666000000 1.5876000000
3.5105000000 1.1353000000 1.1508000000
3.5102000000 2.7819000000 2.0708000000
3.5098000000 6.5316000000 0.8024000000
3.5096000000 4.2660000000 2.2175000000
3.5089000000 4.5335000000 2.0825000000
3.5085000000 6.4676000000 0.8643000000
3.5082000000 4.6376000000 2.0273000000
3.5080000000 6.6430000000 0.6819000000
3.5076000000 6.8889000000 0.4329000000
3.5074000000 1.5976000000 1.4597000000
3.5071000000 5.5550000000 1.5503000000
3.5070000000 3.5755000000 2.4949000000
3.5068000000 0.1001000000 0.0814000000
3.5067000000 2.6772000000 2.0188000000
3.5065000000 1.6400000000 1.4800000000
3.5062000000 4.4842000000 2.1052000000
3.5061000000 3.7846000000 2.4718000000
3.5059000000 3.9287000000 2.4030000000
3.5058000000 0.8550000000 0.8666000000
3.5057000000 3.5948000000 2.5025000000
3.5053000000 4.1055000000 2.3029000000
3.5049000000 0.8411000000 0.8534000000
3.5046000000 5.5804000000 1.5397000000
3.5045000000 0.7846000000 0.7962000000
3.5041000000 5.4514000000 1.6030000000
3.5039000000 1.8459000000 1.5896000000
3.5037000000 0.9042000000 0.9132000000
3.5036000000 5.8576000000 1.3938000000
3.5035000000 0.6931000000 0.7020000000
3.5034000000 1.5220000000 1.4226000000
3.5032000000 1.5478000000 1.4317000000
3.5030000000 0.4239000000 0.4209000000
3.5027000000 0.0912000000 0.0718000000
3.5022000000 3.3727000000 2.3834000000
3.5019000000 5.1503000000 1.7657000000
3.5018000000 6.7418000000 0.5832000000
3.5013000000 4.6858000000 2.0062000000
3.5011000000 3.5774000000 2.4916000000
3.5008000000 0.7325000000 0.7404000000
3.5003000000 0.0528000000 0.1077000000
3.5001000000 0.8797000000 0.8922000000
3.4999000000 2.3402000000 1.8457000000
3.4996000000 4.7655000000 1.9708000000
3.4995000000 4.9417000000 1.8727000000
3.4992000000 0.2223000000 0.2067000000
3.4986000000 0.7746000000 0.7814000000
3.4986000000 3.9664000000 2.3868000000
3.4975000000 1.0608000000 1.0806000000
3.2618000000 6.2633000000 1.0821000000
3.2606000000 5.7151000000 1.6359000000
3.2597000000 6.0124000000 1.3413000000
3.2590000000 2.3327000000 2.0659000000
3.2588000000 2.8380000000 2.3330000000
3.2587000000 7.2888000000 0.0893000000
3.2585000000 2.3618000000 2.0774000000
3.2582000000 5.6772000000 1.6794000000
3.2580000000 4.6020000000 2.2705000000
3.2578000000 2.9453000000 2.3883000000
3.2575000000 6.8418000000 0.4781000000
3.2572000000 3.2788000000 2.5567000000
3.2571000000 5.7296000000 1.6208000000
3.2568000000 5.2755000000 1.9198000000
3.2568000000 3.6165000000 2.7164000000
3.2566000000 1.9161000000 1.8481000000
3.2564000000 0.9514000000 0.9727000000
3.2560000000 5.2960000000 1.9083000000
3.2555000000 7.0547000000 0.2566000000
3.2555000000 0.2937000000 0.2818000000
3.2553000000 6.4643000000 0.8746000000
3.2552000000 0.3173000000 0.3048000000
3.2551000000 4.9127000000 2.1112000000
3.2550000000 3.0938000000 2.4685000000
3.2548000000 5.6018000000 1.7384000000
3.2547000000 4.1605000000 2.5016000000
3.2545000000 4.5766000000 2.2854000000
3.2544000000 3.5528000000 2.7059000000
3.2543000000 2.3728000000 2.0977000000
3.2541000000 6.4792000000 0.8591000000
3.2540000000 4.9010000000 2.1180000000
3.2538000000 1.4607000000 1.4955000000
3.2537000000 4.7032000000 2.2208000000
3.2533000000 1.7938000000 1.7830000000
3.2528000000 2.1766000000 1.9897000000
3.2525000000 3.5740000000 2.7213000000
3.2524000000 1.6277000000 1.6589000000
3.2521000000 4.6290000000 2.2598000000
3.2520000000 0.1226000000 0.1034000000
3.2518000000 1.7741000000 1.7725000000
3.2517000000 0.8352000000 0.8485000000
3.2515000000 2.4744000000 2.1414000000
3.2514000000 2.8666000000 2.3531000000
3.2511000000 0.6541000000 0.6591000000
3.2508000000 0.0028000000 0.0539000000
3.2505000000 5.5196000000 1.7922000000
3.2504000000 0.2188000000 0.2059000000
3.2501000000 1.3765000000 1.4071000000
3.2500000000 4.1375000000 2.5165000000
3.2492000000 1.8504000000 1.8283000000
3.2490000000 4.1081000000 2.5349000000
3.2487000000 1.6780000000 1.7088000000
3.2482000000 4.8080000000 2.1632000000
3.2448000000 4.1442000000 2.5230000000
3.2445000000 1.1899000000 1.2153000000
3.0179000000 5.0530000000 2.2504000000
3.0127000000 6.4067000000 0.9314000000
3.0102000000 3.4833000000 2.8897000000
3.0099000000 6.3310000000 1.0105000000
3.0094000000 5.2573000000 2.1142000000
3.0091000000 4.2453000000 2.6789000000
3.0085000000 4.9724000000 2.3047000000
3.0079000000 6.4950000000 0.8404000000
3.0075000000 6.7245000000 0.6054000000
3.0073000000 1.7896000000 1.8448000000
3.0069000000 1.0823000000 1.0987000000
3.0066000000 6.7961000000 0.5282000000
3.0063000000 7.1416000000 0.1698000000
3.0061000000 2.8217000000 2.5455000000
3.0060000000 1.7631000000 1.8096000000
3.0055000000 5.5890000000 1.7850000000
3.0052000000 4.1872000000 2.7199000000
3.0050000000 5.4161000000 1.9707000000
3.0048000000 5.5908000000 1.7870000000
3.0047000000 5.8561000000 1.5072000000
3.0044000000 6.0049000000 1.3510000000
3.0041000000 1.7117000000 1.7604000000
3.0040000000 3.6743000000 2.9679000000
3.0038000000 0.1852000000 0.1656000000
3.0038000000 3.4956000000 2.9046000000
3.0035000000 5.9014000000 1.4580000000
3.0033000000 3.9136000000 2.8636000000
3.0032000000 2.3897000000 2.3283000000
3.0030000000 2.4199000000 2.3460000000
3.0027000000 5.9935000000 1.3734000000
3.0026000000 6.9871000000 0.3265000000
3.0025000000 3.6334000000 2.9574000000
3.0023000000 2.0671000000 2.1160000000
3.0022000000 1.1462000000 1.1649000000
3.0014000000 1.0802000000 1.1041000000
3.0013000000 6.9632000000 0.3505000000
3.0010000000 5.9796000000 1.3785000000
3.0009000000 1.0770000000 1.0981000000
3.0005000000 1.7910000000 1.8450000000
3.0003000000 2.9619000000 2.6296000000
2.9993000000 4.6400000000 2.4848000000
2.9991000000 3.3445000000 2.8272000000
2.9987000000 3.5346000000 2.9265000000
2.9985000000 5.9872000000 1.3701000000
2.9965000000 1.6709000000 1.7173000000
2.9934000000 0.0459000000 0.0926000000
2.7623000000 7.2558000000 0.0500000000
2.7610000000 6.7469000000 0.5810000000
2.7606000000 7.0043000000 0.3095000000
2.7601000000 4.5260000000 2.7636000000
2.7594000000 6.4172000000 0.9184000000
2.7589000000 6.7788000000 0.5514000000
2.7588000000 1.6280000000 1.6728000000
2.7585000000 3.7914000000 3.1433000000
2.7580000000 2.9432000000 2.8407000000
2.7578000000 3.5754000000 3.1625000000
2.7577000000 5.3488000000 2.0347000000
2.7574000000 5.6989000000 1.6668000000
2.7573000000 5.0980000000 2.3018000000
2.7570000000 4.9955000000 2.4060000000
2.7569000000 0.1098000000 0.0842000000
2.7567000000 4.4217000000 2.8163000000
2.7564000000 5.7609000000 1.6035000000
2.7563000000 3.7769000000 3.1500000000
2.7562000000 6.8778000000 0.4409000000
2.7560000000 2.6531000000 2.6795000000
2.7559000000 5.6953000000 1.6800000000
2.7557000000 4.6054000000 2.7218000000
2.7555000000 6.2317000000 1.1120000000
2.7554000000 7.2646000000 0.1149000000
2.7553000000 2.5955000000 2.6412000000
2.7548000000 6.2613000000 1.0851000000
2.7546000000 4.6805000000 2.6712000000
2.7545000000 7.2264000000 0.0773000000
2.7541000000 3.7476000000 3.1674000000
2.7538000000 1.3256000000 1.3579000000
2.7536000000 1.5641000000 1.6003000000
2.7535000000 5.7984000000 1.5653000000
2.7532000000 3.7447000000 3.1768000000
2.7531000000 1.5569000000 1.5996000000
2.7529000000 4.7244000000 2.6472000000
2.7527000000 1.8425000000 1.8996000000
2.7526000000 6.4895000000 0.8443000000
2.7525000000 4.3114000000 2.8785000000
2.7521000000 3.3742000000 3.0630000000
2.7518000000 6.3581000000 0.9858000000
2.7514000000 1.8401000000 1.8898000000
2.7512000000 6.6406000000 0.6864000000
2.7510000000 4.2223000000 2.9230000000
2.7508000000 2.2446000000 2.3164000000
2.7501000000 3.4340000000 3.0973000000
2.7492000000 5.0611000000 2.3339000000
2.7484000000 4.6435000000 2.7049000000
2.7468000000 6.3964000000 0.9441000000
2.7461000000 0.4968000000 0.4872000000
2.5125000000 4.6943000000 2.7222000000
2.5112000000 1.5620000000 1.6055000000
2.5104000000 7.1704000000 0.1359000000
2.5100000000 5.8921000000 1.4697000000
2.5098000000 2.3662000000 2.4414000000
2.5096000000 5.7639000000 1.6028000000
2.5093000000 7.3361000000 0.0365000000
2.5088000000 5.3111000000 2.0675000000
2.5085000000 4.1783000000 3.1660000000
2.5083000000 3.6256000000 3.3996000000
2.5081000000 2.8405000000 2.9326000000
2.5080000000 3.9254000000 3.2942000000
2.5079000000 3.8587000000 3.3345000000
2.5078000000 5.9970000000 1.3624000000
2.5075000000 6.3096000000 1.0359000000
2.5071000000 1.9570000000 2.0176000000
2.5068000000 6.3580000000 0.9777000000
2.5065000000 6.5939000000 0.7356000000
2.5064000000 0.7602000000 0.7665000000
2.5063000000 5.8688000000 1.4902000000
2.5060000000 0.0432000000 0.0936000000
2.5058000000 4.2726000000 3.1003000000
2.5055000000 1.2393000000 1.2689000000
2.5052000000 6.1376000000 1.2087000000
2.5052000000 0.6342000000 0.6353000000
2.5050000000 4.3018000000 3.0910000000
2.5047000000 5.1679000000 2.2241000000
2.5047000000 5.5816000000 1.7893000000
2.5044000000 4.8861000000 2.5205000000
2.5043000000 0.5854000000 0.5865000000
2.5040000000 6.9371000000 0.3812000000
2.5036000000 1.9066000000 1.9708000000
2.5037000000 0.1300000000 0.1103000000
2.5033000000 5.1150000000 2.2783000000
2.5032000000 5.4201000000 1.9596000000
2.5028000000 1.3056000000 1.3378000000
2.5025000000 2.8274000000 2.9198000000
2.5024000000 1.2860000000 1.3188000000
2.5021000000 6.4514000000 0.8878000000
2.5016000000 1.7763000000 1.8211000000
2.5015000000 0.8187000000 0.8278000000
2.5012000000 2.7754000000 2.8632000000
2.5010000000 0.8253000000 0.8342000000
2.5008000000 0.0455000000 0.1052000000
2.5004000000 5.0683000000 2.3274000000
2.5002000000 5.3747000000 2.0055000000
2.4999000000 1.9813000000 2.0397000000
2.4991000000 1.0807000000 1.1012000000
2.4985000000 0.1485000000 0.1244000000
2.4978000000 0.6186000000 0.6176000000
2.4975000000 0.0240000000 0.0804000000
2.4966000000 1.6505000000 1.6947000000
2.4957000000 2.2686000000 2.3384000000
2.2635000000 6.1157000000 1.2391000000
2.2621000000 3.0356000000 3.1382000000
2.2613000000 7.2203000000 0.0852000000
2.2595000000 7.3274000000 0.0535000000
2.2590000000 5.3517000000 2.0327000000
2.2582000000 4.5275000000 2.8884000000
2.2581000000 5.2650000000 2.1272000000
2.2578000000 5.2464000000 2.1434000000
2.2575000000 5.8049000000 1.5636000000
2.2573000000 6.8304000000 0.4876000000
2.2573000000 1.0491000000 1.0658000000
2.2569000000 4.0700000000 3.3722000000
2.2568000000 3.5986000000 3.6301000000
2.2566000000 1.4787000000 1.5180000000
2.2564000000 6.3111000000 1.0323000000
2.2563000000 7.2903000000 0.0845000000
2.2560000000 4.6055000000 2.8070000000
2.2558000000 5.2451000000 2.1463000000
2.2558000000 3.9629000000 3.4617000000
2.2556000000 4.5515000000 2.8685000000
2.2553000000 2.8724000000 2.9693000000
2.2550000000 6.5772000000 0.7572000000
2.2548000000 5.0023000000 2.4009000000
2.2548000000 6.8746000000 0.4477000000
2.2545000000 6.9645000000 0.3569000000
2.2544000000 1.0055000000 1.0248000000
2.2542000000 0.1914000000 0.1721000000
2.2540000000 4.7268000000 2.6778000000
2.2539000000 2.7352000000 2.8281000000
2.2538000000 1.3898000000 1.4267000000
2.2535000000 0.2128000000 0.1962000000
2.2533000000 6.6002000000 0.7268000000
2.2531000000 3.5325000000 3.6004000000
2.2530000000 3.2610000000 3.3695000000
2.2528000000 3.3145000000 3.4269000000
2.2527000000 0.6310000000 0.6358000000
2.2525000000 2.8546000000 2.9513000000
2.2525000000 3.7720000000 3.6081000000
2.2524000000 1.0421000000 1.0610000000
2.2522000000 5.0225000000 2.3775000000
2.2520000000 0.6852000000 0.6890000000
2.2520000000 0.4278000000 0.4223000000
2.2513000000 1.7683000000 1.8223000000
2.2510000000 6.4888000000 0.8516000000
2.2509000000 4.1637000000 3.2672000000
2.2506000000 0.9784000000 0.9983000000
2.2504000000 1.1566000000 1.1818000000
2.2498000000 0.7060000000 0.7073000000
2.2494000000 2.2025000000 2.2741000000
2.2491000000 3.1782000000 3.2909000000
2.2488000000 6.3004000000 1.0453000000
2.2477000000 0.2117000000 0.2038000000
2.2475000000 0.1876000000 0.1711000000
2.2445000000 0.0735000000 0.0511000000
2.0145000000 4.1929000000 3.2412000000
2.0114000000 4.4333000000 2.9911000000
2.0106000000 3.7129000000 3.6625000000
2.0095000000 1.0094000000 1.0277000000
2.0088000000 5.1049000000 2.2898000000
2.0093000000 2.5798000000 2.6643000000
2.0083000000 4.0332000000 3.4086000000
2.0082000000 5.4375000000 1.9442000000
2.0081000000 6.7365000000 0.5913000000
2.0079000000 6.2208000000 1.1246000000
2.0077000000 6.0686000000 1.2830000000
2.0076000000 6.8375000000 0.4898000000
2.0075000000 3.9475000000 3.4839000000
2.0074000000 4.7726000000 2.6342000000
2.0071000000 4.9548000000 2.4432000000
2.0069000000 2.6938000000 2.7840000000
2.0068000000 3.1218000000 3.2267000000
2.0064000000 7.2109000000 0.0953000000
2.0062000000 1.0549000000 1.0721000000
2.0059000000 7.3520000000 0.0229000000
2.0058000000 7.2609000000 0.1132000000
2.0057000000 6.7939000000 0.5288000000
2.0054000000 2.7609000000 2.8526000000
2.0053000000 6.9816000000 0.3359000000
2.0051000000 3.6986000000 3.6436000000
2.0050000000 0.1215000000 0.0977000000
2.0048000000 2.1531000000 2.2104000000
2.0047000000 5.1259000000 2.2642000000
2.0045000000 6.2927000000 1.0455000000
2.0044000000 5.0129000000 2.3828000000
2.0041000000 1.9676000000 2.0245000000
2.0039000000 1.2029000000 1.2258000000
2.0036000000 1.6973000000 1.7430000000
2.0033000000 0.9616000000 0.9778000000
2.0030000000 5.8108000000 1.5473000000
2.0028000000 2.0781000000 2.1377000000
2.0027000000 2.5610000000 2.6468000000
2.0026000000 7.0908000000 0.2211000000
2.0024000000 5.5147000000 1.8623000000
2.0022000000 6.4919000000 0.8451000000
2.0021000000 4.7368000000 2.6729000000
2.0018000000 0.7414000000 0.7531000000
2.0017000000 2.0999000000 2.1603000000
2.0014000000 5.8526000000 1.5087000000
2.0011000000 0.1886000000 0.1702000000
2.0009000000 6.5068000000 0.8314000000
2.0006000000 0.9462000000 0.9587000000
2.0003000000 4.3512000000 3.0772000000
2.0002000000 0.3661000000 0.3606000000
2.0000000000 5.6969000000 1.6731000000
1.9997000000 3.2673000000 3.3787000000
1.9995000000 0.0986000000 0.0789000000
1.9993000000 1.0285000000 1.0496000000
1.9990000000 0.6689000000 0.6736000000
1.9989000000 0.5483000000 0.5435000000
1.9978000000 3.7204000000 3.6579000000
1.9975000000 0.6894000000 0.6921000000
1.9970000000 2.3808000000 2.4572000000
1.9967000000 2.3616000000 2.4395000000
1.9954000000 3.4543000000 3.5579000000
1.7610000000 4.7029000000 2.7070000000
1.7601000000 5.6506000000 1.7227000000
1.7595000000 5.5997000000 1.7733000000
1.7586000000 3.3075000000 3.2875000000
1.7583000000 5.4025000000 1.9773000000
1.7580000000 5.8086000000 1.5614000000
1.7577000000 2.8674000000 2.9601000000
1.7571000000 5.6037000000 1.7659000000
1.7569000000 7.2249000000 0.0767000000
1.7565000000 2.4351000000 2.5130000000
1.7562000000 3.1304000000 3.1759000000
1.7561000000 0.3990000000 0.3933000000
1.7558000000 7.2434000000 0.0534000000
1.7556000000 2.2976000000 2.3694000000
1.7551000000 1.9243000000 1.9814000000
1.7548000000 4.6489000000 2.7645000000
1.7548000000 5.5327000000 1.8459000000
1.7545000000 5.6326000000 1.7437000000
1.7543000000 5.6012000000 1.7697000000
1.7540000000 0.1607000000 0.1423000000
1.7540000000 5.7575000000 1.6098000000
1.7538000000 5.0391000000 2.3527000000
1.7535000000 0.3673000000 0.3559000000
1.7534000000 5.8092000000 1.5527000000
1.7533000000 1.1792000000 1.2015000000
1.7531000000 0.1827000000 0.1703000000
1.7529000000 4.6288000000 2.7844000000
1.7526000000 0.0117000000 0.0616000000
1.7525000000 1.0943000000 1.1115000000
1.7522000000 3.8422000000 3.3696000000
1.7519000000 5.3211000000 2.0629000000
1.7518000000 1.1347000000 1.1570000000
1.7516000000 2.2261000000 2.2943000000
1.7514000000 1.8262000000 1.8772000000
1.7511000000 1.8912000000 1.9456000000
1.7508000000 2.7083000000 2.7982000000
1.7507000000 2.9727000000 3.0611000000
1.7505000000 0.2155000000 0.2010000000
1.7500000000 7.1248000000 0.1828000000
1.7498000000 6.9538000000 0.3581000000
1.7495000000 5.6156000000 1.7599000000
1.7488000000 5.0263000000 2.3705000000
1.7485000000 1.2085000000 1.2370000000
1.7483000000 2.6235000000 2.7129000000
1.7481000000 0.3317000000 0.3202000000
1.7465000000 0.1293000000 0.1090000000
1.5116000000 7.1222000000 0.1852000000
1.5110000000 3.7668000000 3.1963000000
1.5106000000 6.1916000000 1.1592000000
1.5098000000 1.0162000000 1.0297000000
1.5094000000 4.9208000000 2.4837000000
1.5089000000 6.5344000000 0.8048000000
1.5085000000 6.4652000000 0.8756000000
1.5081000000 5.1259000000 2.2722000000
1.5077000000 5.5834000000 1.7940000000
1.5073000000 4.5132000000 2.7962000000
1.5071000000 1.1460000000 1.1727000000
1.5070000000 4.0670000000 3.0391000000
1.5065000000 2.4799000000 2.5594000000
1.5063000000 4.9650000000 2.4350000000
1.5062000000 3.3955000000 3.1032000000
1.5059000000 6.5764000000 0.7578000000
1.5058000000 2.9354000000 2.8674000000
1.5053000000 5.8514000000 1.5117000000
1.5051000000 2.7022000000 2.7238000000
1.5050000000 3.5486000000 3.1873000000
1.5047000000 6.7917000000 0.5326000000
1.5043000000 4.8077000000 2.5824000000
1.5041000000 2.7442000000 2.7653000000
1.5040000000 0.2147000000 0.1993000000
1.5038000000 6.7312000000 0.5942000000
1.5037000000 4.9582000000 2.4406000000
1.5034000000 1.0692000000 1.0908000000
1.5033000000 5.8753000000 1.4844000000
1.5030000000 2.7023000000 2.7300000000
1.5029000000 5.3184000000 2.0686000000
1.5027000000 4.2002000000 2.9612000000
1.5026000000 2.8781000000 2.8373000000
1.5025000000 6.1961000000 1.1567000000
1.5021000000 2.3892000000 2.4660000000
1.5021000000 3.6035000000 3.2117000000
1.5018000000 1.2334000000 1.2633000000
1.5016000000 4.6506000000 2.7127000000
1.5015000000 1.6267000000 1.6703000000
1.5012000000 5.4004000000 1.9797000000
1.5010000000 0.5116000000 0.5073000000
1.5008000000 3.7275000000 3.2049000000
1.5007000000 1.5131000000 1.5510000000
1.5004000000 1.8012000000 1.8539000000
1.4995000000 3.1667000000 2.9801000000
1.4988000000 2.6851000000 2.7135000000
1.4980000000 2.1398000000 2.2101000000
1.4978000000 1.4559000000 1.4950000000
1.4972000000 2.6947000000 2.7246000000
1.2632000000 6.6236000000 0.7029000000
1.2613000000 3.6486000000 3.0023000000
1.2607000000 3.0643000000 2.7075000000
1.2599000000 6.6661000000 0.6589000000
1.2598000000 4.8433000000 2.4039000000
1.2594000000 4.7289000000 2.4587000000
1.2592000000 2.9679000000 2.6551000000
1.2589000000 4.8449000000 2.4057000000
1.2585000000 5.2689000000 2.1188000000
1.2580000000 4.6468000000 2.5067000000
1.2578000000 6.6305000000 0.6971000000
1.2573000000 6.0655000000 1.2917000000
1.2572000000 1.5099000000 1.5495000000
1.2570000000 1.6570000000 1.7035000000
1.2568000000 6.1920000000 1.1601000000
1.2567000000 0.9651000000 0.9821000000
1.2564000000 1.1027000000 1.1263000000
1.2562000000 1.2121000000 1.2403000000
1.2560000000 7.3375000000 0.0349000000
1.2558000000 7.2135000000 0.0960000000
1.2556000000 3.3042000000 2.8382000000
1.2555000000 2.9872000000 2.6672000000
1.2552000000 0.9390000000 0.9562000000
1.2550000000 2.6266000000 2.4765000000
1.2548000000 4.6112000000 2.5213000000
1.2545000000 3.2998000000 2.8268000000
1.2544000000 3.7273000000 2.9869000000
1.2542000000 6.9959000000 0.3181000000
1.2538000000 4.6355000000 2.5071000000
1.2536000000 6.5691000000 0.7610000000
1.2535000000 3.7654000000 2.9585000000
1.2533000000 3.8322000000 2.9285000000
1.2532000000 2.7776000000 2.5527000000
1.2531000000 6.5040000000 0.8301000000
1.2527000000 4.3412000000 2.6593000000
1.2525000000 1.4772000000 1.5140000000
1.2525000000 0.8245000000 0.8371000000
1.2523000000 1.8233000000 1.8713000000
1.2520000000 0.0760000000 0.0532000000
1.2519000000 1.1157000000 1.1361000000
1.2516000000 4.8429000000 2.3983000000
1.2514000000 3.1224000000 2.7315000000
1.2511000000 0.1481000000 0.1289000000
1.2508000000 4.0728000000 2.7973000000
1.2505000000 1.7700000000 1.8254000000
1.2504000000 0.9424000000 0.9568000000
1.2502000000 6.4253000000 0.9100000000
1.2500000000 1.2770000000 1.2987000000
1.2498000000 0.8819000000 0.8917000000
1.2497000000 3.5029000000 2.9257000000
1.2495000000 4.5034000000 2.5722000000
1.2483000000 3.1485000000 2.7460000000
1.2478000000 2.0762000000 2.1196000000
1.2473000000 1.4349000000 1.4717000000
1.2463000000 3.9099000000 2.8816000000
1.2448000000 3.5084000000 2.9247000000
1.0132000000 5.5342000000 1.8039000000
1.0127000000 6.8805000000 0.4405000000
1.0115000000 6.0545000000 1.2960000000
1.0113000000 7.1778000000 0.1312000000
1.0105000000 7.3271000000 0.0520000000
1.0096000000 3.1236000000 2.5159000000
1.0091000000 1.7997000000 1.8094000000
1.0090000000 6.8480000000 0.4683000000
1.0088000000 6.3032000000 1.0449000000
1.0081000000 1.6914000000 1.7233000000
1.0078000000 1.8002000000 1.8038000000
1.0073000000 6.5706000000 0.7589000000
1.0070000000 5.3474000000 1.9176000000
1.0068000000 7.3163000000 0.0600000000
1.0065000000 3.6327000000 2.7655000000
1.0061000000 6.4810000000 0.8527000000
1.0058000000 2.6057000000 2.2375000000
1.0056000000 5.1173000000 2.0344000000
1.0054000000 0.8021000000 0.8136000000
1.0050000000 1.6807000000 1.7086000000
1.0048000000 0.8231000000 0.8324000000
1.0044000000 4.8974000000 2.1470000000
1.0043000000 3.9188000000 2.6571000000
1.0041000000 2.3564000000 2.1079000000
1.0040000000 1.2799000000 1.3066000000
1.0036000000 5.2727000000 1.9487000000
1.0034000000 1.2157000000 1.2396000000
1.0031000000 4.9861000000 2.0965000000
1.0030000000 5.9624000000 1.3943000000
1.0027000000 1.6894000000 1.7190000000
1.0023000000 3.9146000000 2.6536000000
1.0021000000 7.3304000000 0.0416000000
1.0017000000 1.0523000000 1.0693000000
1.0016000000 0.6060000000 0.6070000000
1.0014000000 4.3344000000 2.4360000000
1.0010000000 1.2006000000 1.2245000000
1.0006000000 4.0763000000 2.5757000000
1.0005000000 4.1223000000 2.5501000000
1.0001000000 4.4412000000 2.3710000000
0.9997000000 3.0467000000 2.4715000000
0.9996000000 5.4571000000 1.8549000000
0.9988000000 1.2673000000 1.3014000000
0.9971000000 3.0252000000 2.4548000000
0.9959000000 0.2478000000 0.2301000000
0.9943000000 0.8648000000 0.8785000000
0.7632000000 7.2182000000 0.0850000000
0.7612000000 5.0801000000 1.8327000000
0.7604000000 3.2060000000 2.3313000000
0.7596000000 3.0888000000 2.2664000000
0.7592000000 2.2553000000 1.8339000000
0.7590000000 4.2825000000 2.2457000000
0.7584000000 5.8834000000 1.4135000000
0.7581000000 3.9887000000 2.3976000000
0.7578000000 6.6396000000 0.6948000000
0.7575000000 4.9926000000 1.8750000000
0.7573000000 2.4807000000 1.9477000000
0.7571000000 4.8628000000 1.9422000000
0.7568000000 0.2510000000 0.2309000000
0.7565000000 4.1319000000 2.3219000000
0.7565000000 4.3424000000 2.2161000000
0.7562000000 5.5795000000 1.5700000000
0.7559000000 2.5607000000 1.9956000000
0.7556000000 3.3843000000 2.4253000000
0.7552000000 0.3601000000 0.3534000000
0.7550000000 0.7621000000 0.7694000000
0.7549000000 5.4446000000 1.6346000000
0.7548000000 2.3077000000 1.8605000000
0.7545000000 6.1411000000 1.2033000000
0.7544000000 1.6771000000 1.5335000000
0.7541000000 6.4796000000 0.8591000000
0.7540000000 0.9933000000 1.0126000000
0.7537000000 1.1036000000 1.1255000000
0.7536000000 2.8371000000 2.1345000000
0.7534000000 1.2322000000 1.2399000000
0.7532000000 0.3888000000 0.3810000000
0.7530000000 4.0016000000 2.3875000000
0.7527000000 0.2005000000 0.1836000000
0.7526000000 4.6296000000 2.0632000000
0.7525000000 2.7211000000 2.0750000000
0.7523000000 4.6278000000 2.0589000000
0.7520000000 3.7005000000 2.5321000000
0.7518000000 0.3807000000 0.3732000000
0.7517000000 6.4622000000 0.8731000000
0.7514000000 6.7226000000 0.6027000000
0.7513000000 6.6704000000 0.6586000000
0.7512000000 0.1099000000 0.0844000000
0.7509000000 6.1175000000 1.2176000000
0.7507000000 0.3777000000 0.3692000000
0.7505000000 2.9765000000 2.2078000000
0.7502000000 0.2184000000 0.2008000000
0.7498000000 0.6695000000 0.6704000000
0.7495000000 2.5285000000 1.9679000000
0.7494000000 0.6081000000 0.6060000000
0.7491000000 5.5395000000 1.5801000000
0.7488000000 3.9594000000 2.4077000000
0.7482000000 1.9207000000 1.6531000000
0.7477000000 4.8886000000 1.9230000000
0.7458000000 0.4343000000 0.4300000000
0.7448000000 0.2158000000 0.1994000000
0.7430000000 0.0167000000 0.0683000000
0.5118000000 7.1010000000 0.2090000000
0.5110000000 4.0845000000 2.1198000000
0.5103000000 7.3180000000 0.0577000000
0.5096000000 7.1862000000 0.1240000000
0.5093000000 6.7402000000 0.5835000000
0.5090000000 6.1471000000 1.0478000000
0.5083000000 6.9560000000 0.3636000000
0.5082000000 2.7949000000 1.8917000000
0.5078000000 6.9303000000 0.3900000000
0.5075000000 4.1581000000 2.0902000000
0.5072000000 5.7491000000 1.2520000000
0.5069000000 2.1613000000 1.5598000000
0.5067000000 2.3004000000 1.6316000000
0.5065000000 6.7862000000 0.5393000000
0.5064000000 6.4171000000 0.8880000000
0.5062000000 1.9733000000 1.4616000000
0.5059000000 5.4992000000 1.3849000000
0.5057000000 2.0380000000 1.4914000000
0.5055000000 5.8924000000 1.1818000000
0.5053000000 3.3756000000 2.1931000000
0.5051000000 2.4814000000 1.7249000000
0.5049000000 5.5013000000 1.3843000000
0.5048000000 5.5368000000 1.3639000000
0.5045000000 1.4214000000 1.1766000000
0.5045000000 3.8084000000 2.2697000000
0.5043000000 3.9939000000 2.1661000000
0.5038000000 2.0514000000 1.5059000000
0.5036000000 2.1180000000 1.5303000000
0.5034000000 4.7081000000 1.7943000000
0.5032000000 6.3118000000 0.9602000000
0.5032000000 4.8302000000 1.7238000000
0.5029000000 2.9668000000 1.9754000000
0.5026000000 0.9410000000 0.9105000000
0.5023000000 1.7566000000 1.3446000000
0.5023000000 3.0810000000 2.0387000000
0.5021000000 2.9909000000 1.9949000000
0.5020000000 1.9514000000 1.4440000000
0.5019000000 1.7446000000 1.3392000000
0.5014000000 4.9255000000 1.6758000000
0.5012000000 1.4735000000 1.1923000000
0.5007000000 4.1179000000 2.0983000000
0.5005000000 4.3813000000 1.9628000000
0.5003000000 4.7368000000 1.7736000000
0.4996000000 6.9409000000 0.3736000000
0.4994000000 4.1314000000 2.0875000000
0.4991000000 4.3600000000 1.9692000000
0.4989000000 3.0244000000 2.0021000000
0.4985000000 0.1296000000 0.1060000000
0.4980000000 0.5087000000 0.5095000000
0.4969000000 1.8678000000 1.3961000000
0.4957000000 4.1884000000 2.0599000000
0.2617000000 4.4180000000 1.7321000000
0.2604000000 6.7885000000 0.4776000000
0.2600000000 4.4482000000 1.7128000000
0.2595000000 6.7796000000 0.4892000000
0.2593000000 6.4153000000 0.6831000000
0.2588000000 5.3834000000 1.2233000000
0.2581000000 0.7958000000 0.6302000000
0.2579000000 5.0898000000 1.3746000000
0.2578000000 2.8451000000 1.6907000000
0.2575000000 7.0871000000 0.2220000000
0.2570000000 6.3644000000 0.7113000000
0.2569000000 6.0704000000 0.8648000000
0.2567000000 5.4062000000 1.2029000000
0.2565000000 1.3356000000 0.9055000000
0.2560000000 1.8613000000 1.1795000000
0.2559000000 6.1782000000 0.8008000000
0.2558000000 5.4186000000 1.1994000000
0.2556000000 5.5138000000 1.1516000000
0.2554000000 3.5467000000 2.0555000000
0.2553000000 3.0361000000 1.7875000000
0.2552000000 5.5190000000 1.1454000000
0.2552000000 2.1027000000 1.3024000000
0.2548000000 2.5605000000 1.5467000000
0.2547000000 3.6838000000 2.0869000000
0.2547000000 0.1235000000 0.1040000000
0.2545000000 4.9312000000 1.4524000000
0.2542000000 1.1837000000 0.8207000000
0.2537000000 5.6859000000 1.0592000000
0.2535000000 6.7499000000 0.5079000000
0.2534000000 1.8550000000 1.1755000000
0.2532000000 0.5871000000 0.5056000000
0.2530000000 5.2018000000 1.3114000000
0.2528000000 0.4328000000 0.4060000000
0.2526000000 6.5613000000 0.6020000000
0.2524000000 3.7130000000 2.0808000000
0.2522000000 3.2934000000 1.9176000000
0.2521000000 7.2586000000 0.0457000000
0.2519000000 2.5289000000 1.5214000000
0.2519000000 1.9424000000 1.2098000000
0.2515000000 3.2240000000 1.8872000000
0.2515000000 7.0302000000 0.2812000000
0.2513000000 1.6029000000 1.0310000000
0.2511000000 3.9567000000 1.9539000000
0.2509000000 1.0484000000 0.7483000000
0.2506000000 6.4705000000 0.6434000000
0.2504000000 5.0557000000 1.3825000000
0.2501000000 0.9335000000 0.6892000000
0.2498000000 1.4104000000 0.9299000000
0.2495000000 2.0267000000 1.2525000000
0.2495000000 4.0924000000 1.8894000000
0.2493000000 1.4397000000 0.9488000000
0.2490000000 7.0146000000 0.2945000000
0.2485000000 7.1564000000 0.1477000000
0.2482000000 1.0662000000 0.7564000000
0.2480000000 0.5488000000 0.4803000000
0.2460000000 6.5617000000 0.5983000000
0.0128000000 4.5473000000 1.4382000000
0.0095000000 0.4055000000 0.1958000000
0.0090000000 5.5887000000 0.8914000000
0.0089000000 5.0913000000 1.1449000000
0.0085000000 5.0302000000 1.1786000000
0.0079000000 3.8801000000 1.7792000000
0.0075000000 2.5403000000 1.3055000000
0.0070000000 1.9129000000 0.9725000000
0.0069000000 2.1173000000 1.0822000000
0.0068000000 6.0315000000 0.6585000000
0.0067000000 6.0751000000 0.6382000000
0.0065000000 5.7833000000 0.7833000000
0.0062000000 4.2584000000 1.5760000000
0.0059000000 1.6561000000 0.8434000000
0.0056000000 1.8415000000 0.9409000000
0.0055000000 5.8128000000 0.7663000000
0.0054000000 1.2623000000 0.6351000000
0.0053000000 5.6251000000 0.8668000000
0.0051000000 4.4895000000 1.4646000000
0.0048000000 5.0231000000 1.1797000000
0.0047000000 2.4803000000 1.2705000000
0.0045000000 6.8123000000 0.2447000000
0.0043000000 3.5358000000 1.8237000000
0.0042000000 5.9277000000 0.7131000000
0.0040000000 7.2047000000 0.0425000000
0.0039000000 5.4626000000 0.9525000000
0.0037000000 0.3292000000 0.1501000000
0.0034000000 3.4428000000 1.7760000000
0.0033000000 4.2966000000 1.5656000000
0.0032000000 3.2855000000 1.6907000000
0.0029000000 6.7089000000 0.3009000000
0.0027000000 0.1018000000 0.0924000000
0.0026000000 0.1428000000 0.0511000000
0.0023000000 1.6313000000 0.8285000000
0.0019000000 6.6261000000 0.3415000000
0.0015000000 5.8784000000 0.7239000000
0.0011000000 2.9093000000 1.4909000000
0.0004000000 5.4398000000 0.9646000000
0.0003000000 0.3869000000 0.1838000000
-0.0002000000 4.0369000000 1.6931000000
-0.0009000000 0.7708000000 0.3764000000
-0.0012000000 3.2024000000 1.6451000000
-0.0020000000 1.3096000000 0.6590000000
-0.0025000000 0.4728000000 0.2179000000
-0.0037000000 5.5747000000 0.8819000000
-0.0047000000 2.5660000000 1.3067000000
-0.2382000000 1.8207000000 0.7082000000
-0.2393000000 6.6151000000 0.1258000000
-0.2398000000 6.5023000000 0.1899000000
-0.2412000000 5.6058000000 0.6554000000
-0.2420000000 1.0035000000 0.2739000000
-0.2425000000 3.6924000000 1.6305000000
-0.2427000000 5.4210000000 0.7476000000
-0.2429000000 4.6516000000 1.1519000000
-0.2430000000 6.4408000000 0.2167000000
-0.2432000000 0.4580000000 0.0631000000
-0.2433000000 1.1142000000 0.3311000000
-0.2435000000 3.6860000000 1.6342000000
-0.2439000000 6.8047000000 0.1048000000
-0.2442000000 7.0991000000 0.0214000000
-0.2445000000 3.4028000000 1.5274000000
-0.2447000000 4.9873000000 0.9761000000
-0.2454000000 4.9692000000 0.9841000000
-0.2455000000 2.4935000000 1.0545000000
-0.2457000000 3.5083000000 1.5809000000
-0.2459000000 5.1705000000 0.8801000000
-0.2460000000 1.3422000000 0.4516000000
-0.2462000000 2.6676000000 1.1451000000
-0.2463000000 6.9397000000 0.0250000000
-0.2466000000 1.5082000000 0.5395000000
-0.2467000000 5.0535000000 0.9376000000
-0.2469000000 0.5123000000 0.0963000000
-0.2470000000 0.8923000000 0.2184000000
-0.2471000000 4.9681000000 0.9758000000
-0.2472000000 0.4181000000 0.0456000000
-0.2474000000 0.9895000000 0.2650000000
-0.2477000000 6.8004000000 0.1047000000
-0.2479000000 4.1899000000 1.3841000000
-0.2480000000 6.6742000000 0.0884000000
-0.2482000000 6.8544000000 0.0699000000
-0.2481000000 3.8699000000 1.5504000000
-0.2486000000 3.3449000000 1.4962000000
-0.2488000000 1.5154000000 0.5425000000
-0.2490000000 6.0862000000 0.3899000000
-0.2491000000 1.3740000000 0.4689000000
-0.2495000000 0.9788000000 0.2642000000
-0.2500000000 3.3341000000 1.4816000000
-0.2503000000 0.7350000000 0.1373000000
-0.2510000000 0.2521000000 0.0343000000
-0.2527000000 0.2306000000 0.0178000000
-0.2529000000 1.3776000000 0.4656000000
-0.2537000000 0.7697000000 0.1459000000
-0.2550000000 3.6965000000 1.6161000000
-0.4891000000 5.4060000000 0.5358000000
-0.4899000000 5.1030000000 0.6900000000
-0.4914000000 5.0515000000 0.7154000000
-0.4919000000 2.4988000000 0.8370000000
-0.4921000000 5.4926000000 0.4898000000
-0.4927000000 6.6805000000 0.0155000000
-0.4930000000 4.4703000000 1.0208000000
-0.4932000000 3.5500000000 1.3792000000
-0.4940000000 2.8690000000 1.0276000000
-0.4947000000 1.1559000000 0.1338000000
-0.4949000000 3.8585000000 1.3393000000
-0.4951000000 4.3901000000 1.0618000000
-0.4952000000 3.2096000000 1.2037000000
-0.4957000000 4.1595000000 1.1783000000
-0.4959000000 4.9275000000 0.7730000000
-0.4960000000 5.2050000000 0.6298000000
-0.4961000000 1.0645000000 0.0865000000
-0.4963000000 6.6010000000 0.0520000000
-0.4964000000 3.7368000000 1.3997000000
-0.4966000000 3.0623000000 1.1187000000
-0.4967000000 6.0902000000 0.1687000000
-0.4968000000 3.5504000000 1.3760000000
-0.4972000000 6.6708000000 0.0161000000
-0.4974000000 6.3423000000 0.1112000000
-0.4976000000 4.8525000000 0.8175000000
-0.4980000000 3.3884000000 1.2892000000
-0.4983000000 4.2834000000 1.1129000000
-0.4987000000 6.3665000000 0.0983000000
-0.4990000000 1.0251000000 0.0525000000
-0.4993000000 5.6200000000 0.4098000000
-0.4996000000 4.8894000000 0.7951000000
-0.5000000000 2.3853000000 0.7709000000
-0.5002000000 1.1590000000 0.1233000000
-0.5007000000 2.3394000000 0.7422000000
-0.5008000000 4.7863000000 0.8439000000
-0.5010000000 5.8179000000 0.3042000000
-0.5014000000 2.3853000000 0.7657000000
-0.5017000000 1.9097000000 0.5168000000
-0.5020000000 1.8010000000 0.4628000000
-0.5027000000 4.7587000000 0.8648000000
-0.5030000000 4.7066000000 0.8919000000
-0.5035000000 2.8478000000 1.0032000000
-0.5040000000 0.6714000000 0.0167000000
-0.7377000000 2.0741000000 0.3894000000
-0.7387000000 5.9341000000 0.1075000000
-0.7399000000 5.0444000000 0.4930000000
-0.7401000000 3.7911000000 1.1505000000
-0.7402000000 6.2619000000 0.0100000000
-0.7410000000 5.4651000000 0.2727000000
-0.7413000000 5.3410000000 0.3335000000
-0.7416000000 3.2016000000 0.9773000000
-0.7422000000 3.6555000000 1.1921000000
-0.7426000000 2.8004000000 0.7655000000
-0.7430000000 4.4432000000 0.8014000000
-0.7437000000 1.5459000000 0.1095000000
-0.7439000000 4.3599000000 0.8474000000
-0.7443000000 2.2642000000 0.4863000000
-0.7444000000 5.6668000000 0.1684000000
-0.7446000000 4.9358000000 0.5454000000
-0.7450000000 1.3216000000 0.0737000000
-0.7450000000 5.3662000000 0.3253000000
-0.7452000000 5.1213000000 0.4558000000
-0.7453000000 3.6012000000 1.1778000000
-0.7455000000 2.5496000000 0.6294000000
-0.7456000000 4.5605000000 0.7424000000
-0.7457000000 3.2734000000 1.0074000000
-0.7459000000 3.5119000000 1.1290000000
-0.7465000000 3.9023000000 1.0867000000
-0.7466000000 4.8946000000 0.5710000000
-0.7468000000 1.4809000000 0.0718000000
-0.7472000000 1.5162000000 0.0865000000
-0.7474000000 4.0871000000 0.9859000000
-0.7482000000 6.2037000000 0.0312000000
-0.7488000000 1.9909000000 0.3321000000
-0.7491000000 4.8435000000 0.5928000000
-0.7494000000 1.6870000000 0.1849000000
-0.7496000000 3.6367000000 1.1825000000
-0.7502000000 2.1969000000 0.4448000000
-0.7504000000 3.3115000000 1.0221000000
-0.7505000000 4.3328000000 0.8591000000
-0.7507000000 4.0619000000 0.9961000000
-0.7509000000 2.7518000000 0.7302000000
-0.7514000000 4.7860000000 0.6216000000
-0.7517000000 5.8577000000 0.0663000000
-0.7520000000 2.6296000000 0.6658000000
-0.7528000000 2.6034000000 0.6468000000
-0.9896000000 5.5205000000 0.0976000000
-0.9906000000 5.0053000000 0.2860000000
