5.5110000000 3.3981000000 0.1228000000
5.5103000000 3.2790000000 0.0854000000
5.5075000000 3.2924000000 0.0832000000
5.5065000000 3.1131000000 0.1033000000
5.5041000000 3.1474000000 0.1206000000
5.5034000000 3.1187000000 0.1080000000
5.5028000000 3.6598000000 0.0810000000
5.5022000000 3.1570000000 0.1226000000
5.4993000000 2.9341000000 0.0262000000
5.4965000000 2.8493000000 0.0585000000
5.2595000000 3.6507000000 0.1289000000
5.2576000000 4.0374000000 0.0303000000
5.2570000000 3.9209000000 0.0826000000
5.2565000000 3.7760000000 0.0782000000
5.2556000000 3.1450000000 0.2451000000
5.2551000000 2.9420000000 0.1496000000
5.2543000000 2.4013000000 0.0495000000
5.2537000000 3.3454000000 0.2789000000
5.2535000000 2.8857000000 0.1246000000
5.2534000000 2.4013000000 0.0493000000
5.2528000000 3.5350000000 0.1896000000
5.2527000000 2.3802000000 0.0410000000
5.2526000000 3.6807000000 0.1232000000
5.2509000000 4.0695000000 0.0145000000
5.2453000000 2.6314000000 0.0869000000
5.0092000000 2.4121000000 0.1014000000
5.0087000000 4.5352000000 0.0733000000
5.0083000000 4.2236000000 0.1433000000
5.0078000000 1.8731000000 0.0006000000
5.0070000000 2.7085000000 0.2441000000
5.0056000000 4.5313000000 0.0778000000
5.0052000000 3.4910000000 0.4142000000
5.0049000000 3.0101000000 0.3809000000
5.0046000000 2.7966000000 0.2873000000
5.0042000000 2.6375000000 0.2151000000
5.0037000000 4.2100000000 0.0776000000
5.0031000000 3.5327000000 0.3931000000
5.0024000000 2.7299000000 0.2577000000
5.0011000000 3.2093000000 0.4831000000
5.0008000000 2.4180000000 0.1054000000
5.0003000000 1.9673000000 0.0516000000
4.9996000000 4.3945000000 0.0694000000
4.9993000000 4.2350000000 0.1467000000
4.7609000000 4.4466000000 0.1696000000
4.7603000000 1.8349000000 0.1082000000
4.7595000000 4.1738000000 0.2963000000
4.7587000000 3.9871000000 0.3818000000
4.7579000000 4.0649000000 0.3435000000
4.7568000000 4.4130000000 0.1815000000
4.7566000000 4.3355000000 0.2190000000
4.7565000000 4.0481000000 0.3522000000
4.7559000000 2.0425000000 0.1293000000
4.7557000000 4.7496000000 0.0994000000
4.7552000000 4.2625000000 0.2556000000
4.7548000000 2.5824000000 0.3862000000
4.7543000000 2.3822000000 0.2929000000
4.7541000000 5.0778000000 0.0265000000
4.7538000000 3.5572000000 0.5862000000
4.7532000000 2.2237000000 0.2215000000
4.7527000000 4.8007000000 0.0774000000
4.7525000000 4.3583000000 0.2108000000
4.7523000000 3.7680000000 0.4870000000
4.7516000000 3.7926000000 0.4829000000
4.7511000000 2.3261000000 0.2691000000
4.7504000000 3.2174000000 0.6864000000
4.7503000000 3.8652000000 0.4427000000
4.7500000000 4.9436000000 0.0171000000
4.7494000000 1.7459000000 0.0737000000
4.7469000000 2.3665000000 0.2953000000
4.5098000000 4.1313000000 0.5190000000
4.5095000000 3.7177000000 0.7099000000
4.5092000000 2.6115000000 0.6035000000
4.5087000000 4.5089000000 0.3447000000
4.5080000000 1.7613000000 0.2055000000
4.5075000000 4.7900000000 0.2054000000
4.5073000000 4.0476000000 0.5590000000
4.5071000000 2.4620000000 0.5282000000
4.5066000000 4.0354000000 0.5626000000
4.5065000000 4.8132000000 0.1939000000
4.5063000000 1.7601000000 0.2047000000
4.5060000000 4.8707000000 0.1727000000
4.5057000000 3.4929000000 0.8137000000
4.5054000000 2.5694000000 0.5798000000
4.5053000000 1.9974000000 0.3207000000
4.5049000000 1.7818000000 0.2158000000
4.5045000000 4.7013000000 0.2504000000
4.5043000000 1.8970000000 0.2684000000
4.5041000000 4.9148000000 0.1530000000
4.5032000000 4.8865000000 0.1709000000
4.5030000000 4.5884000000 0.3104000000
4.5027000000 2.1679000000 0.3964000000
4.5024000000 2.2255000000 0.4216000000
4.5018000000 4.8055000000 0.2074000000
4.5011000000 2.8835000000 0.7299000000
4.5007000000 4.8338000000 0.2005000000
4.4998000000 4.3166000000 0.4352000000
4.4991000000 4.1477000000 0.5143000000
4.4987000000 3.5908000000 0.7771000000
4.4941000000 2.6881000000 0.6484000000
4.2616000000 5.3239000000 0.1580000000
4.2599000000 4.3955000000 0.5970000000
4.2597000000 5.0618000000 0.2802000000
4.2584000000 1.6784000000 0.3668000000
4.2578000000 4.9919000000 0.3203000000
4.2575000000 5.3838000000 0.1356000000
4.2570000000 1.5432000000 0.3009000000
4.2568000000 2.7840000000 0.8854000000
4.2565000000 2.9507000000 0.9602000000
4.2559000000 5.7725000000 0.0292000000
4.2557000000 3.4145000000 1.0565000000
4.2554000000 4.0879000000 0.7434000000
4.2553000000 1.8857000000 0.4676000000
4.2550000000 5.1746000000 0.2357000000
4.2550000000 2.7627000000 0.8732000000
4.2544000000 3.7339000000 0.9129000000
4.2540000000 4.0638000000 0.7525000000
4.2539000000 5.5582000000 0.1321000000
4.2538000000 3.7812000000 0.8815000000
4.2535000000 4.3915000000 0.6056000000
4.2534000000 3.8487000000 0.8564000000
4.2533000000 1.8224000000 0.4367000000
4.2528000000 2.3386000000 0.6765000000
4.2526000000 5.7530000000 0.0409000000
4.2524000000 3.1651000000 1.0699000000
4.2520000000 1.3115000000 0.1949000000
4.2519000000 5.3442000000 0.1619000000
4.2517000000 0.6591000000 0.0439000000
4.2512000000 4.8434000000 0.3994000000
4.2509000000 1.5685000000 0.3252000000
4.2505000000 1.3855000000 0.2371000000
4.2504000000 1.6896000000 0.3801000000
4.2500000000 1.2366000000 0.1614000000
4.2498000000 3.2215000000 1.0942000000
4.2493000000 2.8653000000 0.9367000000
4.2474000000 1.4902000000 0.2888000000
4.2458000000 3.6073000000 0.9770000000
4.0121000000 5.2547000000 0.3893000000
4.0115000000 3.5864000000 1.1748000000
4.0108000000 3.6488000000 1.1442000000
4.0103000000 3.1468000000 1.2531000000
4.0096000000 6.2075000000 0.0226000000
4.0092000000 2.7252000000 1.0570000000
4.0092000000 5.7064000000 0.1871000000
4.0089000000 2.6264000000 1.0101000000
4.0088000000 5.9851000000 0.1297000000
4.0084000000 6.3408000000 0.0391000000
4.0080000000 3.1493000000 1.2557000000
4.0080000000 4.9357000000 0.5457000000
4.0076000000 0.7314000000 0.1273000000
4.0073000000 4.8322000000 0.5948000000
4.0071000000 4.7285000000 0.6422000000
4.0070000000 5.8258000000 0.1300000000
4.0068000000 5.9558000000 0.1439000000
4.0067000000 2.7577000000 1.0805000000
4.0064000000 1.1682000000 0.3356000000
4.0063000000 1.7806000000 0.6162000000
4.0061000000 0.7451000000 0.1383000000
4.0060000000 2.0048000000 0.7216000000
4.0057000000 1.8174000000 0.6341000000
4.0055000000 3.5617000000 1.1858000000
4.0051000000 5.2018000000 0.4193000000
4.0051000000 2.7890000000 1.0911000000
4.0049000000 6.3088000000 0.0563000000
4.0046000000 6.0487000000 0.0990000000
4.0045000000 2.5389000000 0.9738000000
4.0044000000 3.1643000000 1.2707000000
4.0041000000 3.1731000000 1.2669000000
4.0036000000 3.0236000000 1.2066000000
4.0034000000 2.8704000000 1.1358000000
4.0033000000 2.5476000000 0.9798000000
4.0030000000 0.3262000000 0.0164000000
4.0028000000 2.5406000000 0.9788000000
4.0026000000 3.9055000000 1.0321000000
4.0023000000 1.3294000000 0.4145000000
4.0020000000 5.1013000000 0.4748000000
4.0018000000 3.8309000000 1.0664000000
4.0014000000 0.1324000000 0.0011000000
4.0008000000 0.2236000000 0.0456000000
4.0006000000 4.2770000000 0.8581000000
4.0003000000 3.5283000000 1.2137000000
3.9995000000 1.7847000000 0.6298000000
3.9990000000 0.6192000000 0.0832000000
3.9988000000 0.6244000000 0.0848000000
3.9982000000 0.7413000000 0.1430000000
3.9979000000 1.6853000000 0.5837000000
3.9977000000 1.1744000000 0.3391000000
3.9970000000 1.2607000000 0.3788000000
3.7662000000 3.2266000000 1.4849000000
3.7613000000 6.4274000000 0.1106000000
3.7603000000 5.3058000000 0.5693000000
3.7595000000 5.2958000000 0.5839000000
3.7588000000 5.1329000000 0.6534000000
3.7583000000 3.3841000000 1.4727000000
3.7577000000 0.4735000000 0.2109000000
3.7574000000 4.7509000000 0.8334000000
3.7572000000 0.5453000000 0.2438000000
3.7572000000 4.4602000000 0.9747000000
3.7568000000 5.4850000000 0.4943000000
3.7565000000 4.2412000000 1.0763000000
3.7562000000 0.5997000000 0.2712000000
3.7560000000 2.8727000000 1.3339000000
3.7558000000 5.3082000000 0.5782000000
3.7556000000 6.3148000000 0.1094000000
3.7555000000 1.2696000000 0.5908000000
3.7552000000 5.4851000000 0.4913000000
3.7550000000 2.8508000000 1.3215000000
3.7549000000 2.9042000000 1.3450000000
3.7545000000 2.2902000000 1.0633000000
3.7542000000 6.1030000000 0.2065000000
3.7540000000 1.5737000000 0.7250000000
3.7537000000 6.2096000000 0.1504000000
3.7534000000 5.6751000000 0.4052000000
3.7532000000 2.7671000000 1.2864000000
3.7531000000 6.3788000000 0.0776000000
3.7530000000 4.5769000000 0.9216000000
3.7527000000 4.3438000000 1.0280000000
3.7525000000 4.3123000000 1.0518000000
3.7523000000 2.4370000000 1.1297000000
3.7519000000 1.0119000000 0.4653000000
3.7518000000 1.9616000000 0.9136000000
3.7513000000 5.9633000000 0.2732000000
3.7510000000 0.4204000000 0.1847000000
3.7508000000 1.2350000000 0.5752000000
3.7505000000 1.4718000000 0.6830000000
3.7500000000 1.0818000000 0.4995000000
3.7498000000 4.4576000000 0.9800000000
3.7492000000 2.4631000000 1.1451000000
3.7490000000 2.4763000000 1.1570000000
3.7485000000 5.0334000000 0.7113000000
3.7477000000 0.2166000000 0.1022000000
3.7470000000 1.2096000000 0.5610000000
3.7413000000 2.1039000000 0.9879000000
3.5126000000 6.3883000000 0.1309000000
3.5112000000 4.7575000000 1.0311000000
3.5104000000 2.0919000000 1.1603000000
3.5096000000 3.6848000000 1.5315000000
3.5093000000 5.7308000000 0.5808000000
3.5089000000 1.8416000000 1.0452000000
3.5088000000 2.3730000000 1.3016000000
3.5085000000 2.5597000000 1.3788000000
3.5085000000 2.4201000000 1.3265000000
3.5081000000 5.2362000000 0.8074000000
3.5077000000 4.1032000000 1.3432000000
3.5074000000 5.4809000000 0.6943000000
3.5071000000 1.7047000000 0.9857000000
3.5066000000 3.3237000000 1.6902000000
3.5065000000 2.2107000000 1.2282000000
3.5063000000 4.0354000000 1.3669000000
3.5062000000 0.2764000000 0.2209000000
3.5061000000 1.5738000000 0.9195000000
3.5060000000 1.9883000000 1.1191000000
3.5058000000 0.7079000000 0.5261000000
3.5055000000 6.3346000000 0.1742000000
3.5054000000 2.1593000000 1.2052000000
3.5052000000 5.0670000000 0.8960000000
3.5051000000 4.4735000000 1.1723000000
3.5049000000 3.3341000000 1.7031000000
3.5048000000 3.2776000000 1.7117000000
3.5047000000 4.3939000000 1.2087000000
3.5045000000 5.8594000000 0.5237000000
3.5043000000 4.9201000000 0.9611000000
3.5041000000 3.6147000000 1.5778000000
3.5041000000 0.3344000000 0.2782000000
3.5040000000 1.7722000000 1.0241000000
3.5039000000 1.7018000000 0.9919000000
3.5036000000 0.5306000000 0.4259000000
3.5035000000 0.5003000000 0.4129000000
3.5033000000 0.5129000000 0.4252000000
3.5035000000 6.4739000000 0.1231000000
3.5030000000 5.7553000000 0.5726000000
3.5028000000 0.0938000000 0.1251000000
3.5027000000 2.3475000000 1.2923000000
3.5025000000 1.1005000000 0.7093000000
3.5022000000 4.3616000000 1.2270000000
3.5020000000 6.4219000000 0.0984000000
3.5015000000 3.5787000000 1.5943000000
3.5010000000 0.0433000000 0.0761000000
3.5007000000 4.7772000000 1.0316000000
3.5003000000 4.4387000000 1.1913000000
3.5000000000 0.9837000000 0.6567000000
3.4998000000 1.2557000000 0.7842000000
3.4996000000 0.9881000000 0.6637000000
3.4985000000 2.7046000000 1.4631000000
3.4979000000 3.6822000000 1.5504000000
3.4977000000 1.4785000000 0.8879000000
3.4946000000 0.0835000000 0.1180000000
3.4945000000 1.8461000000 1.0659000000
3.2633000000 6.4396000000 0.0806000000
3.2603000000 6.5693000000 0.0306000000
3.2600000000 5.4660000000 0.9039000000
3.2595000000 6.5645000000 0.0358000000
3.2592000000 3.7843000000 1.6961000000
3.2585000000 1.1956000000 0.9490000000
3.2583000000 4.8720000000 1.1834000000
3.2580000000 2.9745000000 1.7809000000
3.2578000000 4.9499000000 1.1441000000
3.2575000000 4.0162000000 1.5849000000
3.2573000000 0.9598000000 0.8268000000
3.2570000000 2.8694000000 1.7383000000
3.2569000000 5.6491000000 0.8052000000
3.2568000000 5.0812000000 1.0875000000
3.2566000000 2.9965000000 1.7898000000
3.2564000000 6.5316000000 0.0693000000
3.2563000000 4.8866000000 1.1789000000
3.2555000000 3.9859000000 1.6002000000
3.2554000000 1.2559000000 0.9812000000
3.2550000000 2.4119000000 1.5246000000
3.2548000000 5.3672000000 0.9511000000
3.2546000000 2.7694000000 1.6890000000
3.2544000000 2.9097000000 1.7567000000
3.2542000000 2.2409000000 1.4408000000
3.2541000000 3.7949000000 1.6926000000
3.2539000000 2.4923000000 1.5616000000
3.2538000000 4.0564000000 1.5660000000
3.2535000000 1.7527000000 1.2169000000
3.2530000000 2.6281000000 1.6252000000
3.2528000000 1.7661000000 1.2291000000
3.2527000000 6.0819000000 0.4134000000
3.2525000000 0.3322000000 0.2776000000
3.2522000000 3.7915000000 1.6908000000
3.2519000000 0.4111000000 0.3477000000
3.2518000000 0.0371000000 0.0718000000
3.2515000000 3.0029000000 1.7986000000
3.2514000000 5.8510000000 0.6313000000
3.2512000000 2.3895000000 1.5189000000
3.2510000000 1.4943000000 1.1009000000
3.2507000000 1.2906000000 1.0075000000
3.2503000000 0.0327000000 0.0702000000
3.2498000000 5.1575000000 1.0560000000
3.2494000000 1.0103000000 0.8557000000
3.2491000000 4.4975000000 1.3694000000
3.2488000000 0.3692000000 0.3155000000
3.2486000000 2.1239000000 1.3933000000
3.2481000000 0.4804000000 0.4075000000
3.2471000000 0.2574000000 0.2003000000
3.2454000000 1.9114000000 1.2958000000
3.0106000000 0.3507000000 0.2941000000
3.0091000000 4.4068000000 1.6016000000
3.0088000000 0.4828000000 0.4067000000
3.0083000000 6.3452000000 0.1623000000
3.0079000000 4.4534000000 1.5845000000
3.0076000000 0.9124000000 0.8173000000
3.0074000000 6.4295000000 0.0862000000
3.0070000000 1.8932000000 1.4834000000
3.0068000000 1.4956000000 1.2931000000
3.0064000000 0.7854000000 0.6970000000
3.0063000000 0.5938000000 0.5183000000
3.0059000000 3.5343000000 2.0160000000
3.0058000000 0.6789000000 0.5990000000
3.0057000000 2.5983000000 1.8097000000
3.0055000000 0.0442000000 0.0788000000
3.0054000000 2.5185000000 1.7738000000
3.0052000000 5.0609000000 1.3001000000
3.0050000000 4.8397000000 1.4012000000
3.0050000000 1.8685000000 1.4709000000
3.0048000000 3.3174000000 2.0994000000
3.0047000000 3.8039000000 1.8859000000
3.0043000000 4.6647000000 1.4881000000
3.0041000000 6.1261000000 0.3725000000
3.0040000000 2.8887000000 1.9484000000
3.0038000000 5.5539000000 0.9117000000
3.0036000000 2.7080000000 1.8643000000
3.0035000000 2.6848000000 1.8541000000
3.0030000000 0.6624000000 0.5853000000
3.0028000000 0.6860000000 0.6066000000
3.0026000000 5.3660000000 1.0845000000
3.0024000000 0.0018000000 0.0430000000
3.0023000000 1.2399000000 1.1205000000
3.0021000000 1.0436000000 0.9373000000
3.0020000000 0.1541000000 0.1077000000
3.0017000000 0.0578000000 0.0926000000
3.0015000000 5.3473000000 1.1030000000
3.0011000000 2.6931000000 1.8635000000
3.0009000000 1.8801000000 1.4777000000
3.0007000000 2.3413000000 1.6993000000
3.0006000000 2.4432000000 1.7430000000
3.0005000000 2.7753000000 1.9021000000
3.0001000000 1.8412000000 1.4625000000
2.9998000000 1.6244000000 1.3564000000
2.9993000000 5.1423000000 1.2547000000
2.9990000000 3.6980000000 1.9467000000
2.9986000000 0.4162000000 0.3511000000
2.9982000000 3.1844000000 2.0886000000
2.9957000000 3.1941000000 2.1009000000
2.9942000000 4.3570000000 1.6367000000
2.7634000000 4.2628000000 1.8753000000
2.7608000000 3.5693000000 2.1910000000
2.7600000000 3.9929000000 1.9976000000
2.7596000000 3.7187000000 2.1288000000
2.7591000000 6.4810000000 0.1143000000
2.7588000000 3.0159000000 2.2117000000
2.7582000000 5.0598000000 1.3700000000
2.7581000000 4.6160000000 1.7097000000
2.7576000000 5.1288000000 1.3047000000
2.7574000000 1.2751000000 1.1528000000
2.7573000000 2.5654000000 1.9966000000
2.7571000000 4.9979000000 1.4303000000
2.7565000000 5.7475000000 0.7285000000
2.7563000000 4.8824000000 1.5290000000
2.7561000000 3.7863000000 2.1003000000
2.7559000000 2.1394000000 1.7947000000
2.7558000000 0.2219000000 0.1676000000
2.7555000000 1.0331000000 0.9293000000
2.7554000000 5.9379000000 0.5508000000
2.7551000000 0.0882000000 0.1246000000
2.7550000000 2.5615000000 1.9968000000
2.7547000000 0.2238000000 0.1710000000
2.7545000000 4.4865000000 1.7709000000
2.7543000000 0.6509000000 0.5701000000
2.7541000000 6.5254000000 0.0763000000
2.7539000000 0.2194000000 0.1670000000
2.7538000000 4.8950000000 1.5256000000
2.7535000000 3.3567000000 2.3012000000
2.7534000000 3.1329000000 2.2680000000
2.7532000000 2.7996000000 2.1073000000
2.7531000000 4.5524000000 1.7414000000
2.7529000000 3.1494000000 2.2720000000
2.7526000000 0.3488000000 0.2889000000
2.7523000000 6.3058000000 0.2049000000
2.7522000000 1.8433000000 1.6489000000
2.7521000000 3.6466000000 2.1691000000
2.7520000000 1.1653000000 1.0526000000
2.7516000000 0.4650000000 0.3995000000
2.7512000000 2.3149000000 1.8841000000
2.7510000000 3.8079000000 2.0905000000
2.7510000000 2.2131000000 1.8407000000
2.7507000000 2.8946000000 2.1596000000
2.7504000000 1.7378000000 1.5699000000
2.7503000000 5.2657000000 1.1777000000
2.7500000000 0.9774000000 0.8750000000
2.7495000000 5.6322000000 0.8312000000
2.7494000000 2.3230000000 1.8895000000
2.7489000000 2.9762000000 2.1982000000
2.7483000000 2.3623000000 1.9055000000
2.7481000000 2.1483000000 1.8105000000
2.7458000000 0.1226000000 0.0744000000
2.7439000000 3.5738000000 2.2055000000
2.7409000000 1.0978000000 0.9858000000
2.5123000000 1.4590000000 1.3277000000
2.5093000000 4.8352000000 1.5785000000
2.5085000000 5.3257000000 1.1178000000
2.5081000000 5.3756000000 1.0744000000
2.5079000000 6.5064000000 0.0921000000
2.5080000000 3.2175000000 2.5036000000
2.5076000000 3.7755000000 2.3059000000
2.5074000000 1.2999000000 1.1737000000
2.5072000000 6.3900000000 0.1287000000
2.5066000000 4.3617000000 2.0066000000
2.5065000000 0.4788000000 0.4098000000
2.5064000000 2.5184000000 2.1741000000
2.5062000000 1.0189000000 0.9179000000
2.5056000000 0.8114000000 0.7226000000
2.5054000000 5.4832000000 0.9726000000
2.5052000000 2.9028000000 2.3606000000
2.5048000000 3.4231000000 2.4749000000
2.5047000000 5.6251000000 0.8427000000
2.5046000000 2.1510000000 1.9663000000
2.5045000000 3.8915000000 2.2530000000
2.5044000000 6.1626000000 0.3438000000
2.5043000000 2.6097000000 2.2259000000
2.5042000000 0.3262000000 0.2648000000
2.5040000000 2.0839000000 1.9120000000
2.5039000000 3.5471000000 2.4176000000
2.5036000000 0.3795000000 0.3216000000
2.5033000000 3.3097000000 2.5061000000
2.5030000000 2.3691000000 2.1142000000
2.5029000000 4.4685000000 1.9219000000
2.5025000000 1.0147000000 0.9139000000
2.5024000000 0.0785000000 0.1137000000
2.5022000000 0.1447000000 0.0986000000
2.5021000000 4.6728000000 1.7383000000
2.5019000000 0.6843000000 0.6009000000
2.5013000000 3.0205000000 2.4160000000
2.5010000000 2.3060000000 2.0697000000
2.5004000000 2.5742000000 2.2156000000
2.5003000000 0.6818000000 0.5971000000
2.5000000000 1.6703000000 1.5248000000
2.4997000000 3.6912000000 2.3485000000
2.4993000000 3.9074000000 2.2546000000
2.4993000000 4.9122000000 1.5111000000
2.4988000000 3.1992000000 2.5059000000
2.4978000000 2.2834000000 2.0592000000
2.4960000000 4.0406000000 2.1927000000
2.2609000000 5.6034000000 0.8631000000
2.2606000000 5.0117000000 1.4183000000
2.2599000000 5.2062000000 1.2343000000
2.2597000000 5.4987000000 0.9614000000
2.2593000000 3.5397000000 2.6185000000
2.2590000000 3.9448000000 2.4018000000
2.2573000000 1.8825000000 1.7268000000
2.2572000000 4.4664000000 1.9249000000
2.2568000000 4.4557000000 1.9400000000
2.2567000000 5.1801000000 1.2605000000
2.2564000000 1.7460000000 1.5961000000
2.2560000000 0.9181000000 0.8163000000
2.2558000000 4.3581000000 2.0188000000
2.2558000000 2.9956000000 2.6047000000
2.2553000000 6.0413000000 0.4499000000
2.2550000000 4.8080000000 1.6093000000
2.2548000000 5.8424000000 0.6388000000
2.2545000000 4.9274000000 1.4957000000
2.2543000000 5.8877000000 0.5947000000
2.2538000000 4.1092000000 2.2594000000
2.2536000000 1.6349000000 1.4949000000
2.2535000000 2.8534000000 2.5402000000
2.2532000000 6.1957000000 0.3076000000
2.2531000000 5.4098000000 1.0417000000
2.2530000000 1.5408000000 1.4101000000
2.2530000000 5.1241000000 1.3097000000
2.2527000000 2.0909000000 1.9216000000
2.2524000000 5.2834000000 1.1659000000
2.2523000000 3.7041000000 2.5494000000
2.2522000000 3.0576000000 2.6378000000
2.2519000000 2.9855000000 2.6025000000
2.2518000000 5.6515000000 0.8133000000
2.2514000000 3.7905000000 2.4996000000
2.2510000000 0.2628000000 0.2106000000
2.2508000000 6.3991000000 0.1162000000
2.2505000000 2.0534000000 1.8887000000
2.2500000000 1.7410000000 1.5911000000
2.2495000000 2.0700000000 1.9031000000
2.2493000000 3.8801000000 2.4551000000
2.2475000000 0.1348000000 0.0838000000
2.2466000000 3.0585000000 2.6395000000
2.2451000000 2.1339000000 1.9600000000
2.0109000000 3.5009000000 2.8109000000
2.0101000000 5.8673000000 0.6111000000
2.0088000000 5.7146000000 0.7553000000
2.0082000000 1.4854000000 1.3540000000
2.0078000000 1.5666000000 1.4281000000
2.0077000000 3.5999000000 2.7314000000
2.0072000000 6.1797000000 0.3253000000
2.0069000000 1.7257000000 1.5765000000
2.0065000000 3.1135000000 2.8494000000
2.0064000000 2.7347000000 2.5213000000
2.0060000000 6.2393000000 0.2658000000
2.0058000000 5.5958000000 0.8734000000
2.0056000000 1.0063000000 0.8987000000
2.0053000000 5.6395000000 0.8281000000
2.0050000000 1.6803000000 1.5368000000
2.0049000000 2.4357000000 2.2367000000
2.0047000000 4.4429000000 1.9455000000
2.0045000000 0.6188000000 0.5409000000
2.0045000000 6.1170000000 0.3811000000
2.0043000000 0.7754000000 0.6855000000
2.0041000000 1.9803000000 1.8109000000
2.0040000000 5.9600000000 0.5290000000
2.0039000000 3.3463000000 2.9160000000
2.0037000000 0.4760000000 0.4168000000
2.0037000000 4.5985000000 1.7979000000
2.0033000000 3.7957000000 2.5520000000
2.0032000000 5.8586000000 0.6253000000
2.0031000000 6.1219000000 0.3718000000
2.0030000000 0.8768000000 0.7852000000
2.0027000000 2.5096000000 2.3101000000
2.0023000000 3.2446000000 2.9694000000
2.0020000000 1.7964000000 1.6428000000
2.0015000000 2.0097000000 1.8443000000
2.0013000000 4.0702000000 2.2983000000
2.0008000000 0.1561000000 0.1031000000
2.0005000000 1.7474000000 1.5983000000
2.0004000000 0.8186000000 0.7316000000
1.9998000000 3.5617000000 2.7696000000
1.9994000000 3.8155000000 2.5378000000
1.9992000000 6.4735000000 0.1262000000
1.9988000000 0.5051000000 0.4383000000
1.9981000000 4.1761000000 2.1961000000
1.9975000000 4.2961000000 2.0839000000
1.9968000000 3.7314000000 2.6138000000
1.9958000000 5.6465000000 0.8187000000
1.9942000000 2.0967000000 1.9195000000
1.7615000000 1.3005000000 1.1773000000
1.7605000000 6.5526000000 0.0407000000
1.7590000000 5.0491000000 1.3829000000
1.7585000000 3.7798000000 2.5666000000
1.7581000000 0.0254000000 0.0577000000
1.7579000000 0.1343000000 0.0852000000
1.7574000000 4.6769000000 1.7332000000
1.7570000000 5.5571000000 0.9055000000
1.7568000000 2.8063000000 2.5856000000
1.7567000000 0.1048000000 0.1358000000
1.7563000000 4.0297000000 2.3332000000
1.7560000000 1.7464000000 1.5948000000
1.7558000000 4.6812000000 1.7224000000
1.7556000000 1.9336000000 1.7704000000
1.7554000000 0.7082000000 0.6281000000
1.7553000000 3.1556000000 2.8528000000
1.7551000000 2.4606000000 2.2597000000
1.7549000000 5.8142000000 0.6655000000
1.7546000000 6.4022000000 0.1165000000
1.7543000000 1.3665000000 1.2371000000
1.7540000000 2.7459000000 2.5307000000
1.7540000000 1.3340000000 1.2081000000
1.7537000000 1.9306000000 1.7715000000
1.7535000000 4.1903000000 2.1851000000
1.7533000000 1.2977000000 1.1762000000
1.7530000000 1.8385000000 1.6805000000
1.7528000000 5.8430000000 0.6403000000
1.7525000000 1.5751000000 1.4398000000
1.7521000000 5.0738000000 1.3565000000
1.7520000000 3.3311000000 2.8905000000
1.7516000000 1.1515000000 1.0354000000
1.7513000000 2.2788000000 2.0956000000
1.7510000000 0.2849000000 0.2308000000
1.7509000000 0.3257000000 0.2711000000
1.7507000000 4.4874000000 1.9031000000
1.7506000000 4.1770000000 2.1977000000
1.7504000000 3.3643000000 2.8816000000
1.7499000000 5.3174000000 1.1295000000
1.7497000000 1.9021000000 1.7447000000
1.7492000000 1.3374000000 1.2171000000
1.7483000000 5.6722000000 0.7988000000
1.7478000000 3.0430000000 2.7868000000
1.7471000000 5.3836000000 1.0694000000
1.5124000000 5.5607000000 0.9084000000
1.5108000000 4.2856000000 2.0914000000
1.5098000000 4.8367000000 1.5764000000
1.5094000000 2.3374000000 2.1505000000
1.5093000000 3.3034000000 2.6945000000
1.5090000000 6.3436000000 0.1673000000
1.5087000000 5.6314000000 0.8362000000
1.5079000000 6.0823000000 0.4139000000
1.5077000000 4.1286000000 2.2473000000
1.5072000000 5.4469000000 1.0111000000
1.5071000000 4.8988000000 1.5198000000
1.5067000000 2.1499000000 1.9735000000
1.5066000000 1.2325000000 1.1095000000
1.5064000000 3.1182000000 2.6439000000
1.5061000000 5.3856000000 1.0660000000
1.5059000000 5.3559000000 1.0942000000
1.5058000000 6.1566000000 0.3347000000
1.5057000000 0.6987000000 0.6180000000
1.5055000000 5.5211000000 0.9429000000
1.5054000000 3.9590000000 2.3880000000
1.5050000000 0.6813000000 0.6008000000
1.5048000000 4.0371000000 2.3046000000
1.5045000000 2.0730000000 1.9023000000
1.5042000000 2.8488000000 2.5094000000
1.5035000000 4.0006000000 2.3463000000
1.5033000000 5.0398000000 1.3868000000
1.5032000000 5.4033000000 1.0553000000
1.5028000000 1.4056000000 1.2818000000
1.5025000000 6.3619000000 0.1532000000
1.5023000000 1.0659000000 0.9645000000
1.5022000000 5.4958000000 0.9578000000
1.5020000000 0.7489000000 0.6647000000
1.5017000000 1.7516000000 1.6004000000
1.5014000000 2.6213000000 2.3891000000
1.5013000000 1.9605000000 1.7949000000
1.5009000000 0.9347000000 0.8359000000
1.5005000000 2.5687000000 2.3554000000
1.5005000000 4.1522000000 2.2187000000
1.5002000000 0.6078000000 0.5280000000
1.5001000000 6.3194000000 0.1942000000
1.4995000000 1.4221000000 1.2885000000
1.4993000000 1.2265000000 1.1080000000
1.4985000000 0.0571000000 0.0861000000
1.4975000000 1.6596000000 1.5136000000
1.4901000000 1.3068000000 1.1826000000
1.2625000000 0.9496000000 0.8467000000
1.2603000000 3.6821000000 2.3336000000
1.2587000000 0.8710000000 0.7814000000
1.2582000000 4.5570000000 1.8396000000
1.2580000000 1.8921000000 1.7325000000
1.2579000000 5.9651000000 0.5213000000
1.2577000000 1.7750000000 1.6211000000
1.2575000000 2.9122000000 2.3453000000
1.2570000000 5.7673000000 0.7073000000
1.2566000000 2.2768000000 2.0377000000
1.2562000000 1.9920000000 1.8249000000
1.2560000000 5.0677000000 1.3667000000
1.2559000000 1.0822000000 0.9714000000
1.2557000000 6.2682000000 0.2378000000
1.2554000000 2.1132000000 1.9193000000
1.2550000000 0.2915000000 0.2324000000
1.2548000000 0.4843000000 0.4162000000
1.2546000000 5.4358000000 1.0152000000
1.2545000000 4.9852000000 1.4405000000
1.2544000000 5.0264000000 1.4010000000
1.2542000000 1.8367000000 1.6807000000
1.2541000000 2.4121000000 2.1038000000
1.2540000000 4.6937000000 1.7237000000
1.2537000000 5.2404000000 1.2013000000
1.2536000000 6.2987000000 0.2142000000
1.2535000000 3.0804000000 2.4202000000
1.2532000000 2.7761000000 2.2773000000
1.2531000000 0.1386000000 0.0928000000
1.2528000000 5.7496000000 0.7269000000
1.2526000000 4.5033000000 1.8877000000
1.2523000000 2.2682000000 2.0260000000
1.2521000000 0.7820000000 0.6921000000
1.2519000000 2.9968000000 2.3817000000
1.2517000000 4.9987000000 1.4283000000
1.2516000000 6.1752000000 0.3297000000
1.2515000000 0.0406000000 0.0799000000
1.2511000000 3.6999000000 2.3121000000
1.2510000000 1.5111000000 1.3774000000
1.2508000000 0.0924000000 0.1213000000
1.2506000000 2.7922000000 2.2854000000
1.2498000000 2.6843000000 2.2319000000
1.2494000000 0.1900000000 0.1414000000
1.2488000000 4.2927000000 2.0281000000
1.2487000000 2.9893000000 2.3759000000
1.2482000000 1.7164000000 1.5678000000
1.2475000000 0.7565000000 0.6716000000
1.2469000000 3.6197000000 2.3531000000
1.2463000000 3.1050000000 2.4235000000
1.0114000000 5.2270000000 1.2104000000
1.0106000000 6.3973000000 0.1187000000
1.0090000000 5.5730000000 0.8896000000
1.0078000000 6.4268000000 0.0958000000
1.0066000000 4.8472000000 1.5534000000
1.0065000000 3.7541000000 2.0875000000
1.0063000000 4.6854000000 1.6605000000
1.0060000000 4.5811000000 1.7076000000
1.0059000000 3.7274000000 2.1067000000
1.0058000000 1.6129000000 1.4755000000
1.0055000000 2.1318000000 1.7729000000
1.0052000000 4.2810000000 1.8463000000
1.0050000000 0.8594000000 0.7642000000
1.0046000000 2.3460000000 1.8725000000
1.0045000000 1.7089000000 1.5464000000
1.0044000000 3.9701000000 1.9911000000
1.0043000000 3.3474000000 2.2816000000
1.0042000000 2.4806000000 1.9368000000
1.0040000000 5.1519000000 1.2853000000
1.0038000000 4.8861000000 1.5189000000
1.0036000000 0.9414000000 0.8430000000
1.0035000000 2.8626000000 2.1133000000
1.0033000000 1.8489000000 1.6335000000
1.0031000000 1.9436000000 1.6869000000
1.0027000000 1.1727000000 1.0616000000
1.0026000000 5.7369000000 0.7345000000
1.0025000000 3.1216000000 2.2353000000
1.0022000000 2.2747000000 1.8421000000
1.0020000000 0.8418000000 0.7503000000
1.0011000000 4.7801000000 1.5973000000
1.0010000000 0.5442000000 0.4661000000
1.0008000000 5.9687000000 0.5212000000
1.0005000000 0.1276000000 0.0801000000
1.0000000000 5.8198000000 0.6596000000
0.9999000000 0.1672000000 0.1218000000
0.9994000000 1.9435000000 1.6846000000
0.9990000000 5.2189000000 1.2285000000
0.9988000000 0.4551000000 0.3859000000
0.9979000000 5.4327000000 1.0196000000
0.9958000000 3.7583000000 2.0801000000
0.7624000000 4.8734000000 1.3706000000
0.7601000000 5.9966000000 0.4905000000
0.7595000000 2.8127000000 1.8884000000
0.7590000000 4.6782000000 1.4622000000
0.7586000000 0.5401000000 0.4626000000
0.7585000000 3.1639000000 2.0604000000
0.7583000000 4.5871000000 1.5009000000
0.7583000000 0.8048000000 0.7136000000
0.7581000000 5.0378000000 1.2861000000
0.7570000000 0.4488000000 0.3810000000
0.7569000000 2.4285000000 1.7103000000
0.7568000000 1.4210000000 1.2315000000
0.7563000000 1.0722000000 0.9684000000
0.7561000000 4.7680000000 1.4179000000
0.7560000000 2.8333000000 1.9015000000
0.7557000000 2.6749000000 1.8213000000
0.7555000000 0.5176000000 0.4483000000
0.7553000000 1.1197000000 1.0111000000
0.7549000000 4.8240000000 1.3852000000
0.7548000000 2.7740000000 1.8717000000
0.7545000000 2.8952000000 1.9261000000
0.7541000000 4.3335000000 1.6169000000
0.7538000000 1.3778000000 1.2024000000
0.7535000000 4.8714000000 1.3647000000
0.7534000000 3.3967000000 2.0517000000
0.7533000000 5.4697000000 0.9846000000
0.7532000000 6.3569000000 0.1610000000
0.7530000000 0.8009000000 0.7128000000
0.7527000000 3.2484000000 2.0745000000
0.7526000000 2.2903000000 1.6411000000
0.7522000000 0.1112000000 0.1419000000
0.7518000000 3.9060000000 1.8154000000
0.7516000000 2.7382000000 1.8523000000
0.7514000000 0.9595000000 0.8622000000
0.7513000000 1.4564000000 1.2512000000
0.7510000000 4.9018000000 1.3483000000
0.7505000000 2.1772000000 1.5852000000
0.7498000000 3.8193000000 1.8567000000
0.7493000000 0.4231000000 0.3585000000
0.7490000000 1.7834000000 1.4050000000
0.7486000000 6.5845000000 0.0165000000
0.7480000000 2.7675000000 1.8605000000
0.7475000000 3.4862000000 2.0091000000
0.7468000000 2.4981000000 1.7364000000
0.7465000000 1.1966000000 1.0751000000
0.7446000000 4.3190000000 1.6142000000
0.5128000000 2.1552000000 1.3837000000
0.5093000000 1.4734000000 1.0635000000
0.5087000000 4.4947000000 1.3411000000
0.5080000000 5.9256000000 0.5563000000
0.5078000000 5.1959000000 1.0123000000
0.5074000000 1.6083000000 1.1316000000
0.5073000000 4.9326000000 1.1414000000
0.5068000000 2.5063000000 1.5386000000
0.5067000000 5.5116000000 0.8660000000
0.5062000000 4.2417000000 1.4550000000
0.5060000000 0.0832000000 0.1187000000
0.5059000000 3.4019000000 1.8494000000
0.5057000000 5.8994000000 0.5833000000
0.5055000000 4.8384000000 1.1758000000
0.5053000000 5.5754000000 0.8294000000
0.5050000000 6.4599000000 0.1371000000
0.5050000000 1.7029000000 1.1727000000
0.5048000000 2.0824000000 1.3501000000
0.5046000000 6.5914000000 0.0118000000
0.5045000000 4.9336000000 1.1311000000
0.5040000000 4.1224000000 1.5177000000
0.5038000000 2.2443000000 1.4198000000
0.5037000000 4.0960000000 1.5287000000
0.5036000000 1.6799000000 1.1537000000
0.5035000000 1.2277000000 0.9437000000
0.5031000000 2.5549000000 1.5658000000
0.5029000000 1.3645000000 1.0150000000
0.5029000000 0.7214000000 0.6368000000
0.5027000000 5.6123000000 0.8014000000
0.5026000000 6.1597000000 0.3397000000
0.5022000000 1.5965000000 1.1101000000
0.5019000000 5.8034000000 0.6689000000
0.5017000000 0.9939000000 0.8356000000
0.5015000000 0.1728000000 0.1244000000
0.5013000000 6.3581000000 0.1547000000
0.5011000000 3.9914000000 1.5776000000
0.5007000000 1.7911000000 1.2072000000
0.5006000000 3.7482000000 1.6850000000
0.5002000000 1.1832000000 0.9199000000
0.5000000000 2.2465000000 1.4218000000
0.4997000000 4.3355000000 1.4112000000
0.4993000000 4.6553000000 1.2615000000
0.4990000000 2.2959000000 1.4411000000
0.4955000000 0.1604000000 0.1153000000
0.4932000000 1.2761000000 0.9595000000
0.2629000000 6.1849000000 0.3062000000
0.2618000000 3.7217000000 1.5039000000
0.2602000000 3.5928000000 1.5623000000
0.2599000000 1.7782000000 0.9991000000
0.2590000000 4.1951000000 1.2769000000
0.2588000000 4.8356000000 0.9880000000
0.2582000000 5.7275000000 0.5636000000
0.2577000000 1.1581000000 0.7175000000
0.2563000000 2.5119000000 1.3463000000
0.2560000000 6.3563000000 0.1560000000
0.2560000000 4.2744000000 1.2423000000
0.2557000000 6.4476000000 0.1476000000
0.2555000000 0.5492000000 0.4165000000
0.2553000000 5.7311000000 0.5588000000
0.2553000000 5.6380000000 0.5964000000
0.2550000000 5.3363000000 0.7433000000
0.2546000000 1.4697000000 0.8565000000
0.2544000000 3.3666000000 1.6640000000
0.2543000000 2.8346000000 1.4907000000
0.2540000000 4.9777000000 0.9123000000
0.2537000000 3.7085000000 1.5058000000
0.2535000000 6.4398000000 0.0821000000
0.2534000000 5.6001000000 0.6220000000
0.2532000000 5.7995000000 0.5256000000
0.2530000000 0.5471000000 0.4168000000
0.2529000000 1.9978000000 1.1033000000
0.2528000000 0.9766000000 0.6256000000
0.2527000000 4.1532000000 1.2987000000
0.2526000000 2.9364000000 1.5389000000
0.2523000000 6.1623000000 0.3202000000
0.2522000000 2.1289000000 1.1662000000
0.2520000000 1.3203000000 0.7881000000
0.2518000000 4.2087000000 1.2663000000
0.2516000000 0.4385000000 0.3595000000
0.2512000000 6.5859000000 0.0196000000
0.2510000000 4.8959000000 0.9485000000
0.2507000000 0.7352000000 0.5127000000
0.2502000000 3.3698000000 1.6651000000
0.2496000000 4.0543000000 1.3425000000
0.2491000000 0.5110000000 0.3915000000
0.2485000000 1.2331000000 0.7377000000
0.2485000000 0.2887000000 0.2358000000
0.2481000000 0.7272000000 0.5019000000
0.2479000000 2.6427000000 1.4010000000
0.2473000000 0.2698000000 0.2171000000
0.2449000000 3.2421000000 1.6593000000
0.2445000000 0.5484000000 0.4191000000
0.0103000000 5.3234000000 0.5482000000
0.0095000000 6.4060000000 0.1207000000
0.0092000000 6.5081000000 0.0533000000
0.0090000000 3.3149000000 1.4736000000
0.0086000000 5.7842000000 0.3383000000
0.0083000000 4.5013000000 0.9389000000
0.0080000000 6.2375000000 0.1243000000
0.0078000000 0.4024000000 0.1555000000
0.0074000000 5.6602000000 0.3908000000
0.0069000000 6.3848000000 0.1266000000
0.0067000000 6.4358000000 0.1053000000
0.0066000000 4.1350000000 1.1092000000
0.0065000000 5.0136000000 0.6971000000
0.0062000000 4.6740000000 0.8463000000
0.0060000000 1.7009000000 0.7664000000
0.0057000000 1.1919000000 0.5229000000
0.0053000000 5.5958000000 0.4204000000
0.0053000000 3.0050000000 1.3702000000
0.0048000000 0.8718000000 0.3770000000
0.0047000000 6.4966000000 0.0542000000
0.0045000000 5.1211000000 0.6387000000
0.0044000000 0.5030000000 0.2063000000
0.0043000000 3.4460000000 1.4246000000
0.0040000000 3.1680000000 1.4509000000
0.0038000000 3.1568000000 1.4442000000
0.0036000000 4.4047000000 0.9770000000
0.0035000000 1.6471000000 0.7324000000
0.0033000000 0.5460000000 0.2213000000
0.0033000000 0.2887000000 0.0961000000
0.0032000000 3.0116000000 1.3735000000
0.0025000000 4.5936000000 0.8873000000
0.0024000000 4.4435000000 0.9567000000
0.0022000000 2.7384000000 1.2428000000
0.0020000000 0.3626000000 0.1327000000
0.0018000000 5.5518000000 0.4355000000
0.0016000000 4.2119000000 1.0636000000
0.0010000000 0.5148000000 0.2076000000
0.0009000000 2.2799000000 1.0329000000
0.0006000000 1.3696000000 0.6045000000
0.0004000000 6.0116000000 0.2261000000
0.0002000000 1.7515000000 0.7824000000
-0.0003000000 5.4023000000 0.5019000000
-0.0005000000 0.1990000000 0.1347000000
-0.0012000000 1.6436000000 0.7299000000
-0.0014000000 1.4500000000 0.6396000000
-0.0022000000 6.1958000000 0.1364000000
-0.0027000000 3.1733000000 1.4396000000
-0.0030000000 0.0323000000 0.0353000000
-0.0057000000 1.0036000000 0.4263000000
-0.2405000000 5.1389000000 0.4340000000
-0.2411000000 3.7651000000 1.0736000000
-0.2415000000 5.5971000000 0.2187000000
-0.2417000000 3.4953000000 1.2035000000
-0.2418000000 5.7355000000 0.1560000000
-0.2423000000 5.2102000000 0.3974000000
-0.2425000000 2.6188000000 0.9877000000
-0.2431000000 2.1877000000 0.7921000000
-0.2434000000 1.2028000000 0.3225000000
-0.2437000000 0.9618000000 0.2188000000
-0.2441000000 2.4486000000 0.9065000000
-0.2445000000 4.7756000000 0.6019000000
-0.2450000000 3.6588000000 1.1213000000
-0.2451000000 3.1038000000 1.2179000000
-0.2455000000 0.9738000000 0.2201000000
-0.2456000000 1.6710000000 0.5462000000
-0.2458000000 3.8035000000 1.0546000000
-0.2459000000 5.8729000000 0.0894000000
-0.2461000000 4.9421000000 0.5210000000
-0.2463000000 2.4805000000 0.9236000000
-0.2467000000 5.1616000000 0.4176000000
-0.2470000000 4.9467000000 0.5237000000
-0.2473000000 1.1983000000 0.3242000000
-0.2476000000 0.7827000000 0.1243000000
-0.2479000000 1.4238000000 0.4252000000
-0.2481000000 0.7237000000 0.0989000000
-0.2483000000 2.3011000000 0.8386000000
-0.2492000000 1.5153000000 0.4720000000
-0.2498000000 1.0019000000 0.2290000000
-0.2500000000 2.6866000000 1.0167000000
-0.2506000000 3.1621000000 1.2409000000
-0.2510000000 3.4786000000 1.2018000000
-0.2513000000 3.3544000000 1.2623000000
-0.2517000000 4.6896000000 0.6358000000
-0.2522000000 2.2432000000 0.8085000000
-0.2527000000 0.2182000000 0.0117000000
-0.2539000000 0.4064000000 0.0264000000
-0.2550000000 5.1668000000 0.4021000000
-0.4888000000 3.8026000000 0.8586000000
-0.4894000000 3.0691000000 1.0002000000
-0.4912000000 1.7644000000 0.3912000000
-0.4915000000 2.7827000000 0.8705000000
-0.4921000000 2.6963000000 0.8239000000
-0.4925000000 5.1835000000 0.2106000000
-0.4928000000 5.2990000000 0.1536000000
-0.4929000000 4.8186000000 0.3755000000
-0.4932000000 5.5745000000 0.1041000000
-0.4942000000 3.5100000000 0.9926000000
-0.4945000000 1.8405000000 0.4244000000
-0.4949000000 5.5113000000 0.1236000000
-0.4953000000 2.3074000000 0.6444000000
-0.4956000000 5.5643000000 0.1030000000
-0.4957000000 4.3803000000 0.5814000000
-0.4960000000 0.9717000000 0.0895000000
-0.4960000000 3.7149000000 0.8969000000
-0.4963000000 5.4178000000 0.0960000000
-0.4966000000 2.1477000000 0.5676000000
-0.4968000000 3.8613000000 0.8257000000
-0.4970000000 5.8750000000 0.0323000000
-0.4972000000 2.3173000000 0.6404000000
-0.4975000000 5.5160000000 0.1237000000
-0.4976000000 1.5063000000 0.2610000000
-0.4978000000 3.8121000000 0.8450000000
-0.4979000000 2.9323000000 0.9288000000
-0.4980000000 2.1021000000 0.5422000000
-0.4982000000 1.9527000000 0.4726000000
-0.4984000000 4.2081000000 0.6573000000
-0.4986000000 2.3314000000 0.6508000000
-0.4987000000 4.1231000000 0.7003000000
-0.4992000000 4.9226000000 0.3291000000
-0.4997000000 4.1943000000 0.6612000000
-0.5002000000 3.7896000000 0.8503000000
-0.5004000000 3.6419000000 0.9251000000
-0.5005000000 1.9526000000 0.4689000000
-0.5010000000 1.6712000000 0.3319000000
-0.5015000000 1.7939000000 0.3999000000
-0.5020000000 4.7946000000 0.3844000000
-0.5050000000 2.7969000000 0.8630000000
-0.7372000000 2.7250000000 0.6350000000
-0.7390000000 4.4787000000 0.3382000000
-0.7401000000 1.2815000000 0.0429000000
-0.7415000000 4.6110000000 0.2805000000
-0.7424000000 2.2178000000 0.3989000000
-0.7426000000 5.3213000000 0.0161000000
-0.7430000000 1.7211000000 0.1660000000
-0.7432000000 3.4692000000 0.8106000000
-0.7435000000 4.8196000000 0.1750000000
-0.7440000000 2.0142000000 0.3030000000
-0.7444000000 5.4384000000 0.0364000000
-0.7447000000 1.9518000000 0.2696000000
-0.7453000000 3.7763000000 0.6661000000
-0.7455000000 3.7362000000 0.6805000000
-0.7457000000 4.4431000000 0.3497000000
-0.7459000000 3.5020000000 0.7940000000
-0.7461000000 3.5289000000 0.7787000000
-0.7465000000 3.3836000000 0.8400000000
-0.7468000000 3.2476000000 0.8648000000
-0.7475000000 3.9681000000 0.5732000000
-0.7480000000 1.9161000000 0.2537000000
-0.7482000000 2.5593000000 0.5488000000
-0.7484000000 3.8593000000 0.6189000000
-0.7485000000 1.6362000000 0.1224000000
-0.7487000000 3.8493000000 0.6231000000
-0.7489000000 1.1161000000 0.0264000000
-0.7494000000 4.4074000000 0.3594000000
-0.7495000000 4.4080000000 0.3652000000
-0.7502000000 4.2581000000 0.4295000000
-0.7511000000 4.3593000000 0.3877000000
-0.7532000000 3.2231000000 0.8607000000
-0.7584000000 2.9293000000 0.7181000000
-0.9874000000 3.9882000000 0.3691000000
-0.9890000000 3.9802000000 0.3706000000
-0.9907000000 5.0089000000 0.0353000000
-0.9916000000 3.7501000000 0.4744000000
-0.9925000000 3.3059000000 0.6661000000
-0.9927000000 1.9118000000 0.1286000000
-0.9935000000 2.0151000000 0.1003000000
-0.9943000000 4.2759000000 0.2289000000
-0.9944000000 2.9322000000 0.5328000000
-0.9945000000 3.9239000000 0.3876000000
-0.9955000000 2.3120000000 0.2364000000
-0.9959000000 4.1761000000 0.2732000000
-0.9964000000 2.0138000000 0.0940000000
-0.9966000000 2.4267000000 0.2962000000
-0.9970000000 4.8202000000 0.0463000000
-0.9972000000 4.3572000000 0.1873000000
-0.9973000000 2.3374000000 0.2482000000
-0.9975000000 3.1486000000 0.6243000000
-0.9978000000 4.4559000000 0.1380000000
-0.9981000000 1.7415000000 0.0454000000
-0.9984000000 1.5754000000 0.0404000000
-0.9990000000 2.2421000000 0.2054000000
-0.9993000000 3.0241000000 0.5667000000
-1.0002000000 4.1362000000 0.2903000000
-1.0013000000 3.8291000000 0.4280000000
-1.0030000000 3.4929000000 0.5819000000
-1.0040000000 4.8703000000 0.0092000000
-1.2387000000 2.8281000000 0.2825000000
-1.2402000000 3.2966000000 0.4758000000
-1.2417000000 4.6412000000 0.0067000000
-1.2428000000 4.1362000000 0.0936000000
-1.2437000000 3.9891000000 0.1610000000
-1.2440000000 3.1864000000 0.4419000000
-1.2450000000 4.2971000000 0.0930000000
-1.2462000000 2.7266000000 0.2283000000
-1.2469000000 3.9106000000 0.1920000000
-1.2471000000 3.2335000000 0.4552000000
-1.2476000000 2.1773000000 0.0400000000
-1.2486000000 4.1265000000 0.0933000000
-1.2497000000 2.1359000000 0.0222000000
-1.2502000000 4.5036000000 0.0615000000
-1.2505000000 3.7780000000 0.2496000000
-1.2516000000 4.0303000000 0.1321000000
-1.2555000000 2.3159000000 0.1037000000
-1.4895000000 4.0203000000 0.0173000000
-1.4931000000 2.8032000000 0.1339000000
-1.4945000000 2.8744000000 0.0997000000
-1.4960000000 2.8067000000 0.1452000000
-1.4964000000 3.1841000000 0.2360000000
-1.4966000000 2.5977000000 0.0418000000
-1.4976000000 4.0479000000 0.0770000000
-1.4992000000 3.2819000000 0.2578000000
-1.4996000000 2.9760000000 0.1367000000
-1.5017000000 2.4951000000 0.0650000000
-1.5045000000 2.7228000000 0.0896000000
-1.7434000000 3.0068000000 0.0351000000
-1.7440000000 3.4056000000 0.0995000000
-1.7457000000 3.5911000000 0.0141000000
-1.7462000000 3.7473000000 0.0173000000
-1.7483000000 3.0052000000 0.0293000000
-1.7499000000 3.2286000000 0.1239000000
