5.5031000000 2.9528000000 0.4063000000
5.5028000000 2.8127000000 0.3463000000
5.5027000000 2.9449000000 0.4050000000
5.5023000000 3.0826000000 0.4626000000
5.5020000000 2.0206000000 0.0627000000
5.5007000000 2.5837000000 0.2423000000
5.5001000000 2.3479000000 0.1354000000
5.4996000000 2.3320000000 0.1297000000
5.4971000000 2.4929000000 0.2049000000
5.2668000000 6.2359000000 0.0155000000
5.2623000000 3.4626000000 0.8259000000
5.2603000000 3.8096000000 1.0189000000
5.2600000000 4.8694000000 0.4907000000
5.2585000000 4.6647000000 0.5768000000
5.2579000000 6.0214000000 0.0481000000
5.2576000000 2.9592000000 0.5975000000
5.2575000000 4.5979000000 0.6101000000
5.2570000000 5.7886000000 0.0772000000
5.2566000000 6.1230000000 0.0788000000
5.2564000000 4.3015000000 0.7487000000
5.2563000000 5.5588000000 0.1801000000
5.2561000000 4.7500000000 0.5458000000
5.2559000000 2.9162000000 0.5807000000
5.2556000000 3.0713000000 0.6542000000
5.2554000000 5.5918000000 0.1633000000
5.2552000000 2.8829000000 0.5705000000
5.2550000000 4.4146000000 0.6923000000
5.2549000000 5.8372000000 0.1284000000
5.2547000000 5.3846000000 0.2602000000
5.2543000000 4.3489000000 0.7221000000
5.2541000000 2.3468000000 0.3241000000
5.2539000000 6.2579000000 0.0150000000
5.2537000000 1.6237000000 0.0727000000
5.2532000000 5.0013000000 0.4384000000
5.2526000000 3.3075000000 0.7556000000
5.2521000000 4.6122000000 0.6128000000
5.2516000000 1.9588000000 0.1606000000
5.2514000000 2.3213000000 0.3181000000
5.2513000000 5.3828000000 0.2667000000
5.2506000000 2.4546000000 0.3755000000
5.2505000000 1.8465000000 0.1053000000
5.2501000000 2.3320000000 0.3247000000
5.2481000000 2.2959000000 0.3100000000
5.0170000000 2.0862000000 0.3951000000
5.0125000000 1.8433000000 0.2902000000
5.0100000000 4.9561000000 0.6404000000
5.0098000000 4.5416000000 0.8275000000
5.0092000000 5.9767000000 0.1870000000
5.0084000000 3.0491000000 0.8282000000
5.0082000000 2.2644000000 0.4789000000
5.0075000000 5.2861000000 0.4929000000
5.0073000000 6.0520000000 0.1589000000
5.0072000000 2.0909000000 0.3977000000
5.0071000000 5.0182000000 0.6165000000
5.0068000000 2.4412000000 0.5639000000
5.0063000000 5.9697000000 0.1919000000
5.0058000000 6.5644000000 0.0674000000
5.0051000000 5.4543000000 0.4216000000
5.0050000000 5.5708000000 0.3651000000
5.0047000000 5.3850000000 0.4593000000
5.0046000000 4.7507000000 0.7377000000
5.0044000000 1.3626000000 0.0778000000
5.0042000000 5.2626000000 0.5093000000
5.0040000000 5.4652000000 0.4173000000
5.0040000000 3.6894000000 1.1239000000
5.0038000000 1.5907000000 0.1829000000
5.0036000000 2.2706000000 0.4829000000
5.0033000000 3.9963000000 1.0747000000
5.0031000000 3.3340000000 0.9663000000
5.0030000000 2.9910000000 0.8080000000
5.0025000000 3.0522000000 0.8357000000
5.0023000000 2.7946000000 0.7229000000
5.0022000000 1.7893000000 0.2773000000
5.0019000000 2.9116000000 0.7691000000
5.0015000000 2.2298000000 0.4718000000
5.0007000000 4.3352000000 0.9297000000
5.0005000000 4.0666000000 1.0494000000
5.0002000000 1.5219000000 0.1565000000
5.0000000000 4.8852000000 0.6824000000
4.9993000000 3.0030000000 0.8156000000
4.9988000000 2.6655000000 0.6660000000
4.9962000000 1.1422000000 0.0645000000
4.9943000000 2.4188000000 0.5616000000
4.7627000000 6.6436000000 0.0781000000
4.7620000000 5.9778000000 0.3759000000
4.7602000000 6.0323000000 0.3492000000
4.7598000000 5.9712000000 0.3790000000
4.7591000000 5.8947000000 0.4170000000
4.7588000000 0.8109000000 0.1003000000
4.7586000000 6.3378000000 0.2201000000
4.7581000000 3.4462000000 1.2072000000
4.7580000000 2.7643000000 0.8985000000
4.7578000000 6.8017000000 0.0884000000
4.7575000000 7.0832000000 0.0342000000
4.7573000000 3.6479000000 1.2916000000
4.7570000000 5.7435000000 0.4886000000
4.7568000000 5.7041000000 0.5043000000
4.7565000000 1.3337000000 0.2638000000
4.7563000000 6.9838000000 0.0847000000
4.7560000000 3.6306000000 1.2893000000
4.7557000000 3.7445000000 1.4034000000
4.7555000000 6.3766000000 0.2047000000
4.7553000000 6.5653000000 0.1200000000
4.7553000000 5.7475000000 0.4865000000
4.7548000000 0.9165000000 0.0743000000
4.7547000000 5.3526000000 0.6607000000
4.7543000000 1.8887000000 0.5059000000
4.7544000000 4.9930000000 0.8263000000
4.7542000000 5.6784000000 0.5168000000
4.7540000000 6.0584000000 0.3404000000
4.7539000000 1.3261000000 0.2533000000
4.7538000000 3.2798000000 1.1404000000
4.7535000000 4.5672000000 1.0137000000
4.7533000000 1.4432000000 0.3126000000
4.7531000000 6.6070000000 0.0994000000
4.7526000000 2.7911000000 0.9176000000
4.7523000000 5.9291000000 0.4089000000
4.7521000000 7.0368000000 0.0562000000
4.7517000000 2.8035000000 0.9219000000
4.7514000000 2.7339000000 0.8891000000
4.7509000000 2.2352000000 0.6644000000
4.7507000000 5.0669000000 0.7938000000
4.7505000000 1.3208000000 0.2545000000
4.7502000000 1.9270000000 0.5329000000
4.7498000000 2.7048000000 0.8814000000
4.7494000000 0.4798000000 0.0294000000
4.7490000000 3.7133000000 1.3360000000
4.7489000000 6.9052000000 0.0440000000
4.7471000000 2.4414000000 0.7631000000
4.5146000000 4.1415000000 1.3927000000
4.5120000000 4.1571000000 1.3881000000
4.5106000000 3.6057000000 1.4677000000
4.5102000000 3.6476000000 1.4881000000
4.5100000000 3.9656000000 1.4742000000
4.5097000000 6.6243000000 0.2835000000
4.5088000000 5.2775000000 0.8845000000
4.5087000000 5.6184000000 0.7357000000
4.5083000000 7.0887000000 0.0809000000
4.5081000000 6.3000000000 0.4317000000
4.5079000000 3.3383000000 1.3465000000
4.5075000000 3.6077000000 1.4755000000
4.5074000000 6.6417000000 0.2782000000
4.5073000000 6.2134000000 0.4715000000
4.5070000000 5.3989000000 0.8319000000
4.5069000000 4.8118000000 1.0950000000
4.5067000000 4.7807000000 1.1080000000
4.5065000000 4.4565000000 1.2599000000
4.5061000000 4.4177000000 1.2718000000
4.5060000000 0.4002000000 0.1123000000
4.5059000000 0.6354000000 0.1419000000
4.5058000000 6.8294000000 0.1924000000
4.5055000000 6.6638000000 0.2709000000
4.5053000000 3.9101000000 1.5036000000
4.5049000000 4.0175000000 1.4552000000
4.5048000000 5.9583000000 0.5853000000
4.5047000000 3.8250000000 1.6023000000
4.5045000000 6.2442000000 0.4583000000
4.5044000000 0.3549000000 0.0900000000
4.5042000000 0.1399000000 0.0682000000
4.5041000000 5.7580000000 0.6755000000
4.5040000000 2.9014000000 1.1585000000
4.5039000000 1.4516000000 0.5081000000
4.5037000000 2.0449000000 0.7774000000
4.5033000000 6.6777000000 0.2675000000
4.5031000000 6.1649000000 0.4975000000
4.5028000000 0.1892000000 0.0192000000
4.5028000000 5.4483000000 0.8213000000
4.5026000000 2.6871000000 1.0674000000
4.5023000000 2.5650000000 1.0073000000
4.5022000000 0.7315000000 0.1888000000
4.5022000000 3.9340000000 1.4988000000
4.5018000000 0.4966000000 0.0806000000
4.5017000000 7.3983000000 0.0167000000
4.5014000000 0.3593000000 0.0950000000
4.5012000000 3.8590000000 1.5294000000
4.5010000000 3.3777000000 1.3683000000
4.5009000000 6.0785000000 0.5319000000
4.5006000000 1.4968000000 0.5338000000
4.4999000000 2.2795000000 0.8849000000
4.4996000000 2.3366000000 0.9090000000
4.4993000000 6.5307000000 0.3404000000
4.4985000000 5.3482000000 0.8617000000
4.4981000000 4.4234000000 1.2829000000
4.4979000000 0.8284000000 0.2296000000
4.4970000000 4.5108000000 1.2400000000
4.4963000000 2.5740000000 1.0152000000
4.2633000000 3.5613000000 1.6426000000
4.2615000000 5.2661000000 1.0858000000
4.2610000000 6.5572000000 0.5022000000
4.2604000000 1.6901000000 0.8023000000
4.2601000000 1.2504000000 0.6053000000
4.2598000000 4.7007000000 1.3363000000
4.2592000000 6.4828000000 0.5441000000
4.2589000000 2.3927000000 1.1159000000
4.2587000000 3.1999000000 1.4855000000
4.2583000000 3.4171000000 1.5850000000
4.2581000000 6.7458000000 0.4192000000
4.2578000000 4.9320000000 1.2421000000
4.2576000000 1.8382000000 0.8719000000
4.2574000000 3.6421000000 1.6824000000
4.2575000000 0.9764000000 0.4862000000
4.2572000000 3.5265000000 1.6283000000
4.2570000000 3.7355000000 1.7172000000
4.2568000000 1.7354000000 0.8239000000
4.2566000000 6.6809000000 0.4516000000
4.2564000000 2.5591000000 1.1963000000
4.2562000000 1.7779000000 0.8464000000
4.2561000000 6.7867000000 0.4042000000
4.2558000000 5.0667000000 1.1758000000
4.2556000000 5.6027000000 0.9379000000
4.2555000000 2.5332000000 1.1846000000
4.2554000000 2.1154000000 1.0005000000
4.2550000000 3.9714000000 1.6751000000
4.2549000000 2.7356000000 1.2814000000
4.2547000000 5.7085000000 0.8912000000
4.2546000000 2.0329000000 0.9638000000
4.2545000000 5.2358000000 1.1057000000
4.2540000000 4.7712000000 1.3133000000
4.2540000000 1.9950000000 0.9471000000
4.2538000000 4.1424000000 1.5922000000
4.2537000000 0.1617000000 0.1617000000
4.2534000000 6.9646000000 0.3265000000
4.2533000000 4.4410000000 1.4601000000
4.2530000000 2.1047000000 0.9988000000
4.2527000000 1.9453000000 0.9298000000
4.2525000000 3.5484000000 1.6421000000
4.2524000000 5.2654000000 1.0934000000
4.2522000000 3.5618000000 1.6518000000
4.2519000000 7.2450000000 0.2050000000
4.2516000000 6.8943000000 0.3669000000
4.2514000000 1.6382000000 0.7902000000
4.2513000000 1.7679000000 0.8449000000
4.2509000000 4.9682000000 1.2262000000
4.2508000000 0.6069000000 0.3275000000
4.2506000000 4.4531000000 1.4580000000
4.2503000000 0.5428000000 0.2940000000
4.2500000000 1.5673000000 0.7600000000
4.2497000000 5.6892000000 0.9050000000
4.2495000000 6.3425000000 0.6109000000
4.2493000000 5.2303000000 1.1056000000
4.2485000000 0.8694000000 0.4482000000
4.2482000000 2.2753000000 1.0764000000
4.2475000000 3.5687000000 1.6589000000
4.2460000000 1.2853000000 0.6336000000
4.0149000000 2.0600000000 1.1614000000
4.0124000000 5.4214000000 1.2117000000
4.0111000000 2.6578000000 1.4351000000
4.0104000000 3.9940000000 1.8541000000
4.0100000000 5.7599000000 1.0630000000
4.0097000000 4.7804000000 1.5029000000
4.0095000000 7.4196000000 0.1071000000
4.0091000000 2.1494000000 1.2009000000
4.0085000000 6.9775000000 0.4856000000
4.0083000000 6.0785000000 0.9158000000
4.0080000000 7.5030000000 0.1028000000
4.0077000000 6.2527000000 0.8371000000
4.0075000000 2.0870000000 1.1820000000
4.0073000000 3.3525000000 1.7464000000
4.0068000000 4.9324000000 1.4300000000
4.0066000000 1.0409000000 0.7102000000
4.0064000000 6.2867000000 0.8260000000
4.0063000000 6.5037000000 0.7269000000
4.0061000000 6.4170000000 0.7745000000
4.0060000000 6.0575000000 0.9214000000
4.0059000000 2.0218000000 1.1511000000
4.0057000000 3.8380000000 1.9092000000
4.0055000000 6.7119000000 0.6354000000
4.0053000000 0.2565000000 0.1879000000
4.0051000000 7.5556000000 0.0586000000
4.0048000000 1.7594000000 1.0318000000
4.0046000000 1.0862000000 0.7339000000
4.0045000000 6.4057000000 0.7725000000
4.0044000000 5.3798000000 1.2404000000
4.0043000000 6.1707000000 0.8803000000
4.0042000000 2.4824000000 1.3584000000
4.0040000000 0.3491000000 0.2675000000
4.0039000000 6.9517000000 0.5078000000
4.0036000000 7.4192000000 0.1080000000
4.0035000000 3.0218000000 1.6009000000
4.0033000000 2.1863000000 1.2290000000
4.0031000000 2.2910000000 1.2738000000
4.0029000000 6.1211000000 0.9036000000
4.0028000000 3.3417000000 1.7463000000
4.0027000000 3.6113000000 1.8657000000
4.0025000000 5.5138000000 1.1791000000
4.0022000000 2.7674000000 1.4909000000
4.0020000000 5.9612000000 0.9648000000
4.0019000000 2.5733000000 1.4026000000
4.0018000000 2.4978000000 1.3718000000
4.0017000000 6.0691000000 0.9256000000
4.0015000000 1.1240000000 0.7551000000
4.0013000000 1.9520000000 1.1228000000
4.0009000000 0.8394000000 0.6241000000
4.0007000000 1.0220000000 0.7078000000
4.0004000000 4.2622000000 1.7361000000
4.0000000000 3.3049000000 1.7305000000
3.9999000000 2.0089000000 1.1506000000
3.9988000000 0.2576000000 0.1865000000
3.9983000000 2.4580000000 1.3467000000
3.9978000000 0.3454000000 0.2705000000
3.9963000000 5.4374000000 1.2106000000
3.7658000000 3.1077000000 1.8250000000
3.7635000000 6.9974000000 0.4806000000
3.7629000000 5.7454000000 1.2588000000
3.7615000000 6.8318000000 0.6284000000
3.7607000000 6.6505000000 0.7965000000
3.7605000000 6.2162000000 1.0459000000
3.7602000000 6.0875000000 1.1036000000
3.7599000000 7.1519000000 0.3434000000
3.7595000000 6.7621000000 0.6948000000
3.7595000000 7.4279000000 0.0952000000
3.7592000000 0.3125000000 0.2338000000
3.7589000000 4.9820000000 1.5994000000
3.7586000000 0.1197000000 0.1392000000
3.7584000000 2.7846000000 1.6857000000
3.7582000000 2.6900000000 1.6360000000
3.7581000000 7.4825000000 0.1214000000
3.7575000000 2.4073000000 1.5144000000
3.7573000000 5.9176000000 1.1837000000
3.7572000000 3.1857000000 1.8722000000
3.7569000000 7.0973000000 0.3919000000
3.7566000000 1.3009000000 1.0230000000
3.7565000000 0.2984000000 0.2259000000
3.7563000000 2.2916000000 1.4646000000
3.7560000000 6.9501000000 0.5240000000
3.7559000000 2.3312000000 1.4857000000
3.7558000000 0.2024000000 0.1408000000
3.7555000000 2.9659000000 1.7747000000
3.7552000000 5.3490000000 1.4392000000
3.7551000000 4.5793000000 1.7827000000
3.7550000000 7.0930000000 0.3976000000
3.7549000000 0.0851000000 0.1113000000
3.7547000000 0.6560000000 0.5488000000
3.7545000000 6.7704000000 0.6867000000
3.7544000000 1.6292000000 1.1751000000
3.7541000000 6.7540000000 0.7009000000
3.7538000000 1.7904000000 1.2463000000
3.7537000000 3.8656000000 2.1054000000
3.7536000000 6.5870000000 0.8274000000
3.7536000000 1.0140000000 0.9304000000
3.7532000000 5.1750000000 1.5157000000
3.7530000000 5.2609000000 1.4827000000
3.7529000000 3.9900000000 2.0495000000
3.7527000000 7.4942000000 0.1148000000
3.7524000000 3.6953000000 2.0941000000
3.7522000000 3.6816000000 2.0965000000
3.7521000000 1.1302000000 1.0182000000
3.7520000000 6.6798000000 0.7645000000
3.7517000000 1.1059000000 0.9962000000
3.7515000000 3.7701000000 2.1954000000
3.7512000000 3.8717000000 2.1089000000
3.7510000000 1.9067000000 1.2934000000
3.7509000000 1.7184000000 1.2174000000
3.7508000000 2.1425000000 1.3994000000
3.7505000000 2.3858000000 1.5114000000
3.7504000000 4.5040000000 1.8246000000
3.7493000000 4.0009000000 2.0524000000
3.7489000000 1.9413000000 1.3097000000
3.7487000000 7.2606000000 0.2507000000
3.7476000000 2.4623000000 1.5508000000
3.5155000000 7.2623000000 0.2408000000
3.5119000000 5.8750000000 1.3926000000
3.5115000000 3.5210000000 2.2131000000
3.5105000000 1.9877000000 1.5259000000
3.5104000000 4.9373000000 1.8141000000
3.5097000000 6.6573000000 0.7901000000
3.5093000000 2.9500000000 1.9539000000
3.5092000000 5.4969000000 1.5633000000
3.5089000000 5.4003000000 1.6090000000
3.5088000000 5.4547000000 1.5865000000
3.5080000000 6.0033000000 1.4047000000
3.5077000000 2.6310000000 1.8187000000
3.5074000000 4.3555000000 2.0790000000
3.5071000000 5.6364000000 1.5014000000
3.5070000000 1.1516000000 0.9959000000
3.5068000000 5.8258000000 1.4228000000
3.5067000000 5.1636000000 1.7178000000
3.5065000000 6.4864000000 0.9458000000
3.5064000000 5.0725000000 1.7498000000
3.5062000000 6.5191000000 0.9129000000
3.5061000000 2.3578000000 1.6896000000
3.5059000000 5.9930000000 1.4088000000
3.5057000000 2.8211000000 1.9038000000
3.5055000000 7.0685000000 0.4205000000
3.5053000000 0.7392000000 0.6152000000
3.5052000000 6.1167000000 1.3267000000
3.5050000000 5.6144000000 1.5180000000
3.5049000000 7.2002000000 0.2986000000
3.5048000000 1.3127000000 1.1375000000
3.5044000000 2.0690000000 1.5588000000
3.5043000000 4.0849000000 2.2002000000
3.5042000000 3.2976000000 2.1164000000
3.5040000000 5.0083000000 1.7905000000
3.5039000000 3.8243000000 2.3800000000
3.5038000000 3.3081000000 2.1232000000
3.5036000000 5.0470000000 1.7717000000
3.5034000000 2.8294000000 1.9074000000
3.5033000000 4.5107000000 2.0177000000
3.5032000000 1.3858000000 1.1992000000
3.5030000000 0.4562000000 0.3688000000
3.5029000000 3.9846000000 2.2503000000
3.5028000000 2.2233000000 1.6347000000
3.5028000000 1.4525000000 1.3230000000
3.5027000000 6.9992000000 0.4845000000
3.5026000000 0.8351000000 0.7011000000
3.5025000000 2.6439000000 1.8174000000
3.5023000000 6.0277000000 1.3917000000
3.5020000000 1.4055000000 1.2149000000
3.5019000000 2.6152000000 1.8062000000
3.5013000000 2.9909000000 1.9734000000
3.5012000000 5.3463000000 1.6381000000
3.5007000000 5.0380000000 1.7777000000
3.5004000000 6.0728000000 1.3737000000
3.4999000000 4.5859000000 1.9826000000
3.4998000000 4.6232000000 1.9613000000
3.4996000000 2.9807000000 1.9795000000
3.4994000000 5.9891000000 1.4114000000
3.4992000000 3.7914000000 2.4017000000
3.4990000000 0.7717000000 0.6523000000
3.4987000000 3.8964000000 2.2956000000
3.4979000000 1.0923000000 0.9350000000
3.4959000000 1.3778000000 1.1932000000
3.2638000000 5.6973000000 1.7082000000
3.2612000000 7.5969000000 0.0183000000
3.2607000000 2.0595000000 1.7450000000
3.2592000000 5.3256000000 1.8353000000
3.2590000000 1.6654000000 1.4513000000
3.2587000000 4.4197000000 2.2419000000
3.2586000000 5.5495000000 1.7282000000
3.2582000000 0.7417000000 0.6236000000
3.2580000000 0.4290000000 0.3372000000
3.2576000000 2.8662000000 2.1162000000
3.2574000000 7.0577000000 0.4272000000
3.2573000000 6.0385000000 1.3416000000
3.2570000000 2.8591000000 2.1153000000
3.2569000000 0.9423000000 0.8027000000
3.2568000000 6.8768000000 0.5910000000
3.2566000000 4.7468000000 2.0963000000
3.2561000000 2.3304000000 1.8733000000
3.2559000000 7.2393000000 0.2703000000
3.2557000000 4.2285000000 2.3334000000
3.2554000000 1.5939000000 1.3846000000
3.2553000000 2.3210000000 1.8649000000
3.2551000000 0.6792000000 0.5685000000
3.2550000000 4.5656000000 2.1797000000
3.2548000000 1.5503000000 1.3498000000
3.2546000000 1.2038000000 1.0352000000
3.2544000000 4.0839000000 2.3943000000
3.2542000000 4.4803000000 2.2158000000
3.2541000000 1.3474000000 1.1634000000
3.2540000000 1.9363000000 1.7556000000
3.2538000000 3.2557000000 2.2842000000
3.2537000000 0.6828000000 0.5676000000
3.2536000000 0.9583000000 0.8135000000
3.2533000000 3.5069000000 2.3986000000
3.2531000000 5.0461000000 1.9681000000
3.2528000000 1.4426000000 1.2507000000
3.2525000000 7.0948000000 0.3954000000
3.2524000000 0.8309000000 0.7025000000
3.2523000000 1.0320000000 0.8825000000
3.2521000000 3.9971000000 2.4361000000
3.2518000000 4.8023000000 2.0805000000
3.2517000000 3.2629000000 2.2979000000
3.2514000000 5.2499000000 1.8766000000
3.2513000000 2.6510000000 2.0160000000
3.2511000000 1.4748000000 1.2800000000
3.2508000000 5.1706000000 1.9137000000
3.2508000000 7.5405000000 0.0672000000
3.2505000000 6.5530000000 0.8823000000
3.2498000000 1.0716000000 0.9209000000
3.2497000000 2.0388000000 1.8074000000
3.2495000000 0.1000000000 0.1208000000
3.2488000000 2.5456000000 1.9749000000
3.2482000000 1.7420000000 1.5175000000
3.2478000000 2.6237000000 2.0144000000
3.2465000000 0.2130000000 0.1461000000
3.2458000000 2.9837000000 2.1739000000
3.0100000000 6.7997000000 0.6570000000
3.0094000000 5.0655000000 2.1512000000
3.0089000000 6.4817000000 0.9445000000
3.0087000000 3.0086000000 2.3703000000
3.0084000000 5.3042000000 1.9863000000
3.0080000000 5.0620000000 2.1512000000
3.0075000000 5.6947000000 1.6476000000
3.0068000000 2.4434000000 2.1792000000
3.0069000000 4.7665000000 2.2866000000
3.0066000000 1.9430000000 1.7022000000
3.0064000000 6.0071000000 1.3705000000
3.0062000000 6.0802000000 1.3015000000
3.0060000000 7.5163000000 0.0938000000
3.0059000000 2.5712000000 2.1720000000
3.0056000000 1.3849000000 1.2011000000
3.0055000000 5.0939000000 2.1358000000
3.0054000000 4.9586000000 2.2030000000
3.0051000000 4.6742000000 2.3232000000
3.0048000000 5.0651000000 2.1516000000
3.0045000000 1.5662000000 1.3673000000
3.0042000000 3.0757000000 2.3996000000
3.0040000000 3.9726000000 2.6424000000
3.0038000000 0.8099000000 0.6791000000
3.0037000000 3.1570000000 2.4331000000
3.0036000000 5.4918000000 1.8291000000
3.0033000000 0.7100000000 0.6004000000
3.0028000000 2.2463000000 1.9735000000
3.0027000000 4.3017000000 2.4939000000
3.0025000000 0.8974000000 0.7678000000
3.0023000000 0.4051000000 0.3188000000
3.0020000000 1.1629000000 1.0002000000
3.0020000000 0.1573000000 0.0949000000
3.0018000000 6.4501000000 0.9699000000
3.0018000000 4.8488000000 2.2454000000
3.0017000000 0.8938000000 0.7614000000
3.0015000000 0.0161000000 0.0487000000
3.0013000000 7.1327000000 0.3643000000
3.0012000000 0.1843000000 0.1229000000
3.0010000000 7.5147000000 0.0947000000
3.0004000000 0.3204000000 0.2466000000
3.0000000000 0.8289000000 0.7050000000
2.9998000000 3.9599000000 2.6555000000
2.9997000000 1.0614000000 0.9045000000
2.9991000000 2.8759000000 2.3162000000
2.9986000000 1.0869000000 0.9369000000
2.9982000000 0.6695000000 0.5588000000
2.9978000000 1.3802000000 1.1943000000
2.9974000000 2.5107000000 2.1589000000
2.9965000000 2.0617000000 1.8045000000
2.9952000000 1.9417000000 1.6984000000
2.9947000000 3.0039000000 2.3739000000
2.7637000000 7.5263000000 0.0842000000
2.7625000000 7.5862000000 0.0259000000
2.7617000000 7.3542000000 0.1595000000
2.7610000000 7.0078000000 0.4749000000
2.7606000000 7.5726000000 0.0338000000
2.7602000000 6.3351000000 1.0715000000
2.7594000000 3.2760000000 2.6810000000
2.7588000000 7.0571000000 0.4273000000
2.7582000000 5.2665000000 2.0347000000
2.7579000000 3.7388000000 2.8823000000
2.7578000000 4.6916000000 2.5715000000
2.7574000000 3.4711000000 2.7700000000
2.7573000000 7.1980000000 0.3013000000
2.7567000000 6.0165000000 1.3666000000
2.7565000000 5.1962000000 2.0944000000
2.7563000000 4.5168000000 2.5883000000
2.7562000000 5.8386000000 1.5195000000
2.7561000000 4.7440000000 2.5490000000
2.7558000000 4.8650000000 2.3796000000
2.7555000000 0.0030000000 0.0357000000
2.7555000000 2.4194000000 2.1230000000
2.7553000000 2.8286000000 2.5433000000
2.7551000000 5.6055000000 1.7301000000
2.7550000000 5.3662000000 1.9405000000
2.7549000000 1.2667000000 1.0955000000
2.7546000000 6.9752000000 0.5004000000
2.7542000000 2.1360000000 1.8740000000
2.7538000000 1.5570000000 1.3569000000
2.7535000000 4.5008000000 2.5939000000
2.7533000000 1.1330000000 0.9764000000
2.7528000000 2.5603000000 2.2552000000
2.7526000000 1.0057000000 0.8591000000
2.7525000000 2.7180000000 2.4603000000
2.7524000000 3.8832000000 2.8770000000
2.7523000000 2.6454000000 2.3260000000
2.7520000000 2.9554000000 2.5426000000
2.7518000000 5.2099000000 2.0898000000
2.7518000000 4.9909000000 2.2792000000
2.7514000000 6.6574000000 0.7811000000
2.7513000000 3.9358000000 2.8513000000
2.7510000000 2.5921000000 2.2800000000
2.7509000000 6.9700000000 0.5081000000
2.7508000000 4.1681000000 2.7497000000
2.7505000000 3.0934000000 2.6067000000
2.7500000000 2.1002000000 1.8410000000
2.7491000000 0.2526000000 0.1874000000
2.7487000000 0.3490000000 0.2740000000
2.7483000000 4.4718000000 2.6186000000
2.7479000000 1.6119000000 1.4014000000
2.7475000000 7.4154000000 0.1094000000
2.7473000000 0.1496000000 0.0956000000
2.7466000000 2.6464000000 2.3295000000
2.7454000000 2.2893000000 2.0148000000
2.5112000000 2.9510000000 2.5974000000
2.5101000000 2.7856000000 2.4557000000
2.5098000000 1.7875000000 1.5578000000
2.5095000000 4.9801000000 2.2911000000
2.5093000000 2.1690000000 1.9006000000
2.5091000000 3.3408000000 2.9005000000
2.5088000000 7.2439000000 0.2623000000
2.5082000000 0.9506000000 0.8110000000
2.5078000000 6.1381000000 1.2540000000
2.5075000000 1.6673000000 1.4493000000
2.5073000000 1.4190000000 1.2271000000
2.5072000000 6.4151000000 1.0078000000
2.5070000000 5.8464000000 1.5163000000
2.5066000000 4.7871000000 2.4638000000
2.5064000000 3.2089000000 2.8942000000
2.5063000000 0.5886000000 0.4853000000
2.5062000000 3.7024000000 3.0733000000
2.5060000000 6.5558000000 0.8786000000
2.5059000000 1.7282000000 1.5017000000
2.5057000000 3.2559000000 2.9343000000
2.5053000000 6.5767000000 0.8575000000
2.5053000000 4.6532000000 2.5866000000
2.5051000000 3.2323000000 2.9162000000
2.5049000000 6.2130000000 1.1898000000
2.5047000000 0.8327000000 0.7043000000
2.5045000000 3.7951000000 3.1660000000
2.5043000000 6.1816000000 1.2148000000
2.5042000000 2.2019000000 1.9313000000
2.5041000000 2.1948000000 1.9286000000
2.5040000000 1.8679000000 1.6326000000
2.5038000000 3.0860000000 2.7284000000
2.5036000000 3.3106000000 2.9564000000
2.5035000000 2.2004000000 1.9332000000
2.5034000000 3.5023000000 2.9823000000
2.5033000000 2.6909000000 2.3690000000
2.5032000000 4.8326000000 2.4245000000
2.5031000000 1.2793000000 1.1034000000
2.5030000000 3.8565000000 3.0829000000
2.5027000000 0.1760000000 0.1134000000
2.5026000000 4.3323000000 2.9306000000
2.5025000000 2.9912000000 2.6441000000
2.5023000000 3.8178000000 3.1544000000
2.5019000000 6.9832000000 0.4990000000
2.5016000000 6.6554000000 0.7872000000
2.5013000000 2.7020000000 2.3756000000
2.5006000000 1.9574000000 1.7158000000
2.5002000000 6.5515000000 0.8780000000
2.4999000000 3.1730000000 2.8612000000
2.4992000000 4.5772000000 2.6533000000
2.4988000000 5.0894000000 2.1971000000
2.4987000000 1.6730000000 1.4517000000
2.4983000000 6.9931000000 0.4832000000
2.4973000000 4.1850000000 2.9367000000
2.4961000000 1.0961000000 0.9400000000
2.4955000000 2.5647000000 2.2578000000
2.2629000000 6.9272000000 0.5442000000
2.2620000000 7.5484000000 0.0602000000
2.2608000000 2.5834000000 2.2712000000
2.2600000000 4.6755000000 2.5602000000
2.2592000000 5.0556000000 2.2242000000
2.2591000000 4.0227000000 3.1460000000
2.2590000000 6.9768000000 0.5051000000
2.2588000000 5.5583000000 1.7695000000
2.2585000000 3.4461000000 3.0512000000
2.2582000000 2.6335000000 2.3218000000
2.2581000000 2.7092000000 2.3856000000
2.2579000000 5.7793000000 1.5798000000
2.2577000000 6.0716000000 1.3179000000
2.2575000000 1.4757000000 1.2836000000
2.2573000000 5.6246000000 1.7174000000
2.2571000000 1.6239000000 1.4098000000
2.2570000000 6.3061000000 1.1004000000
2.2566000000 3.4255000000 3.0304000000
2.2565000000 6.5466000000 0.8833000000
2.2564000000 3.9225000000 3.2986000000
2.2563000000 4.4753000000 2.7427000000
2.2561000000 4.2753000000 2.9228000000
2.2557000000 2.3090000000 2.0293000000
2.2555000000 4.4049000000 2.8075000000
2.2554000000 0.9971000000 0.8555000000
2.2551000000 2.7886000000 2.4574000000
2.2550000000 4.6731000000 2.5707000000
2.2548000000 5.5099000000 1.8134000000
2.2545000000 2.8431000000 2.5097000000
2.2543000000 7.3437000000 0.1706000000
2.2542000000 3.9187000000 3.3082000000
2.2541000000 6.9195000000 0.5519000000
2.2540000000 3.4026000000 3.0108000000
2.2540000000 4.7360000000 2.5106000000
2.2538000000 3.8474000000 3.2939000000
2.2536000000 6.0766000000 1.3103000000
2.2532000000 0.3417000000 0.2625000000
2.2530000000 3.3912000000 2.9984000000
2.2530000000 2.0816000000 1.8232000000
2.2528000000 4.0126000000 3.1577000000
2.2526000000 0.4390000000 0.3506000000
2.2525000000 6.6311000000 0.8051000000
2.2524000000 4.8549000000 2.4007000000
2.2521000000 1.2398000000 1.0668000000
2.2520000000 2.9405000000 2.6015000000
2.2516000000 1.0838000000 0.9275000000
2.2515000000 5.2636000000 2.0398000000
2.2509000000 1.2905000000 1.1126000000
2.2508000000 0.8749000000 0.7388000000
2.2507000000 2.8483000000 2.5140000000
2.2505000000 3.0144000000 2.6643000000
2.2502000000 4.2532000000 2.9422000000
2.2501000000 0.8571000000 0.7246000000
2.2499000000 0.2402000000 0.1753000000
2.2497000000 2.8669000000 2.5323000000
2.2489000000 1.1345000000 0.9687000000
2.2488000000 0.0328000000 0.0642000000
2.2485000000 4.1271000000 3.0607000000
2.2477000000 1.3343000000 1.1491000000
2.2462000000 2.8049000000 2.4798000000
2.2458000000 1.7594000000 1.5390000000
2.2439000000 2.1054000000 1.8427000000
2.0130000000 6.8271000000 0.6280000000
2.0119000000 6.0191000000 1.3580000000
2.0096000000 6.4534000000 0.9691000000
2.0094000000 4.4259000000 2.7833000000
2.0093000000 0.7685000000 0.6487000000
2.0090000000 6.9760000000 0.4985000000
2.0085000000 6.9372000000 0.5345000000
2.0080000000 3.3827000000 3.0567000000
2.0078000000 4.5647000000 2.6611000000
2.0070000000 4.0689000000 3.1494000000
2.0067000000 1.4432000000 1.2503000000
2.0065000000 6.4281000000 0.9956000000
2.0064000000 3.8686000000 3.1828000000
2.0063000000 5.7638000000 1.5898000000
2.0062000000 4.7616000000 2.4883000000
2.0060000000 2.0366000000 1.7819000000
2.0058000000 5.7387000000 1.6147000000
2.0055000000 6.0618000000 1.3198000000
2.0052000000 5.4676000000 1.8563000000
2.0054000000 6.5075000000 0.9262000000
2.0050000000 7.1441000000 0.3529000000
2.0049000000 2.7779000000 2.4490000000
2.0048000000 7.0180000000 0.4604000000
2.0045000000 6.3371000000 1.0766000000
2.0044000000 2.1833000000 1.9168000000
2.0040000000 5.0796000000 2.2018000000
2.0040000000 1.5196000000 1.3179000000
2.0037000000 4.6393000000 2.5987000000
2.0036000000 6.4634000000 0.9567000000
2.0035000000 3.2213000000 2.8462000000
2.0034000000 0.3420000000 0.2642000000
2.0033000000 3.3022000000 2.9208000000
2.0032000000 2.1100000000 1.8476000000
2.0031000000 1.6777000000 1.4619000000
2.0030000000 0.0404000000 0.0674000000
2.0028000000 5.8413000000 1.5179000000
2.0027000000 2.7974000000 2.4608000000
2.0026000000 0.5694000000 0.4638000000
2.0025000000 7.1434000000 0.3570000000
2.0023000000 1.8463000000 1.6168000000
2.0020000000 0.9761000000 0.8324000000
2.0019000000 2.3726000000 2.0838000000
2.0018000000 4.7940000000 2.4546000000
2.0016000000 6.6717000000 0.7697000000
2.0014000000 0.2632000000 0.1920000000
2.0014000000 5.8311000000 1.5323000000
2.0012000000 3.9301000000 3.1492000000
2.0011000000 2.4474000000 2.1499000000
2.0010000000 4.6612000000 2.5781000000
2.0006000000 6.2490000000 1.1499000000
2.0002000000 0.5514000000 0.4533000000
2.0000000000 1.8060000000 1.5781000000
1.9998000000 5.2988000000 2.0082000000
1.9995000000 0.5888000000 0.4887000000
1.9990000000 3.2624000000 2.8857000000
1.9987000000 0.2275000000 0.1535000000
1.9983000000 5.6342000000 1.7047000000
1.9977000000 4.0648000000 3.1406000000
1.9969000000 0.0547000000 0.0841000000
1.9941000000 0.9313000000 0.7919000000
1.7618000000 6.4709000000 0.9520000000
1.7599000000 5.8867000000 1.4781000000
1.7595000000 6.6424000000 0.8013000000
1.7590000000 1.3748000000 1.1932000000
1.7587000000 5.8719000000 1.4935000000
1.7584000000 6.1768000000 1.2178000000
1.7578000000 6.5353000000 0.8973000000
1.7576000000 4.3267000000 2.7845000000
1.7574000000 6.7883000000 0.6702000000
1.7573000000 6.6810000000 0.7725000000
1.7572000000 2.9521000000 2.6663000000
1.7570000000 6.3201000000 1.0891000000
1.7568000000 1.5313000000 1.3317000000
1.7566000000 3.2808000000 2.7963000000
1.7562000000 7.4958000000 0.1057000000
1.7559000000 2.9495000000 2.6690000000
1.7558000000 7.4046000000 0.1174000000
1.7556000000 6.8083000000 0.6501000000
1.7553000000 7.3651000000 0.1512000000
1.7553000000 4.9356000000 2.3309000000
1.7550000000 7.3102000000 0.2030000000
1.7546000000 4.7118000000 2.5315000000
1.7543000000 4.7330000000 2.5094000000
1.7541000000 2.0786000000 1.8198000000
1.7540000000 6.0472000000 1.3342000000
1.7536000000 6.6550000000 0.7875000000
1.7535000000 7.5420000000 0.0653000000
1.7533000000 2.6337000000 2.3187000000
1.7534000000 0.9057000000 0.7696000000
1.7530000000 2.7513000000 2.4251000000
1.7528000000 6.2632000000 1.1439000000
1.7526000000 0.6195000000 0.5192000000
1.7524000000 0.2257000000 0.1573000000
1.7522000000 3.0918000000 2.7627000000
1.7520000000 4.1338000000 2.8651000000
1.7519000000 6.3861000000 1.0315000000
1.7515000000 4.0926000000 2.8835000000
1.7514000000 3.3015000000 2.7976000000
1.7509000000 0.5600000000 0.4590000000
1.7508000000 0.0747000000 0.1014000000
1.7506000000 2.5360000000 2.2379000000
1.7505000000 1.3094000000 1.1350000000
1.7504000000 5.7597000000 1.5880000000
1.7503000000 2.4283000000 2.1344000000
1.7497000000 4.3115000000 2.7822000000
1.7490000000 2.5005000000 2.1991000000
1.7483000000 3.2696000000 2.7824000000
1.7474000000 2.8267000000 2.4945000000
1.7470000000 0.2856000000 0.2165000000
1.7461000000 1.3606000000 1.1764000000
1.5112000000 6.2243000000 1.1792000000
1.5106000000 2.9309000000 2.4509000000
1.5098000000 3.1087000000 2.5274000000
1.5095000000 6.3501000000 1.0667000000
1.5093000000 0.4658000000 0.3813000000
1.5085000000 4.1098000000 2.6874000000
1.5082000000 7.1474000000 0.3540000000
1.5078000000 4.0362000000 2.7195000000
1.5074000000 5.3163000000 1.9902000000
1.5073000000 5.4338000000 1.8831000000
1.5072000000 7.5135000000 0.0972000000
1.5071000000 5.5765000000 1.7560000000
1.5070000000 7.4148000000 0.1089000000
1.5068000000 5.4690000000 1.8553000000
1.5067000000 2.8315000000 2.4000000000
1.5064000000 0.0885000000 0.1148000000
1.5061000000 5.2452000000 2.0526000000
1.5060000000 7.1548000000 0.3451000000
1.5057000000 6.7331000000 0.7131000000
1.5055000000 1.5595000000 1.3556000000
1.5054000000 4.4018000000 2.5493000000
1.5053000000 5.8863000000 1.4828000000
1.5050000000 0.4788000000 0.3902000000
1.5048000000 4.3037000000 2.5947000000
1.5046000000 0.9261000000 0.7835000000
1.5045000000 5.2171000000 2.0759000000
1.5043000000 3.5482000000 2.7184000000
1.5042000000 0.9270000000 0.7871000000
1.5041000000 4.3057000000 2.5927000000
1.5038000000 6.3410000000 1.0756000000
1.5036000000 2.5579000000 2.3130000000
1.5035000000 3.0189000000 2.4805000000
1.5034000000 5.9345000000 1.4338000000
1.5032000000 4.5180000000 2.5043000000
1.5030000000 2.8767000000 2.4132000000
1.5028000000 6.1380000000 1.2540000000
1.5028000000 0.6898000000 0.5772000000
1.5026000000 0.6344000000 0.5257000000
1.5025000000 0.7040000000 0.5874000000
1.5024000000 4.6303000000 2.4491000000
1.5023000000 4.6732000000 2.4273000000
1.5020000000 0.2702000000 0.1971000000
1.5018000000 0.4006000000 0.3152000000
1.5016000000 0.5094000000 0.4182000000
1.5013000000 5.2293000000 2.0689000000
1.5012000000 0.0580000000 0.0845000000
1.5008000000 0.5728000000 0.4701000000
1.5007000000 5.9826000000 1.3907000000
1.5005000000 4.6246000000 2.4461000000
1.5005000000 5.3128000000 1.9946000000
1.5002000000 3.7838000000 2.8779000000
1.5000000000 1.4834000000 1.2902000000
1.4989000000 6.1922000000 1.2023000000
1.4987000000 1.4093000000 1.2219000000
1.4981000000 0.1718000000 0.1080000000
1.4978000000 5.7042000000 1.6409000000
1.4972000000 0.7385000000 0.6188000000
1.4949000000 0.6409000000 0.5340000000
1.4931000000 0.7001000000 0.5900000000
1.2618000000 5.0220000000 2.0932000000
1.2606000000 4.7731000000 2.1986000000
1.2597000000 6.1386000000 1.2522000000
1.2591000000 3.4058000000 2.4627000000
1.2591000000 4.5856000000 2.2758000000
1.2587000000 4.9132000000 2.1335000000
1.2582000000 7.1422000000 0.3523000000
1.2579000000 5.2566000000 1.9732000000
1.2578000000 7.2074000000 0.2948000000
1.2577000000 7.4148000000 0.1116000000
1.2575000000 5.4898000000 1.8219000000
1.2572000000 6.8627000000 0.6096000000
1.2570000000 4.5399000000 2.3007000000
1.2569000000 0.4981000000 0.4039000000
1.2565000000 6.5770000000 0.8584000000
1.2562000000 7.5109000000 0.0971000000
1.2560000000 5.0021000000 2.0928000000
1.2560000000 1.8373000000 1.6057000000
1.2558000000 3.4226000000 2.4692000000
1.2556000000 1.8847000000 1.6485000000
1.2555000000 0.9886000000 0.8462000000
1.2553000000 5.5680000000 1.7636000000
1.2550000000 0.4620000000 0.3765000000
1.2549000000 6.6026000000 0.8314000000
1.2546000000 4.5575000000 2.2889000000
1.2545000000 6.3073000000 1.0973000000
1.2543000000 3.3563000000 2.4342000000
1.2541000000 2.8860000000 2.2239000000
1.2540000000 2.4008000000 2.0103000000
1.2538000000 1.3362000000 1.1575000000
1.2536000000 1.2356000000 1.0713000000
1.2535000000 2.3741000000 1.9951000000
1.2534000000 2.7516000000 2.1601000000
1.2532000000 0.6857000000 0.5758000000
1.2531000000 6.9500000000 0.5258000000
1.2528000000 3.4274000000 2.4691000000
1.2527000000 3.9687000000 2.5546000000
1.2525000000 0.3670000000 0.2860000000
1.2523000000 0.6030000000 0.5013000000
1.2520000000 4.7492000000 2.2047000000
1.2518000000 0.0976000000 0.1218000000
1.2517000000 4.5792000000 2.2714000000
1.2516000000 0.1864000000 0.1166000000
1.2514000000 6.9816000000 0.4924000000
1.2511000000 0.4051000000 0.3243000000
1.2510000000 1.0696000000 0.9170000000
1.2508000000 1.2172000000 1.0454000000
1.2504000000 2.7685000000 2.1701000000
1.2503000000 3.4202000000 2.4649000000
1.2502000000 5.0283000000 2.0677000000
1.2500000000 1.7327000000 1.5123000000
1.2498000000 2.8663000000 2.2167000000
1.2494000000 4.0016000000 2.5317000000
1.2488000000 1.8045000000 1.5836000000
1.2483000000 3.0959000000 2.3195000000
1.2475000000 4.9201000000 2.1251000000
1.2468000000 6.2546000000 1.1526000000
1.2448000000 1.9683000000 1.7267000000
1.0153000000 5.6836000000 1.5989000000
1.0110000000 4.9131000000 1.9387000000
1.0104000000 6.7040000000 0.7475000000
1.0100000000 6.8621000000 0.6002000000
1.0095000000 6.7302000000 0.7225000000
1.0094000000 7.4257000000 0.1020000000
1.0091000000 3.0427000000 2.1100000000
1.0090000000 6.6418000000 0.8030000000
1.0083000000 7.5577000000 0.0524000000
1.0080000000 5.6001000000 1.6302000000
1.0076000000 4.8548000000 1.9629000000
1.0071000000 5.0137000000 1.8969000000
1.0069000000 6.5452000000 0.8860000000
1.0065000000 3.8067000000 2.4856000000
1.0060000000 1.1894000000 1.0260000000
1.0059000000 3.5914000000 2.3423000000
1.0056000000 3.6848000000 2.3938000000
1.0054000000 6.5651000000 0.8668000000
1.0054000000 5.4884000000 1.6785000000
1.0051000000 1.5497000000 1.3441000000
1.0046000000 1.5090000000 1.3099000000
1.0045000000 2.8891000000 2.0321000000
1.0044000000 3.0306000000 2.1036000000
1.0043000000 7.1386000000 0.3582000000
1.0041000000 5.3650000000 1.7306000000
1.0039000000 0.2614000000 0.1923000000
1.0038000000 4.3040000000 2.2076000000
1.0038000000 2.5401000000 1.8710000000
1.0036000000 0.2775000000 0.2036000000
1.0034000000 3.8563000000 2.4035000000
1.0031000000 1.5219000000 1.3200000000
1.0030000000 1.2234000000 1.0543000000
1.0026000000 0.9966000000 0.8541000000
1.0025000000 1.6467000000 1.4966000000
1.0024000000 2.0796000000 1.6678000000
1.0020000000 0.0826000000 0.1084000000
1.0018000000 6.5040000000 0.9238000000
1.0014000000 1.4282000000 1.2365000000
1.0013000000 5.0911000000 1.8503000000
1.0010000000 1.9655000000 1.6196000000
1.0006000000 5.6074000000 1.6198000000
1.0002000000 5.9180000000 1.4378000000
0.9999000000 6.4956000000 0.9322000000
0.9998000000 3.1841000000 2.1613000000
0.9995000000 5.5674000000 1.6287000000
0.9986000000 1.7503000000 1.5790000000
0.9984000000 2.4150000000 1.8089000000
0.9981000000 0.0834000000 0.1094000000
0.9976000000 4.4749000000 2.1277000000
0.9973000000 2.0789000000 1.6651000000
0.9962000000 0.1486000000 0.0882000000
0.9911000000 2.1174000000 1.6809000000
0.7625000000 7.0174000000 0.4626000000
0.7613000000 7.2314000000 0.2711000000
0.7606000000 7.0487000000 0.4355000000
0.7603000000 4.0790000000 2.1142000000
0.7600000000 6.7034000000 0.7471000000
0.7595000000 6.7879000000 0.6643000000
0.7590000000 3.0030000000 1.8889000000
0.7588000000 2.8407000000 1.8142000000
0.7586000000 1.4297000000 1.1889000000
0.7584000000 5.1739000000 1.6277000000
0.7580000000 7.1538000000 0.3411000000
0.7578000000 1.0328000000 0.8887000000
0.7576000000 1.9629000000 1.4254000000
0.7574000000 7.2079000000 0.2997000000
0.7572000000 5.2294000000 1.5987000000
0.7568000000 3.9307000000 2.1811000000
0.7567000000 4.1794000000 2.0748000000
0.7565000000 5.4528000000 1.5028000000
0.7564000000 4.7878000000 1.7950000000
0.7562000000 5.5773000000 1.4474000000
0.7560000000 7.2011000000 0.3029000000
0.7557000000 4.9728000000 1.7144000000
0.7555000000 4.7413000000 1.8182000000
0.7554000000 3.7658000000 2.2950000000
0.7552000000 2.4208000000 1.6251000000
0.7551000000 3.7727000000 2.3003000000
0.7549000000 0.3424000000 0.2624000000
0.7548000000 5.2269000000 1.6038000000
0.7546000000 7.1230000000 0.3693000000
0.7545000000 5.6674000000 1.4062000000
0.7544000000 6.6468000000 0.7977000000
0.7543000000 4.6801000000 1.8441000000
0.7542000000 3.4906000000 2.1118000000
0.7540000000 5.2738000000 1.5806000000
0.7539000000 2.0646000000 1.4749000000
0.7538000000 4.5071000000 1.9224000000
0.7536000000 0.8468000000 0.7177000000
0.7535000000 7.1032000000 0.3853000000
0.7533000000 4.3524000000 1.9906000000
0.7531000000 1.8141000000 1.3603000000
0.7528000000 5.1111000000 1.6444000000
0.7528000000 4.6564000000 1.8509000000
0.7526000000 1.6741000000 1.2927000000
0.7525000000 4.2695000000 2.0233000000
0.7521000000 1.2362000000 1.1285000000
0.7520000000 6.5708000000 0.8617000000
0.7518000000 1.5954000000 1.2577000000
0.7515000000 2.3532000000 1.5972000000
0.7513000000 0.7327000000 0.6111000000
0.7510000000 1.0680000000 0.9157000000
0.7511000000 5.5337000000 1.4624000000
0.7508000000 0.5819000000 0.4824000000
0.7507000000 6.3892000000 1.0227000000
0.7500000000 0.0572000000 0.0841000000
0.7498000000 1.4738000000 1.2004000000
0.7495000000 2.7678000000 1.7882000000
0.7492000000 0.5534000000 0.4515000000
0.7487000000 1.7695000000 1.3325000000
0.7482000000 0.9875000000 0.8434000000
0.7478000000 6.5277000000 0.8976000000
0.5135000000 5.8756000000 1.1187000000
0.5119000000 6.6891000000 0.8147000000
0.5095000000 6.6101000000 0.7778000000
0.5092000000 6.0282000000 1.0476000000
0.5088000000 3.1216000000 1.7539000000
0.5087000000 0.2189000000 0.1544000000
0.5078000000 6.0085000000 1.0584000000
0.5076000000 5.0050000000 1.5110000000
0.5072000000 0.9643000000 0.8447000000
0.5069000000 2.1161000000 1.2996000000
0.5068000000 1.2329000000 0.9036000000
0.5065000000 5.1576000000 1.4379000000
0.5064000000 3.1033000000 1.7414000000
0.5063000000 6.8959000000 0.5767000000
0.5060000000 4.9894000000 1.5139000000
0.5057000000 5.3222000000 1.3633000000
0.5051000000 1.9324000000 1.2117000000
0.5049000000 5.4411000000 1.3117000000
0.5048000000 5.9473000000 1.0799000000
0.5045000000 1.3956000000 0.9778000000
0.5043000000 4.9519000000 1.5322000000
0.5040000000 2.9550000000 1.6751000000
0.5039000000 5.2984000000 1.3723000000
0.5035000000 6.9321000000 0.5371000000
0.5033000000 3.0705000000 1.7294000000
0.5031000000 7.2766000000 0.2300000000
0.5030000000 5.1816000000 1.4265000000
0.5028000000 3.4328000000 1.8895000000
0.5027000000 5.4711000000 1.2915000000
0.5025000000 3.2435000000 1.7955000000
0.5022000000 0.2037000000 0.1402000000
0.5020000000 3.8254000000 2.0932000000
0.5018000000 1.2358000000 0.8988000000
0.5017000000 1.8021000000 1.1567000000
0.5014000000 3.2365000000 1.7974000000
0.5011000000 2.4470000000 1.4471000000
0.5008000000 5.2492000000 1.3972000000
0.5002000000 3.5700000000 1.9488000000
0.5001000000 0.2476000000 0.1788000000
0.4992000000 6.1454000000 0.9896000000
0.4988000000 1.3986000000 0.9770000000
0.4987000000 1.1601000000 0.8637000000
0.4981000000 7.3292000000 0.1811000000
0.4970000000 2.6254000000 1.5176000000
0.4968000000 0.5575000000 0.4507000000
0.4960000000 5.1493000000 1.4345000000
0.2635000000 2.5530000000 1.3058000000
0.2609000000 1.8918000000 1.0083000000
0.2601000000 3.9652000000 1.7774000000
0.2595000000 7.4805000000 0.1232000000
0.2590000000 0.1620000000 0.1030000000
0.2587000000 4.1569000000 1.6911000000
0.2577000000 4.5831000000 1.5019000000
0.2576000000 0.0349000000 0.0632000000
0.2575000000 2.1430000000 1.1184000000
0.2572000000 4.8924000000 1.3631000000
0.2570000000 1.5580000000 0.8566000000
0.2565000000 7.3529000000 0.1637000000
0.2563000000 6.9519000000 0.4396000000
0.2562000000 6.4569000000 0.6617000000
0.2559000000 1.6605000000 0.9014000000
0.2557000000 3.2912000000 1.6301000000
0.2555000000 5.6533000000 1.0281000000
0.2554000000 4.4037000000 1.5842000000
0.2551000000 5.5968000000 1.0504000000
0.2550000000 1.6149000000 0.8817000000
0.2547000000 1.1578000000 0.6742000000
0.2546000000 3.1053000000 1.5444000000
0.2545000000 3.1886000000 1.5870000000
0.2543000000 3.0237000000 1.5097000000
0.2541000000 0.8996000000 0.5536000000
0.2541000000 7.0995000000 0.4330000000
0.2537000000 3.8698000000 1.8188000000
0.2535000000 3.7813000000 1.9094000000
0.2534000000 1.9023000000 1.0098000000
0.2533000000 1.0309000000 0.6195000000
0.2531000000 0.2347000000 0.1674000000
0.2529000000 2.6542000000 1.3395000000
0.2528000000 4.0999000000 1.7123000000
0.2526000000 0.8095000000 0.5237000000
0.2524000000 3.5111000000 1.7262000000
0.2523000000 3.1969000000 1.5876000000
0.2522000000 1.2650000000 0.7197000000
0.2520000000 4.2435000000 1.6491000000
0.2518000000 4.0772000000 1.7277000000
0.2518000000 5.5016000000 1.0860000000
0.2516000000 7.3614000000 0.1536000000
0.2515000000 6.9359000000 0.4431000000
0.2513000000 3.4563000000 1.6944000000
0.2508000000 1.1495000000 0.6646000000
0.2506000000 7.3697000000 0.1494000000
0.2504000000 6.5875000000 0.5929000000
0.2502000000 3.6106000000 1.7701000000
0.2499000000 1.0854000000 0.6407000000
0.2496000000 5.0589000000 1.2809000000
0.2493000000 4.0683000000 1.7288000000
0.2489000000 2.2138000000 1.1452000000
0.2488000000 0.7647000000 0.4931000000
0.2481000000 5.7859000000 0.9556000000
0.2480000000 1.8808000000 1.0017000000
0.2468000000 0.7446000000 0.4833000000
0.2457000000 2.9300000000 1.4650000000
0.0137000000 6.3442000000 0.5278000000
0.0108000000 7.1433000000 0.1622000000
0.0103000000 6.4717000000 0.4595000000
0.0098000000 2.7374000000 1.1924000000
0.0090000000 7.4600000000 0.0932000000
0.0088000000 7.4096000000 0.1201000000
0.0084000000 5.4113000000 0.9346000000
0.0081000000 2.1523000000 0.9322000000
0.0077000000 5.5220000000 0.8845000000
0.0075000000 5.3080000000 0.9820000000
0.0075000000 4.4237000000 1.3780000000
0.0073000000 2.0939000000 0.9104000000
0.0070000000 4.6270000000 1.2950000000
0.0067000000 6.0313000000 0.6571000000
0.0064000000 5.2735000000 0.9960000000
0.0063000000 1.3062000000 0.5448000000
0.0060000000 6.2918000000 0.5379000000
0.0050000000 4.0151000000 1.5621000000
0.0050000000 1.0686000000 0.4386000000
0.0048000000 2.0401000000 0.8762000000
0.0046000000 6.3664000000 0.5061000000
0.0041000000 4.4206000000 1.3841000000
0.0038000000 1.8180000000 0.7750000000
0.0035000000 0.1471000000 0.0995000000
0.0033000000 0.2366000000 0.0650000000
0.0031000000 3.0417000000 1.3304000000
0.0027000000 3.0707000000 1.3323000000
0.0026000000 2.6586000000 1.1550000000
0.0024000000 2.3290000000 1.0047000000
0.0023000000 3.7548000000 1.7009000000
0.0021000000 5.3034000000 0.9801000000
0.0019000000 2.9014000000 1.2613000000
0.0018000000 2.2048000000 0.9480000000
0.0013000000 0.2535000000 0.0724000000
0.0007000000 0.2375000000 0.1422000000
0.0005000000 0.4966000000 0.1812000000
0.0003000000 2.3100000000 0.9941000000
-0.0002000000 4.2741000000 1.4395000000
-0.0004000000 3.8075000000 1.7098000000
-0.0006000000 1.5710000000 0.6602000000
-0.0009000000 3.9756000000 1.5733000000
-0.0012000000 0.1416000000 0.0894000000
-0.0018000000 0.8823000000 0.3534000000
-0.0020000000 0.2113000000 0.1290000000
-0.0023000000 0.2191000000 0.1279000000
-0.0027000000 2.0897000000 0.8984000000
-0.0034000000 2.6297000000 1.1301000000
-0.0040000000 0.9327000000 0.3704000000
-0.0069000000 1.4958000000 0.6205000000
-0.2382000000 6.8950000000 0.0832000000
-0.2407000000 6.6802000000 0.1781000000
-0.2411000000 4.5646000000 1.1244000000
-0.2412000000 7.2366000000 0.0749000000
-0.2415000000 1.4931000000 0.4418000000
-0.2419000000 0.9470000000 0.1939000000
-0.2422000000 4.4171000000 1.1935000000
-0.2428000000 0.3704000000 0.0142000000
-0.2431000000 6.0008000000 0.4790000000
-0.2433000000 6.8436000000 0.1003000000
-0.2435000000 7.1512000000 0.0347000000
-0.2436000000 4.3475000000 1.2192000000
-0.2439000000 2.7943000000 1.0216000000
-0.2440000000 2.8976000000 1.0685000000
-0.2442000000 2.3129000000 0.8027000000
-0.2443000000 1.5550000000 0.4667000000
-0.2444000000 3.9684000000 1.3850000000
-0.2447000000 1.3378000000 0.3686000000
-0.2448000000 5.9443000000 0.5055000000
-0.2450000000 1.3945000000 0.3948000000
-0.2453000000 2.5887000000 0.9327000000
-0.2456000000 3.0733000000 1.1463000000
-0.2459000000 1.2761000000 0.3376000000
-0.2461000000 6.6726000000 0.1698000000
-0.2464000000 4.6284000000 1.0987000000
-0.2465000000 2.5390000000 0.9005000000
-0.2468000000 4.8443000000 0.9946000000
-0.2470000000 2.9855000000 1.1062000000
-0.2473000000 2.7551000000 1.0081000000
-0.2476000000 4.1656000000 1.2987000000
-0.2478000000 7.1445000000 0.0388000000
-0.2481000000 4.7634000000 1.0287000000
-0.2485000000 2.6651000000 0.9630000000
-0.2488000000 2.1515000000 0.7307000000
-0.2489000000 0.9880000000 0.2075000000
-0.2493000000 5.8617000000 0.5335000000
-0.2496000000 3.3773000000 1.2789000000
-0.2498000000 1.5276000000 0.4517000000
-0.2501000000 1.6401000000 0.5010000000
-0.2502000000 5.2873000000 0.7924000000
-0.2505000000 5.0816000000 0.8827000000
