2.5067000000 0.8148000000 0.9171000000
2.5066000000 2.4871000000 2.4782000000
2.5066000000 3.4948000000 2.6064000000
2.5065000000 4.0876000000 2.2754000000
2.5063000000 1.6823000000 1.9121000000
2.5061000000 4.3033000000 2.1298000000
2.5060000000 0.9293000000 1.0552000000
2.5059000000 2.1645000000 2.2936000000
2.5058000000 6.2362000000 0.1018000000
2.5058000000 4.9151000000 1.4705000000
2.5057000000 5.0588000000 1.3027000000
2.5057000000 2.2189000000 2.3295000000
2.5055000000 4.0142000000 2.3180000000
2.5054000000 4.9916000000 1.3811000000
2.5050000000 5.4369000000 0.8777000000
2.5050000000 5.1254000000 1.2250000000
2.5050000000 4.5447000000 1.8978000000
2.5049000000 4.0463000000 2.2986000000
2.5049000000 5.3945000000 0.9205000000
2.5048000000 4.9254000000 1.4563000000
2.5048000000 2.4725000000 2.4723000000
2.5047000000 5.6968000000 0.5708000000
2.5046000000 0.8888000000 1.0040000000
2.5044000000 4.8887000000 1.5055000000
2.5041000000 2.1703000000 2.3009000000
2.5040000000 2.0701000000 2.2421000000
2.5040000000 4.6663000000 1.7570000000
2.5039000000 1.4202000000 1.6137000000
2.5038000000 5.6107000000 0.6754000000
2.5036000000 6.1607000000 0.1155000000
2.5036000000 0.1495000000 0.1550000000
2.5034000000 0.8976000000 1.0169000000
2.5033000000 4.9686000000 1.4022000000
2.5033000000 1.7805000000 2.0098000000
2.5031000000 5.1044000000 1.2496000000
2.5030000000 5.3860000000 0.9353000000
2.5027000000 5.5096000000 0.7946000000
2.5025000000 2.5192000000 2.5083000000
2.5025000000 5.3524000000 0.9673000000
2.5023000000 2.3581000000 2.4057000000
2.5019000000 5.4209000000 0.8963000000
2.5016000000 2.8736000000 2.7096000000
2.5013000000 5.7358000000 0.5312000000
2.5012000000 1.7863000000 2.0147000000
2.5010000000 1.8991000000 2.1268000000
2.5008000000 5.1572000000 1.1960000000
2.5008000000 2.4001000000 2.4368000000
2.5006000000 5.7406000000 0.5223000000
2.5005000000 3.4623000000 2.6348000000
2.5004000000 4.6310000000 1.7921000000
2.5000000000 0.4619000000 0.5180000000
2.4998000000 1.6754000000 1.9089000000
2.4995000000 5.8574000000 0.3912000000
2.4989000000 6.1153000000 0.0966000000
2.4985000000 0.0475000000 0.1170000000
2.4973000000 4.6053000000 1.8236000000
2.4972000000 2.2237000000 2.3436000000
2.4969000000 2.3035000000 2.3820000000
2.4949000000 1.2787000000 1.4514000000
2.4948000000 4.7353000000 1.6779000000
2.4941000000 3.3248000000 2.7209000000
2.2624000000 2.6917000000 2.8413000000
2.2622000000 5.9973000000 0.2353000000
2.2620000000 5.8885000000 0.3593000000
2.2610000000 2.5104000000 2.7329000000
2.2608000000 4.7942000000 1.6089000000
2.2596000000 2.8620000000 2.9400000000
2.2592000000 3.7500000000 2.7108000000
2.2590000000 2.0655000000 2.3534000000
2.2588000000 5.5624000000 0.7303000000
2.2586000000 3.0529000000 3.0471000000
2.2584000000 5.3574000000 0.9659000000
2.2580000000 5.9326000000 0.2980000000
2.2579000000 5.0564000000 1.3093000000
2.2576000000 2.7131000000 2.8526000000
2.2575000000 2.5772000000 2.7729000000
2.2571000000 2.9677000000 3.0074000000
2.2571000000 1.5519000000 1.7675000000
2.2570000000 2.7415000000 2.8732000000
2.2568000000 0.4804000000 0.5341000000
2.2567000000 3.1279000000 3.0532000000
2.2562000000 3.2798000000 2.9801000000
2.2560000000 4.8094000000 1.5929000000
2.2560000000 5.2913000000 1.0395000000
2.2557000000 3.7481000000 2.7182000000
2.2555000000 3.6001000000 2.8019000000
2.2555000000 4.3071000000 2.1679000000
2.2554000000 2.9793000000 3.0077000000
2.2554000000 2.2371000000 2.5317000000
2.2551000000 5.7733000000 0.4892000000
2.2549000000 5.3019000000 1.0261000000
2.2549000000 3.3424000000 2.9484000000
2.2548000000 4.0664000000 2.4366000000
2.2547000000 1.8467000000 2.1030000000
2.2546000000 5.1122000000 1.2385000000
2.2546000000 4.0208000000 2.4943000000
2.2545000000 5.4625000000 0.8484000000
2.2545000000 2.8821000000 2.9571000000
2.2544000000 0.9757000000 1.1026000000
2.2543000000 4.7689000000 1.6355000000
2.2543000000 3.9916000000 2.5124000000
2.2542000000 3.5708000000 2.8158000000
2.2540000000 2.6471000000 2.8211000000
2.2538000000 4.1860000000 2.3044000000
2.2537000000 3.3838000000 2.9260000000
2.2534000000 4.0989000000 2.4017000000
2.2533000000 5.9784000000 0.2527000000
2.2533000000 3.8946000000 2.6163000000
2.2532000000 3.3732000000 2.9285000000
2.2530000000 2.5199000000 2.7477000000
2.2531000000 4.1653000000 2.3309000000
2.2530000000 5.8077000000 0.4444000000
2.2530000000 3.5928000000 2.7985000000
2.2529000000 4.0257000000 2.4868000000
2.2528000000 2.1235000000 2.4208000000
2.2528000000 3.4070000000 2.9095000000
2.2528000000 0.6796000000 0.7626000000
2.2526000000 2.2132000000 2.5064000000
2.2522000000 4.4733000000 1.9693000000
2.2520000000 2.0665000000 2.3544000000
2.2519000000 1.4352000000 1.6299000000
2.2518000000 1.8560000000 2.1124000000
2.2518000000 3.1131000000 3.0645000000
2.2517000000 3.4408000000 2.8974000000
2.2516000000 4.3666000000 2.0974000000
2.2516000000 5.4681000000 0.8353000000
2.2515000000 0.1730000000 0.1850000000
2.2513000000 4.7864000000 1.6191000000
2.2513000000 0.8610000000 0.9737000000
2.2509000000 1.7481000000 1.9920000000
2.2508000000 1.6047000000 1.8211000000
2.2508000000 1.3740000000 1.5656000000
2.2505000000 2.8804000000 2.9579000000
2.2505000000 5.6707000000 0.6024000000
2.2504000000 0.7289000000 0.8275000000
2.2502000000 1.9962000000 2.2744000000
2.2497000000 3.3253000000 2.9576000000
2.2498000000 3.5262000000 2.8494000000
2.2497000000 1.3705000000 1.5584000000
2.2495000000 2.4620000000 2.7176000000
2.2494000000 0.9117000000 1.0260000000
2.2493000000 2.8355000000 2.9365000000
2.2493000000 1.0849000000 1.2281000000
2.2490000000 1.8119000000 2.0630000000
2.2488000000 3.4135000000 2.9183000000
2.2482000000 3.0420000000 3.0520000000
2.2481000000 0.0568000000 0.1314000000
2.2478000000 1.0284000000 1.1628000000
2.2477000000 2.8956000000 2.9731000000
2.2476000000 3.7527000000 2.7189000000
2.2474000000 1.5899000000 1.8099000000
2.2473000000 5.2468000000 1.0861000000
2.0110000000 5.2334000000 1.1014000000
2.0097000000 1.9244000000 2.1927000000
2.0096000000 5.5647000000 0.7309000000
2.0092000000 0.7947000000 0.8899000000
2.0091000000 3.4608000000 3.1045000000
2.0088000000 4.8045000000 1.6011000000
2.0084000000 2.5357000000 2.8955000000
2.0075000000 2.5046000000 2.8610000000
2.0075000000 4.0186000000 2.4947000000
2.0070000000 3.4634000000 3.1051000000
2.0070000000 0.7858000000 0.8914000000
2.0069000000 0.9275000000 1.0543000000
2.0068000000 0.4903000000 0.5498000000
2.0068000000 3.6968000000 2.8657000000
2.0067000000 2.9389000000 3.2387000000
2.0066000000 3.7519000000 2.8065000000
2.0065000000 1.2906000000 1.4601000000
2.0065000000 6.0393000000 0.1831000000
2.0064000000 5.6367000000 0.6452000000
2.0063000000 5.6124000000 0.6723000000
2.0062000000 0.7054000000 0.7954000000
2.0061000000 1.5201000000 1.7232000000
2.0060000000 4.4253000000 2.0275000000
2.0060000000 4.2010000000 2.2869000000
2.0059000000 2.8394000000 3.1715000000
2.0056000000 3.9101000000 2.6232000000
2.0055000000 2.0264000000 2.3135000000
2.0054000000 1.2964000000 1.4712000000
2.0054000000 3.2803000000 3.2317000000
2.0053000000 5.3325000000 0.9934000000
2.0052000000 0.7160000000 0.8113000000
2.0051000000 2.6334000000 2.9953000000
2.0048000000 4.5259000000 1.9117000000
2.0047000000 5.2384000000 1.0953000000
2.0046000000 5.9933000000 0.2293000000
2.0046000000 1.4548000000 1.6504000000
2.0044000000 1.8983000000 2.1597000000
2.0043000000 6.0997000000 0.1081000000
2.0043000000 2.8081000000 3.1411000000
2.0042000000 6.2044000000 0.0672000000
2.0042000000 5.4814000000 0.8264000000
2.0041000000 4.3834000000 2.0793000000
2.0040000000 4.0088000000 2.5044000000
2.0038000000 3.7889000000 2.7595000000
2.0038000000 3.6870000000 2.8820000000
2.0037000000 6.1848000000 0.0899000000
2.0036000000 2.8360000000 3.1711000000
2.0036000000 4.9989000000 1.3710000000
2.0034000000 4.2113000000 2.2727000000
2.0032000000 5.6321000000 0.6535000000
2.0030000000 1.6845000000 1.9188000000
2.0028000000 4.0053000000 2.5122000000
2.0027000000 0.1490000000 0.1584000000
2.0026000000 3.4582000000 3.1141000000
2.0025000000 3.1250000000 3.3017000000
2.0023000000 4.1234000000 2.3765000000
2.0022000000 3.7952000000 2.7478000000
2.0021000000 4.2276000000 2.2594000000
2.0020000000 0.5417000000 0.6081000000
2.0019000000 3.2253000000 3.2698000000
2.0018000000 0.1062000000 0.1081000000
2.0018000000 5.4603000000 0.8476000000
2.0016000000 1.2548000000 1.4213000000
2.0016000000 1.3945000000 1.5920000000
2.0015000000 6.0423000000 0.1782000000
2.0015000000 0.9154000000 1.0363000000
2.0014000000 0.2898000000 0.3225000000
2.0013000000 0.6887000000 0.7757000000
2.0013000000 1.8088000000 2.0625000000
2.0011000000 2.8881000000 3.2130000000
2.0003000000 6.2066000000 0.0730000000
2.0004000000 4.6581000000 1.7661000000
2.0001000000 3.9363000000 2.5890000000
2.0000000000 1.6847000000 1.9186000000
1.9999000000 0.1748000000 0.1895000000
1.9998000000 0.0989000000 0.0990000000
1.9997000000 3.9477000000 2.5839000000
1.9997000000 1.6406000000 1.8672000000
1.9994000000 3.0127000000 3.2789000000
1.9992000000 3.9008000000 2.6315000000
1.9988000000 0.2842000000 0.3162000000
1.9987000000 3.0819000000 3.3058000000
1.9984000000 1.3814000000 1.5678000000
1.9976000000 3.6056000000 2.9685000000
1.9974000000 0.6207000000 0.6982000000
1.9973000000 1.2362000000 1.4028000000
1.9969000000 4.8243000000 1.5718000000
1.9928000000 3.8193000000 2.7212000000
1.7617000000 5.3516000000 0.9704000000
1.7615000000 4.4409000000 2.0126000000
1.7602000000 5.0747000000 1.2876000000
1.7601000000 4.5443000000 1.8941000000
1.7600000000 2.4028000000 2.7410000000
1.7599000000 5.4214000000 0.8896000000
1.7598000000 1.9768000000 2.2506000000
1.7593000000 4.7840000000 1.6168000000
1.7585000000 1.9727000000 2.2420000000
1.7585000000 3.1967000000 3.4453000000
1.7583000000 4.7591000000 1.6493000000
1.7579000000 3.7889000000 2.7646000000
1.7578000000 5.6952000000 0.5736000000
1.7577000000 1.5638000000 1.7765000000
1.7577000000 5.2892000000 1.0431000000
1.7576000000 1.4064000000 1.5981000000
1.7574000000 3.9830000000 2.5334000000
1.7571000000 4.2483000000 2.2365000000
1.7569000000 1.8931000000 2.1584000000
1.7566000000 0.2551000000 0.2787000000
1.7566000000 6.0929000000 0.1261000000
1.7565000000 3.4494000000 3.1516000000
1.7565000000 4.2376000000 2.2423000000
1.7564000000 0.7961000000 0.8979000000
1.7563000000 3.5683000000 3.0135000000
1.7561000000 1.4886000000 1.6897000000
1.7560000000 3.5533000000 3.0271000000
1.7559000000 5.8596000000 0.3860000000
1.7558000000 2.0806000000 2.3653000000
1.7558000000 0.6463000000 0.7188000000
1.7557000000 3.8421000000 2.7051000000
1.7556000000 5.2022000000 1.1426000000
1.7554000000 2.8860000000 3.2903000000
1.7553000000 2.9225000000 3.3301000000
1.7553000000 0.1581000000 0.1706000000
1.7551000000 2.9220000000 3.3391000000
1.7549000000 1.1526000000 1.3092000000
1.7548000000 6.0956000000 0.1170000000
1.7547000000 2.1963000000 2.5093000000
1.7543000000 5.3297000000 0.9932000000
1.7543000000 4.5106000000 1.9325000000
1.7541000000 1.4109000000 1.6045000000
1.7540000000 4.3729000000 2.0876000000
1.7540000000 5.8179000000 0.4361000000
1.7540000000 0.6338000000 0.7151000000
1.7539000000 4.5596000000 1.8815000000
1.7538000000 3.8838000000 2.6510000000
1.7538000000 1.2097000000 1.3711000000
1.7535000000 4.1366000000 2.3558000000
1.7534000000 4.5522000000 1.8830000000
1.7534000000 3.4814000000 3.1152000000
1.7533000000 4.3712000000 2.0874000000
1.7531000000 6.2356000000 0.0338000000
1.7530000000 3.4319000000 3.1638000000
1.7530000000 3.1840000000 3.4478000000
1.7530000000 1.6911000000 1.9273000000
1.7529000000 2.6476000000 3.0232000000
1.7529000000 1.6041000000 1.8255000000
1.7528000000 1.0761000000 1.2200000000
1.7528000000 2.1888000000 2.4965000000
1.7525000000 0.3081000000 0.3417000000
1.7523000000 0.9907000000 1.1193000000
1.7523000000 0.1379000000 0.1453000000
1.7520000000 4.9187000000 1.4672000000
1.7518000000 0.8357000000 0.9483000000
1.7517000000 0.0687000000 0.0639000000
1.7516000000 2.3345000000 2.6584000000
1.7515000000 5.4932000000 0.8072000000
1.7515000000 4.4719000000 1.9800000000
1.7514000000 2.0992000000 2.3912000000
1.7514000000 3.8860000000 2.6480000000
1.7513000000 5.1084000000 1.2498000000
1.7513000000 1.5175000000 1.7272000000
1.7508000000 1.0393000000 1.1790000000
1.7507000000 0.1305000000 0.1385000000
1.7508000000 4.7126000000 1.6979000000
1.7506000000 4.1482000000 2.3472000000
1.7506000000 3.0829000000 3.4651000000
1.7505000000 3.6325000000 2.9406000000
1.7503000000 1.7097000000 1.9492000000
1.7502000000 2.5361000000 2.8950000000
1.7501000000 1.0041000000 1.1374000000
1.7501000000 3.1565000000 3.4543000000
1.7500000000 2.5967000000 2.9631000000
1.7499000000 0.2369000000 0.2559000000
1.7498000000 6.0990000000 0.1149000000
1.7495000000 2.7254000000 3.1087000000
1.7494000000 0.6818000000 0.7705000000
1.7494000000 0.0705000000 0.0730000000
1.7495000000 1.1017000000 1.2520000000
1.7489000000 1.1467000000 1.3032000000
1.7472000000 4.9069000000 1.4808000000
1.5143000000 5.1140000000 1.2385000000
1.5125000000 5.1670000000 1.1793000000
1.5110000000 5.0957000000 1.2633000000
1.5102000000 4.1368000000 2.3635000000
1.5100000000 1.4568000000 1.6569000000
1.5093000000 4.3980000000 2.0612000000
1.5091000000 3.2747000000 3.1676000000
1.5087000000 4.3423000000 2.1323000000
1.5085000000 3.8305000000 2.7137000000
1.5083000000 1.4239000000 1.6161000000
1.5082000000 0.7296000000 0.8260000000
1.5080000000 0.8537000000 0.9628000000
1.5077000000 3.3864000000 3.1016000000
1.5074000000 5.5751000000 0.7128000000
1.5069000000 5.1159000000 1.2379000000
1.5068000000 4.3719000000 2.0904000000
1.5066000000 5.1605000000 1.1912000000
1.5064000000 5.4458000000 0.8600000000
1.5061000000 3.7976000000 2.7500000000
1.5060000000 5.1639000000 1.1827000000
1.5060000000 1.3260000000 1.5043000000
1.5058000000 2.9028000000 3.1389000000
1.5055000000 0.2575000000 0.2815000000
1.5055000000 1.9378000000 2.2055000000
1.5057000000 1.8702000000 2.1309000000
1.5054000000 1.2432000000 1.4130000000
1.5053000000 3.6454000000 2.9085000000
1.5051000000 5.7570000000 0.5084000000
1.5050000000 3.0296000000 3.2182000000
1.5048000000 4.4983000000 1.9434000000
1.5048000000 5.8819000000 0.3648000000
1.5048000000 2.5843000000 2.9291000000
1.5045000000 0.8483000000 0.9607000000
1.5045000000 5.2875000000 1.0471000000
1.5043000000 2.9317000000 3.1642000000
1.5043000000 2.0890000000 2.3831000000
1.5042000000 3.4907000000 3.0362000000
1.5042000000 4.5746000000 1.8596000000
1.5041000000 1.5829000000 1.8027000000
1.5040000000 0.0659000000 0.0685000000
1.5040000000 5.8378000000 0.4145000000
1.5040000000 3.5928000000 2.9585000000
1.5036000000 4.1980000000 2.2911000000
1.5035000000 4.1169000000 2.3829000000
1.5035000000 0.5599000000 0.6278000000
1.5034000000 2.8755000000 3.1293000000
1.5034000000 1.6061000000 1.8262000000
1.5033000000 4.2441000000 2.2415000000
1.5031000000 1.4955000000 1.7032000000
1.5030000000 2.9577000000 3.1745000000
1.5029000000 2.5166000000 2.8544000000
1.5029000000 5.5838000000 0.7024000000
1.5028000000 5.0197000000 1.3507000000
1.5028000000 0.5362000000 0.5981000000
1.5027000000 4.1908000000 2.2990000000
1.5026000000 0.4366000000 0.4909000000
1.5026000000 4.0532000000 2.4548000000
1.5025000000 0.1971000000 0.2127000000
1.5024000000 2.7057000000 3.0099000000
1.5023000000 3.2301000000 3.1876000000
1.5023000000 2.3304000000 2.6578000000
1.5019000000 1.0884000000 1.2374000000
1.5018000000 0.4384000000 0.4866000000
1.5018000000 2.2483000000 2.5647000000
1.5017000000 3.0734000000 3.2123000000
1.5015000000 0.8687000000 0.9826000000
1.5015000000 3.7121000000 2.8391000000
1.5013000000 3.8310000000 2.7080000000
1.5013000000 0.2816000000 0.3133000000
1.5012000000 1.7176000000 1.9514000000
1.5010000000 0.7902000000 0.8977000000
1.5010000000 2.0392000000 2.3265000000
1.5009000000 5.1292000000 1.2266000000
1.5006000000 5.2530000000 1.0800000000
1.5004000000 1.0820000000 1.2299000000
1.5003000000 0.8728000000 0.9953000000
1.5003000000 5.8159000000 0.4373000000
1.5002000000 4.7067000000 1.7127000000
1.4990000000 0.8644000000 0.9795000000
1.4989000000 2.6689000000 2.9849000000
1.4988000000 3.1920000000 3.2054000000
1.4987000000 1.9015000000 2.1608000000
1.4986000000 3.3634000000 3.0980000000
1.4985000000 1.6917000000 1.9297000000
1.4985000000 2.1846000000 2.4892000000
1.4983000000 4.0824000000 2.4247000000
1.4982000000 1.9013000000 2.1659000000
1.4981000000 0.4359000000 0.4907000000
1.4980000000 0.6106000000 0.6884000000
1.4980000000 5.8934000000 0.3494000000
1.4979000000 0.3432000000 0.3823000000
1.4978000000 2.7666000000 3.0627000000
1.4975000000 1.5715000000 1.7897000000
1.4974000000 1.9704000000 2.2393000000
1.4970000000 2.7855000000 3.0673000000
1.4945000000 1.5872000000 1.8066000000
1.2620000000 5.1508000000 1.1980000000
1.2604000000 3.1121000000 2.9941000000
1.2593000000 5.6887000000 0.5874000000
1.2588000000 5.6603000000 0.6172000000
1.2587000000 5.9445000000 0.2899000000
1.2587000000 3.1497000000 2.9688000000
1.2584000000 3.4953000000 2.7890000000
1.2583000000 3.5162000000 2.7782000000
1.2581000000 3.9615000000 2.5045000000
1.2580000000 2.2112000000 2.4792000000
1.2579000000 5.7639000000 0.4930000000
1.2577000000 5.9282000000 0.3138000000
1.2576000000 3.6745000000 2.6954000000
1.2573000000 2.7698000000 2.8206000000
1.2570000000 6.0032000000 0.2164000000
1.2568000000 2.6497000000 2.7585000000
1.2566000000 5.7485000000 0.5157000000
1.2565000000 3.8682000000 2.5712000000
1.2564000000 4.9217000000 1.4602000000
1.2561000000 6.0329000000 0.1870000000
1.2560000000 4.4613000000 1.9906000000
1.2560000000 5.3554000000 0.9645000000
1.2559000000 5.8501000000 0.4036000000
1.2559000000 4.0017000000 2.4812000000
1.2558000000 4.2096000000 2.2773000000
1.2558000000 4.6832000000 1.7340000000
1.2555000000 2.5699000000 2.7046000000
1.2554000000 4.2544000000 2.2249000000
1.2553000000 0.9668000000 1.0980000000
1.2552000000 0.0838000000 0.0810000000
1.2550000000 2.1046000000 2.3811000000
1.2549000000 0.0448000000 0.1093000000
1.2548000000 3.3565000000 2.8645000000
1.2548000000 2.7090000000 2.7861000000
1.2547000000 4.5357000000 1.9117000000
1.2546000000 4.7578000000 1.6474000000
1.2545000000 5.4516000000 0.8574000000
1.2545000000 5.3613000000 0.9582000000
1.2543000000 3.8477000000 2.5818000000
1.2543000000 0.8510000000 0.9611000000
1.2543000000 2.6099000000 2.7238000000
1.2542000000 5.8110000000 0.4398000000
1.2541000000 4.2841000000 2.1964000000
1.2540000000 1.9541000000 2.2294000000
1.2539000000 5.6593000000 0.6144000000
1.2539000000 1.6439000000 1.8672000000
1.2538000000 3.0121000000 2.9608000000
1.2538000000 3.8282000000 2.5906000000
1.2537000000 1.7986000000 2.0504000000
1.2535000000 3.9474000000 2.5075000000
1.2534000000 1.7998000000 2.0500000000
1.2531000000 1.7191000000 1.9555000000
1.2530000000 0.9137000000 1.0317000000
1.2528000000 2.3671000000 2.5875000000
1.2528000000 1.9229000000 2.1927000000
1.2524000000 2.9976000000 2.9459000000
1.2523000000 1.7168000000 1.9453000000
1.2520000000 0.5824000000 0.6544000000
1.2519000000 0.5634000000 0.6354000000
1.2518000000 3.9618000000 2.4980000000
1.2518000000 1.6700000000 1.8962000000
1.2520000000 3.6909000000 2.6743000000
1.2517000000 0.1781000000 0.1918000000
1.2517000000 2.7698000000 2.8167000000
1.2516000000 0.2525000000 0.2794000000
1.2513000000 1.4051000000 1.6026000000
1.2512000000 4.7681000000 1.6371000000
1.2510000000 1.2452000000 1.4143000000
1.2509000000 1.5876000000 1.8039000000
1.2508000000 5.4845000000 0.8138000000
1.2508000000 4.3570000000 2.1088000000
1.2506000000 4.9318000000 1.4544000000
1.2502000000 1.8744000000 2.1364000000
1.2501000000 0.4913000000 0.5563000000
1.2500000000 2.3393000000 2.5689000000
1.2497000000 0.2902000000 0.3210000000
1.2497000000 3.2544000000 2.9188000000
1.2496000000 1.0980000000 1.2451000000
1.2495000000 3.8019000000 2.6026000000
1.2493000000 5.0474000000 1.3209000000
1.2491000000 1.5340000000 1.7448000000
1.2490000000 0.9186000000 1.0409000000
1.2488000000 0.2182000000 0.2415000000
1.2484000000 1.7996000000 2.0505000000
1.2483000000 5.2205000000 1.1172000000
1.2481000000 1.7259000000 1.9610000000
1.2479000000 2.9730000000 2.9264000000
1.2473000000 1.5418000000 1.7568000000
1.2468000000 3.4605000000 2.7952000000
1.2463000000 5.2280000000 1.1078000000
1.0130000000 4.6235000000 1.8029000000
1.0120000000 3.4203000000 2.5924000000
1.0115000000 6.2130000000 0.0600000000
1.0103000000 4.9626000000 1.4206000000
1.0101000000 3.6873000000 2.4376000000
1.0101000000 5.3344000000 0.9909000000
1.0100000000 4.1075000000 2.1970000000
1.0098000000 4.0172000000 2.2428000000
1.0093000000 1.8310000000 2.0182000000
1.0086000000 4.4607000000 1.9672000000
1.0083000000 2.7935000000 2.5846000000
1.0082000000 5.3314000000 0.9961000000
1.0079000000 4.1433000000 2.1734000000
1.0078000000 2.2155000000 2.2518000000
1.0075000000 6.2148000000 0.0531000000
1.0074000000 3.5312000000 2.5243000000
1.0071000000 5.8135000000 0.4414000000
1.0068000000 5.4243000000 0.8932000000
1.0068000000 3.2576000000 2.6858000000
1.0065000000 0.4939000000 0.5563000000
1.0064000000 0.2538000000 0.2754000000
1.0062000000 1.8471000000 2.0348000000
1.0062000000 5.7661000000 0.4961000000
1.0060000000 0.0971000000 0.0962000000
1.0059000000 5.4281000000 0.8810000000
1.0058000000 5.1370000000 1.2156000000
1.0058000000 3.7350000000 2.4003000000
1.0057000000 6.0427000000 0.1798000000
1.0055000000 2.3951000000 2.3588000000
1.0055000000 4.1247000000 2.1803000000
1.0053000000 4.8720000000 1.5153000000
1.0053000000 5.6100000000 0.6738000000
1.0052000000 1.4826000000 1.6873000000
1.0053000000 1.3286000000 1.5119000000
1.0051000000 3.3266000000 2.6377000000
1.0048000000 3.5738000000 2.4915000000
1.0048000000 4.4375000000 1.9825000000
1.0046000000 1.8333000000 2.0171000000
1.0045000000 5.8691000000 0.3739000000
1.0043000000 4.6227000000 1.8068000000
1.0043000000 4.2695000000 2.0984000000
1.0042000000 4.7917000000 1.6124000000
1.0038000000 2.0376000000 2.1486000000
1.0037000000 4.6955000000 1.7166000000
1.0037000000 2.2902000000 2.2938000000
1.0036000000 4.6603000000 1.7585000000
1.0035000000 2.4504000000 2.3881000000
1.0035000000 5.9909000000 0.2357000000
1.0030000000 6.2163000000 0.0552000000
1.0028000000 4.3555000000 2.0432000000
1.0028000000 0.5789000000 0.6505000000
1.0027000000 5.9805000000 0.2507000000
1.0025000000 2.6816000000 2.5157000000
1.0024000000 4.5016000000 1.9239000000
1.0023000000 0.1755000000 0.1915000000
1.0023000000 1.4669000000 1.6647000000
1.0021000000 2.6847000000 2.5164000000
1.0020000000 1.4133000000 1.6101000000
1.0018000000 1.7193000000 1.9369000000
1.0016000000 3.7326000000 2.4032000000
1.0016000000 4.6288000000 1.7985000000
1.0014000000 0.4366000000 0.4924000000
1.0013000000 2.1051000000 2.1885000000
1.0013000000 2.8258000000 2.6009000000
1.0012000000 2.3159000000 2.3103000000
1.0010000000 4.1830000000 2.1446000000
1.0010000000 6.1600000000 0.1190000000
1.0009000000 0.6564000000 0.7399000000
1.0008000000 0.4676000000 0.5231000000
1.0008000000 4.7495000000 1.6577000000
1.0008000000 2.1251000000 2.1966000000
1.0006000000 2.8318000000 2.5996000000
1.0005000000 1.1860000000 1.3468000000
1.0004000000 3.1912000000 2.7099000000
1.0002000000 5.7901000000 0.4608000000
1.0000000000 3.1681000000 2.7266000000
0.9997000000 1.9567000000 2.1064000000
0.9997000000 0.1778000000 0.1856000000
0.9996000000 1.7849000000 1.9784000000
0.9988000000 1.0162000000 1.1538000000
0.9988000000 5.4042000000 0.9096000000
0.9985000000 2.5308000000 2.4304000000
0.9979000000 1.7670000000 1.9754000000
0.9978000000 4.4094000000 1.9884000000
0.9973000000 1.3196000000 1.4991000000
0.9968000000 2.0413000000 2.1445000000
0.9956000000 5.0697000000 1.2931000000
0.9953000000 3.1384000000 2.7169000000
0.9934000000 2.6189000000 2.4739000000
0.7604000000 5.8488000000 0.3948000000
0.7603000000 5.7801000000 0.4729000000
0.7600000000 6.1385000000 0.0718000000
0.7598000000 2.7483000000 2.3152000000
0.7589000000 1.1737000000 1.3345000000
0.7588000000 2.1871000000 1.9921000000
0.7588000000 6.0865000000 0.1233000000
0.7585000000 3.5477000000 2.2656000000
0.7583000000 3.2800000000 2.4161000000
0.7581000000 6.2239000000 0.0435000000
0.7580000000 5.1431000000 1.2083000000
0.7575000000 3.1116000000 2.5000000000
0.7575000000 4.0639000000 1.9693000000
0.7574000000 1.6624000000 1.6916000000
0.7574000000 1.3357000000 1.4846000000
0.7569000000 3.1162000000 2.4914000000
0.7568000000 2.1098000000 1.9452000000
0.7565000000 2.4225000000 2.1244000000
0.7563000000 5.6070000000 0.6738000000
0.7563000000 3.1618000000 2.4768000000
0.7560000000 5.7178000000 0.5460000000
0.7559000000 3.9238000000 2.0469000000
0.7559000000 6.0586000000 0.1577000000
0.7556000000 5.2776000000 1.0535000000
0.7555000000 3.8570000000 2.0877000000
0.7554000000 5.4576000000 0.8505000000
0.7554000000 0.5689000000 0.6381000000
0.7553000000 4.0102000000 1.9947000000
0.7553000000 3.3932000000 2.3485000000
0.7552000000 4.1166000000 1.9385000000
0.7550000000 6.0642000000 0.1501000000
0.7550000000 5.1542000000 1.1948000000
0.7550000000 4.3489000000 1.8033000000
0.7549000000 5.8644000000 0.3849000000
0.7548000000 4.7781000000 1.5542000000
0.7548000000 2.2389000000 2.0196000000
0.7546000000 3.4873000000 2.2996000000
0.7545000000 5.6448000000 0.6303000000
0.7545000000 2.0962000000 1.9373000000
0.7545000000 5.4474000000 0.8652000000
0.7543000000 0.0150000000 0.0813000000
0.7543000000 0.0345000000 0.1018000000
0.7542000000 4.3778000000 1.7846000000
0.7540000000 3.0672000000 2.4758000000
0.7539000000 1.4110000000 1.5385000000
0.7539000000 1.7251000000 1.7234000000
0.7537000000 2.4400000000 2.1334000000
0.7535000000 2.3389000000 2.0728000000
0.7533000000 3.6445000000 2.2003000000
0.7533000000 3.1079000000 2.4976000000
0.7531000000 0.1693000000 0.1825000000
0.7530000000 4.5870000000 1.6620000000
0.7529000000 2.8534000000 2.3712000000
0.7528000000 5.1384000000 1.2078000000
0.7527000000 3.8825000000 2.0596000000
0.7526000000 3.7888000000 2.1201000000
0.7525000000 3.6152000000 2.2191000000
0.7524000000 5.2390000000 1.0961000000
0.7523000000 0.7677000000 0.8663000000
0.7523000000 2.2149000000 2.0053000000
0.7522000000 2.9736000000 2.4401000000
0.7521000000 2.9130000000 2.4084000000
0.7518000000 3.5449000000 2.2611000000
0.7518000000 5.9861000000 0.2442000000
0.7516000000 1.8785000000 1.8087000000
0.7511000000 4.4205000000 1.7564000000
0.7511000000 5.2005000000 1.1423000000
0.7510000000 4.2131000000 1.8743000000
0.7509000000 3.0831000000 2.4770000000
0.7508000000 2.2566000000 2.0236000000
0.7506000000 0.6029000000 0.6790000000
0.7505000000 1.5142000000 1.6033000000
0.7503000000 4.1719000000 1.8972000000
0.7496000000 3.3179000000 2.3849000000
0.7495000000 2.5081000000 2.1668000000
0.7492000000 3.0642000000 2.4663000000
0.7489000000 2.4999000000 2.1588000000
0.7488000000 5.7375000000 0.5331000000
0.7488000000 1.8577000000 1.7991000000
0.7487000000 3.9634000000 2.0153000000
0.7486000000 1.8605000000 1.7979000000
0.7484000000 2.5470000000 2.1829000000
0.7480000000 1.6733000000 1.6932000000
0.7479000000 3.8193000000 2.1013000000
0.7475000000 3.3882000000 2.3448000000
0.7474000000 3.3382000000 2.3731000000
0.7473000000 3.2467000000 2.4264000000
0.7472000000 2.1000000000 1.9331000000
0.7468000000 2.0775000000 1.9224000000
0.7466000000 3.8480000000 2.0766000000
0.7463000000 5.5545000000 0.7399000000
0.7458000000 2.8892000000 2.3817000000
0.7455000000 1.3220000000 1.4674000000
0.7434000000 3.1170000000 2.4784000000
0.7424000000 0.0497000000 0.1196000000
0.7422000000 1.0044000000 1.1425000000
0.5100000000 1.9888000000 1.6268000000
0.5095000000 6.1082000000 0.1112000000
0.5093000000 4.9548000000 1.2113000000
0.5090000000 0.2229000000 0.2370000000
0.5085000000 4.7774000000 1.3156000000
0.5085000000 5.9980000000 0.2331000000
0.5080000000 5.2040000000 1.0676000000
0.5078000000 2.1133000000 1.7030000000
0.5075000000 4.8085000000 1.2938000000
0.5072000000 5.1142000000 1.1168000000
0.5070000000 3.7076000000 1.9166000000
0.5069000000 0.9114000000 0.9958000000
0.5068000000 1.6809000000 1.4508000000
0.5067000000 0.7268000000 0.8242000000
0.5067000000 2.5189000000 1.9350000000
0.5065000000 5.2442000000 1.0261000000
0.5065000000 3.6432000000 1.9573000000
0.5064000000 0.3684000000 0.4106000000
0.5063000000 3.4540000000 2.0616000000
0.5062000000 5.5129000000 0.7837000000
0.5061000000 4.3661000000 1.5440000000
0.5060000000 4.3343000000 1.5609000000
0.5060000000 5.8036000000 0.4545000000
0.5057000000 4.5728000000 1.4240000000
0.5056000000 4.7324000000 1.3398000000
0.5056000000 5.1490000000 1.0924000000
0.5055000000 2.5375000000 1.9439000000
0.5055000000 3.3301000000 2.1338000000
0.5053000000 2.3802000000 1.8624000000
0.5053000000 1.1246000000 1.1377000000
0.5051000000 4.6148000000 1.4045000000
0.5050000000 1.9386000000 1.5973000000
0.5049000000 4.5329000000 1.4489000000
0.5048000000 3.3025000000 2.1549000000
0.5048000000 6.0822000000 0.1318000000
0.5046000000 4.7222000000 1.3363000000
0.5045000000 1.6235000000 1.4154000000
0.5047000000 1.7278000000 1.4788000000
0.5044000000 0.0200000000 0.0793000000
0.5043000000 3.9065000000 1.8062000000
0.5042000000 3.6976000000 1.9237000000
0.5040000000 0.4646000000 0.5242000000
0.5040000000 0.0160000000 0.0829000000
0.5038000000 2.6958000000 2.0368000000
0.5038000000 5.2315000000 1.0418000000
0.5038000000 5.2828000000 0.9985000000
0.5037000000 2.5551000000 1.9459000000
0.5036000000 0.0365000000 0.1048000000
0.5035000000 4.2789000000 1.5929000000
0.5034000000 3.2597000000 2.1789000000
0.5033000000 2.7261000000 2.0482000000
0.5031000000 0.3445000000 0.3804000000
0.5029000000 0.7694000000 0.8525000000
0.5029000000 2.0291000000 1.6488000000
0.5027000000 0.3192000000 0.3569000000
0.5027000000 5.3343000000 0.9664000000
0.5025000000 3.2073000000 2.2065000000
0.5024000000 4.6181000000 1.3983000000
0.5024000000 2.5777000000 1.9617000000
0.5022000000 2.2378000000 1.7648000000
0.5022000000 3.8108000000 1.8611000000
0.5020000000 5.9910000000 0.2375000000
0.5019000000 4.3858000000 1.5342000000
0.5019000000 2.3086000000 1.8092000000
0.5018000000 4.0608000000 1.7192000000
0.5016000000 0.1379000000 0.1470000000
0.5015000000 0.4359000000 0.4859000000
0.5014000000 5.0519000000 1.1520000000
0.5013000000 1.3242000000 1.2423000000
0.5012000000 2.0523000000 1.6597000000
0.5011000000 0.2887000000 0.3194000000
0.5009000000 4.6612000000 1.3710000000
0.5008000000 1.7246000000 1.4764000000
0.5001000000 1.1891000000 1.1658000000
0.5000000000 3.9075000000 1.8069000000
0.4999000000 1.4690000000 1.3205000000
0.4998000000 5.1537000000 1.0890000000
0.4997000000 1.8454000000 1.5436000000
0.4996000000 2.3771000000 1.8477000000
0.4988000000 1.6479000000 1.4246000000
0.4988000000 1.1144000000 1.1156000000
0.4985000000 1.9303000000 1.5949000000
0.4985000000 4.1808000000 1.6382000000
0.4980000000 0.4362000000 0.4873000000
0.4978000000 1.2698000000 1.2039000000
0.4977000000 4.8242000000 1.2746000000
0.4976000000 3.0930000000 2.2393000000
0.4976000000 3.6914000000 1.9190000000
0.4970000000 2.8250000000 2.0968000000
0.4970000000 2.6665000000 2.0118000000
0.4955000000 1.8874000000 1.5646000000
0.4952000000 0.9401000000 1.0057000000
0.4949000000 4.7602000000 1.3113000000
0.2620000000 5.1196000000 0.8747000000
0.2614000000 5.1356000000 0.8623000000
0.2598000000 4.7024000000 1.1118000000
0.2597000000 5.9560000000 0.2819000000
0.2597000000 3.6313000000 1.7166000000
0.2595000000 1.5219000000 1.1182000000
0.2590000000 2.3946000000 1.6139000000
0.2587000000 5.0242000000 0.9214000000
0.2582000000 3.0601000000 1.9767000000
0.2579000000 1.3704000000 1.0280000000
0.2575000000 1.9761000000 1.3775000000
0.2571000000 1.8343000000 1.2930000000
0.2570000000 6.0846000000 0.1313000000
0.2570000000 4.1016000000 1.4510000000
0.2568000000 6.0809000000 0.1372000000
0.2568000000 2.9607000000 1.9347000000
0.2564000000 4.1144000000 1.4408000000
0.2563000000 4.1051000000 1.4498000000
0.2562000000 2.8999000000 1.8985000000
0.2560000000 0.3338000000 0.3652000000
0.2560000000 3.2158000000 1.9565000000
0.2560000000 1.1629000000 0.9094000000
0.2559000000 5.2519000000 0.7889000000
0.2558000000 3.5078000000 1.7855000000
0.2558000000 1.9826000000 1.3801000000
0.2557000000 3.8765000000 1.5777000000
0.2556000000 2.7820000000 1.8394000000
0.2552000000 2.1376000000 1.4650000000
0.2551000000 2.5683000000 1.7108000000
0.2550000000 1.1927000000 0.9239000000
0.2550000000 5.4730000000 0.6625000000
0.2548000000 4.2433000000 1.3604000000
0.2546000000 3.9075000000 1.5581000000
0.2545000000 4.3314000000 1.3129000000
0.2545000000 4.0182000000 1.4925000000
0.2544000000 5.2578000000 0.7860000000
0.2544000000 1.8855000000 1.3199000000
0.2541000000 3.3410000000 1.8823000000
0.2540000000 0.0624000000 0.0560000000
0.2540000000 4.5460000000 1.1918000000
0.2539000000 5.1061000000 0.8722000000
0.2539000000 2.8255000000 1.8612000000
0.2538000000 2.6144000000 1.7339000000
0.2537000000 1.0168000000 0.8217000000
0.2537000000 5.5272000000 0.6276000000
0.2536000000 2.7603000000 1.8237000000
0.2536000000 4.3121000000 1.3218000000
0.2535000000 2.1548000000 1.4773000000
0.2534000000 5.3050000000 0.7538000000
0.2533000000 3.4892000000 1.8037000000
0.2531000000 0.9296000000 0.7748000000
0.2530000000 1.3375000000 1.0060000000
0.2530000000 1.2468000000 0.9608000000
0.2528000000 3.4482000000 1.8183000000
0.2528000000 1.7151000000 1.2183000000
0.2527000000 5.5019000000 0.6427000000
0.2524000000 2.8359000000 1.8680000000
0.2523000000 0.3205000000 0.3548000000
0.2523000000 1.3432000000 1.0043000000
0.2520000000 1.5323000000 1.1169000000
0.2519000000 5.2331000000 0.7945000000
0.2518000000 1.5471000000 1.1240000000
0.2515000000 5.6102000000 0.5741000000
0.2514000000 1.1550000000 0.8992000000
0.2510000000 1.4703000000 1.0731000000
0.2510000000 4.0897000000 1.4493000000
0.2509000000 2.2452000000 1.5251000000
0.2508000000 1.2381000000 0.9439000000
0.2508000000 5.8766000000 0.3548000000
0.2507000000 3.2868000000 1.9140000000
0.2506000000 1.1201000000 0.8779000000
0.2504000000 5.2574000000 0.7830000000
0.2502000000 0.2490000000 0.2753000000
0.2500000000 4.1951000000 1.3869000000
0.2496000000 5.7467000000 0.4870000000
0.2493000000 4.7281000000 1.0848000000
0.2493000000 5.6256000000 0.5704000000
0.2490000000 3.5168000000 1.7805000000
0.2489000000 0.5014000000 0.5009000000
0.2488000000 0.7923000000 0.6894000000
0.2486000000 3.7979000000 1.6159000000
0.2485000000 0.6324000000 0.5968000000
0.2481000000 0.3175000000 0.3504000000
0.2480000000 1.4978000000 1.0957000000
0.2478000000 2.0229000000 1.3938000000
0.2477000000 1.0082000000 0.8100000000
0.2472000000 2.6151000000 1.7288000000
0.2471000000 0.1935000000 0.2090000000
0.2470000000 4.8095000000 1.0300000000
0.2468000000 3.0992000000 1.9879000000
0.2468000000 2.2894000000 1.5419000000
0.2461000000 2.1002000000 1.4380000000
0.2433000000 0.0063000000 0.0697000000
0.0136000000 6.0583000000 0.0877000000
0.0131000000 5.0165000000 0.6829000000
0.0129000000 4.8693000000 0.7701000000
0.0123000000 5.8330000000 0.2125000000
0.0112000000 5.4519000000 0.4289000000
0.0105000000 3.7853000000 1.3866000000
0.0095000000 2.7193000000 1.5597000000
0.0094000000 4.4553000000 1.0032000000
0.0093000000 1.0002000000 0.5652000000
0.0092000000 6.1086000000 0.1117000000
0.0090000000 5.3373000000 0.4939000000
0.0090000000 3.3710000000 1.6186000000
0.0088000000 2.7408000000 1.5651000000
0.0088000000 5.3378000000 0.4994000000
0.0085000000 0.3215000000 0.1746000000
0.0078000000 5.3198000000 0.5038000000
0.0075000000 1.8638000000 1.0614000000
0.0070000000 2.2049000000 1.2588000000
0.0068000000 6.0775000000 0.0677000000
0.0068000000 3.9022000000 1.3188000000
0.0067000000 6.1477000000 0.0844000000
0.0064000000 3.5576000000 1.5109000000
0.0063000000 5.1627000000 0.5982000000
0.0061000000 1.1141000000 0.6359000000
0.0059000000 2.4466000000 1.3933000000
0.0058000000 3.0999000000 1.7488000000
0.0058000000 4.6420000000 0.8908000000
0.0056000000 2.5467000000 1.4548000000
0.0054000000 5.4093000000 0.4491000000
0.0054000000 5.8924000000 0.1716000000
0.0053000000 2.9068000000 1.6572000000
0.0051000000 5.9496000000 0.1487000000
0.0051000000 3.3513000000 1.6265000000
0.0050000000 4.8369000000 0.7776000000
0.0049000000 2.3996000000 1.3654000000
0.0045000000 0.7573000000 0.4285000000
0.0044000000 4.3038000000 1.0805000000
0.0043000000 4.2028000000 1.1363000000
0.0042000000 1.0960000000 0.6181000000
0.0041000000 4.9012000000 0.7424000000
0.0040000000 6.0525000000 0.0814000000
0.0040000000 5.9332000000 0.1516000000
0.0038000000 6.1778000000 0.0662000000
0.0038000000 0.7836000000 0.4404000000
0.0037000000 1.3845000000 0.7902000000
0.0035000000 6.0113000000 0.1010000000
0.0033000000 4.6002000000 0.9097000000
0.0032000000 0.3724000000 0.2009000000
0.0032000000 1.3440000000 0.7648000000
0.0031000000 2.4063000000 1.3718000000
0.0030000000 2.0425000000 1.1595000000
0.0030000000 2.1323000000 1.2124000000
0.0030000000 1.7464000000 0.9879000000
0.0029000000 1.7399000000 0.9889000000
0.0028000000 5.1018000000 0.6178000000
0.0027000000 4.7278000000 0.8396000000
0.0026000000 1.6002000000 0.9079000000
0.0026000000 5.8024000000 0.2252000000
0.0025000000 5.4559000000 0.4203000000
0.0024000000 0.6221000000 0.3466000000
0.0022000000 3.8306000000 1.3490000000
0.0020000000 1.1086000000 0.6253000000
0.0021000000 0.3711000000 0.1985000000
0.0020000000 4.2165000000 1.1340000000
0.0018000000 5.7642000000 0.2454000000
0.0018000000 3.6269000000 1.4655000000
0.0017000000 4.4502000000 0.9936000000
0.0015000000 0.3839000000 0.2121000000
0.0015000000 4.1740000000 1.1552000000
0.0013000000 0.0397000000 0.0683000000
0.0013000000 3.6278000000 1.4732000000
0.0007000000 0.5796000000 0.3137000000
0.0007000000 0.1182000000 0.1335000000
0.0006000000 3.9448000000 1.2845000000
0.0005000000 0.0651000000 0.0112000000
0.0004000000 5.1511000000 0.5891000000
-0.0003000000 3.4776000000 1.5540000000
-0.0004000000 0.3138000000 0.1571000000
-0.0005000000 0.0416000000 0.0655000000
-0.0007000000 1.5013000000 0.8426000000
-0.0012000000 1.7576000000 0.9940000000
-0.0013000000 1.9365000000 1.0981000000
-0.0017000000 1.5365000000 0.8672000000
-0.0018000000 1.8151000000 1.0284000000
-0.0024000000 2.5283000000 1.4340000000
-0.0027000000 1.4369000000 0.8086000000
-0.0032000000 2.9772000000 1.6867000000
-0.0040000000 1.4484000000 0.8139000000
-0.0043000000 1.0783000000 0.6018000000
-0.0067000000 0.1092000000 0.1167000000
-0.0067000000 0.7878000000 0.4301000000
-0.2393000000 5.7886000000 0.0637000000
-0.2414000000 3.0557000000 1.4831000000
-0.2419000000 3.5017000000 1.3024000000
-0.2420000000 3.5790000000 1.2535000000
-0.2422000000 4.2549000000 0.8622000000
-0.2424000000 4.9736000000 0.4535000000
-0.2427000000 4.0949000000 0.9598000000
-0.2428000000 1.8592000000 0.8146000000
-0.2428000000 4.1402000000 0.9310000000
-0.2429000000 5.7588000000 0.0767000000
-0.2431000000 4.8257000000 0.5364000000
-0.2437000000 2.5649000000 1.2157000000
-0.2437000000 3.7017000000 1.1767000000
-0.2438000000 3.5674000000 1.2597000000
-0.2443000000 2.9957000000 1.4641000000
-0.2443000000 3.3725000000 1.3673000000
-0.2446000000 0.2833000000 0.0556000000
-0.2446000000 4.3670000000 0.7981000000
-0.2447000000 4.8891000000 0.5004000000
-0.2450000000 3.8222000000 1.1121000000
-0.2450000000 4.8090000000 0.5454000000
-0.2451000000 2.3929000000 1.1119000000
-0.2454000000 3.9059000000 1.0588000000
-0.2457000000 4.9962000000 0.4388000000
-0.2457000000 5.3202000000 0.2567000000
-0.2458000000 2.0460000000 0.9159000000
-0.2458000000 1.4897000000 0.5938000000
-0.2460000000 4.3878000000 0.7843000000
-0.2464000000 3.9014000000 1.0628000000
-0.2464000000 3.9901000000 1.0135000000
-0.2468000000 3.6533000000 1.2109000000
-0.2470000000 2.3649000000 1.0957000000
-0.2471000000 5.9870000000 0.0204000000
-0.2472000000 4.9404000000 0.4764000000
-0.2472000000 3.2932000000 1.4167000000
-0.2475000000 4.6099000000 0.6599000000
-0.2477000000 5.2415000000 0.2959000000
-0.2480000000 3.7522000000 1.1499000000
-0.2480000000 0.5458000000 0.1250000000
-0.2481000000 4.2708000000 0.8525000000
-0.2483000000 3.5008000000 1.2953000000
-0.2485000000 3.2162000000 1.4571000000
-0.2486000000 3.2998000000 1.4059000000
-0.2488000000 1.6542000000 0.6892000000
-0.2492000000 1.6266000000 0.6755000000
-0.2493000000 3.2564000000 1.4375000000
-0.2493000000 0.6331000000 0.1024000000
-0.2495000000 4.7366000000 0.5806000000
-0.2497000000 5.6439000000 0.0639000000
-0.2498000000 4.1481000000 0.9221000000
-0.2500000000 1.2706000000 0.4641000000
-0.2501000000 0.9835000000 0.3024000000
-0.2502000000 2.7362000000 1.3073000000
-0.2506000000 0.9281000000 0.2710000000
-0.2506000000 2.2017000000 0.9974000000
-0.2516000000 0.8758000000 0.2400000000
-0.2519000000 1.7823000000 0.7595000000
-0.2521000000 1.1035000000 0.3719000000
-0.2522000000 5.6736000000 0.1209000000
-0.2523000000 1.5031000000 0.5987000000
-0.2529000000 1.1973000000 0.4214000000
-0.2531000000 3.1802000000 1.4677000000
-0.2534000000 1.5351000000 0.6109000000
-0.2538000000 5.2645000000 0.2782000000
-0.2540000000 1.1349000000 0.3877000000
-0.2545000000 0.2469000000 0.0295000000
-0.2547000000 3.7232000000 1.1535000000
-0.2559000000 0.4190000000 0.0499000000
-0.2561000000 3.9888000000 1.0058000000
-0.2576000000 0.4963000000 0.0883000000
-0.4888000000 5.3153000000 0.0908000000
-0.4895000000 4.7799000000 0.3253000000
-0.4904000000 4.9662000000 0.2094000000
-0.4908000000 1.8135000000 0.5427000000
-0.4912000000 5.2192000000 0.0689000000
-0.4914000000 3.4857000000 1.0609000000
-0.4917000000 5.4794000000 0.0664000000
-0.4918000000 2.9169000000 1.1665000000
-0.4922000000 2.5377000000 0.9524000000
-0.4927000000 1.0272000000 0.0852000000
-0.4927000000 2.4733000000 0.9208000000
-0.4927000000 3.8586000000 0.8451000000
-0.4928000000 3.1037000000 1.2605000000
-0.4932000000 0.6697000000 0.0320000000
-0.4934000000 3.8724000000 0.8339000000
-0.4935000000 5.0763000000 0.1440000000
-0.4936000000 1.3898000000 0.2929000000
-0.4940000000 1.0705000000 0.1070000000
-0.4941000000 2.6487000000 1.0042000000
-0.4942000000 1.5551000000 0.3870000000
-0.4944000000 0.9971000000 0.0707000000
-0.4944000000 1.4022000000 0.3013000000
-0.4945000000 3.1392000000 1.2357000000
-0.4946000000 5.1625000000 0.1020000000
-0.4947000000 4.5836000000 0.4309000000
-0.4950000000 5.5586000000 0.0230000000
-0.4950000000 5.0749000000 0.1430000000
-0.4951000000 2.5799000000 0.9693000000
-0.4951000000 4.6252000000 0.3999000000
-0.4952000000 2.8357000000 1.1173000000
-0.4952000000 2.9506000000 1.1859000000
-0.4953000000 4.8974000000 0.2400000000
-0.4954000000 5.1652000000 0.0929000000
-0.4955000000 5.4726000000 0.0691000000
-0.4957000000 0.9170000000 0.1007000000
-0.4958000000 0.8162000000 0.0403000000
-0.4959000000 3.4338000000 1.0881000000
-0.4963000000 4.5502000000 0.4448000000
-0.4964000000 5.0476000000 0.1622000000
-0.4965000000 0.9305000000 0.1058000000
-0.4965000000 2.3347000000 0.8321000000
-0.4966000000 3.8293000000 0.8587000000
-0.4969000000 4.9824000000 0.2010000000
-0.4970000000 4.4208000000 0.5152000000
-0.4972000000 4.8287000000 0.2885000000
-0.4973000000 3.4760000000 1.0532000000
-0.4974000000 1.4512000000 0.3239000000
-0.4974000000 2.0556000000 0.6705000000
-0.4975000000 4.7886000000 0.3037000000
-0.4976000000 3.3592000000 1.1260000000
-0.4979000000 2.4553000000 0.8972000000
-0.4980000000 2.7065000000 1.0465000000
-0.4981000000 4.9716000000 0.2021000000
-0.4982000000 4.5668000000 0.4375000000
-0.4985000000 2.8815000000 1.1430000000
-0.4985000000 1.6324000000 0.4281000000
-0.4986000000 1.3635000000 0.2707000000
-0.4987000000 2.5253000000 0.9404000000
-0.4987000000 1.7056000000 0.4688000000
-0.4988000000 1.4618000000 0.3250000000
-0.4989000000 4.9544000000 0.2085000000
-0.4989000000 1.1910000000 0.1684000000
-0.4990000000 4.7482000000 0.3295000000
-0.4990000000 4.9595000000 0.2082000000
-0.4997000000 3.2992000000 1.1599000000
-0.4999000000 1.6489000000 0.4340000000
-0.5001000000 4.4843000000 0.4796000000
-0.5003000000 1.3460000000 0.2627000000
-0.5010000000 3.8211000000 0.8625000000
-0.5011000000 1.4617000000 0.3263000000
-0.5014000000 1.5579000000 0.3761000000
-0.5016000000 3.4276000000 1.0815000000
-0.5021000000 5.0487000000 0.1488000000
-0.5031000000 2.8798000000 1.1368000000
-0.7386000000 4.6072000000 0.1721000000
-0.7392000000 1.9997000000 0.3983000000
-0.7398000000 2.7144000000 0.8105000000
-0.7404000000 2.5674000000 0.7268000000
-0.7407000000 2.0256000000 0.4168000000
-0.7411000000 3.1167000000 1.0041000000
-0.7412000000 2.4414000000 0.6568000000
-0.7415000000 4.8096000000 0.1240000000
-0.7415000000 3.0596000000 0.9894000000
-0.7418000000 4.2739000000 0.3585000000
-0.7420000000 2.2425000000 0.5344000000
-0.7421000000 4.7445000000 0.0966000000
-0.7422000000 1.8718000000 0.3223000000
-0.7428000000 1.3685000000 0.1077000000
-0.7430000000 5.0140000000 0.0846000000
-0.7436000000 4.4708000000 0.2477000000
-0.7438000000 1.4257000000 0.0721000000
-0.7438000000 4.7673000000 0.0803000000
-0.7440000000 4.7511000000 0.0863000000
-0.7440000000 1.3011000000 0.0703000000
-0.7448000000 3.7408000000 0.6607000000
-0.7451000000 3.7348000000 0.6645000000
-0.7453000000 3.8835000000 0.5797000000
-0.7455000000 1.7078000000 0.2268000000
-0.7455000000 3.8193000000 0.6130000000
-0.7456000000 3.5914000000 0.7479000000
-0.7460000000 3.2781000000 0.9219000000
-0.7461000000 1.9521000000 0.3698000000
-0.7462000000 4.4390000000 0.2616000000
-0.7465000000 2.8958000000 0.9137000000
-0.7465000000 3.7681000000 0.6431000000
-0.7467000000 1.9682000000 0.3717000000
-0.7467000000 3.3214000000 0.9042000000
-0.7468000000 1.1039000000 0.0266000000
-0.7470000000 1.2307000000 0.1060000000
-0.7469000000 3.1438000000 0.9710000000
-0.7473000000 2.3632000000 0.6009000000
-0.7475000000 1.7633000000 0.2549000000
-0.7475000000 4.5204000000 0.2136000000
-0.7479000000 3.0638000000 0.9821000000
-0.7480000000 3.5073000000 0.7872000000
-0.7485000000 1.2721000000 0.0465000000
-0.7487000000 4.8080000000 0.1233000000
-0.7487000000 3.1250000000 0.9930000000
-0.7489000000 2.7992000000 0.8455000000
-0.7493000000 1.4503000000 0.0712000000
-0.7496000000 3.0593000000 0.9826000000
-0.7497000000 3.2504000000 0.9365000000
-0.7500000000 1.6035000000 0.1649000000
-0.7502000000 2.3921000000 0.6166000000
-0.7502000000 2.0469000000 0.4108000000
-0.7503000000 2.7062000000 0.7886000000
-0.7505000000 2.3349000000 0.5800000000
-0.7507000000 3.4257000000 0.8373000000
-0.7523000000 3.7094000000 0.6786000000
-0.7524000000 1.6365000000 0.1793000000
-0.7529000000 1.8065000000 0.2661000000
-0.7530000000 1.4466000000 0.0661000000
-0.7542000000 1.3595000000 0.0960000000
-0.9876000000 2.0880000000 0.1993000000
-0.9894000000 2.5166000000 0.4460000000
-0.9895000000 3.8043000000 0.3846000000
-0.9905000000 4.5212000000 0.0500000000
-0.9915000000 3.4061000000 0.6111000000
-0.9916000000 3.0224000000 0.7375000000
-0.9922000000 3.9584000000 0.2925000000
-0.9926000000 4.4708000000 0.0681000000
-0.9928000000 3.8553000000 0.3540000000
-0.9938000000 4.0093000000 0.2586000000
-0.9939000000 3.4867000000 0.5583000000
-0.9949000000 3.1492000000 0.7353000000
-0.9958000000 4.1535000000 0.1829000000
-0.9958000000 2.9028000000 0.6632000000
-0.9960000000 2.1879000000 0.2548000000
-0.9960000000 4.5249000000 0.0373000000
-0.9965000000 1.5293000000 0.0223000000
-0.9967000000 4.5070000000 0.0492000000
-0.9970000000 2.3639000000 0.3490000000
-0.9970000000 4.2692000000 0.1041000000
-0.9972000000 3.3998000000 0.6045000000
-0.9972000000 2.1494000000 0.2304000000
-0.9973000000 4.1036000000 0.2030000000
-0.9980000000 3.3644000000 0.6240000000
-0.9981000000 4.1370000000 0.1785000000
-0.9982000000 1.5539000000 0.0374000000
-0.9984000000 4.3233000000 0.0716000000
-0.9985000000 3.0131000000 0.7213000000
-0.9991000000 2.9650000000 0.6933000000
-0.9992000000 2.6184000000 0.4976000000
-0.9992000000 1.6797000000 0.0383000000
-0.9994000000 4.6911000000 0.0167000000
-0.9995000000 3.7832000000 0.3834000000
-1.0009000000 3.5583000000 0.5114000000
-1.0017000000 1.5960000000 0.0576000000
-1.0022000000 3.2547000000 0.6882000000
-1.0027000000 1.6029000000 0.0635000000
-1.0032000000 4.5574000000 0.0874000000
-1.2394000000 3.9485000000 0.1249000000
-1.2404000000 4.0820000000 0.0475000000
-1.2409000000 3.4013000000 0.3610000000
