7.0097000000 4.2790000000 0.0881000000
7.0073000000 4.4275000000 0.0347000000
7.0049000000 3.8307000000 0.0515000000
7.0033000000 4.1486000000 0.0465000000
6.7603000000 4.5780000000 0.0522000000
6.7587000000 3.7646000000 0.1098000000
6.7570000000 4.7312000000 0.0765000000
6.7552000000 4.5575000000 0.0700000000
6.7547000000 4.1906000000 0.1966000000
6.7543000000 3.4311000000 0.0659000000
6.7523000000 4.1776000000 0.1999000000
6.5110000000 4.0039000000 0.3409000000
6.5101000000 4.1374000000 0.3537000000
6.5091000000 4.5741000000 0.2148000000
6.5087000000 5.2680000000 0.0439000000
6.5076000000 5.2281000000 0.0597000000
6.5070000000 4.0082000000 0.3442000000
6.5062000000 3.7341000000 0.2497000000
6.5052000000 5.3571000000 0.0095000000
6.5044000000 3.1292000000 0.0396000000
6.5032000000 3.4154000000 0.1376000000
6.5022000000 3.6000000000 0.2024000000
6.5003000000 2.9248000000 0.0414000000
6.2613000000 3.0609000000 0.1573000000
6.2606000000 5.6870000000 0.0413000000
6.2603000000 3.1389000000 0.1922000000
6.2595000000 2.5926000000 0.0713000000
6.2589000000 5.2621000000 0.1228000000
6.2580000000 4.2587000000 0.4745000000
6.2579000000 3.0913000000 0.1699000000
6.2570000000 3.5298000000 0.3311000000
6.2562000000 5.6682000000 0.0580000000
6.2554000000 4.9211000000 0.2489000000
6.2550000000 2.8247000000 0.0835000000
6.2542000000 3.8688000000 0.4559000000
6.2540000000 5.2913000000 0.1106000000
6.2529000000 5.7334000000 0.0281000000
6.2524000000 2.5690000000 0.0686000000
6.2522000000 4.3818000000 0.4398000000
6.2514000000 4.2519000000 0.4777000000
6.2439000000 4.3716000000 0.4405000000
6.0118000000 6.1861000000 0.0146000000
6.0112000000 5.3636000000 0.2344000000
6.0105000000 1.9942000000 0.0157000000
6.0099000000 2.9076000000 0.2632000000
6.0078000000 2.7813000000 0.2147000000
6.0074000000 5.6146000000 0.1528000000
6.0070000000 5.8599000000 0.0631000000
6.0068000000 4.3070000000 0.6169000000
6.0063000000 4.7178000000 0.4734000000
6.0060000000 5.1688000000 0.3083000000
6.0054000000 6.2538000000 0.0003000000
6.0051000000 4.0630000000 0.6624000000
6.0040000000 5.7887000000 0.0840000000
6.0038000000 5.9026000000 0.0529000000
6.0035000000 2.9826000000 0.2903000000
6.0032000000 5.3976000000 0.2374000000
6.0023000000 1.9907000000 0.0151000000
6.0018000000 1.9604000000 0.0003000000
6.0014000000 2.7115000000 0.1965000000
6.0009000000 2.7792000000 0.2231000000
6.0002000000 2.2161000000 0.0223000000
5.9992000000 2.2022000000 0.0176000000
5.9971000000 4.2346000000 0.6476000000
5.7624000000 3.8871000000 0.7541000000
5.7599000000 6.4579000000 0.0795000000
5.7580000000 4.5947000000 0.6657000000
5.7578000000 5.8525000000 0.2156000000
5.7574000000 5.6345000000 0.2954000000
5.7563000000 3.2077000000 0.5201000000
5.7560000000 3.2286000000 0.5264000000
5.7555000000 6.3813000000 0.0390000000
5.7553000000 5.6594000000 0.2921000000
5.7551000000 6.0118000000 0.1669000000
5.7549000000 6.4689000000 0.0785000000
5.7540000000 3.4790000000 0.6171000000
5.7534000000 1.7597000000 0.0120000000
5.7530000000 3.6978000000 0.6977000000
5.7518000000 6.2518000000 0.0843000000
5.7513000000 3.1919000000 0.5163000000
5.7510000000 3.5589000000 0.6525000000
5.7503000000 2.7465000000 0.3595000000
5.7463000000 3.6203000000 0.6744000000
5.5111000000 5.8497000000 0.3742000000
5.5098000000 4.9397000000 0.6929000000
5.5093000000 4.9746000000 0.6827000000
5.5089000000 3.4647000000 0.7661000000
5.5085000000 6.5457000000 0.1287000000
5.5081000000 5.9452000000 0.3426000000
5.5078000000 4.6474000000 0.7991000000
5.5068000000 5.3116000000 0.5650000000
5.5064000000 5.0678000000 0.6477000000
5.5063000000 5.6365000000 0.4529000000
5.5059000000 6.1123000000 0.2853000000
5.5056000000 1.0979000000 0.0009000000
5.5052000000 3.7824000000 0.8821000000
5.5046000000 6.5343000000 0.1361000000
5.5044000000 4.2849000000 0.9280000000
5.5038000000 2.2829000000 0.3500000000
5.5036000000 4.6823000000 0.7868000000
5.5033000000 6.2446000000 0.2381000000
5.5028000000 3.4770000000 0.7726000000
5.5022000000 3.0403000000 0.6169000000
5.5018000000 2.2063000000 0.3239000000
5.5013000000 3.1650000000 0.6626000000
5.5010000000 5.7548000000 0.4075000000
5.5005000000 4.7284000000 0.7772000000
5.5003000000 5.0910000000 0.6403000000
5.4996000000 1.4469000000 0.0556000000
5.4985000000 3.5971000000 0.8158000000
5.4970000000 2.8147000000 0.5399000000
5.2617000000 4.7394000000 0.9177000000
5.2608000000 5.5960000000 0.6129000000
5.2605000000 4.7384000000 0.9231000000
5.2595000000 6.8775000000 0.1609000000
5.2591000000 6.5131000000 0.2939000000
5.2587000000 6.3639000000 0.3451000000
5.2579000000 5.8001000000 0.5478000000
5.2574000000 3.5537000000 0.9501000000
5.2573000000 5.9059000000 0.5076000000
5.2570000000 3.7936000000 1.0378000000
5.2569000000 2.1514000000 0.4529000000
5.2567000000 1.0766000000 0.0758000000
5.2563000000 1.8094000000 0.3315000000
5.2559000000 4.2892000000 1.0743000000
5.2556000000 5.1334000000 0.7820000000
5.2555000000 5.4571000000 0.6675000000
5.2552000000 5.4781000000 0.6585000000
5.2550000000 2.1831000000 0.4706000000
5.2548000000 0.6534000000 -0.0034000000
5.2545000000 2.4093000000 0.5402000000
5.2544000000 5.7626000000 0.5631000000
5.2541000000 6.8386000000 0.1779000000
5.2537000000 5.2444000000 0.7432000000
5.2532000000 4.7282000000 0.9254000000
5.2525000000 1.5756000000 0.2572000000
5.2516000000 1.4312000000 0.2020000000
5.2510000000 1.4230000000 0.2015000000
5.2497000000 5.7431000000 0.5730000000
5.2473000000 1.2083000000 0.1273000000
5.0157000000 5.6315000000 0.7549000000
5.0134000000 2.3486000000 0.6705000000
5.0126000000 5.7561000000 0.7079000000
5.0111000000 7.7298000000 0.0103000000
5.0101000000 6.6659000000 0.3917000000
5.0096000000 2.5195000000 0.7338000000
5.0088000000 0.9323000000 0.1716000000
5.0086000000 7.1876000000 0.2100000000
5.0084000000 7.2258000000 0.1913000000
5.0081000000 3.0997000000 0.9441000000
5.0073000000 5.0485000000 0.9651000000
5.0069000000 7.2192000000 0.1977000000
5.0066000000 2.3831000000 0.6880000000
5.0062000000 2.4443000000 0.7108000000
5.0061000000 4.3781000000 1.1991000000
5.0057000000 1.4826000000 0.3670000000
5.0054000000 4.5949000000 1.1204000000
5.0052000000 0.9515000000 0.1850000000
5.0049000000 1.1369000000 0.2483000000
5.0047000000 0.6521000000 0.0840000000
5.0045000000 2.2409000000 0.6351000000
5.0042000000 0.4363000000 0.0821000000
5.0040000000 0.3822000000 0.0563000000
5.0038000000 1.6959000000 0.4470000000
5.0035000000 6.8502000000 0.3376000000
5.0033000000 3.5378000000 1.0962000000
5.0030000000 3.9732000000 1.2552000000
5.0028000000 3.9148000000 1.2314000000
5.0026000000 0.5357000000 0.0416000000
5.0025000000 1.4326000000 0.3491000000
5.0021000000 6.2685000000 0.5371000000
5.0020000000 4.2266000000 1.2591000000
5.0013000000 1.2094000000 0.2787000000
5.0009000000 1.1711000000 0.2616000000
5.0006000000 1.3552000000 0.3295000000
5.0004000000 2.1610000000 0.6163000000
4.9997000000 4.7909000000 1.0602000000
4.9991000000 4.4883000000 1.1698000000
4.9981000000 3.9603000000 1.2531000000
4.7643000000 3.8141000000 1.3446000000
4.7618000000 7.7259000000 0.1708000000
4.7603000000 7.8230000000 0.1404000000
4.7599000000 5.1767000000 1.0736000000
4.7595000000 0.7131000000 0.2520000000
4.7588000000 5.1946000000 1.0652000000
4.7585000000 6.7352000000 0.5201000000
4.7583000000 3.4891000000 1.2302000000
4.7581000000 5.9821000000 0.7877000000
4.7575000000 5.4774000000 0.9641000000
4.7569000000 7.5938000000 0.2154000000
4.7566000000 4.7103000000 1.2372000000
4.7564000000 6.2473000000 0.6945000000
4.7562000000 5.0314000000 1.1266000000
4.7559000000 8.1383000000 0.0176000000
4.7557000000 3.7041000000 1.3123000000
4.7555000000 4.3867000000 1.3540000000
4.7552000000 4.8167000000 1.2024000000
4.7550000000 3.3377000000 1.1791000000
4.7548000000 2.7173000000 0.9623000000
4.7546000000 1.5933000000 0.5618000000
4.7545000000 5.2547000000 1.0467000000
4.7543000000 7.9539000000 0.0910000000
4.7540000000 1.4701000000 0.5214000000
4.7538000000 0.7795000000 0.2741000000
4.7536000000 0.3695000000 0.1332000000
4.7534000000 5.8179000000 0.8490000000
4.7533000000 5.7567000000 0.8676000000
4.7530000000 4.7965000000 1.2076000000
4.7527000000 3.7415000000 1.3282000000
4.7523000000 1.0945000000 0.3937000000
4.7520000000 0.2335000000 0.0873000000
4.7517000000 4.2930000000 1.3861000000
4.7515000000 4.5502000000 1.2885000000
4.7508000000 2.0868000000 0.7434000000
4.7497000000 4.8684000000 1.1932000000
4.7494000000 0.8304000000 0.3031000000
4.7488000000 8.0129000000 0.0773000000
4.7486000000 0.2275000000 0.0831000000
4.7478000000 5.2691000000 1.0459000000
4.7464000000 0.4166000000 0.1547000000
4.7457000000 4.0174000000 1.4255000000
4.5140000000 7.5667000000 0.3806000000
4.5115000000 5.7066000000 1.0386000000
4.5108000000 5.4261000000 1.1305000000
4.5105000000 3.4983000000 1.3833000000
4.5100000000 6.4338000000 0.7820000000
4.5095000000 1.7451000000 0.7685000000
4.5094000000 0.4626000000 0.3041000000
4.5093000000 8.0099000000 0.1486000000
4.5087000000 3.0981000000 1.2427000000
4.5080000000 6.8680000000 0.6301000000
4.5073000000 4.3704000000 1.5150000000
4.5070000000 5.2948000000 1.1850000000
4.5068000000 5.8932000000 0.9709000000
4.5064000000 4.7337000000 1.3804000000
4.5061000000 4.9827000000 1.2923000000
4.5059000000 0.5790000000 0.3580000000
4.5056000000 2.9148000000 1.1846000000
4.5056000000 6.6802000000 0.6936000000
4.5050000000 3.7690000000 1.4867000000
4.5048000000 5.5647000000 1.0938000000
4.5046000000 2.2331000000 0.9482000000
4.5045000000 0.0276000000 0.0326000000
4.5043000000 3.3015000000 1.3234000000
4.5041000000 2.9044000000 1.1867000000
4.5038000000 3.4940000000 1.3933000000
4.5036000000 0.0798000000 0.0678000000
4.5035000000 5.3168000000 1.1780000000
4.5031000000 7.0313000000 0.5708000000
4.5028000000 5.5776000000 1.0909000000
4.5025000000 5.3985000000 1.1483000000
4.5023000000 1.6642000000 0.7425000000
4.5019000000 0.8878000000 0.4733000000
4.5017000000 1.2466000000 0.6014000000
4.5015000000 0.7304000000 0.4124000000
4.5013000000 1.8232000000 0.7956000000
4.5010000000 6.2544000000 0.8446000000
4.5005000000 3.6023000000 1.4275000000
4.4996000000 1.8059000000 0.7960000000
4.4989000000 0.6626000000 0.3888000000
4.4982000000 3.2739000000 1.3157000000
4.4978000000 1.0189000000 0.5151000000
4.4974000000 0.4100000000 0.2921000000
4.4911000000 0.9730000000 0.5088000000
4.2622000000 5.1667000000 1.3790000000
4.2605000000 5.4304000000 1.2861000000
4.2601000000 3.5374000000 1.5567000000
4.2597000000 3.6537000000 1.5908000000
4.2588000000 2.2349000000 1.0947000000
4.2584000000 3.5486000000 1.5615000000
4.2583000000 7.9885000000 0.1720000000
4.2580000000 6.7945000000 0.8038000000
4.2578000000 3.7349000000 1.6242000000
4.2575000000 2.4055000000 1.1584000000
4.2573000000 3.9706000000 1.7094000000
4.2567000000 5.8947000000 1.1284000000
4.2562000000 1.8256000000 0.9513000000
4.2560000000 0.3150000000 0.2314000000
4.2558000000 3.9874000000 1.7129000000
4.2554000000 4.8878000000 1.4860000000
4.2552000000 6.5592000000 0.8927000000
4.2550000000 2.4660000000 1.1793000000
4.2547000000 1.7488000000 0.9289000000
4.2546000000 0.3862000000 0.2837000000
4.2544000000 0.9742000000 0.6522000000
4.2542000000 0.5829000000 0.4224000000
4.2538000000 0.0663000000 0.0597000000
4.2536000000 5.6496000000 1.2157000000
4.2534000000 1.5410000000 0.8554000000
4.2532000000 1.5470000000 0.8546000000
4.2529000000 3.1393000000 1.4148000000
4.2527000000 3.7915000000 1.6540000000
4.2525000000 1.5378000000 0.8518000000
4.2521000000 6.8036000000 0.8131000000
4.2520000000 2.7151000000 1.2697000000
4.2518000000 2.6805000000 1.2548000000
4.2516000000 3.4869000000 1.5424000000
4.2512000000 2.9930000000 1.3680000000
4.2510000000 4.4962000000 1.6237000000
4.2503000000 1.6553000000 0.8900000000
4.2499000000 4.1404000000 1.7411000000
4.2494000000 5.3217000000 1.3327000000
4.2490000000 6.3468000000 0.9724000000
4.0141000000 7.9075000000 0.2219000000
4.0115000000 4.7693000000 1.6758000000
4.0106000000 4.3734000000 1.8129000000
4.0100000000 6.2168000000 1.1592000000
4.0093000000 4.9657000000 1.6025000000
4.0088000000 8.2168000000 0.0780000000
4.0083000000 5.7564000000 1.3267000000
4.0079000000 3.0445000000 1.5343000000
4.0076000000 0.4061000000 0.2968000000
4.0071000000 6.1558000000 1.1890000000
4.0068000000 7.5401000000 0.4882000000
4.0066000000 3.5314000000 1.7135000000
4.0063000000 4.3876000000 1.8136000000
4.0061000000 5.8400000000 1.2955000000
4.0059000000 6.2443000000 1.1531000000
4.0056000000 4.3022000000 1.8398000000
4.0054000000 5.7546000000 1.3278000000
4.0051000000 7.0430000000 0.8343000000
4.0048000000 0.2771000000 0.2033000000
4.0045000000 5.6679000000 1.3637000000
4.0043000000 5.8078000000 1.3146000000
4.0040000000 0.5409000000 0.3932000000
4.0033000000 2.4350000000 1.3238000000
4.0031000000 6.7266000000 0.9848000000
4.0029000000 1.8300000000 1.1098000000
4.0026000000 0.6698000000 0.4833000000
4.0024000000 5.5062000000 1.4244000000
4.0022000000 3.1788000000 1.5828000000
4.0018000000 6.4042000000 1.0999000000
4.0012000000 4.1960000000 1.8822000000
4.0009000000 3.1242000000 1.5646000000
4.0000000000 0.3177000000 0.2375000000
3.9995000000 1.8123000000 1.0990000000
3.9989000000 3.8075000000 1.8153000000
3.9978000000 2.7286000000 1.4276000000
3.9963000000 0.5146000000 0.3727000000
3.7622000000 7.9737000000 0.1796000000
3.7620000000 6.9398000000 0.9090000000
3.7614000000 7.6656000000 0.3959000000
3.7603000000 7.6522000000 0.4010000000
3.7600000000 6.7455000000 1.0519000000
3.7595000000 7.9780000000 0.1774000000
3.7593000000 6.4242000000 1.2316000000
3.7588000000 4.0337000000 2.0357000000
3.7581000000 5.0476000000 1.7289000000
3.7580000000 3.9340000000 2.0026000000
3.7573000000 6.0120000000 1.3914000000
3.7571000000 8.2110000000 0.0902000000
3.7569000000 6.6887000000 1.0846000000
3.7568000000 4.0059000000 2.0295000000
3.7565000000 5.5754000000 1.5493000000
3.7561000000 8.0590000000 0.1206000000
3.7558000000 1.0460000000 0.7503000000
3.7553000000 3.7105000000 1.9281000000
3.7550000000 1.3513000000 0.9631000000
3.7548000000 1.5685000000 1.1224000000
3.7545000000 4.7513000000 1.8377000000
3.7544000000 2.5884000000 1.5282000000
3.7541000000 6.7942000000 1.0176000000
3.7540000000 2.4513000000 1.4804000000
3.7538000000 1.7819000000 1.2304000000
3.7536000000 6.7617000000 1.0357000000
3.7535000000 0.1798000000 0.1361000000
3.7533000000 1.5225000000 1.0891000000
3.7531000000 0.8881000000 0.6407000000
3.7528000000 6.3173000000 1.2894000000
3.7526000000 4.3612000000 1.9768000000
3.7525000000 2.4241000000 1.4692000000
3.7523000000 3.4755000000 1.8434000000
3.7518000000 1.1896000000 0.8576000000
3.7517000000 4.9744000000 1.7585000000
3.7513000000 4.3887000000 1.9693000000
3.7508000000 0.1703000000 0.1302000000
3.7507000000 3.9216000000 1.9990000000
3.7501000000 0.1143000000 0.0957000000
3.7492000000 0.9009000000 0.6457000000
3.7490000000 2.1044000000 1.3563000000
3.7442000000 2.1973000000 1.3946000000
3.5142000000 8.0991000000 0.0914000000
3.5125000000 7.3255000000 0.6397000000
3.5115000000 7.2147000000 0.7163000000
3.5100000000 7.9494000000 0.1935000000
3.5096000000 6.3962000000 1.2957000000
3.5093000000 7.9552000000 0.1910000000
3.5088000000 2.3254000000 1.5851000000
3.5086000000 4.4132000000 2.1052000000
3.5081000000 7.3661000000 0.6033000000
3.5075000000 3.0629000000 1.8498000000
3.5072000000 5.0945000000 1.8641000000
3.5068000000 4.6514000000 2.0263000000
3.5066000000 4.1100000000 2.2103000000
3.5065000000 3.7735000000 2.1046000000
3.5061000000 0.3690000000 0.2669000000
3.5057000000 1.9511000000 1.3898000000
3.5055000000 6.5449000000 1.1904000000
3.5053000000 5.0784000000 1.8748000000
3.5052000000 5.2762000000 1.8050000000
3.5049000000 3.8885000000 2.1423000000
3.5046000000 5.0329000000 1.8952000000
3.5045000000 5.6631000000 1.6701000000
3.5043000000 7.5893000000 0.4491000000
3.5041000000 3.2878000000 1.9279000000
3.5038000000 6.8635000000 0.9632000000
3.5033000000 0.8715000000 0.6276000000
3.5031000000 5.1682000000 1.8445000000
3.5028000000 1.1220000000 0.8029000000
3.5027000000 5.7603000000 1.6314000000
3.5023000000 1.4774000000 1.0543000000
3.5023000000 6.2362000000 1.4034000000
3.5019000000 3.0724000000 1.8594000000
3.5016000000 3.6119000000 2.0435000000
3.5014000000 2.6397000000 1.6987000000
3.5010000000 2.2497000000 1.5585000000
3.5008000000 5.5698000000 1.7012000000
3.5005000000 2.5526000000 1.6711000000
3.5000000000 1.3897000000 0.9898000000
3.4985000000 2.7007000000 1.7224000000
3.4976000000 2.1854000000 1.5307000000
3.2626000000 6.6599000000 1.1077000000
3.2607000000 1.6211000000 1.1561000000
3.2605000000 6.1011000000 1.5024000000
3.2598000000 7.9063000000 0.2228000000
3.2594000000 5.6037000000 1.8291000000
3.2591000000 4.9018000000 2.0856000000
3.2587000000 6.2773000000 1.3811000000
3.2584000000 7.3776000000 0.5956000000
3.2579000000 3.5653000000 2.1849000000
3.2578000000 8.1679000000 0.0444000000
3.2571000000 5.6416000000 1.8127000000
3.2568000000 3.7288000000 2.2365000000
3.2564000000 0.7495000000 0.5393000000
3.2559000000 6.6205000000 1.1358000000
3.2557000000 5.9313000000 1.6256000000
3.2555000000 7.8150000000 0.2881000000
3.2553000000 7.7700000000 0.3198000000
3.2550000000 6.3872000000 1.3012000000
3.2548000000 8.1150000000 0.0743000000
3.2545000000 3.4119000000 2.1255000000
3.2544000000 7.7680000000 0.3229000000
3.2543000000 5.5486000000 1.8547000000
3.2541000000 5.8383000000 1.6934000000
3.2540000000 1.2520000000 0.8949000000
3.2537000000 7.5448000000 0.4842000000
3.2533000000 0.5903000000 0.4315000000
3.2530000000 3.4846000000 2.1530000000
3.2527000000 3.4057000000 2.1228000000
3.2525000000 5.7225000000 1.7608000000
3.2520000000 1.5715000000 1.1233000000
3.2519000000 3.3413000000 2.1055000000
3.2515000000 1.6688000000 1.1878000000
3.2511000000 0.4691000000 0.3410000000
3.2505000000 1.4931000000 1.0667000000
3.2495000000 2.2246000000 1.5847000000
3.2493000000 6.6545000000 1.1089000000
3.2484000000 7.4048000000 0.5829000000
3.2473000000 0.3022000000 0.2215000000
3.2467000000 6.8415000000 0.9830000000
3.2446000000 0.5922000000 0.4300000000
3.0108000000 5.2211000000 2.1139000000
3.0106000000 7.8540000000 0.2639000000
3.0100000000 4.1467000000 2.4975000000
3.0094000000 8.1883000000 0.0241000000
3.0093000000 1.4569000000 1.0413000000
3.0090000000 1.5375000000 1.0950000000
3.0087000000 5.3085000000 2.0583000000
3.0083000000 4.0661000000 2.4972000000
3.0079000000 3.8581000000 2.4352000000
3.0078000000 4.6729000000 2.3287000000
3.0076000000 7.9205000000 0.2074000000
3.0068000000 5.7354000000 1.7628000000
3.0066000000 3.7701000000 2.4068000000
3.0062000000 8.1892000000 0.0226000000
3.0060000000 3.5925000000 2.3463000000
3.0059000000 6.8968000000 0.9402000000
3.0056000000 7.2472000000 0.6930000000
3.0054000000 5.1125000000 2.1621000000
3.0052000000 2.9208000000 2.0627000000
3.0049000000 2.4690000000 1.7608000000
3.0046000000 1.0456000000 0.7468000000
3.0044000000 0.4584000000 0.3305000000
3.0041000000 6.7073000000 1.0721000000
3.0036000000 6.5761000000 1.1698000000
3.0034000000 1.9868000000 1.4110000000
3.0031000000 3.9532000000 2.4709000000
3.0029000000 1.7700000000 1.2592000000
3.0028000000 0.2960000000 0.2183000000
3.0025000000 3.4524000000 2.2991000000
3.0019000000 0.0127000000 0.0159000000
3.0012000000 1.0896000000 0.7790000000
3.0011000000 1.8513000000 1.3195000000
3.0008000000 0.3731000000 0.2705000000
3.0003000000 0.5566000000 0.4100000000
2.9995000000 0.6572000000 0.4699000000
2.9993000000 6.3895000000 1.3057000000
2.9983000000 4.9327000000 2.2376000000
2.9970000000 6.7498000000 1.0432000000
2.9967000000 2.3323000000 1.6584000000
2.9957000000 2.6295000000 1.8725000000
2.7634000000 7.4384000000 0.5532000000
2.7621000000 5.2989000000 2.0725000000
2.7611000000 4.8000000000 2.4065000000
2.7605000000 8.1148000000 0.0804000000
2.7597000000 6.6341000000 1.1218000000
2.7590000000 4.9129000000 2.3416000000
2.7587000000 0.6296000000 0.4512000000
2.7585000000 5.5304000000 1.9057000000
2.7582000000 5.3156000000 2.0619000000
2.7578000000 3.2294000000 2.2940000000
2.7575000000 8.2018000000 0.0146000000
2.7571000000 7.7097000000 0.3652000000
2.7567000000 4.4336000000 2.5590000000
2.7565000000 3.5785000000 2.4868000000
2.7563000000 4.9216000000 2.3391000000
2.7559000000 6.1608000000 1.4545000000
2.7558000000 5.6539000000 1.8187000000
2.7555000000 0.3199000000 0.2362000000
2.7553000000 5.2132000000 2.1295000000
2.7551000000 4.0457000000 2.6583000000
2.7549000000 2.4586000000 1.7470000000
2.7545000000 3.0650000000 2.1742000000
2.7542000000 2.4607000000 1.7484000000
2.7540000000 5.5973000000 1.8629000000
2.7537000000 1.8679000000 1.3305000000
2.7535000000 3.9601000000 2.6280000000
2.7533000000 5.2491000000 2.1108000000
2.7531000000 5.4532000000 1.9627000000
2.7529000000 5.9245000000 1.6266000000
2.7527000000 5.8602000000 1.6761000000
2.7523000000 4.7658000000 2.4343000000
2.7522000000 6.1342000000 1.4809000000
2.7520000000 7.5423000000 0.4862000000
2.7513000000 0.7724000000 0.5554000000
2.7510000000 4.7114000000 2.4574000000
2.7508000000 7.0306000000 0.8468000000
2.7506000000 6.4305000000 1.2691000000
2.7504000000 7.4629000000 0.5410000000
2.7484000000 1.6125000000 1.1515000000
2.7480000000 0.0727000000 0.0518000000
2.7469000000 1.2653000000 0.9103000000
2.7452000000 0.6801000000 0.4932000000
2.5100000000 0.4183000000 0.3010000000
2.5094000000 5.8516000000 1.6779000000
2.5092000000 6.4132000000 1.2763000000
2.5083000000 7.2185000000 0.7118000000
2.5081000000 6.5156000000 1.2087000000
2.5076000000 7.7861000000 0.3094000000
2.5074000000 4.2045000000 2.7981000000
2.5071000000 6.0465000000 1.5468000000
2.5069000000 7.8361000000 0.2758000000
2.5065000000 6.3181000000 1.3510000000
2.5062000000 5.5428000000 1.8968000000
2.5060000000 3.2342000000 2.2965000000
2.5054000000 5.8022000000 1.7209000000
2.5051000000 2.1174000000 1.5097000000
2.5050000000 3.6672000000 2.5961000000
2.5046000000 7.2505000000 0.6912000000
2.5044000000 3.8551000000 2.7224000000
2.5041000000 4.0276000000 2.8025000000
2.5037000000 7.3387000000 0.6292000000
2.5035000000 2.2428000000 1.6040000000
2.5033000000 1.8949000000 1.3462000000
2.5028000000 2.6754000000 1.9002000000
2.5023000000 3.1229000000 2.2170000000
2.5020000000 3.5223000000 2.5013000000
2.5017000000 4.1852000000 2.8073000000
2.5013000000 5.3739000000 2.0170000000
2.5010000000 1.7899000000 1.2759000000
2.5007000000 0.4235000000 0.3079000000
2.5001000000 1.4533000000 1.0376000000
2.4998000000 0.2849000000 0.2123000000
2.4992000000 4.9750000000 2.3014000000
2.4990000000 4.7566000000 2.4516000000
2.4980000000 1.2605000000 0.8984000000
2.4969000000 5.8893000000 1.6588000000
2.2650000000 6.4570000000 1.2537000000
2.2628000000 7.7372000000 0.3430000000
2.2623000000 5.9765000000 1.5909000000
2.2604000000 8.1270000000 0.0694000000
2.2602000000 3.5865000000 2.5482000000
2.2592000000 6.9905000000 0.8761000000
2.2586000000 2.3249000000 1.6593000000
2.2583000000 3.9746000000 2.7937000000
2.2580000000 6.0152000000 1.5654000000
2.2579000000 7.7639000000 0.3217000000
2.2575000000 6.4177000000 1.2820000000
2.2573000000 6.9916000000 0.8771000000
2.2569000000 6.6729000000 1.0938000000
2.2565000000 5.3985000000 2.0004000000
2.2564000000 1.0779000000 0.7691000000
2.2563000000 5.2093000000 2.1345000000
2.2560000000 3.1202000000 2.2171000000
2.2560000000 3.1027000000 2.2043000000
2.2558000000 1.1658000000 0.8352000000
2.2557000000 4.1263000000 2.8110000000
2.2553000000 7.3727000000 0.6083000000
2.2550000000 5.8142000000 1.7053000000
2.2550000000 3.5717000000 2.5367000000
2.2547000000 5.5038000000 1.9242000000
2.2544000000 6.0796000000 1.5208000000
2.2542000000 6.3609000000 1.3154000000
2.2539000000 4.2982000000 2.7615000000
2.2537000000 0.4334000000 0.3149000000
2.2534000000 0.9208000000 0.6608000000
2.2530000000 4.1792000000 2.8158000000
2.2529000000 0.9778000000 0.6975000000
2.2525000000 7.5168000000 0.5006000000
2.2523000000 5.5816000000 1.8763000000
2.2520000000 1.4138000000 1.0189000000
2.2518000000 2.3339000000 1.6585000000
2.2514000000 1.5380000000 1.0942000000
2.2510000000 3.0332000000 2.1517000000
2.2507000000 4.9694000000 2.3067000000
2.2500000000 5.5657000000 1.8831000000
2.2492000000 5.0727000000 2.2288000000
2.2456000000 3.0475000000 2.1653000000
2.0134000000 7.3298000000 0.6382000000
2.0119000000 5.5919000000 1.8655000000
2.0107000000 5.5710000000 1.8728000000
2.0103000000 3.9652000000 2.6443000000
2.0093000000 7.3316000000 0.6323000000
2.0090000000 1.6168000000 1.1535000000
2.0085000000 6.0290000000 1.5524000000
2.0078000000 4.6748000000 2.4788000000
2.0075000000 4.7425000000 2.4473000000
2.0072000000 4.1737000000 2.6712000000
2.0068000000 6.4939000000 1.2332000000
2.0065000000 3.6595000000 2.5333000000
2.0063000000 6.5934000000 1.1540000000
2.0060000000 2.4708000000 1.7576000000
2.0058000000 4.3610000000 2.5983000000
2.0056000000 6.2935000000 1.3705000000
2.0052000000 7.3613000000 0.6110000000
2.0048000000 8.1084000000 0.0814000000
2.0043000000 7.1841000000 0.7368000000
2.0039000000 2.4121000000 1.7196000000
2.0037000000 4.0314000000 2.6636000000
2.0033000000 6.3359000000 1.3309000000
2.0032000000 6.2202000000 1.4198000000
2.0028000000 4.2878000000 2.6222000000
2.0026000000 2.9996000000 2.1300000000
2.0024000000 0.2603000000 0.1995000000
2.0021000000 3.6904000000 2.5439000000
2.0020000000 5.7958000000 1.7161000000
2.0017000000 0.1683000000 0.1356000000
2.0011000000 1.5075000000 1.0761000000
2.0008000000 1.1873000000 0.8423000000
1.9999000000 7.8576000000 0.2602000000
1.9986000000 0.6076000000 0.4373000000
1.9983000000 3.8879000000 2.6022000000
1.9976000000 0.0450000000 0.0397000000
1.9962000000 2.6655000000 1.9008000000
1.7615000000 3.2123000000 2.2245000000
1.7608000000 6.9205000000 0.9201000000
1.7605000000 7.6081000000 0.4342000000
1.7598000000 6.1578000000 1.4622000000
1.7588000000 6.9628000000 0.8932000000
1.7586000000 3.9820000000 2.4963000000
1.7582000000 0.8132000000 0.5879000000
1.7577000000 7.8325000000 0.2802000000
1.7573000000 0.8765000000 0.6284000000
1.7571000000 7.0176000000 0.8564000000
1.7568000000 0.1804000000 0.1399000000
1.7565000000 6.9299000000 0.9132000000
1.7563000000 3.9738000000 2.4921000000
1.7562000000 0.8598000000 0.6209000000
1.7560000000 4.9435000000 2.2378000000
1.7558000000 2.1843000000 1.5520000000
1.7555000000 6.7903000000 1.0102000000
1.7553000000 6.7652000000 1.0371000000
1.7551000000 6.6036000000 1.1421000000
1.7549000000 7.7896000000 0.3064000000
1.7546000000 2.9804000000 2.1028000000
1.7545000000 2.5829000000 1.8389000000
1.7543000000 2.7689000000 1.9628000000
1.7541000000 8.0881000000 0.0970000000
1.7539000000 5.4387000000 1.9771000000
1.7537000000 0.3672000000 0.2668000000
1.7534000000 1.3477000000 0.9590000000
1.7531000000 2.4806000000 1.7635000000
1.7529000000 0.0995000000 0.0790000000
1.7527000000 1.0806000000 0.7775000000
1.7525000000 2.7671000000 1.9709000000
1.7522000000 4.5561000000 2.3810000000
1.7520000000 1.8178000000 1.3002000000
1.7518000000 1.9693000000 1.4080000000
1.7514000000 5.9880000000 1.5854000000
1.7512000000 5.9790000000 1.5916000000
1.7509000000 1.1857000000 0.8506000000
1.7507000000 2.8424000000 2.0190000000
1.7504000000 3.3525000000 2.2677000000
1.7500000000 5.8977000000 1.6476000000
1.7496000000 3.7609000000 2.4124000000
1.7488000000 5.0307000000 2.2026000000
1.7481000000 3.0101000000 2.1269000000
1.7463000000 5.5850000000 1.8648000000
1.5112000000 7.7719000000 0.3260000000
1.5107000000 1.8712000000 1.3302000000
1.5102000000 3.0669000000 2.0179000000
1.5094000000 0.9465000000 0.6825000000
1.5091000000 6.2783000000 1.3781000000
1.5089000000 7.1418000000 0.7658000000
1.5087000000 7.2553000000 0.6903000000
1.5085000000 2.4494000000 1.7417000000
1.5082000000 8.1338000000 0.0631000000
1.5080000000 4.7853000000 2.1464000000
1.5076000000 7.9595000000 0.1910000000
1.5071000000 3.7077000000 2.2460000000
1.5064000000 4.4337000000 2.2654000000
1.5061000000 0.3859000000 0.2815000000
1.5060000000 4.8682000000 2.1192000000
1.5056000000 3.3745000000 2.1231000000
1.5052000000 2.5905000000 1.8280000000
1.5050000000 7.1741000000 0.7446000000
1.5048000000 7.3845000000 0.5941000000
1.5044000000 1.0677000000 0.7681000000
1.5040000000 0.1469000000 0.1161000000
1.5037000000 6.6474000000 1.1165000000
1.5035000000 7.1408000000 0.7680000000
1.5033000000 2.1506000000 1.5265000000
1.5031000000 1.3209000000 0.9485000000
1.5030000000 6.8911000000 0.9436000000
1.5028000000 7.3042000000 0.6539000000
1.5024000000 4.7879000000 2.1384000000
1.5023000000 7.4622000000 0.5381000000
1.5021000000 1.3814000000 0.9909000000
1.5019000000 1.5293000000 1.0870000000
1.5018000000 2.9207000000 1.9603000000
1.5015000000 6.6960000000 1.0802000000
1.5010000000 3.1370000000 2.0401000000
1.5005000000 4.4764000000 2.2479000000
1.5002000000 3.4154000000 2.1412000000
1.4999000000 5.4478000000 1.9014000000
1.4994000000 0.5257000000 0.3835000000
1.4988000000 0.2753000000 0.2033000000
1.4979000000 2.7038000000 1.8798000000
1.4975000000 2.1753000000 1.5512000000
1.2687000000 5.2014000000 1.8507000000
1.2625000000 5.1826000000 1.8540000000
1.2620000000 7.8327000000 0.2774000000
1.2604000000 6.4818000000 1.2310000000
1.2593000000 8.0870000000 0.0964000000
1.2591000000 3.3813000000 1.9817000000
1.2582000000 7.4140000000 0.5767000000
1.2579000000 1.6634000000 1.1838000000
1.2577000000 2.5775000000 1.6919000000
1.2575000000 7.0213000000 0.8527000000
1.2572000000 2.0585000000 1.4637000000
1.2571000000 4.1042000000 2.2235000000
1.2568000000 1.5053000000 1.0718000000
1.2565000000 2.6856000000 1.7260000000
1.2562000000 1.0067000000 0.7237000000
1.2559000000 7.8094000000 0.2969000000
1.2555000000 3.6152000000 2.0585000000
1.2553000000 3.4896000000 2.0161000000
1.2551000000 3.1605000000 1.8955000000
1.2547000000 4.3283000000 2.1494000000
1.2545000000 2.4314000000 1.6382000000
1.2544000000 5.2649000000 1.8192000000
1.2542000000 1.8080000000 1.2895000000
1.2540000000 0.0912000000 0.0719000000
1.2538000000 3.8545000000 2.1419000000
1.2534000000 8.1993000000 0.0229000000
1.2533000000 4.2941000000 2.1668000000
1.2530000000 3.2432000000 1.9214000000
1.2528000000 2.5988000000 1.6971000000
1.2525000000 6.9433000000 0.8982000000
1.2522000000 2.6496000000 1.7126000000
1.2515000000 0.8399000000 0.6071000000
1.2510000000 0.2115000000 0.1607000000
1.2509000000 4.4713000000 2.0949000000
1.2504000000 7.3581000000 0.6159000000
1.2498000000 1.0053000000 0.7216000000
1.2493000000 4.4990000000 2.0859000000
1.2487000000 0.3715000000 0.2738000000
1.2482000000 2.8475000000 1.7815000000
1.2476000000 0.5157000000 0.3770000000
1.2469000000 3.0966000000 1.8644000000
1.2453000000 2.3530000000 1.6040000000
1.0120000000 7.6594000000 0.3935000000
1.0115000000 3.9111000000 2.0113000000
1.0106000000 0.2973000000 0.2181000000
1.0101000000 7.8871000000 0.2377000000
1.0092000000 4.2904000000 2.0167000000
1.0088000000 7.6248000000 0.4278000000
1.0087000000 5.2298000000 1.6791000000
1.0083000000 3.7209000000 1.9420000000
1.0081000000 7.8950000000 0.2358000000
1.0076000000 6.2715000000 1.3131000000
1.0073000000 6.7926000000 1.0135000000
1.0068000000 8.1066000000 0.0827000000
1.0065000000 1.6180000000 1.1518000000
1.0062000000 1.3541000000 0.9708000000
1.0060000000 3.1120000000 1.7244000000
1.0058000000 4.1049000000 2.0666000000
1.0055000000 6.3162000000 1.2995000000
1.0053000000 7.5076000000 0.5098000000
1.0050000000 4.3939000000 1.9763000000
1.0048000000 6.1944000000 1.3392000000
1.0047000000 0.8214000000 0.5938000000
1.0045000000 5.6732000000 1.5283000000
1.0043000000 0.2964000000 0.2166000000
1.0040000000 7.5809000000 0.4571000000
1.0038000000 4.6008000000 1.9014000000
1.0036000000 5.1560000000 1.7018000000
1.0035000000 2.8672000000 1.6395000000
1.0032000000 6.4003000000 1.2583000000
1.0030000000 3.0496000000 1.6986000000
1.0028000000 6.8327000000 0.9827000000
1.0023000000 4.1531000000 2.0489000000
1.0022000000 6.0663000000 1.3882000000
1.0018000000 7.6385000000 0.4166000000
1.0016000000 4.1527000000 2.0487000000
1.0012000000 3.6702000000 1.9201000000
1.0008000000 5.0690000000 1.7361000000
1.0002000000 6.1738000000 1.3453000000
0.9999000000 1.9615000000 1.3189000000
0.9993000000 0.5190000000 0.3789000000
0.9983000000 4.3679000000 1.9824000000
0.9980000000 5.6480000000 1.5308000000
0.9949000000 2.8217000000 1.6171000000
0.7628000000 6.0851000000 1.2285000000
0.7620000000 6.2031000000 1.1909000000
0.7606000000 5.8442000000 1.3114000000
0.7604000000 5.3426000000 1.4931000000
0.7595000000 0.4016000000 0.2919000000
0.7584000000 6.7091000000 1.0083000000
0.7578000000 5.9906000000 1.2624000000
0.7574000000 4.8616000000 1.6600000000
0.7570000000 4.0074000000 1.8949000000
0.7567000000 7.7478000000 0.3358000000
0.7565000000 1.3856000000 0.9508000000
0.7560000000 5.7985000000 1.3273000000
0.7558000000 1.4693000000 0.9922000000
0.7556000000 0.6385000000 0.4574000000
0.7553000000 1.6789000000 1.0691000000
0.7552000000 4.1211000000 1.9053000000
0.7550000000 6.2595000000 1.1577000000
0.7549000000 4.5174000000 1.7827000000
0.7546000000 2.3696000000 1.3160000000
0.7544000000 0.7682000000 0.5525000000
0.7541000000 3.5818000000 1.7402000000
0.7537000000 0.6460000000 0.4679000000
0.7535000000 7.3119000000 0.6459000000
0.7533000000 3.5081000000 1.7118000000
0.7530000000 3.9322000000 1.8585000000
0.7530000000 4.6991000000 1.7166000000
0.7527000000 6.2731000000 1.1547000000
0.7524000000 1.9849000000 1.1747000000
0.7521000000 1.1578000000 0.8308000000
0.7518000000 6.0773000000 1.2278000000
0.7514000000 5.8399000000 1.3079000000
0.7510000000 2.3252000000 1.2940000000
0.7506000000 0.2633000000 0.1980000000
0.7503000000 1.8137000000 1.1134000000
0.7497000000 4.7100000000 1.7087000000
0.7494000000 1.3100000000 0.9189000000
0.7490000000 5.3454000000 1.4801000000
0.7480000000 1.2586000000 0.8923000000
0.7472000000 0.5362000000 0.3930000000
0.7468000000 0.2053000000 0.1578000000
0.5130000000 6.4181000000 0.9590000000
0.5115000000 4.5267000000 1.6250000000
0.5103000000 4.7603000000 1.5408000000
0.5098000000 5.3581000000 1.3356000000
0.5089000000 4.1168000000 1.7604000000
0.5085000000 7.7943000000 0.3091000000
0.5084000000 4.6802000000 1.5690000000
0.5079000000 3.9462000000 1.7174000000
0.5074000000 7.1113000000 0.7156000000
0.5072000000 1.1802000000 0.7426000000
0.5069000000 3.4632000000 1.5440000000
0.5068000000 1.1666000000 0.7383000000
0.5063000000 3.3046000000 1.4888000000
0.5061000000 0.1631000000 0.1293000000
0.5058000000 1.7378000000 0.9321000000
0.5057000000 1.4687000000 0.8381000000
0.5054000000 0.1264000000 0.0938000000
0.5052000000 1.7462000000 0.9393000000
0.5050000000 0.6808000000 0.4928000000
0.5048000000 7.0442000000 0.7264000000
0.5046000000 0.5089000000 0.3635000000
0.5043000000 5.7615000000 1.1860000000
0.5042000000 5.8796000000 1.1456000000
0.5039000000 1.6063000000 0.8865000000
0.5038000000 2.3696000000 1.1587000000
0.5036000000 6.4659000000 0.9334000000
0.5035000000 7.3559000000 0.6062000000
0.5033000000 3.9197000000 1.7018000000
0.5029000000 1.4726000000 0.8380000000
0.5028000000 0.7530000000 0.5438000000
0.5026000000 5.6271000000 1.2280000000
0.5023000000 0.5694000000 0.4118000000
0.5019000000 5.5320000000 1.2648000000
0.5017000000 3.5096000000 1.5586000000
0.5013000000 2.8664000000 1.3275000000
0.5007000000 1.9550000000 1.0077000000
0.5002000000 0.1574000000 0.1159000000
0.4998000000 0.6085000000 0.4403000000
0.4993000000 6.9659000000 0.7618000000
0.4984000000 4.2809000000 1.7044000000
0.4955000000 4.9083000000 1.4816000000
0.4921000000 2.2044000000 1.0976000000
0.2634000000 1.8441000000 0.8224000000
0.2610000000 7.8486000000 0.2629000000
0.2598000000 7.9827000000 0.1711000000
0.2589000000 0.0314000000 0.0371000000
0.2584000000 6.0925000000 0.9167000000
0.2578000000 5.4301000000 1.1519000000
0.2572000000 2.4869000000 1.0455000000
0.2570000000 5.4154000000 1.1568000000
0.2567000000 3.1208000000 1.2710000000
0.2563000000 4.2509000000 1.5731000000
0.2561000000 6.5251000000 0.7652000000
0.2555000000 0.5748000000 0.3697000000
0.2553000000 5.3851000000 1.1665000000
0.2550000000 7.1276000000 0.5452000000
0.2549000000 4.9742000000 1.3134000000
0.2544000000 7.8866000000 0.2329000000
0.2541000000 5.6646000000 1.0680000000
0.2538000000 7.2732000000 0.4956000000
0.2537000000 5.1555000000 1.2464000000
0.2533000000 0.5373000000 0.3502000000
0.2532000000 0.8738000000 0.4697000000
0.2530000000 0.6674000000 0.4014000000
0.2529000000 2.9528000000 1.2092000000
0.2525000000 2.1047000000 0.9140000000
0.2523000000 3.8273000000 1.5140000000
0.2520000000 2.0070000000 0.8779000000
0.2519000000 4.8526000000 1.3501000000
0.2515000000 0.4619000000 0.3136000000
0.2513000000 7.4015000000 0.4511000000
0.2506000000 1.8601000000 0.8224000000
0.2505000000 3.3765000000 1.3573000000
0.2500000000 3.3565000000 1.3458000000
0.2498000000 1.5101000000 0.6985000000
0.2489000000 3.9012000000 1.5443000000
0.2483000000 2.0298000000 0.8737000000
0.2479000000 5.9828000000 0.9515000000
0.2462000000 4.4657000000 1.4845000000
0.0132000000 7.1364000000 0.3990000000
0.0109000000 6.2632000000 0.7048000000
0.0093000000 5.8229000000 0.8552000000
0.0089000000 2.4917000000 0.8983000000
0.0082000000 4.6507000000 1.2688000000
0.0081000000 6.1368000000 0.7503000000
0.0076000000 7.5754000000 0.2456000000
0.0073000000 5.8630000000 0.8439000000
0.0070000000 7.7549000000 0.1747000000
0.0067000000 8.2267000000 0.0604000000
0.0064000000 2.3603000000 0.8503000000
0.0058000000 6.1105000000 0.7617000000
0.0054000000 4.6407000000 1.2800000000
0.0053000000 1.3989000000 0.5073000000
0.0050000000 7.8259000000 0.1504000000
0.0049000000 7.7820000000 0.1647000000
0.0048000000 0.8679000000 0.3199000000
0.0045000000 1.2255000000 0.4509000000
0.0043000000 5.7331000000 0.8862000000
0.0041000000 3.5357000000 1.2638000000
0.0035000000 4.5567000000 1.3042000000
0.0031000000 4.6083000000 1.2815000000
0.0027000000 0.8524000000 0.3149000000
0.0023000000 5.6720000000 0.9131000000
0.0020000000 3.5293000000 1.2597000000
0.0016000000 2.4548000000 0.8824000000
0.0013000000 5.0182000000 1.1405000000
0.0012000000 0.8520000000 0.3133000000
0.0009000000 6.1437000000 0.7457000000
0.0005000000 2.6033000000 0.9307000000
0.0003000000 1.4305000000 0.5204000000
0.0000000000 3.3002000000 1.1800000000
-0.0010000000 0.3157000000 0.1209000000
-0.0014000000 4.9750000000 1.1561000000
-0.0019000000 5.1003000000 1.1112000000
-0.0022000000 3.7257000000 1.3278000000
-0.0039000000 0.8850000000 0.3168000000
-0.0046000000 0.0193000000 0.0772000000
-0.0089000000 0.1677000000 0.0607000000
-0.2391000000 7.2792000000 0.1892000000
-0.2406000000 7.9193000000 0.0427000000
-0.2415000000 2.3320000000 0.6826000000
-0.2419000000 3.4355000000 1.0789000000
-0.2422000000 3.7704000000 1.1946000000
-0.2428000000 8.0202000000 0.0028000000
-0.2432000000 2.4112000000 0.7198000000
-0.2435000000 6.2738000000 0.5449000000
-0.2439000000 7.5088000000 0.1042000000
-0.2442000000 1.3065000000 0.3261000000
-0.2448000000 7.4687000000 0.1190000000
-0.2451000000 1.6119000000 0.4340000000
-0.2454000000 7.0644000000 0.2678000000
-0.2455000000 7.9854000000 0.0154000000
-0.2458000000 4.9245000000 1.0224000000
-0.2462000000 3.8054000000 1.2036000000
-0.2467000000 6.9460000000 0.3068000000
-0.2471000000 3.1756000000 0.9796000000
-0.2473000000 2.2510000000 0.6546000000
-0.2474000000 0.7813000000 0.1330000000
-0.2479000000 5.2446000000 0.9072000000
-0.2483000000 7.7957000000 0.0800000000
-0.2485000000 1.1097000000 0.2516000000
-0.2489000000 3.9401000000 1.2442000000
-0.2492000000 3.1448000000 0.9764000000
-0.2494000000 5.9061000000 0.6685000000
-0.2496000000 0.9715000000 0.1982000000
-0.2498000000 2.6474000000 0.7952000000
-0.2504000000 4.2156000000 1.2627000000
-0.2510000000 3.0813000000 0.9412000000
-0.2511000000 5.6517000000 0.7634000000
-0.2547000000 2.6657000000 0.7959000000
-0.4850000000 6.3356000000 0.3810000000
-0.4889000000 6.5793000000 0.2920000000
-0.4899000000 2.8675000000 0.7266000000
-0.4906000000 6.1720000000 0.4294000000
-0.4918000000 5.4042000000 0.7011000000
-0.4922000000 4.8686000000 0.8892000000
-0.4930000000 3.0274000000 0.7796000000
-0.4932000000 6.5910000000 0.2811000000
-0.4938000000 3.8191000000 1.0529000000
-0.4940000000 6.4744000000 0.3170000000
-0.4945000000 6.7013000000 0.2433000000
-0.4948000000 6.7514000000 0.2239000000
-0.4951000000 5.4221000000 0.6916000000
-0.4956000000 0.8038000000 0.0657000000
-0.4960000000 5.2870000000 0.7408000000
-0.4961000000 0.8571000000 0.0766000000
-0.4964000000 4.6121000000 0.9778000000
-0.4967000000 3.5579000000 0.9656000000
-0.4970000000 6.1410000000 0.4329000000
-0.4974000000 5.1937000000 0.7757000000
-0.4977000000 5.9198000000 0.5116000000
-0.4980000000 3.2237000000 0.8452000000
-0.4983000000 4.7195000000 0.9391000000
-0.4987000000 3.0305000000 0.7754000000
-0.4989000000 1.5325000000 0.2486000000
-0.4998000000 7.5305000000 0.0168000000
-0.5011000000 5.2675000000 0.7443000000
-0.5019000000 5.3377000000 0.7180000000
-0.5032000000 1.4287000000 0.2056000000
-0.5050000000 6.4551000000 0.3193000000
-0.7372000000 6.2688000000 0.2488000000
-0.7390000000 7.1076000000 0.0228000000
-0.7417000000 2.3203000000 0.3775000000
-0.7425000000 3.8937000000 0.9317000000
-0.7432000000 4.5533000000 0.8532000000
-0.7436000000 3.9963000000 0.9693000000
-0.7440000000 6.4167000000 0.1886000000
-0.7443000000 4.8302000000 0.7538000000
-0.7446000000 4.8349000000 0.7493000000
-0.7453000000 5.7524000000 0.4162000000
-0.7457000000 3.8418000000 0.9104000000
-0.7459000000 3.5298000000 0.8009000000
-0.7463000000 5.2364000000 0.6106000000
-0.7465000000 3.2703000000 0.7115000000
-0.7471000000 6.9328000000 0.0742000000
-0.7475000000 5.5094000000 0.5110000000
-0.7477000000 3.0835000000 0.6502000000
-0.7480000000 6.5462000000 0.1402000000
-0.7488000000 5.3934000000 0.5474000000
-0.7489000000 3.6030000000 0.8236000000
-0.7497000000 2.9891000000 0.6125000000
-0.7501000000 2.1704000000 0.3184000000
-0.7510000000 3.0215000000 0.6210000000
-0.7517000000 3.6464000000 0.8376000000
-0.7523000000 1.2952000000 0.0870000000
-0.9915000000 5.9361000000 0.2103000000
-0.9928000000 3.9420000000 0.7972000000
-0.9935000000 3.0923000000 0.4999000000
-0.9942000000 5.2473000000 0.4513000000
-0.9950000000 6.1545000000 0.1269000000
-0.9952000000 5.8448000000 0.2360000000
-0.9959000000 5.0195000000 0.5274000000
-0.9963000000 3.6499000000 0.6897000000
-0.9966000000 4.0612000000 0.8283000000
-0.9969000000 2.0180000000 0.1140000000
-0.9972000000 2.8158000000 0.3931000000
-0.9974000000 3.3681000000 0.5912000000
-0.9978000000 4.7435000000 0.6229000000
-0.9980000000 5.9199000000 0.2125000000
-0.9984000000 1.5512000000 0.0194000000
-0.9987000000 5.0779000000 0.5075000000
-0.9989000000 1.7572000000 0.0170000000
-0.9994000000 1.7990000000 0.0376000000
-1.0005000000 5.9145000000 0.2100000000
-1.0007000000 2.1731000000 0.1672000000
-1.0048000000 1.8247000000 0.0426000000
-1.2405000000 5.3724000000 0.2578000000
-1.2426000000 4.9281000000 0.4049000000
-1.2431000000 5.7247000000 0.1253000000
-1.2434000000 2.3104000000 0.0666000000
-1.2437000000 4.4310000000 0.5880000000
-1.2442000000 4.6356000000 0.5126000000
-1.2445000000 3.4646000000 0.4704000000
-1.2449000000 5.6977000000 0.1390000000
-1.2452000000 6.2902000000 0.0053000000
-1.2462000000 2.0259000000 0.0389000000
-1.2471000000 2.3149000000 0.0635000000
-1.2476000000 5.7434000000 0.1142000000
-1.2482000000 3.2060000000 0.3735000000
-1.2487000000 3.3705000000 0.4312000000
-1.2491000000 2.1662000000 0.0074000000
-1.2495000000 5.7382000000 0.1191000000
-1.2503000000 3.8935000000 0.6205000000
-1.2507000000 3.9760000000 0.6495000000
-1.4877000000 5.3925000000 0.0967000000
-1.4919000000 5.4798000000 0.0675000000
-1.4924000000 4.7509000000 0.3162000000
-1.4928000000 3.8181000000 0.4433000000
-1.4934000000 2.9664000000 0.1469000000
-1.4940000000 2.6121000000 0.0188000000
-1.4950000000 2.5974000000 0.0139000000
-1.4951000000 4.8560000000 0.2786000000
-1.4959000000 5.0142000000 0.2209000000
-1.4965000000 3.7355000000 0.4122000000
-1.4970000000 3.5518000000 0.3430000000
-1.4977000000 3.3469000000 0.2768000000
-1.4990000000 4.1833000000 0.5185000000
-1.5004000000 5.7662000000 0.0306000000
-1.5009000000 3.8670000000 0.4575000000
-1.5030000000 5.0436000000 0.2100000000
-1.7394000000 3.7209000000 0.2635000000
-1.7409000000 3.7178000000 0.2543000000
-1.7432000000 5.0151000000 0.0691000000
-1.7446000000 4.8536000000 0.1302000000
-1.7460000000 5.1583000000 0.0244000000
-1.7475000000 3.7147000000 0.2550000000
-1.7488000000 4.9139000000 0.1055000000
-1.7490000000 5.2263000000 0.0710000000
-1.7512000000 3.4637000000 0.1571000000
-1.7516000000 4.9966000000 0.0737000000
-1.9872000000 4.7575000000 0.0109000000
-1.9932000000 3.7861000000 0.1247000000
-1.9936000000 4.5156000000 0.0911000000
-1.9955000000 3.5965000000 0.0574000000
-1.9979000000 4.7102000000 0.0262000000
-1.9990000000 4.2224000000 0.1967000000
