3.7626000000 3.4587000000 0.6280000000
3.7619000000 5.1050000000 0.0434000000
3.7611000000 4.2205000000 0.3590000000
3.7594000000 3.8434000000 0.4894000000
3.7596000000 2.3770000000 0.6219000000
3.7584000000 5.2523000000 0.0699000000
3.7581000000 5.3402000000 0.0400000000
3.7580000000 3.5757000000 0.5897000000
3.7579000000 1.9918000000 0.4924000000
3.7576000000 4.2355000000 0.3536000000
3.7575000000 1.5752000000 0.3331000000
3.7573000000 1.7373000000 0.3968000000
3.7571000000 2.4329000000 0.6451000000
3.7570000000 2.6662000000 0.7320000000
3.7570000000 3.7904000000 0.5138000000
3.7567000000 1.9166000000 0.4622000000
3.7566000000 4.8319000000 0.1441000000
3.7564000000 2.5801000000 0.6937000000
3.7564000000 5.1013000000 0.0484000000
3.7563000000 5.3584000000 0.0297000000
3.7560000000 0.7385000000 0.0429000000
3.7558000000 4.5632000000 0.2427000000
3.7558000000 2.2141000000 0.5665000000
3.7557000000 2.8522000000 0.7951000000
3.7555000000 0.5635000000 0.0562000000
3.7554000000 1.2122000000 0.2111000000
3.7553000000 4.2134000000 0.3637000000
3.7550000000 4.4399000000 0.2799000000
3.7549000000 5.4225000000 0.0147000000
3.7546000000 0.7070000000 0.0303000000
3.7545000000 1.2183000000 0.2145000000
3.7543000000 1.6758000000 0.3764000000
3.7541000000 5.0766000000 0.0596000000
3.7541000000 0.4807000000 0.0324000000
3.7539000000 0.8421000000 0.0814000000
3.7538000000 3.0698000000 0.7680000000
3.7537000000 5.1026000000 0.0547000000
3.7536000000 1.9388000000 0.4739000000
3.7535000000 5.1488000000 0.0378000000
3.7534000000 4.5442000000 0.2492000000
3.7533000000 0.5611000000 0.0537000000
3.7533000000 4.9519000000 0.0981000000
3.7532000000 1.4394000000 0.2904000000
3.7531000000 1.1535000000 0.1909000000
3.7530000000 0.6567000000 0.0153000000
3.7530000000 2.9093000000 0.7984000000
3.7529000000 4.9637000000 0.1038000000
3.7528000000 3.8016000000 0.5109000000
3.7528000000 1.5148000000 0.3175000000
3.7527000000 1.9699000000 0.4799000000
3.7526000000 2.2553000000 0.5816000000
3.7524000000 5.4268000000 0.0042000000
3.7524000000 4.1643000000 0.3866000000
3.7523000000 1.8004000000 0.4195000000
3.7518000000 2.7871000000 0.7721000000
3.7513000000 2.0075000000 0.4993000000
3.7513000000 5.3362000000 0.0409000000
3.7511000000 4.3313000000 0.3279000000
3.7510000000 3.6357000000 0.5720000000
3.7508000000 2.6682000000 0.7312000000
3.7505000000 2.1781000000 0.5542000000
3.7505000000 3.9198000000 0.4778000000
3.7504000000 4.8240000000 0.1552000000
3.7504000000 3.0798000000 0.7685000000
3.7500000000 2.9588000000 0.7964000000
3.7495000000 1.6126000000 0.3577000000
3.7495000000 3.3951000000 0.6564000000
3.7493000000 0.7284000000 0.0402000000
3.7488000000 4.3397000000 0.3212000000
3.7477000000 2.3771000000 0.6281000000
3.7477000000 0.9768000000 0.1321000000
3.7463000000 0.4363000000 0.0136000000
3.7450000000 1.8970000000 0.4610000000
3.7445000000 0.4724000000 0.0280000000
3.5155000000 4.5752000000 0.3836000000
3.5153000000 4.4286000000 0.4391000000
3.5150000000 3.8300000000 0.6495000000
3.5107000000 4.9376000000 0.2568000000
3.5103000000 4.7056000000 0.3442000000
3.5100000000 5.5290000000 0.0509000000
3.5093000000 5.0799000000 0.2117000000
3.5088000000 3.0401000000 0.9307000000
3.5087000000 3.9200000000 0.6181000000
3.5082000000 0.3749000000 0.0622000000
3.5080000000 4.3550000000 0.4645000000
3.5080000000 4.8359000000 0.2933000000
3.5077000000 2.0386000000 0.6567000000
3.5075000000 5.2610000000 0.1457000000
3.5069000000 4.5594000000 0.3926000000
3.5068000000 1.3906000000 0.4271000000
3.5067000000 4.8636000000 0.2836000000
3.5067000000 2.9407000000 0.9527000000
3.5065000000 3.5194000000 0.7629000000
3.5062000000 4.4223000000 0.4398000000
3.5061000000 3.2529000000 0.8577000000
3.5060000000 0.9157000000 0.2589000000
3.5058000000 0.9590000000 0.2740000000
3.5055000000 5.5017000000 0.0621000000
3.5053000000 0.4563000000 0.0931000000
3.5052000000 2.7315000000 0.9035000000
3.5052000000 2.7432000000 0.9073000000
3.5050000000 3.9473000000 0.6124000000
3.5050000000 5.2907000000 0.1325000000
3.5050000000 1.2629000000 0.3854000000
3.5049000000 3.1816000000 0.8808000000
3.5049000000 3.6336000000 0.7232000000
3.5047000000 5.8010000000 0.0311000000
3.5044000000 3.2689000000 0.8525000000
3.5043000000 0.5707000000 0.1325000000
3.5041000000 1.8934000000 0.6027000000
3.5040000000 4.2667000000 0.4970000000
3.5040000000 3.0813000000 0.9186000000
3.5039000000 0.1070000000 0.0490000000
3.5039000000 3.4188000000 0.7986000000
3.5038000000 3.8265000000 0.6585000000
3.5037000000 2.2635000000 0.7343000000
3.5036000000 1.3787000000 0.4226000000
3.5035000000 1.8318000000 0.5792000000
3.5035000000 1.1059000000 0.3341000000
3.5034000000 0.3945000000 0.0746000000
3.5033000000 1.3176000000 0.4062000000
3.5031000000 1.3671000000 0.4180000000
3.5030000000 4.9845000000 0.2479000000
3.5029000000 0.9747000000 0.2843000000
3.5028000000 4.2033000000 0.5271000000
3.5028000000 2.9729000000 0.9462000000
3.5027000000 1.1252000000 0.3361000000
3.5027000000 4.4884000000 0.4200000000
3.5026000000 1.1737000000 0.3482000000
3.5025000000 2.2903000000 0.7483000000
3.5025000000 3.2234000000 0.8724000000
3.5024000000 3.1904000000 0.8832000000
3.5023000000 3.8111000000 0.6607000000
3.5022000000 1.8277000000 0.5817000000
3.5022000000 1.9614000000 0.6296000000
3.5018000000 4.9754000000 0.2481000000
3.5018000000 0.4494000000 0.0961000000
3.5016000000 3.7418000000 0.6831000000
3.5015000000 3.5182000000 0.7651000000
3.5015000000 0.0908000000 0.0400000000
3.5013000000 1.2634000000 0.3798000000
3.5013000000 1.1709000000 0.3496000000
3.5011000000 0.1886000000 0.0748000000
3.5011000000 0.9273000000 0.2606000000
3.5010000000 5.5671000000 0.0409000000
3.5012000000 2.5446000000 0.8308000000
3.5006000000 2.0632000000 0.6705000000
3.5005000000 2.2277000000 0.7217000000
3.5003000000 1.4722000000 0.4595000000
3.5002000000 1.9870000000 0.6370000000
3.4999000000 0.4008000000 0.0837000000
3.4997000000 0.0680000000 0.0400000000
3.4995000000 1.2209000000 0.3741000000
3.4991000000 0.9949000000 0.2916000000
3.4987000000 1.6457000000 0.5229000000
3.4983000000 4.7565000000 0.3363000000
3.4970000000 4.9870000000 0.2507000000
3.4970000000 2.5827000000 0.8551000000
3.4962000000 4.0046000000 0.5973000000
3.4961000000 2.3777000000 0.7831000000
3.4954000000 0.5064000000 0.1173000000
3.4953000000 3.1819000000 0.8766000000
3.2615000000 1.3518000000 0.5680000000
3.2614000000 5.0375000000 0.3745000000
3.2603000000 3.3152000000 0.9875000000
3.2591000000 1.2832000000 0.5461000000
3.2589000000 5.2335000000 0.3034000000
3.2587000000 4.7714000000 0.4726000000
3.2586000000 2.1152000000 0.8359000000
3.2585000000 1.9585000000 0.7767000000
3.2582000000 2.3551000000 0.9178000000
3.2576000000 5.3858000000 0.2535000000
3.2575000000 5.1128000000 0.3507000000
3.2574000000 1.7877000000 0.7168000000
3.2571000000 2.3292000000 0.9106000000
3.2570000000 5.1141000000 0.3529000000
3.2570000000 0.0959000000 0.0784000000
3.2569000000 2.5632000000 0.9968000000
3.2568000000 2.7659000000 1.0679000000
3.2567000000 0.5058000000 0.2663000000
3.2566000000 2.5498000000 0.9914000000
3.2563000000 1.8077000000 0.7261000000
3.2560000000 0.2635000000 0.1698000000
3.2560000000 3.1142000000 1.0610000000
3.2558000000 5.4049000000 0.2516000000
3.2556000000 1.9118000000 0.7732000000
3.2557000000 3.9922000000 0.7493000000
3.2555000000 5.1382000000 0.3437000000
3.2554000000 4.7564000000 0.4803000000
3.2553000000 0.5553000000 0.2828000000
3.2551000000 4.5824000000 0.5393000000
3.2549000000 1.1764000000 0.5104000000
3.2549000000 5.0490000000 0.3748000000
3.2547000000 3.1246000000 1.0571000000
3.2546000000 2.6315000000 1.0221000000
3.2546000000 0.7123000000 0.3444000000
3.2545000000 5.6053000000 0.1659000000
3.2542000000 1.1532000000 0.4963000000
3.2542000000 0.6923000000 0.3354000000
3.2559000000 4.9735000000 0.4045000000
3.2540000000 4.5389000000 0.5579000000
3.2539000000 1.8447000000 0.7455000000
3.2537000000 0.0564000000 0.0535000000
3.2536000000 3.9546000000 0.7633000000
3.2534000000 1.3352000000 0.5630000000
3.2533000000 3.3066000000 0.9960000000
3.2533000000 4.2177000000 0.6657000000
3.2533000000 2.2012000000 0.8731000000
3.2532000000 4.3541000000 0.6223000000
3.2532000000 0.5033000000 0.2645000000
3.2531000000 0.7015000000 0.3349000000
3.2528000000 2.3071000000 0.9074000000
3.2528000000 2.3628000000 0.9279000000
3.2527000000 2.7235000000 1.0508000000
3.2526000000 4.2782000000 0.6535000000
3.2524000000 2.6677000000 1.0338000000
3.2523000000 1.7280000000 0.7041000000
3.2522000000 0.2176000000 0.1518000000
3.2522000000 2.9604000000 1.0978000000
3.2520000000 1.1760000000 0.5070000000
3.2519000000 1.7686000000 0.7176000000
3.2519000000 0.4792000000 0.2625000000
3.2518000000 1.8420000000 0.7404000000
3.2515000000 1.2405000000 0.5272000000
3.2514000000 4.6795000000 0.5112000000
3.2512000000 2.9830000000 1.1070000000
3.2510000000 0.5124000000 0.2716000000
3.2510000000 2.4836000000 0.9738000000
3.2509000000 2.4748000000 0.9691000000
3.2508000000 1.0020000000 0.4494000000
3.2507000000 0.9922000000 0.4447000000
3.2505000000 2.6967000000 1.0473000000
3.2500000000 1.0104000000 0.4487000000
3.2502000000 4.5305000000 0.5610000000
3.2496000000 4.6278000000 0.5237000000
3.2496000000 4.0423000000 0.7362000000
3.2487000000 1.7854000000 0.7240000000
3.2487000000 5.5365000000 0.1967000000
3.2484000000 3.8698000000 0.7976000000
3.2476000000 4.6177000000 0.5309000000
3.2473000000 2.1940000000 0.8697000000
3.2466000000 5.5969000000 0.1769000000
3.0159000000 5.1668000000 0.4720000000
3.0120000000 5.3782000000 0.3505000000
3.0112000000 1.3293000000 0.7158000000
3.0107000000 4.0043000000 0.8958000000
3.0106000000 5.8433000000 0.0210000000
3.0092000000 5.8097000000 0.0421000000
3.0090000000 2.9840000000 1.2546000000
3.0086000000 2.6277000000 1.1740000000
3.0084000000 5.4392000000 0.3089000000
3.0083000000 2.7692000000 1.2175000000
3.0080000000 4.8516000000 0.5985000000
3.0078000000 4.4188000000 0.7502000000
3.0070000000 5.1126000000 0.4958000000
3.0069000000 4.4262000000 0.7461000000
3.0067000000 4.0208000000 0.8865000000
3.0064000000 3.4292000000 1.1015000000
3.0063000000 5.8048000000 0.0498000000
3.0062000000 1.0343000000 0.6092000000
3.0060000000 1.1111000000 0.6334000000
3.0060000000 0.3310000000 0.2430000000
3.0058000000 1.6221000000 0.8124000000
3.0057000000 1.4106000000 0.7441000000
3.0057000000 0.9646000000 0.5816000000
3.0056000000 5.5380000000 0.2387000000
3.0055000000 3.7466000000 0.9945000000
3.0054000000 3.6589000000 1.0253000000
3.0054000000 3.6500000000 1.0220000000
3.0053000000 3.7266000000 1.0005000000
3.0053000000 3.4439000000 1.0984000000
3.0051000000 5.2778000000 0.4110000000
3.0050000000 3.8266000000 0.9653000000
3.0048000000 4.2467000000 0.8112000000
3.0047000000 1.5161000000 0.7871000000
3.0045000000 0.8238000000 0.5280000000
3.0045000000 1.0030000000 0.5988000000
3.0044000000 5.5332000000 0.2440000000
3.0042000000 2.6869000000 1.1931000000
3.0041000000 5.5781000000 0.2099000000
3.0041000000 1.4178000000 0.7470000000
3.0040000000 3.8358000000 0.9572000000
3.0039000000 0.5832000000 0.4176000000
3.0039000000 2.6442000000 1.1822000000
3.0038000000 3.0170000000 1.2495000000
3.0037000000 1.5281000000 0.7860000000
3.0036000000 4.8895000000 0.5832000000
3.0035000000 2.0606000000 0.9713000000
3.0034000000 4.1019000000 0.8626000000
3.0033000000 4.0301000000 0.8919000000
3.0033000000 0.3731000000 0.2718000000
3.0033000000 5.5322000000 0.2421000000
3.0037000000 1.6767000000 0.8402000000
3.0031000000 2.6283000000 1.1691000000
3.0028000000 0.0240000000 0.0291000000
3.0028000000 4.4472000000 0.7428000000
3.0027000000 1.8392000000 0.8911000000
3.0026000000 3.9533000000 0.9167000000
3.0025000000 3.1170000000 1.2168000000
3.0025000000 0.1478000000 0.1137000000
3.0023000000 2.6853000000 1.1948000000
3.0022000000 3.7933000000 0.9731000000
3.0022000000 3.8809000000 0.9478000000
3.0019000000 0.0285000000 0.0359000000
3.0018000000 0.4486000000 0.3304000000
3.0017000000 3.7600000000 0.9830000000
3.0017000000 3.4348000000 1.1045000000
3.0016000000 3.7566000000 0.9908000000
3.0015000000 0.0213000000 0.0254000000
3.0015000000 2.2653000000 1.0460000000
3.0014000000 4.4348000000 0.7491000000
3.0013000000 0.9802000000 0.5863000000
3.0013000000 1.8794000000 0.9108000000
3.0008000000 0.0146000000 0.0212000000
3.0007000000 3.7689000000 0.9817000000
3.0005000000 5.5641000000 0.2191000000
3.0004000000 1.1415000000 0.6476000000
3.0003000000 1.0589000000 0.6210000000
3.0001000000 1.7623000000 0.8682000000
3.0001000000 0.5347000000 0.3932000000
3.0000000000 5.8221000000 0.0387000000
3.0000000000 0.1857000000 0.1452000000
2.9999000000 0.8578000000 0.5442000000
2.9991000000 0.5112000000 0.3690000000
2.9990000000 2.0649000000 0.9706000000
2.7634000000 3.9958000000 1.0516000000
2.7598000000 4.1964000000 0.9823000000
2.7596000000 5.1893000000 0.4795000000
2.7592000000 4.5004000000 0.8720000000
2.7591000000 4.1582000000 0.9939000000
2.7590000000 4.8022000000 0.7479000000
2.7589000000 3.8678000000 1.0963000000
2.7588000000 0.7191000000 0.5122000000
2.7578000000 2.6847000000 1.3452000000
2.7577000000 3.9749000000 1.0585000000
2.7575000000 3.7599000000 1.1423000000
2.7574000000 0.7471000000 0.5391000000
2.7573000000 4.9924000000 0.6298000000
2.7573000000 3.8100000000 1.1206000000
2.7570000000 3.5815000000 1.2030000000
2.7569000000 2.4601000000 1.2579000000
2.7564000000 2.5553000000 1.3019000000
2.7562000000 2.9560000000 1.4150000000
2.7560000000 0.0285000000 0.0294000000
2.7557000000 4.0211000000 1.0436000000
2.7555000000 2.0428000000 1.1165000000
2.7555000000 0.1851000000 0.1368000000
2.7554000000 5.6232000000 0.1787000000
2.7552000000 2.8151000000 1.3898000000
2.7551000000 3.3255000000 1.2947000000
2.7549000000 2.7029000000 1.3523000000
2.7549000000 5.7866000000 0.0595000000
2.7548000000 1.3892000000 0.8885000000
2.7544000000 5.2933000000 0.4157000000
2.7543000000 1.7430000000 1.0110000000
2.7541000000 2.0062000000 1.1038000000
2.7541000000 1.0059000000 0.7130000000
2.7540000000 0.6155000000 0.4422000000
2.7540000000 3.1779000000 1.3425000000
2.7538000000 3.3328000000 1.2879000000
2.7537000000 1.8478000000 1.0521000000
2.7538000000 2.8194000000 1.3997000000
2.7536000000 1.6899000000 0.9930000000
2.7534000000 4.7688000000 0.7761000000
2.7533000000 4.6197000000 0.8331000000
2.7532000000 2.6402000000 1.3336000000
2.7531000000 2.4593000000 1.2636000000
2.7532000000 5.3785000000 0.3555000000
2.7531000000 5.4898000000 0.2729000000
2.7530000000 5.3471000000 0.3723000000
2.7530000000 2.4202000000 1.2446000000
2.7530000000 5.8513000000 0.0191000000
2.7529000000 5.7886000000 0.0625000000
2.7528000000 2.2500000000 1.1923000000
2.7525000000 5.8428000000 0.0212000000
2.7523000000 3.5196000000 1.2199000000
2.7523000000 4.7036000000 0.7925000000
2.7522000000 1.5571000000 0.9463000000
2.7521000000 4.5977000000 0.8450000000
2.7520000000 5.3266000000 0.3900000000
2.7519000000 0.2958000000 0.2208000000
2.7518000000 5.3843000000 0.3517000000
2.7518000000 0.1062000000 0.0883000000
2.7517000000 5.0489000000 0.5836000000
2.7515000000 1.3298000000 0.8673000000
2.7515000000 3.2477000000 1.3173000000
2.7510000000 2.6425000000 1.3310000000
2.7510000000 5.7785000000 0.0714000000
2.7509000000 5.0894000000 0.5559000000
2.7505000000 1.6869000000 0.9925000000
2.7503000000 3.4578000000 1.2463000000
2.7503000000 1.9955000000 1.1059000000
2.7502000000 0.3171000000 0.2312000000
2.7501000000 3.0798000000 1.3812000000
2.7498000000 5.6807000000 0.1331000000
2.7498000000 2.5281000000 1.2945000000
2.7495000000 5.0243000000 0.5974000000
2.7492000000 3.2992000000 1.3095000000
2.7490000000 5.6203000000 0.1829000000
2.7488000000 2.6286000000 1.3309000000
2.7484000000 0.1599000000 0.1264000000
2.7483000000 2.1909000000 1.1776000000
2.7479000000 1.8798000000 1.0700000000
2.7475000000 1.6164000000 0.9712000000
2.7471000000 3.3790000000 1.2761000000
2.7470000000 1.7923000000 1.0303000000
2.7470000000 3.5216000000 1.2253000000
2.7438000000 0.2038000000 0.1519000000
2.5124000000 3.5060000000 1.3797000000
2.5115000000 2.7412000000 1.5221000000
2.5105000000 5.0786000000 0.5643000000
2.5103000000 0.2740000000 0.1996000000
2.5100000000 4.2122000000 1.1282000000
2.5097000000 1.8815000000 1.2101000000
2.5094000000 5.4362000000 0.3105000000
2.5093000000 5.6272000000 0.1754000000
2.5093000000 3.3334000000 1.4389000000
2.5092000000 4.1217000000 1.1594000000
2.5091000000 1.9454000000 1.2412000000
2.5087000000 5.0451000000 0.5845000000
2.5085000000 5.4607000000 0.2927000000
2.5083000000 2.9270000000 1.5727000000
2.5081000000 3.0059000000 1.5526000000
2.5080000000 3.9211000000 1.2310000000
2.5076000000 0.5569000000 0.4069000000
2.5076000000 5.6202000000 0.1817000000
2.5075000000 5.8755000000 0.0708000000
2.5073000000 5.0944000000 0.5558000000
2.5072000000 3.0889000000 1.5317000000
2.5069000000 5.7920000000 0.0557000000
2.5068000000 0.7155000000 0.5174000000
2.5067000000 3.6604000000 1.3258000000
2.5064000000 5.1801000000 0.4950000000
2.5063000000 5.8706000000 0.0846000000
2.5061000000 3.7617000000 1.2934000000
2.5058000000 5.5532000000 0.2286000000
2.5057000000 2.3560000000 1.3818000000
2.5056000000 5.7445000000 0.0948000000
2.5056000000 4.0235000000 1.2021000000
2.5055000000 2.7005000000 1.5054000000
2.5055000000 4.6856000000 0.8407000000
2.5053000000 0.8669000000 0.6244000000
2.5052000000 4.0957000000 1.1731000000
2.5050000000 4.3873000000 1.0452000000
2.5048000000 5.1831000000 0.4827000000
2.5048000000 5.0386000000 0.5914000000
2.5047000000 3.2267000000 1.4829000000
2.5046000000 4.1407000000 1.1558000000
2.5044000000 0.6673000000 0.4846000000
2.5046000000 0.5159000000 0.3803000000
2.5043000000 5.6211000000 0.1801000000
2.5041000000 0.0839000000 0.0694000000
2.5041000000 1.7217000000 1.1607000000
2.5040000000 2.8111000000 1.5475000000
2.5039000000 4.9308000000 0.6688000000
2.5038000000 0.5788000000 0.4214000000
2.5037000000 0.5326000000 0.3915000000
2.5037000000 0.8877000000 0.6422000000
2.5038000000 1.0832000000 0.7804000000
2.5036000000 2.2406000000 1.3422000000
2.5033000000 1.6291000000 1.1274000000
2.5033000000 4.6689000000 0.8516000000
2.5032000000 0.0100000000 0.0181000000
2.5030000000 0.5806000000 0.4190000000
2.5030000000 3.7836000000 1.2832000000
2.5027000000 0.0530000000 0.0489000000
2.5026000000 1.9904000000 1.2594000000
2.5028000000 1.1373000000 0.8112000000
2.5025000000 0.2029000000 0.1517000000
2.5025000000 5.1640000000 0.5015000000
2.5024000000 2.0173000000 1.2651000000
2.5021000000 0.0054000000 0.0169000000
2.5020000000 5.3816000000 0.3515000000
2.5019000000 1.1015000000 0.7905000000
2.5015000000 4.4809000000 0.9842000000
2.5014000000 1.3677000000 0.9762000000
2.5013000000 1.0611000000 0.7604000000
2.5013000000 4.0277000000 1.2021000000
2.5010000000 3.3470000000 1.4365000000
2.5009000000 1.5373000000 1.0832000000
2.5008000000 2.0209000000 1.2674000000
2.5006000000 0.1521000000 0.1171000000
2.5005000000 4.4648000000 0.9939000000
2.5005000000 0.4686000000 0.3458000000
2.5004000000 5.2134000000 0.4715000000
2.5003000000 3.6572000000 1.3321000000
2.5001000000 4.7624000000 0.7807000000
2.4999000000 0.0169000000 0.0240000000
2.4998000000 0.6245000000 0.4549000000
2.4993000000 2.2442000000 1.3426000000
2.4990000000 2.0613000000 1.2809000000
2.4981000000 1.4686000000 1.0404000000
2.4980000000 1.4546000000 1.0296000000
2.4976000000 2.7992000000 1.5427000000
2.4954000000 5.3755000000 0.3585000000
2.2625000000 4.9672000000 0.6428000000
2.2616000000 4.0658000000 1.2819000000
2.2611000000 5.3248000000 0.3857000000
2.2606000000 1.7325000000 1.2431000000
2.2597000000 5.2679000000 0.4352000000
2.2596000000 1.8555000000 1.3134000000
2.2593000000 1.2242000000 0.8737000000
2.2590000000 5.0178000000 0.6092000000
2.2590000000 2.7384000000 1.6688000000
2.2587000000 5.0326000000 0.5944000000
2.2585000000 5.1051000000 0.5452000000
2.2580000000 2.9743000000 1.7101000000
2.2571000000 3.0180000000 1.7056000000
2.2571000000 4.9552000000 0.6506000000
2.2570000000 2.2590000000 1.5004000000
2.2566000000 5.1220000000 0.5339000000
2.2565000000 1.1916000000 0.8530000000
2.2564000000 4.1125000000 1.2487000000
2.2564000000 1.0518000000 0.7535000000
2.2563000000 0.2704000000 0.2010000000
2.2562000000 3.4772000000 1.5536000000
2.2561000000 5.0388000000 0.5887000000
2.2560000000 0.1159000000 0.0873000000
2.2559000000 4.0880000000 1.2647000000
2.2559000000 1.5888000000 1.1361000000
2.2558000000 5.6921000000 0.1319000000
2.2558000000 4.9507000000 0.6543000000
2.2556000000 2.6854000000 1.6562000000
2.2553000000 4.8351000000 0.7346000000
2.2552000000 1.6430000000 1.1764000000
2.2552000000 2.4013000000 1.5553000000
2.2551000000 1.8031000000 1.2913000000
2.2550000000 1.3958000000 0.9958000000
2.2550000000 2.9260000000 1.7268000000
2.2547000000 4.5308000000 0.9499000000
2.2546000000 1.1441000000 0.8225000000
2.2545000000 2.2147000000 1.4879000000
2.2543000000 3.4685000000 1.5527000000
2.2540000000 4.3821000000 1.0497000000
2.2540000000 3.0507000000 1.6990000000
2.2538000000 4.6718000000 0.8505000000
2.2538000000 1.3195000000 0.9383000000
2.2538000000 5.8525000000 0.0196000000
2.2537000000 3.9646000000 1.3376000000
2.2537000000 0.9899000000 0.7118000000
2.2536000000 0.1874000000 0.1421000000
2.2536000000 0.3631000000 0.2710000000
2.2535000000 3.4427000000 1.5572000000
2.2533000000 2.6326000000 1.6350000000
2.2533000000 1.2313000000 0.8807000000
2.2532000000 2.1007000000 1.4463000000
2.2531000000 4.8684000000 0.7129000000
2.2530000000 5.7487000000 0.0921000000
2.2529000000 1.0410000000 0.7454000000
2.2530000000 2.5033000000 1.5859000000
2.2528000000 0.4290000000 0.3177000000
2.2528000000 5.5189000000 0.2483000000
2.2525000000 0.5785000000 0.4180000000
2.2525000000 2.3009000000 1.5225000000
2.2522000000 0.1668000000 0.1298000000
2.2520000000 3.1049000000 1.6818000000
2.2517000000 4.7408000000 0.8007000000
2.2515000000 0.9607000000 0.6889000000
2.2512000000 5.4713000000 0.2864000000
2.2511000000 3.7093000000 1.4601000000
2.2507000000 2.3743000000 1.5447000000
2.2505000000 2.1971000000 1.4835000000
2.2505000000 1.8715000000 1.3205000000
2.2504000000 0.7165000000 0.5224000000
2.2500000000 0.1722000000 0.1339000000
2.2498000000 1.4209000000 1.0164000000
2.2497000000 0.1978000000 0.1513000000
2.2493000000 1.8954000000 1.3381000000
2.2492000000 2.3353000000 1.5398000000
2.2490000000 0.6743000000 0.4862000000
2.2488000000 3.8194000000 1.4200000000
2.2485000000 1.7164000000 1.2275000000
2.2483000000 0.7784000000 0.5657000000
2.2481000000 3.9304000000 1.3671000000
2.2479000000 3.1920000000 1.6558000000
2.2472000000 0.2495000000 0.1828000000
2.2470000000 2.9926000000 1.7212000000
2.2466000000 2.2442000000 1.5062000000
2.2464000000 5.2047000000 0.4779000000
2.2460000000 3.3517000000 1.5944000000
2.2443000000 0.8400000000 0.6026000000
2.2428000000 0.1211000000 0.0903000000
2.0114000000 4.8153000000 0.7526000000
2.0113000000 3.9607000000 1.3562000000
2.0106000000 3.5816000000 1.6137000000
2.0100000000 3.4749000000 1.6883000000
2.0099000000 0.5248000000 0.3765000000
2.0087000000 3.4367000000 1.7030000000
2.0085000000 4.0795000000 1.2718000000
2.0082000000 2.4436000000 1.7067000000
2.0080000000 3.2045000000 1.7972000000
2.0079000000 3.1855000000 1.8031000000
2.0077000000 4.0912000000 1.2638000000
2.0076000000 0.7251000000 0.5247000000
2.0075000000 5.3729000000 0.3557000000
2.0073000000 4.5309000000 0.9511000000
2.0073000000 5.6483000000 0.1588000000
2.0068000000 2.8024000000 1.8469000000
2.0065000000 3.2765000000 1.7683000000
2.0064000000 0.9936000000 0.7191000000
2.0062000000 4.4637000000 1.0008000000
2.0059000000 3.8450000000 1.4374000000
2.0058000000 1.5213000000 1.0897000000
2.0055000000 2.6101000000 1.7762000000
2.0054000000 1.6010000000 1.1447000000
2.0053000000 0.8979000000 0.6433000000
2.0049000000 0.6850000000 0.4977000000
2.0048000000 3.9099000000 1.3899000000
2.0047000000 1.3420000000 0.9563000000
2.0046000000 5.3480000000 0.3736000000
2.0045000000 3.9441000000 1.3697000000
2.0045000000 5.5364000000 0.2347000000
2.0044000000 5.0052000000 0.6200000000
2.0042000000 3.0962000000 1.8339000000
2.0040000000 1.0606000000 0.7611000000
2.0037000000 2.5748000000 1.7664000000
2.0035000000 3.7389000000 1.5123000000
2.0033000000 2.7070000000 1.8141000000
2.0033000000 0.5001000000 0.3670000000
2.0030000000 4.4484000000 1.0128000000
2.0027000000 2.1239000000 1.5164000000
2.0025000000 3.5044000000 1.6718000000
2.0025000000 1.0913000000 0.7807000000
2.0023000000 4.4939000000 0.9798000000
2.0022000000 2.6436000000 1.7943000000
2.0020000000 2.5998000000 1.7777000000
2.0020000000 4.6215000000 0.8828000000
2.0019000000 0.1613000000 0.1285000000
2.0018000000 4.3560000000 1.0753000000
2.0018000000 2.0905000000 1.4916000000
2.0017000000 1.4346000000 1.0216000000
2.0015000000 5.5410000000 0.2354000000
2.0014000000 1.5614000000 1.1116000000
2.0014000000 1.7244000000 1.2338000000
2.0013000000 0.5587000000 0.4047000000
2.0013000000 5.5259000000 0.2440000000
2.0011000000 1.8319000000 1.3102000000
2.0010000000 4.6147000000 0.8916000000
2.0008000000 0.5701000000 0.4116000000
2.0007000000 4.0975000000 1.2585000000
2.0005000000 1.3918000000 0.9955000000
2.0005000000 4.1986000000 1.1859000000
2.0003000000 0.0142000000 0.0168000000
2.0002000000 1.1559000000 0.8276000000
1.9999000000 0.3551000000 0.2662000000
1.9998000000 1.0133000000 0.7244000000
1.9971000000 5.7957000000 0.0549000000
1.9967000000 2.1881000000 1.5606000000
1.9959000000 4.4423000000 1.0181000000
1.9948000000 0.6722000000 0.4848000000
1.7621000000 0.7350000000 0.5328000000
1.7610000000 4.5106000000 0.9625000000
1.7605000000 3.2664000000 1.8471000000
1.7604000000 4.2232000000 1.1672000000
1.7598000000 5.0862000000 0.5616000000
1.7596000000 4.2796000000 1.1291000000
1.7595000000 4.9785000000 0.6364000000
1.7593000000 2.6594000000 1.8929000000
1.7592000000 5.3069000000 0.4031000000
1.7590000000 5.1570000000 0.5057000000
1.7584000000 5.2360000000 0.4513000000
1.7581000000 2.6536000000 1.8889000000
1.7578000000 0.7487000000 0.5418000000
1.7578000000 0.6017000000 0.4322000000
1.7575000000 4.2426000000 1.1593000000
1.7575000000 4.7884000000 0.7684000000
1.7573000000 4.0740000000 1.2718000000
1.7573000000 2.3677000000 1.6867000000
1.7573000000 1.7259000000 1.2311000000
1.7572000000 1.4811000000 1.0616000000
1.7570000000 2.1677000000 1.5493000000
1.7568000000 1.2551000000 0.9016000000
1.7567000000 3.2921000000 1.8334000000
1.7566000000 2.1274000000 1.5195000000
1.7566000000 5.2297000000 0.4617000000
1.7565000000 3.0149000000 1.9921000000
1.7564000000 5.4250000000 0.3172000000
1.7563000000 5.1557000000 0.5078000000
1.7562000000 0.2899000000 0.2100000000
1.7560000000 0.1431000000 0.1097000000
1.7559000000 4.1170000000 1.2426000000
1.7558000000 2.8084000000 1.9890000000
1.7556000000 2.4048000000 1.7163000000
1.7556000000 4.0241000000 1.3150000000
1.7553000000 3.7815000000 1.4841000000
1.7552000000 3.8616000000 1.4232000000
1.7552000000 0.6333000000 0.4549000000
1.7550000000 5.5491000000 0.2323000000
1.7550000000 3.2946000000 1.8291000000
1.7549000000 0.7364000000 0.5279000000
1.7547000000 3.9689000000 1.3590000000
1.7546000000 4.9836000000 0.6310000000
1.7546000000 5.3058000000 0.4044000000
1.7545000000 4.3930000000 1.0476000000
1.7550000000 4.9221000000 0.6763000000
1.7543000000 4.7526000000 0.7909000000
1.7541000000 5.1175000000 0.5330000000
1.7539000000 3.0788000000 1.9675000000
1.7538000000 3.6122000000 1.5984000000
1.7538000000 1.7999000000 1.2809000000
1.7538000000 4.9897000000 0.6256000000
1.7536000000 5.4449000000 0.3045000000
1.7533000000 0.9982000000 0.7179000000
1.7533000000 1.7544000000 1.2484000000
1.7532000000 4.6533000000 0.8597000000
1.7531000000 4.7381000000 0.8062000000
1.7530000000 2.9756000000 1.9899000000
1.7530000000 4.8559000000 0.7200000000
1.7529000000 2.9786000000 1.9893000000
1.7528000000 5.2508000000 0.4395000000
1.7525000000 0.7924000000 0.5667000000
1.7524000000 3.8471000000 1.4382000000
1.7523000000 1.4022000000 1.0005000000
1.7522000000 2.1879000000 1.5598000000
1.7520000000 2.7769000000 1.9701000000
1.7518000000 3.3772000000 1.7647000000
1.7515000000 1.8113000000 1.2944000000
1.7514000000 0.2058000000 0.1553000000
1.7513000000 0.2575000000 0.1901000000
1.7511000000 5.4862000000 0.2728000000
1.7510000000 3.1435000000 1.9321000000
1.7508000000 3.9210000000 1.3827000000
1.7507000000 0.4513000000 0.3274000000
1.7504000000 5.3811000000 0.3473000000
1.7503000000 1.7019000000 1.2153000000
1.7503000000 0.5735000000 0.4163000000
1.7502000000 1.9555000000 1.3951000000
1.7499000000 3.4495000000 1.7209000000
1.7497000000 3.0145000000 1.9905000000
1.7495000000 4.1384000000 1.2269000000
1.7495000000 2.4458000000 1.7450000000
1.7493000000 0.2130000000 0.1617000000
1.7490000000 0.1297000000 0.0980000000
1.7485000000 1.9056000000 1.3610000000
1.7471000000 1.4486000000 1.0395000000
1.7464000000 3.7382000000 1.5100000000
1.7463000000 1.6369000000 1.1731000000
1.7407000000 5.3696000000 0.3532000000
1.5133000000 5.4307000000 0.3172000000
1.5127000000 5.4578000000 0.2935000000
1.5100000000 3.7284000000 1.5218000000
1.5097000000 0.7038000000 0.5074000000
1.5092000000 4.2366000000 1.1651000000
1.5091000000 5.1517000000 0.5121000000
1.5085000000 3.3318000000 1.7958000000
1.5081000000 1.5225000000 1.0877000000
1.5074000000 0.5811000000 0.4195000000
1.5073000000 5.6305000000 0.1686000000
1.5072000000 5.7865000000 0.0666000000
1.5070000000 4.5363000000 0.9467000000
1.5069000000 0.9671000000 0.7011000000
1.5066000000 1.6070000000 1.1490000000
1.5066000000 5.1537000000 0.5112000000
1.5065000000 2.9234000000 1.9642000000
1.5064000000 5.5520000000 0.2293000000
1.5063000000 2.4225000000 1.7282000000
1.5063000000 1.6265000000 1.1637000000
1.5061000000 1.4550000000 1.0415000000
1.5059000000 0.4684000000 0.3407000000
1.5058000000 0.5369000000 0.3871000000
1.5057000000 3.3138000000 1.8092000000
1.5057000000 0.9077000000 0.6477000000
1.5053000000 5.7881000000 0.0626000000
1.5049000000 3.1762000000 1.8759000000
1.5048000000 1.0262000000 0.7374000000
1.5047000000 3.7766000000 1.4887000000
1.5047000000 4.2369000000 1.1609000000
1.5046000000 2.9578000000 1.9514000000
1.5044000000 4.1396000000 1.2255000000
1.5043000000 1.8521000000 1.3265000000
1.5042000000 2.1709000000 1.5510000000
1.5042000000 2.9017000000 1.9499000000
1.5041000000 4.5714000000 0.9240000000
1.5040000000 5.7352000000 0.1034000000
1.5039000000 0.6895000000 0.4948000000
1.5038000000 0.9658000000 0.6922000000
1.5038000000 4.3215000000 1.0985000000
1.5035000000 4.9332000000 0.6668000000
1.5034000000 2.6722000000 1.8665000000
1.5033000000 5.4977000000 0.2649000000
1.5031000000 1.7002000000 1.2148000000
1.5030000000 1.6138000000 1.1582000000
1.5029000000 2.2529000000 1.6056000000
1.5028000000 5.3920000000 0.3421000000
1.5027000000 1.3999000000 0.9975000000
1.5026000000 4.4921000000 0.9805000000
1.5025000000 0.5687000000 0.4103000000
1.5025000000 3.9606000000 1.3591000000
1.5024000000 4.7151000000 0.8209000000
1.5023000000 3.1655000000 1.8792000000
1.5023000000 0.9549000000 0.6862000000
1.5022000000 3.6651000000 1.5743000000
1.5022000000 4.2437000000 1.1557000000
1.5018000000 0.9256000000 0.6610000000
1.5015000000 3.1920000000 1.8635000000
1.5014000000 3.8951000000 1.4031000000
1.5012000000 4.0228000000 1.3113000000
1.5009000000 1.2084000000 0.8649000000
1.5008000000 4.0830000000 1.2688000000
1.5005000000 4.3889000000 1.0552000000
1.5004000000 0.2960000000 0.2184000000
1.5004000000 3.3692000000 1.7657000000
1.5003000000 3.9373000000 1.3745000000
1.5000000000 0.8420000000 0.6103000000
1.4998000000 0.0193000000 0.0265000000
1.4997000000 0.3815000000 0.2804000000
1.4996000000 1.0504000000 0.7582000000
1.4991000000 0.3850000000 0.2807000000
1.4989000000 1.4003000000 1.0041000000
1.4985000000 5.3240000000 0.3884000000
1.4985000000 5.3049000000 0.4017000000
1.4977000000 0.6802000000 0.4926000000
1.4976000000 4.1958000000 1.1938000000
1.4974000000 0.4868000000 0.3556000000
1.4964000000 2.1018000000 1.4964000000
1.4953000000 0.7705000000 0.5582000000
1.2630000000 5.1212000000 0.5371000000
1.2612000000 3.6851000000 1.5378000000
1.2601000000 4.8435000000 0.7298000000
1.2591000000 0.3509000000 0.2608000000
1.2589000000 4.7638000000 0.7948000000
1.2588000000 0.7590000000 0.5510000000
1.2583000000 5.6420000000 0.1644000000
1.2578000000 4.9062000000 0.6835000000
1.2576000000 1.4083000000 1.0075000000
1.2576000000 3.2498000000 1.7079000000
1.2573000000 3.0849000000 1.7694000000
1.2572000000 0.3335000000 0.2421000000
1.2573000000 0.3585000000 0.2639000000
1.2571000000 2.2628000000 1.5699000000
1.2570000000 1.0416000000 0.7471000000
1.2568000000 1.1821000000 0.8513000000
1.2565000000 5.8212000000 0.0330000000
1.2564000000 2.6485000000 1.7201000000
1.2563000000 2.9118000000 1.8006000000
1.2562000000 1.0980000000 0.7920000000
1.2558000000 3.1023000000 1.7596000000
1.2556000000 4.2876000000 1.1255000000
1.2555000000 4.4973000000 0.9752000000
1.2554000000 5.6211000000 0.1803000000
1.2553000000 1.7194000000 1.2317000000
1.2553000000 1.3157000000 0.9417000000
1.2551000000 2.6483000000 1.7181000000
1.2546000000 0.3317000000 0.2453000000
1.2544000000 5.7209000000 0.1053000000
1.2543000000 2.2289000000 1.5587000000
1.2542000000 5.7476000000 0.0916000000
1.2543000000 0.4605000000 0.3351000000
1.2540000000 2.4268000000 1.6353000000
1.2539000000 2.0675000000 1.4712000000
1.2538000000 1.9099000000 1.3638000000
1.2538000000 0.9227000000 0.6611000000
1.2537000000 0.0524000000 0.0474000000
1.2535000000 0.6203000000 0.4540000000
1.2534000000 0.3396000000 0.2542000000
1.2533000000 3.4381000000 1.6366000000
1.2533000000 1.0380000000 0.7446000000
1.2532000000 4.6626000000 0.8581000000
1.2532000000 3.8264000000 1.4463000000
1.2530000000 5.7514000000 0.0876000000
1.2527000000 0.2425000000 0.1841000000
1.2527000000 4.5956000000 0.9034000000
1.2525000000 4.5361000000 0.9436000000
1.2525000000 5.3943000000 0.3430000000
1.2523000000 5.8477000000 0.0163000000
1.2522000000 2.4499000000 1.6435000000
1.2521000000 5.7150000000 0.1094000000
1.2519000000 4.9747000000 0.6369000000
1.2518000000 0.4868000000 0.3555000000
1.2518000000 0.9769000000 0.7040000000
1.2517000000 3.1331000000 1.7422000000
1.2516000000 2.7877000000 1.7659000000
1.2514000000 2.7432000000 1.7458000000
1.2513000000 5.2585000000 0.4339000000
1.2513000000 3.2226000000 1.7156000000
1.2511000000 0.2462000000 0.1893000000
1.2509000000 0.4951000000 0.3600000000
1.2507000000 3.7652000000 1.4793000000
1.2505000000 0.0464000000 0.0469000000
1.2504000000 3.4030000000 1.6463000000
1.2503000000 0.1579000000 0.1236000000
1.2502000000 4.5354000000 0.9455000000
1.2500000000 0.9678000000 0.6948000000
1.2498000000 1.5212000000 1.0892000000
1.2499000000 0.5822000000 0.4250000000
1.2500000000 2.0425000000 1.4569000000
1.2497000000 3.6176000000 1.5603000000
1.2496000000 2.0061000000 1.4330000000
1.2494000000 1.2269000000 0.8752000000
1.2486000000 4.3082000000 1.1083000000
1.2485000000 3.0116000000 1.7869000000
1.2484000000 2.5422000000 1.6790000000
1.2482000000 0.8701000000 0.6219000000
1.2458000000 0.9020000000 0.6475000000
1.2447000000 0.9432000000 0.6767000000
1.2423000000 3.2822000000 1.6800000000
1.0120000000 1.7319000000 1.2234000000
1.0119000000 3.5547000000 1.4451000000
1.0110000000 0.6143000000 0.4478000000
1.0105000000 3.9277000000 1.3189000000
1.0103000000 0.7778000000 0.5591000000
1.0098000000 5.5031000000 0.2602000000
1.0097000000 5.5746000000 0.2064000000
1.0096000000 4.4249000000 1.0220000000
1.0095000000 4.3518000000 1.0752000000
1.0095000000 5.4443000000 0.3100000000
1.0093000000 3.9892000000 1.2842000000
1.0081000000 2.7190000000 1.5926000000
1.0078000000 5.2158000000 0.4625000000
1.0078000000 2.2373000000 1.4239000000
1.0077000000 5.3156000000 0.3957000000
1.0075000000 2.7771000000 1.6178000000
1.0072000000 2.6444000000 1.5655000000
1.0071000000 2.5950000000 1.5443000000
1.0068000000 1.3043000000 0.9314000000
1.0067000000 4.3742000000 1.0634000000
1.0066000000 1.9061000000 1.3047000000
1.0066000000 2.2676000000 1.4318000000
1.0065000000 4.2697000000 1.1385000000
1.0064000000 4.1820000000 1.1877000000
1.0064000000 1.2009000000 0.8608000000
1.0063000000 5.5816000000 0.2043000000
1.0062000000 5.5123000000 0.2578000000
1.0061000000 1.1847000000 0.8500000000
1.0060000000 3.6366000000 1.4152000000
1.0058000000 4.3920000000 1.0448000000
1.0056000000 4.4405000000 1.0172000000
1.0055000000 3.7477000000 1.3739000000
1.0053000000 3.2691000000 1.5393000000
1.0050000000 4.9464000000 0.6551000000
1.0050000000 4.7101000000 0.8261000000
1.0049000000 2.9778000000 1.6369000000
1.0046000000 5.4263000000 0.3153000000
1.0045000000 3.9884000000 1.2896000000
1.0044000000 3.2250000000 1.5624000000
1.0043000000 0.1211000000 0.0992000000
1.0042000000 3.9169000000 1.3108000000
1.0041000000 2.8766000000 1.6416000000
1.0041000000 2.1209000000 1.3725000000
1.0040000000 2.6502000000 1.5610000000
1.0039000000 4.2010000000 1.1742000000
1.0038000000 0.8855000000 0.6339000000
1.0037000000 2.0897000000 1.3611000000
1.0036000000 3.9357000000 1.3051000000
1.0035000000 3.5111000000 1.4531000000
1.0034000000 2.7894000000 1.6131000000
1.0033000000 3.9984000000 1.2859000000
1.0033000000 0.0445000000 0.0416000000
1.0033000000 2.6085000000 1.5448000000
1.0032000000 2.1074000000 1.3715000000
1.0031000000 0.7781000000 0.5585000000
1.0030000000 2.0138000000 1.3373000000
1.0030000000 1.0856000000 0.7822000000
1.0028000000 5.7581000000 0.0840000000
1.0023000000 0.5477000000 0.3991000000
1.0023000000 0.5015000000 0.3610000000
1.0021000000 4.9244000000 0.6712000000
1.0020000000 3.5761000000 1.4343000000
1.0019000000 3.5857000000 1.4305000000
1.0018000000 0.1822000000 0.1392000000
1.0017000000 5.6124000000 0.1855000000
1.0018000000 3.4520000000 1.4787000000
1.0016000000 4.4331000000 1.0198000000
1.0015000000 1.8419000000 1.2756000000
1.0014000000 2.6531000000 1.5627000000
1.0013000000 1.2031000000 0.8609000000
1.0013000000 2.6044000000 1.5473000000
1.0010000000 2.4378000000 1.4878000000
1.0010000000 5.1157000000 0.5354000000
1.0007000000 4.6224000000 0.8822000000
1.0006000000 3.2721000000 1.5421000000
1.0005000000 2.7450000000 1.5972000000
1.0003000000 2.1468000000 1.3863000000
1.0002000000 3.8281000000 1.3410000000
0.9999000000 0.7186000000 0.5203000000
0.9998000000 0.1304000000 0.0966000000
0.9996000000 1.1658000000 0.8344000000
0.9995000000 1.6919000000 1.2000000000
0.9992000000 5.8548000000 0.0144000000
0.9990000000 4.0829000000 1.2458000000
0.9983000000 1.1522000000 0.8314000000
0.9968000000 1.4979000000 1.0745000000
0.9962000000 0.8436000000 0.6069000000
0.7620000000 5.8638000000 0.0841000000
0.7608000000 2.8062000000 1.4697000000
0.7608000000 4.6975000000 0.8372000000
0.7604000000 3.8531000000 1.1855000000
0.7601000000 4.1616000000 1.0791000000
0.7592000000 1.2317000000 0.8743000000
0.7589000000 4.1608000000 1.0773000000
0.7585000000 4.0086000000 1.1315000000
0.7584000000 4.7775000000 0.7803000000
0.7583000000 2.2263000000 1.2613000000
0.7583000000 5.6565000000 0.1515000000
0.7582000000 4.8395000000 0.7393000000
0.7582000000 3.1413000000 1.4404000000
0.7581000000 1.4968000000 0.9992000000
0.7578000000 4.5652000000 0.9135000000
0.7576000000 1.8716000000 1.1357000000
0.7574000000 2.7480000000 1.4484000000
0.7574000000 4.9373000000 0.6671000000
0.7572000000 4.9127000000 0.6816000000
0.7571000000 4.4224000000 0.9871000000
0.7570000000 5.8606000000 0.0809000000
0.7567000000 5.0183000000 0.6081000000
0.7562000000 5.3473000000 0.3755000000
0.7560000000 4.5490000000 0.9281000000
0.7559000000 3.5338000000 1.2991000000
0.7558000000 5.5310000000 0.2383000000
0.7558000000 0.6540000000 0.4728000000
0.7555000000 1.4808000000 0.9999000000
0.7554000000 0.9113000000 0.6536000000
0.7553000000 3.8429000000 1.1884000000
0.7553000000 4.4711000000 0.9524000000
0.7551000000 0.9870000000 0.7074000000
0.7550000000 2.6540000000 1.4135000000
0.7548000000 0.7300000000 0.5210000000
0.7548000000 3.4161000000 1.3417000000
0.7545000000 5.1001000000 0.5521000000
0.7539000000 5.8456000000 0.0237000000
0.7536000000 4.6300000000 0.8662000000
0.7535000000 2.6049000000 1.3907000000
0.7534000000 3.9371000000 1.1562000000
0.7533000000 5.4135000000 0.3261000000
0.7529000000 0.7529000000 0.5410000000
0.7528000000 4.7798000000 0.7687000000
0.7526000000 2.8526000000 1.4844000000
0.7525000000 1.3464000000 0.9408000000
0.7525000000 4.2651000000 1.0346000000
0.7524000000 2.7931000000 1.4589000000
0.7521000000 5.0620000000 0.5778000000
0.7520000000 4.3679000000 1.0035000000
0.7518000000 3.9235000000 1.1557000000
0.7516000000 1.2922000000 0.9160000000
0.7515000000 5.5538000000 0.2319000000
0.7515000000 2.8694000000 1.4874000000
0.7512000000 1.2776000000 0.8993000000
0.7508000000 3.6078000000 1.2710000000
0.7505000000 1.2253000000 0.8667000000
0.7505000000 1.5119000000 1.0081000000
0.7503000000 0.6708000000 0.4785000000
0.7503000000 2.2058000000 1.2513000000
0.7502000000 2.8425000000 1.4752000000
0.7501000000 2.9425000000 1.4974000000
0.7500000000 5.6268000000 0.1760000000
0.7497000000 3.3898000000 1.3438000000
0.7496000000 2.9374000000 1.4982000000
0.7494000000 5.5347000000 0.2408000000
0.7493000000 2.4115000000 1.3219000000
0.7493000000 4.1505000000 1.0774000000
0.7491000000 5.3460000000 0.3789000000
0.7489000000 0.4429000000 0.3251000000
0.7488000000 5.0500000000 0.5873000000
0.7487000000 0.3951000000 0.2941000000
0.7485000000 3.5548000000 1.2880000000
0.7482000000 4.9364000000 0.6629000000
0.7481000000 0.6812000000 0.4931000000
0.7480000000 3.9605000000 1.1440000000
0.7478000000 1.1929000000 0.8466000000
0.7473000000 4.5714000000 0.9095000000
0.7471000000 1.1064000000 0.7946000000
0.7470000000 0.3225000000 0.2421000000
0.7468000000 0.4320000000 0.3166000000
0.7462000000 3.0578000000 1.4602000000
0.7461000000 1.5575000000 1.0214000000
0.7460000000 1.0634000000 0.7652000000
0.7453000000 2.5395000000 1.3692000000
0.7449000000 0.2016000000 0.1521000000
0.7437000000 2.1560000000 1.2232000000
0.7435000000 1.7081000000 1.0774000000
0.5162000000 5.8450000000 0.0235000000
0.5147000000 4.3994000000 0.8459000000
0.5091000000 0.5466000000 0.3995000000
0.5090000000 4.6343000000 0.7574000000
0.5084000000 1.3807000000 0.8115000000
0.5082000000 2.4022000000 1.1756000000
0.5080000000 4.2720000000 0.8846000000
0.5079000000 5.0173000000 0.5958000000
0.5080000000 1.7620000000 0.9446000000
0.5075000000 4.2841000000 0.8832000000
0.5074000000 5.3432000000 0.3776000000
0.5073000000 5.0570000000 0.5672000000
0.5073000000 0.2650000000 0.1975000000
0.5067000000 2.7481000000 1.2950000000
0.5067000000 4.2792000000 0.8809000000
0.5064000000 2.7383000000 1.2908000000
0.5064000000 2.9069000000 1.3363000000
0.5063000000 5.8359000000 0.0295000000
0.5061000000 2.1088000000 1.0650000000
0.5060000000 3.7499000000 1.0670000000
0.5056000000 3.3754000000 1.2024000000
0.5055000000 2.4679000000 1.1963000000
0.5055000000 5.0300000000 0.5886000000
0.5054000000 2.3743000000 1.1652000000
0.5053000000 2.3025000000 1.1365000000
0.5052000000 2.6190000000 1.2496000000
0.5052000000 1.6035000000 0.8893000000
0.5049000000 0.0114000000 0.0158000000
0.5049000000 0.1517000000 0.1137000000
0.5047000000 1.3420000000 0.7951000000
0.5045000000 1.6268000000 0.8974000000
0.5044000000 5.5088000000 0.2628000000
0.5044000000 5.4950000000 0.2718000000
0.5043000000 1.3742000000 0.8047000000
0.5042000000 2.9378000000 1.3435000000
0.5040000000 3.5752000000 1.1317000000
0.5038000000 4.9859000000 0.6150000000
0.5038000000 0.5741000000 0.4163000000
0.5036000000 5.5356000000 0.2408000000
0.5036000000 5.5162000000 0.2529000000
0.5035000000 1.7478000000 0.9435000000
0.5033000000 3.1231000000 1.2839000000
0.5033000000 3.0562000000 1.3131000000
0.5032000000 5.5638000000 0.2246000000
0.5031000000 2.7941000000 1.3079000000
0.5031000000 3.4473000000 1.1743000000
0.5026000000 1.4790000000 0.8494000000
0.5026000000 2.0408000000 1.0435000000
0.5025000000 0.8617000000 0.6094000000
0.5023000000 1.1311000000 0.7172000000
0.5022000000 1.7132000000 0.9269000000
0.5022000000 3.7204000000 1.0762000000
0.5021000000 1.3030000000 0.7814000000
0.5020000000 1.8456000000 0.9729000000
0.5019000000 4.6327000000 0.7480000000
0.5018000000 3.0593000000 1.3097000000
0.5015000000 3.1037000000 1.2963000000
0.5014000000 2.2893000000 1.1284000000
0.5011000000 1.8022000000 0.9559000000
0.5010000000 5.6873000000 0.1319000000
0.5009000000 4.0099000000 0.9738000000
0.5008000000 1.5621000000 0.8730000000
0.5008000000 2.8157000000 1.3173000000
0.5008000000 4.1237000000 0.9314000000
0.5007000000 0.3863000000 0.2827000000
0.5006000000 0.8757000000 0.6179000000
0.5005000000 5.1193000000 0.5314000000
0.5004000000 2.3303000000 1.1391000000
0.5003000000 1.2298000000 0.7525000000
0.5001000000 2.3627000000 1.1553000000
0.5000000000 3.5706000000 1.1237000000
0.5000000000 4.9006000000 0.6536000000
0.4998000000 2.3752000000 1.1587000000
0.4994000000 2.3649000000 1.1556000000
0.4993000000 2.8176000000 1.3092000000
0.4991000000 2.2911000000 1.1263000000
0.4990000000 4.2727000000 0.8786000000
0.4988000000 3.1686000000 1.2712000000
0.4988000000 2.3627000000 1.1557000000
0.4980000000 1.8206000000 0.9571000000
0.4979000000 2.4660000000 1.1887000000
0.4973000000 1.5961000000 0.8851000000
0.4971000000 4.4677000000 0.8074000000
0.4968000000 4.0285000000 0.9603000000
0.4909000000 3.5946000000 1.1127000000
0.2602000000 3.0447000000 1.1619000000
0.2598000000 2.5400000000 1.0749000000
0.2591000000 0.3807000000 0.2751000000
0.2590000000 2.4020000000 1.0198000000
0.2588000000 3.4619000000 1.0153000000
0.2587000000 4.1231000000 0.7834000000
0.2584000000 1.3026000000 0.6270000000
0.2583000000 3.9030000000 0.8603000000
0.2582000000 3.6652000000 0.9476000000
0.2577000000 3.6517000000 0.9554000000
0.2576000000 5.7471000000 0.0936000000
0.2575000000 4.6131000000 0.6082000000
0.2569000000 3.4659000000 1.0164000000
0.2565000000 3.2445000000 1.0926000000
0.2564000000 5.1994000000 0.3982000000
0.2563000000 3.6259000000 0.9615000000
0.2560000000 4.3663000000 0.6953000000
0.2559000000 5.2306000000 0.3952000000
0.2558000000 1.5565000000 0.7162000000
0.2558000000 3.7876000000 0.9035000000
0.2557000000 0.9552000000 0.5049000000
0.2556000000 2.8136000000 1.1688000000
0.2554000000 3.0621000000 1.1570000000
0.2553000000 3.9262000000 0.8555000000
0.2552000000 0.5290000000 0.3486000000
0.2550000000 4.5399000000 0.6333000000
0.2550000000 5.4184000000 0.3113000000
0.2548000000 1.6244000000 0.7373000000
0.2547000000 5.6273000000 0.1796000000
0.2547000000 0.5371000000 0.3478000000
0.2545000000 1.6808000000 0.7611000000
0.2543000000 4.2320000000 0.7468000000
0.2542000000 0.6542000000 0.4023000000
0.2542000000 1.8880000000 0.8417000000
0.2540000000 4.1907000000 0.7566000000
0.2540000000 0.2122000000 0.1589000000
0.2538000000 1.4258000000 0.6741000000
0.2537000000 0.1162000000 0.0929000000
0.2534000000 4.7758000000 0.5459000000
0.2534000000 1.8105000000 0.8037000000
0.2533000000 0.5432000000 0.3493000000
0.2531000000 2.6163000000 1.0927000000
0.2530000000 1.9911000000 0.8770000000
0.2530000000 3.5971000000 0.9668000000
0.2528000000 1.0940000000 0.5568000000
0.2528000000 2.5271000000 1.0596000000
0.2526000000 1.4846000000 0.6871000000
0.2525000000 2.2471000000 0.9629000000
0.2523000000 0.7331000000 0.4204000000
0.2522000000 4.1815000000 0.7618000000
0.2521000000 0.6491000000 0.3967000000
0.2520000000 1.0696000000 0.5447000000
0.2519000000 2.5645000000 1.0728000000
0.2518000000 1.1857000000 0.5843000000
0.2518000000 2.8967000000 1.1780000000
0.2515000000 4.0098000000 0.8191000000
0.2513000000 4.6032000000 0.6099000000
0.2513000000 5.5350000000 0.2396000000
0.2511000000 1.0192000000 0.5206000000
0.2508000000 0.7678000000 0.4396000000
0.2507000000 2.7836000000 1.1473000000
0.2505000000 2.0255000000 0.8825000000
0.2503000000 1.7484000000 0.7799000000
0.2500000000 4.2579000000 0.7321000000
0.2498000000 1.7322000000 0.7749000000
0.2496000000 1.7899000000 0.8030000000
0.2495000000 2.7213000000 1.1294000000
0.2493000000 0.0907000000 0.0716000000
0.2491000000 2.5054000000 1.0482000000
0.2491000000 4.6096000000 0.6079000000
0.2490000000 2.9977000000 1.1793000000
0.2485000000 0.2843000000 0.2094000000
0.2482000000 1.7431000000 0.7759000000
0.2480000000 4.8235000000 0.5291000000
0.2475000000 1.2436000000 0.6116000000
