7.0093000000 3.8797000000 0.0908000000
7.0079000000 3.8347000000 0.0647000000
7.0060000000 4.3778000000 0.0616000000
7.0047000000 3.7044000000 -0.0002000000
7.0031000000 4.4252000000 0.0325000000
6.7637000000 3.8106000000 0.1220000000
6.7591000000 3.7070000000 0.0763000000
6.7576000000 4.1624000000 0.2465000000
6.7559000000 3.9631000000 0.2114000000
6.7538000000 4.1186000000 0.2576000000
6.7533000000 4.3569000000 0.1515000000
6.7525000000 3.7275000000 0.0951000000
6.7515000000 4.2231000000 0.2220000000
6.7504000000 4.7088000000 0.0448000000
6.5096000000 3.9388000000 0.4211000000
6.5079000000 3.9029000000 0.4067000000
6.5075000000 3.3762000000 0.1246000000
6.5066000000 4.5615000000 0.2694000000
6.5058000000 3.0637000000 0.0399000000
6.5053000000 5.3035000000 0.0246000000
6.5032000000 2.8353000000 0.0019000000
6.5024000000 3.0903000000 0.0600000000
6.5014000000 3.7340000000 0.3245000000
6.5006000000 4.6475000000 0.2294000000
6.4983000000 3.2363000000 0.0692000000
6.2607000000 3.7571000000 0.5516000000
6.2595000000 3.4009000000 0.3653000000
6.2582000000 4.8866000000 0.3171000000
6.2575000000 3.1632000000 0.2434000000
6.2565000000 5.2207000000 0.1416000000
6.2563000000 3.2795000000 0.3078000000
6.2548000000 2.6641000000 0.0636000000
6.2541000000 2.6830000000 0.0683000000
6.2538000000 4.8857000000 0.3268000000
6.2532000000 4.4053000000 0.5800000000
6.2523000000 3.1630000000 0.2531000000
6.2515000000 4.1706000000 0.7032000000
6.2505000000 4.1215000000 0.7115000000
6.2500000000 4.0577000000 0.7129000000
6.2448000000 4.4326000000 0.5733000000
6.0108000000 4.8923000000 0.5433000000
6.0094000000 5.8619000000 0.1088000000
6.0087000000 5.2895000000 0.3385000000
6.0075000000 2.3598000000 0.0436000000
6.0069000000 6.2028000000 0.0092000000
6.0063000000 4.2163000000 0.8991000000
6.0057000000 3.9731000000 0.8988000000
6.0048000000 2.5963000000 0.1810000000
6.0045000000 3.8690000000 0.8526000000
6.0039000000 4.6011000000 0.7013000000
6.0034000000 3.0160000000 0.3988000000
6.0031000000 4.0543000000 0.9339000000
6.0028000000 5.2894000000 0.3436000000
6.0027000000 4.9919000000 0.5029000000
6.0023000000 5.6124000000 0.1771000000
6.0012000000 3.5666000000 0.6955000000
5.9987000000 2.6798000000 0.2260000000
5.7659000000 6.4027000000 0.0475000000
5.7623000000 5.2806000000 0.5677000000
5.7599000000 5.9319000000 0.2223000000
5.7598000000 5.6572000000 0.3720000000
5.7583000000 1.7079000000 0.0844000000
5.7582000000 3.1514000000 0.6990000000
5.7577000000 1.7063000000 0.0902000000
5.7576000000 6.0238000000 0.1811000000
5.7573000000 4.8925000000 0.7758000000
5.7567000000 3.7354000000 1.0011000000
5.7563000000 6.4282000000 0.0467000000
5.7552000000 3.1157000000 0.6805000000
5.7546000000 3.6302000000 0.9549000000
5.7545000000 4.5309000000 0.9732000000
5.7543000000 5.5602000000 0.4237000000
5.7540000000 2.9177000000 0.5731000000
5.7534000000 3.8399000000 1.0573000000
5.7527000000 4.2593000000 1.1097000000
5.7521000000 4.9565000000 0.7479000000
5.7512000000 1.7051000000 0.0875000000
5.7510000000 1.5758000000 0.0189000000
5.7502000000 3.6321000000 0.9539000000
5.7488000000 2.3135000000 0.2620000000
5.7469000000 5.2593000000 0.5942000000
5.5115000000 1.8096000000 0.2129000000
5.5103000000 4.6754000000 1.1113000000
5.5099000000 3.8655000000 1.2954000000
5.5093000000 3.7805000000 1.2491000000
5.5089000000 6.8436000000 0.0430000000
5.5084000000 5.5346000000 0.6617000000
5.5081000000 5.8445000000 0.5007000000
5.5078000000 1.4372000000 0.0994000000
5.5074000000 3.4084000000 1.0618000000
5.5072000000 3.7098000000 1.2171000000
5.5068000000 3.1595000000 0.9281000000
5.5066000000 2.3014000000 0.4778000000
5.5062000000 3.9684000000 1.3529000000
5.5063000000 3.9240000000 1.3318000000
5.5060000000 1.7136000000 0.1664000000
5.5057000000 5.1938000000 0.8454000000
5.5053000000 2.9137000000 0.8023000000
5.5053000000 6.7662000000 0.0958000000
5.5047000000 3.0842000000 0.8894000000
5.5045000000 2.5473000000 0.6089000000
5.5043000000 6.2667000000 0.2824000000
5.5040000000 3.3717000000 1.0422000000
5.5037000000 1.6030000000 0.1128000000
5.5035000000 3.2076000000 0.9588000000
5.5031000000 2.1365000000 0.3951000000
5.5028000000 3.6357000000 1.1865000000
5.5022000000 3.5268000000 1.1251000000
5.5015000000 3.0113000000 0.8553000000
5.5011000000 1.9848000000 0.3158000000
5.5006000000 2.6459000000 0.6641000000
5.4995000000 1.1338000000 0.0213000000
5.4974000000 4.4724000000 1.2310000000
5.4941000000 1.2458000000 0.0850000000
5.2615000000 4.6973000000 1.3276000000
5.2604000000 6.5989000000 0.3259000000
5.2595000000 5.4884000000 0.9169000000
5.2590000000 3.7102000000 1.4426000000
5.2587000000 7.2028000000 0.0920000000
5.2581000000 4.9623000000 1.1917000000
5.2575000000 1.6084000000 0.3397000000
5.2572000000 0.9007000000 0.0423000000
5.2570000000 5.8172000000 0.7459000000
5.2564000000 5.7782000000 0.7638000000
5.2559000000 7.4309000000 0.0471000000
5.2555000000 1.9240000000 0.5073000000
5.2553000000 1.0830000000 0.0634000000
5.2552000000 4.9401000000 1.2046000000
5.2548000000 5.6681000000 0.8233000000
5.2545000000 5.5445000000 0.8901000000
5.2541000000 2.7530000000 0.9475000000
5.2537000000 6.4739000000 0.3986000000
5.2533000000 2.7369000000 0.9329000000
5.2528000000 6.0023000000 0.6535000000
5.2526000000 0.8741000000 0.0297000000
5.2521000000 4.1238000000 1.6203000000
5.2517000000 7.0824000000 0.0808000000
5.2514000000 1.1973000000 0.1294000000
5.2511000000 4.5315000000 1.4186000000
5.2507000000 1.7946000000 0.4441000000
5.2500000000 2.6794000000 0.9106000000
5.2496000000 3.9708000000 1.5864000000
5.2485000000 2.6080000000 0.8744000000
5.2471000000 2.6089000000 0.8767000000
5.0144000000 5.0104000000 1.3923000000
5.0112000000 3.3281000000 1.4726000000
5.0104000000 4.5505000000 1.6330000000
5.0100000000 5.0226000000 1.3838000000
5.0097000000 6.5551000000 0.5817000000
5.0094000000 7.8308000000 0.0575000000
5.0091000000 0.8261000000 0.1561000000
5.0086000000 3.0385000000 1.3205000000
5.0082000000 7.1322000000 0.2723000000
5.0074000000 2.0158000000 0.7822000000
5.0072000000 7.8331000000 0.0569000000
5.0067000000 6.8563000000 0.4225000000
5.0065000000 2.6323000000 1.1071000000
5.0062000000 5.4700000000 1.1514000000
5.0059000000 2.7170000000 1.1477000000
5.0058000000 5.4909000000 1.1482000000
5.0054000000 5.4660000000 1.1505000000
5.0052000000 2.5966000000 1.0895000000
5.0050000000 3.5320000000 1.5820000000
5.0049000000 1.9193000000 0.7349000000
5.0046000000 3.9680000000 1.8104000000
5.0045000000 4.4763000000 1.6794000000
5.0041000000 3.9716000000 1.8105000000
5.0039000000 7.7334000000 0.0386000000
5.0037000000 1.0300000000 0.2700000000
5.0035000000 4.1337000000 1.8428000000
5.0032000000 7.6422000000 0.0934000000
5.0028000000 4.5607000000 1.6331000000
5.0023000000 1.2382000000 0.3789000000
5.0020000000 2.9959000000 1.3056000000
5.0013000000 4.0089000000 1.8334000000
5.0010000000 4.9994000000 1.4084000000
5.0007000000 1.5064000000 0.5219000000
5.0001000000 0.4113000000 0.0195000000
4.9991000000 1.5710000000 0.5596000000
4.9986000000 0.7008000000 0.0991000000
4.9984000000 1.4172000000 0.4779000000
4.9963000000 0.2529000000 0.0137000000
4.7630000000 4.6843000000 1.7904000000
4.7621000000 3.9139000000 2.0054000000
4.7607000000 6.2297000000 0.9773000000
4.7598000000 5.9051000000 1.1577000000
4.7595000000 1.8413000000 0.9141000000
4.7590000000 4.8358000000 1.7127000000
4.7588000000 5.6347000000 1.2846000000
4.7585000000 3.3505000000 1.7159000000
4.7579000000 6.1225000000 1.0353000000
4.7571000000 1.5384000000 0.7590000000
4.7569000000 6.8880000000 0.6354000000
4.7565000000 5.4784000000 1.3768000000
4.7563000000 3.9600000000 2.0318000000
4.7560000000 0.7346000000 0.3398000000
4.7559000000 2.9545000000 1.5081000000
4.7557000000 2.4969000000 1.2590000000
4.7555000000 3.3670000000 1.7219000000
4.7553000000 7.4320000000 0.3556000000
4.7548000000 5.2218000000 1.5158000000
4.7547000000 5.1579000000 1.5512000000
4.7541000000 2.4682000000 1.2576000000
4.7540000000 7.6132000000 0.2601000000
4.7536000000 7.3027000000 0.4225000000
4.7533000000 2.1959000000 1.1088000000
4.7530000000 0.5206000000 0.2270000000
4.7527000000 5.6004000000 1.3135000000
4.7525000000 3.8919000000 2.0008000000
4.7523000000 2.4421000000 1.2401000000
4.7521000000 1.1495000000 0.5571000000
4.7518000000 5.2600000000 1.5037000000
4.7517000000 1.6438000000 0.8180000000
4.7515000000 3.6339000000 1.8614000000
4.7510000000 1.4731000000 0.7330000000
4.7506000000 3.1535000000 1.6126000000
4.7500000000 5.9416000000 1.1381000000
4.7495000000 3.2852000000 1.6777000000
4.7488000000 3.5723000000 1.8345000000
4.7484000000 5.4339000000 1.4050000000
4.7475000000 0.6397000000 0.2942000000
4.7468000000 2.5474000000 1.2990000000
4.5143000000 6.4418000000 1.0950000000
4.5133000000 5.0162000000 1.8418000000
4.5115000000 4.1496000000 2.2931000000
4.5109000000 7.2776000000 0.6621000000
4.5102000000 3.6891000000 2.1174000000
4.5098000000 5.1558000000 1.7713000000
4.5095000000 6.5292000000 1.0554000000
4.5088000000 7.0054000000 0.7976000000
4.5083000000 2.5367000000 1.5100000000
4.5081000000 3.6718000000 2.1112000000
4.5078000000 2.7850000000 1.6383000000
4.5075000000 7.8125000000 0.3564000000
4.5070000000 6.7870000000 0.9176000000
4.5067000000 5.0992000000 1.8050000000
4.5062000000 1.2608000000 0.8368000000
4.5061000000 2.1781000000 1.3211000000
4.5059000000 5.4559000000 1.6188000000
4.5057000000 1.4588000000 0.9445000000
4.5055000000 6.5185000000 1.0653000000
4.5050000000 1.3916000000 0.9071000000
4.5048000000 7.9281000000 0.2594000000
4.5047000000 0.2366000000 0.2233000000
4.5045000000 0.6374000000 0.5167000000
4.5043000000 2.0722000000 1.2685000000
4.5040000000 6.2916000000 1.1816000000
4.5038000000 1.0870000000 0.7527000000
4.5031000000 1.4532000000 0.9475000000
4.5028000000 5.5543000000 1.5679000000
4.5024000000 0.4734000000 0.4126000000
4.5022000000 0.2806000000 0.2679000000
4.5020000000 3.4252000000 1.9819000000
4.5018000000 2.9813000000 1.7517000000
4.5015000000 1.3384000000 0.8887000000
4.5011000000 7.8012000000 0.3669000000
4.5008000000 5.1358000000 1.7894000000
4.5006000000 5.2786000000 1.7205000000
4.5003000000 3.5752000000 2.0657000000
4.4996000000 3.6834000000 2.1205000000
4.4990000000 2.4523000000 1.4737000000
4.4979000000 1.5479000000 1.0012000000
4.2632000000 3.3281000000 2.1493000000
4.2622000000 6.7378000000 1.1668000000
4.2608000000 4.0358000000 2.5169000000
4.2605000000 3.0392000000 2.0020000000
4.2601000000 8.2347000000 0.0785000000
4.2600000000 5.2851000000 1.9277000000
4.2597000000 6.4236000000 1.3351000000
4.2592000000 4.8325000000 2.1673000000
4.2588000000 6.3653000000 1.3648000000
4.2584000000 6.6647000000 1.2059000000
4.2583000000 4.9284000000 2.1210000000
4.2579000000 7.7132000000 0.4752000000
4.2578000000 1.8551000000 1.3804000000
4.2574000000 5.4958000000 1.8267000000
4.2572000000 5.2112000000 1.9770000000
4.2568000000 7.2719000000 0.8765000000
4.2563000000 7.6175000000 0.5859000000
4.2561000000 0.2983000000 0.2887000000
4.2559000000 7.3141000000 0.8550000000
4.2556000000 3.3330000000 2.1530000000
4.2553000000 1.5586000000 1.2269000000
4.2550000000 3.1763000000 2.0804000000
4.2548000000 4.3254000000 2.4350000000
4.2545000000 6.8065000000 1.1396000000
4.2545000000 1.6942000000 1.2977000000
4.2543000000 4.4990000000 2.3514000000
4.2541000000 5.2488000000 1.9585000000
4.2538000000 7.2324000000 0.9154000000
4.2535000000 5.9984000000 1.5577000000
4.2532000000 1.8402000000 1.3807000000
4.2528000000 1.8557000000 1.3838000000
4.2528000000 3.7469000000 2.3777000000
4.2524000000 3.8868000000 2.4549000000
4.2521000000 0.0169000000 0.0683000000
4.2516000000 0.9430000000 0.9060000000
4.2515000000 1.0272000000 0.9504000000
4.2512000000 7.0992000000 0.9868000000
4.2496000000 0.3637000000 0.3563000000
4.2490000000 4.8584000000 2.1658000000
4.2488000000 5.5337000000 1.8072000000
4.2481000000 0.6625000000 0.6749000000
4.2423000000 0.6455000000 0.6576000000
4.0123000000 7.5435000000 0.6651000000
4.0118000000 1.5353000000 1.4378000000
4.0108000000 7.7036000000 0.4899000000
4.0095000000 7.1982000000 1.0199000000
4.0089000000 2.2132000000 1.7926000000
4.0084000000 6.0285000000 1.7677000000
4.0079000000 7.6112000000 0.5890000000
4.0075000000 5.6657000000 1.9606000000
4.0071000000 2.8376000000 2.1213000000
4.0069000000 7.5281000000 0.6704000000
4.0065000000 5.5375000000 2.0298000000
4.0063000000 1.9494000000 1.6588000000
4.0062000000 0.6945000000 0.7089000000
4.0059000000 7.9994000000 0.1796000000
4.0055000000 0.4442000000 0.4381000000
4.0051000000 4.7777000000 2.4251000000
4.0048000000 6.0864000000 1.7432000000
4.0045000000 3.6016000000 2.5321000000
4.0044000000 6.9208000000 1.2920000000
4.0041000000 4.0928000000 2.7712000000
4.0038000000 7.1160000000 1.1094000000
4.0036000000 7.2970000000 0.9237000000
4.0032000000 5.3755000000 2.1161000000
4.0030000000 7.7369000000 0.4553000000
4.0028000000 1.8735000000 1.6137000000
4.0027000000 4.1169000000 2.7682000000
4.0023000000 4.3421000000 2.6639000000
4.0020000000 0.6203000000 0.6291000000
4.0019000000 2.2150000000 1.8052000000
4.0015000000 3.5668000000 2.5149000000
4.0011000000 4.3414000000 2.6671000000
4.0005000000 6.4246000000 1.5731000000
4.0003000000 2.1405000000 1.7702000000
4.0000000000 3.3528000000 2.4014000000
3.9990000000 2.0381000000 1.7133000000
3.9988000000 2.7170000000 2.0693000000
3.9978000000 0.8572000000 0.8793000000
3.9961000000 0.1283000000 0.1120000000
3.7657000000 5.3438000000 2.3508000000
3.7638000000 7.0869000000 1.1391000000
3.7615000000 7.0687000000 1.1585000000
3.7606000000 6.5748000000 1.6614000000
3.7601000000 7.0365000000 1.1939000000
3.7597000000 8.1284000000 0.0459000000
3.7594000000 2.6625000000 2.2575000000
3.7585000000 6.0548000000 1.9854000000
3.7584000000 7.9880000000 0.1923000000
3.7582000000 7.0892000000 1.1400000000
3.7577000000 3.9831000000 2.9540000000
3.7573000000 5.8001000000 2.1191000000
3.7570000000 5.6722000000 2.1873000000
3.7567000000 0.3886000000 0.3829000000
3.7565000000 7.7975000000 0.3959000000
3.7562000000 7.2784000000 0.9355000000
3.7560000000 5.8475000000 2.0971000000
3.7560000000 2.1974000000 2.0127000000
3.7556000000 3.3464000000 2.6199000000
3.7554000000 2.7945000000 2.3328000000
3.7552000000 3.7101000000 2.8139000000
3.7549000000 5.5797000000 2.2432000000
3.7548000000 3.4358000000 2.6695000000
3.7545000000 7.6966000000 0.4989000000
3.7543000000 5.2676000000 2.4037000000
3.7540000000 7.6897000000 0.5053000000
3.7537000000 7.6372000000 0.5630000000
3.7535000000 1.5815000000 1.6334000000
3.7532000000 2.0964000000 1.9664000000
3.7527000000 2.1222000000 1.9754000000
3.7525000000 2.8338000000 2.3549000000
3.7522000000 6.0474000000 1.9929000000
3.7520000000 0.2871000000 0.2742000000
3.7518000000 0.2191000000 0.2049000000
3.7516000000 4.4816000000 2.8177000000
3.7514000000 5.5779000000 2.2439000000
3.7512000000 2.7849000000 2.3280000000
3.7510000000 3.0283000000 2.4578000000
3.7505000000 4.6445000000 2.7353000000
3.7501000000 2.7199000000 2.2906000000
3.7497000000 4.0642000000 2.9923000000
3.7495000000 5.9245000000 2.0579000000
3.7487000000 3.0186000000 2.4490000000
3.7476000000 0.0038000000 0.0541000000
3.7448000000 1.2009000000 1.2412000000
3.7418000000 0.0664000000 0.0486000000
3.5119000000 7.4342000000 0.7794000000
3.5103000000 4.9030000000 2.8181000000
3.5099000000 7.7339000000 0.4571000000
3.5097000000 6.2762000000 1.9974000000
3.5092000000 1.0299000000 1.0602000000
3.5089000000 7.4285000000 0.7760000000
3.5085000000 7.8822000000 0.3077000000
3.5081000000 0.2922000000 0.2834000000
3.5080000000 7.4944000000 0.7079000000
3.5078000000 1.8346000000 1.9072000000
3.5077000000 3.7995000000 3.0882000000
3.5073000000 7.2615000000 0.9512000000
3.5070000000 0.6084000000 0.6170000000
3.5065000000 6.9369000000 1.2995000000
3.5064000000 2.7533000000 2.5426000000
3.5062000000 3.4769000000 2.9203000000
3.5060000000 2.2445000000 2.2709000000
3.5059000000 5.1763000000 2.6744000000
3.5056000000 5.5469000000 2.4847000000
3.5053000000 6.4967000000 1.7604000000
3.5050000000 8.1377000000 0.1046000000
3.5048000000 0.5562000000 0.5626000000
3.5045000000 3.7181000000 3.0452000000
3.5042000000 3.3259000000 2.8414000000
3.5038000000 3.7016000000 3.0344000000
3.5036000000 2.0774000000 2.1443000000
3.5033000000 0.5278000000 0.5300000000
3.5032000000 1.1974000000 1.2295000000
3.5029000000 2.9334000000 2.6336000000
3.5027000000 1.1578000000 1.1941000000
3.5024000000 2.1809000000 2.2192000000
3.5022000000 1.5064000000 1.5620000000
3.5020000000 1.8830000000 1.9540000000
3.5011000000 7.1807000000 1.0434000000
3.5008000000 3.6305000000 3.0002000000
3.5005000000 3.3068000000 2.8319000000
3.4996000000 1.4459000000 1.4983000000
3.4954000000 0.6108000000 0.6219000000
3.2655000000 4.3941000000 3.3061000000
3.2613000000 3.0837000000 2.9372000000
3.2608000000 4.1308000000 3.4282000000
3.2598000000 2.4532000000 2.5403000000
3.2590000000 4.0501000000 3.4254000000
3.2586000000 6.1363000000 2.1430000000
3.2578000000 4.2102000000 3.4109000000
3.2575000000 1.2625000000 1.3034000000
3.2570000000 1.3158000000 1.3617000000
3.2567000000 4.3807000000 3.3173000000
3.2566000000 2.5307000000 2.6205000000
3.2562000000 3.8904000000 3.3577000000
3.2558000000 4.9332000000 3.0269000000
3.2555000000 0.3916000000 0.3920000000
3.2553000000 1.0523000000 1.0834000000
3.2551000000 0.0428000000 0.0973000000
3.2547000000 3.2141000000 3.0098000000
3.2546000000 4.9252000000 3.0422000000
3.2543000000 2.5576000000 2.6445000000
3.2541000000 0.1321000000 0.1171000000
3.2540000000 5.9216000000 2.3656000000
3.2539000000 4.1635000000 3.4345000000
3.2537000000 8.0312000000 0.1465000000
3.2533000000 2.5950000000 2.6663000000
3.2530000000 3.8628000000 3.3529000000
3.2530000000 4.8706000000 3.0716000000
3.2525000000 4.9193000000 3.0388000000
3.2523000000 6.6861000000 1.5580000000
3.2521000000 2.9495000000 2.8710000000
3.2518000000 1.9256000000 2.0010000000
3.2516000000 0.7379000000 0.7495000000
3.2510000000 2.3756000000 2.4792000000
3.2506000000 4.3311000000 3.3552000000
3.2502000000 1.1240000000 1.1590000000
3.2498000000 2.6052000000 2.6804000000
3.2492000000 1.0976000000 1.1347000000
3.2489000000 3.5942000000 3.2154000000
3.2482000000 6.1887000000 2.0835000000
3.2460000000 6.7342000000 1.5086000000
3.0119000000 5.1884000000 3.1016000000
3.0109000000 6.6608000000 1.5931000000
3.0100000000 1.8969000000 1.9666000000
3.0097000000 8.1118000000 0.0638000000
3.0085000000 7.9266000000 0.2543000000
3.0083000000 0.9385000000 0.9641000000
3.0078000000 3.4763000000 3.3702000000
3.0073000000 3.8052000000 3.5445000000
3.0071000000 7.7291000000 0.4633000000
3.0064000000 4.6194000000 3.4219000000
3.0063000000 7.0197000000 1.2120000000
3.0060000000 0.7159000000 0.7328000000
3.0058000000 0.9251000000 0.9501000000
3.0050000000 4.1751000000 3.6560000000
3.0048000000 2.0225000000 2.0990000000
3.0045000000 7.0942000000 1.1341000000
3.0043000000 3.6070000000 3.4433000000
3.0041000000 1.8701000000 1.9460000000
3.0038000000 2.7877000000 2.9082000000
3.0035000000 3.6899000000 3.4873000000
3.0033000000 8.1279000000 0.0477000000
3.0032000000 6.2950000000 1.9670000000
3.0028000000 4.8738000000 3.2900000000
3.0025000000 6.8708000000 1.3677000000
3.0023000000 1.7394000000 1.8073000000
3.0022000000 1.4207000000 1.4647000000
3.0020000000 1.2298000000 1.2662000000
3.0018000000 0.5951000000 0.6002000000
3.0013000000 1.8618000000 1.9323000000
3.0008000000 6.5517000000 1.7057000000
3.0007000000 0.8941000000 0.9183000000
3.0003000000 4.9570000000 3.2537000000
3.0001000000 1.2253000000 1.2611000000
2.9998000000 0.9884000000 1.0139000000
2.9992000000 1.2409000000 1.2815000000
2.9986000000 1.9729000000 2.0509000000
2.9985000000 0.8286000000 0.8459000000
2.9971000000 6.5437000000 1.7068000000
2.7638000000 7.8421000000 0.3484000000
2.7635000000 3.2163000000 3.3552000000
2.7618000000 0.8034000000 0.8197000000
2.7603000000 1.7416000000 1.8112000000
2.7599000000 5.5407000000 2.7634000000
2.7594000000 7.4144000000 0.7960000000
2.7591000000 3.0840000000 3.2176000000
2.7583000000 4.6761000000 3.6063000000
2.7581000000 7.7785000000 0.4149000000
2.7578000000 5.4741000000 2.8338000000
2.7576000000 5.1528000000 3.1730000000
2.7573000000 7.3510000000 0.8617000000
2.7568000000 7.8975000000 0.2877000000
2.7565000000 2.9026000000 3.0265000000
2.7564000000 7.9671000000 0.2187000000
2.7560000000 7.6207000000 0.5824000000
2.7559000000 3.6237000000 3.6781000000
2.7558000000 2.8283000000 2.9464000000
2.7556000000 5.6792000000 2.6192000000
2.7553000000 4.1501000000 3.8969000000
2.7551000000 1.7380000000 1.8066000000
2.7546000000 4.0435000000 3.8867000000
2.7543000000 6.9356000000 1.2996000000
2.7541000000 0.4865000000 0.4900000000
2.7538000000 2.1068000000 2.1988000000
2.7535000000 2.0998000000 2.1839000000
2.7533000000 0.8579000000 0.8788000000
2.7531000000 1.8413000000 1.9186000000
2.7528000000 4.5214000000 3.7051000000
2.7525000000 1.8132000000 1.8802000000
2.7524000000 0.1002000000 0.0830000000
2.7519000000 0.4074000000 0.4075000000
2.7518000000 2.8127000000 2.9328000000
2.7514000000 1.3588000000 1.4076000000
2.7512000000 6.0593000000 2.2214000000
2.7505000000 4.7708000000 3.5611000000
2.7501000000 0.2727000000 0.2626000000
2.7499000000 3.3124000000 3.4528000000
2.7498000000 4.9167000000 3.4244000000
2.7490000000 1.3340000000 1.3767000000
2.7463000000 0.8425000000 0.8597000000
2.5156000000 6.4459000000 1.8113000000
2.5109000000 7.4458000000 0.7649000000
2.5098000000 6.0912000000 2.1840000000
2.5091000000 6.6511000000 1.5978000000
2.5085000000 2.5424000000 2.6461000000
2.5081000000 7.8455000000 0.3408000000
2.5078000000 3.8862000000 4.0252000000
2.5075000000 3.8913000000 4.0298000000
2.5071000000 0.5350000000 0.5411000000
2.5069000000 2.0328000000 2.1132000000
2.5068000000 1.6449000000 1.6994000000
2.5066000000 3.4037000000 3.5536000000
2.5064000000 7.8776000000 0.3083000000
2.5061000000 2.2945000000 2.3874000000
2.5058000000 6.0776000000 2.1970000000
2.5055000000 0.5965000000 0.6017000000
2.5055000000 1.5122000000 1.5662000000
2.5053000000 8.0203000000 0.1625000000
2.5050000000 3.5764000000 3.7391000000
2.5047000000 1.7388000000 1.8000000000
2.5045000000 5.3263000000 2.9872000000
2.5045000000 7.7159000000 0.4792000000
2.5043000000 3.0270000000 3.1604000000
2.5037000000 1.8830000000 1.9552000000
2.5034000000 0.2184000000 0.2027000000
2.5030000000 4.6143000000 3.7421000000
2.5024000000 6.4271000000 1.8331000000
2.5023000000 4.7809000000 3.5618000000
2.5022000000 0.8843000000 0.9038000000
2.5019000000 3.7003000000 3.8689000000
2.5014000000 5.1194000000 3.2096000000
2.5011000000 0.7449000000 0.7624000000
2.5008000000 2.0348000000 2.1191000000
2.5005000000 6.9134000000 1.3207000000
2.5002000000 2.6154000000 2.7228000000
2.4996000000 2.0934000000 2.1821000000
2.4991000000 0.3830000000 0.3774000000
2.4983000000 0.4111000000 0.4073000000
2.4973000000 2.2098000000 2.2986000000
2.4966000000 0.3175000000 0.3117000000
2.4944000000 2.4095000000 2.5065000000
2.2642000000 7.0914000000 1.1331000000
2.2625000000 7.5315000000 0.6718000000
2.2617000000 7.9023000000 0.2830000000
2.2605000000 6.3225000000 1.9462000000
2.2592000000 0.2844000000 0.2764000000
2.2588000000 6.1585000000 2.1124000000
2.2585000000 5.4825000000 2.8334000000
2.2582000000 3.7421000000 3.9106000000
2.2579000000 5.2883000000 3.0268000000
2.2576000000 7.4728000000 0.7332000000
2.2569000000 3.8452000000 3.9959000000
2.2567000000 5.5308000000 2.7734000000
2.2565000000 7.5029000000 0.7047000000
2.2561000000 5.2050000000 3.1168000000
2.2558000000 4.4519000000 3.9137000000
2.2555000000 6.3300000000 1.9347000000
2.2553000000 6.7092000000 1.5396000000
2.2552000000 1.5252000000 1.5782000000
2.2550000000 3.0414000000 3.1703000000
2.2548000000 1.6705000000 1.7324000000
2.2545000000 3.4950000000 3.6513000000
2.2542000000 1.4419000000 1.4911000000
2.2541000000 4.6899000000 3.6601000000
2.2538000000 4.3427000000 4.0108000000
2.2535000000 5.8646000000 2.4242000000
2.2532000000 0.2591000000 0.2478000000
2.2530000000 2.9852000000 3.1177000000
2.2528000000 3.5438000000 3.7013000000
2.2524000000 6.9050000000 1.3369000000
2.2523000000 5.6632000000 2.6334000000
2.2519000000 0.0138000000 0.0617000000
2.2516000000 0.6493000000 0.6648000000
2.2512000000 1.7548000000 1.8212000000
2.2510000000 4.2245000000 4.0997000000
2.2507000000 5.3698000000 2.9415000000
2.2500000000 5.2675000000 3.0503000000
2.2494000000 1.3749000000 1.4208000000
2.2489000000 2.2893000000 2.3825000000
2.2475000000 1.7245000000 1.7887000000
2.0153000000 3.0259000000 3.1574000000
2.0120000000 6.0496000000 2.2320000000
2.0112000000 7.9945000000 0.1863000000
2.0105000000 7.4906000000 0.7159000000
2.0094000000 4.3291000000 3.8411000000
2.0088000000 5.4238000000 2.8949000000
2.0083000000 5.1098000000 3.2211000000
2.0082000000 6.6685000000 1.5828000000
2.0077000000 2.1206000000 2.2032000000
2.0074000000 7.4811000000 0.7212000000
2.0071000000 7.4251000000 0.7808000000
2.0069000000 0.4419000000 0.4402000000
2.0066000000 4.7785000000 3.5466000000
2.0065000000 0.4590000000 0.4600000000
2.0062000000 6.2849000000 1.9867000000
2.0057000000 5.2776000000 3.0406000000
2.0056000000 5.8591000000 2.4384000000
2.0052000000 2.3489000000 2.4446000000
2.0051000000 7.9678000000 0.2159000000
2.0049000000 4.4724000000 3.7574000000
2.0047000000 0.1454000000 0.1268000000
2.0045000000 7.7709000000 0.4219000000
2.0041000000 3.8007000000 3.8003000000
2.0040000000 2.8436000000 2.9654000000
2.0036000000 8.1142000000 0.0593000000
2.0034000000 0.4169000000 0.4181000000
2.0033000000 2.1209000000 2.2051000000
2.0030000000 4.2828000000 3.8574000000
2.0028000000 4.7880000000 3.5424000000
2.0025000000 5.6264000000 2.6741000000
2.0022000000 2.9737000000 3.1009000000
2.0018000000 1.5615000000 1.6194000000
2.0017000000 1.1372000000 1.1716000000
2.0011000000 3.5141000000 3.6326000000
2.0009000000 3.1204000000 3.2596000000
2.0008000000 5.9434000000 2.3396000000
2.0006000000 3.2138000000 3.3612000000
2.0004000000 0.5427000000 0.5481000000
1.9998000000 5.4302000000 2.8819000000
1.9995000000 4.4619000000 3.7585000000
1.9989000000 1.7587000000 1.8273000000
1.9986000000 7.8510000000 0.3429000000
1.9966000000 2.2334000000 2.3214000000
1.7662000000 5.6363000000 2.6642000000
1.7609000000 7.1226000000 1.1019000000
1.7602000000 2.2922000000 2.3914000000
1.7600000000 4.2863000000 3.6319000000
1.7596000000 1.9582000000 2.0318000000
1.7588000000 6.1650000000 2.1100000000
1.7583000000 2.6770000000 2.7917000000
1.7580000000 5.6860000000 2.6133000000
1.7577000000 4.1829000000 3.6886000000
1.7575000000 7.9420000000 0.2457000000
1.7573000000 7.8886000000 0.2943000000
1.7569000000 4.4804000000 3.5328000000
1.7565000000 6.6073000000 1.6418000000
1.7563000000 1.3636000000 1.4117000000
1.7561000000 2.5392000000 2.6488000000
1.7558000000 6.1441000000 2.1265000000
1.7557000000 4.0084000000 3.6776000000
1.7555000000 3.5160000000 3.4295000000
1.7554000000 5.7588000000 2.5353000000
1.7551000000 4.6284000000 3.4446000000
1.7546000000 1.0033000000 1.0306000000
1.7544000000 2.8668000000 2.9865000000
1.7542000000 2.1466000000 2.2335000000
1.7540000000 7.1927000000 1.0310000000
1.7538000000 3.5460000000 3.4354000000
1.7539000000 3.7177000000 3.5292000000
1.7535000000 0.8829000000 0.9070000000
1.7533000000 1.6554000000 1.7133000000
1.7530000000 4.8171000000 3.3505000000
1.7528000000 2.5368000000 2.6453000000
1.7525000000 1.2251000000 1.2649000000
1.7520000000 4.4509000000 3.5418000000
1.7516000000 7.3925000000 0.8187000000
1.7512000000 6.6532000000 1.5931000000
1.7509000000 2.6192000000 2.7278000000
1.7502000000 6.5999000000 1.6517000000
1.7497000000 4.0112000000 3.6796000000
1.7490000000 3.6261000000 3.4804000000
1.7481000000 0.9449000000 0.9674000000
1.7468000000 1.0670000000 1.1027000000
1.5113000000 5.3453000000 2.8513000000
1.5093000000 6.4259000000 1.8333000000
1.5090000000 4.3243000000 3.3848000000
1.5087000000 8.0446000000 0.1369000000
1.5080000000 7.7258000000 0.4725000000
1.5077000000 5.1778000000 2.9379000000
1.5073000000 7.3891000000 0.8268000000
1.5071000000 2.3613000000 2.4613000000
1.5069000000 6.0209000000 2.2607000000
1.5068000000 1.8347000000 1.9049000000
1.5065000000 7.8757000000 0.3121000000
1.5062000000 5.6923000000 2.5979000000
1.5060000000 3.4932000000 3.1839000000
1.5058000000 5.1789000000 2.9349000000
1.5057000000 4.4312000000 3.3288000000
1.5054000000 7.1059000000 1.1152000000
1.5050000000 6.9008000000 1.3319000000
1.5048000000 5.6306000000 2.6534000000
1.5043000000 6.1087000000 2.1710000000
1.5042000000 0.9140000000 0.9363000000
1.5040000000 4.7828000000 3.1422000000
1.5037000000 7.7975000000 0.3879000000
1.5033000000 3.5670000000 3.2164000000
1.5031000000 7.8008000000 0.3905000000
1.5028000000 1.7305000000 1.7972000000
1.5025000000 3.1696000000 3.0166000000
1.5023000000 7.3405000000 0.8714000000
1.5020000000 2.1558000000 2.2422000000
1.5018000000 3.6010000000 3.2402000000
1.5015000000 2.3330000000 2.4372000000
1.5010000000 2.0699000000 2.1556000000
1.5008000000 5.3647000000 2.8313000000
1.5005000000 0.9690000000 0.9955000000
1.4997000000 1.8099000000 1.8820000000
1.4993000000 3.1365000000 2.9913000000
1.4989000000 3.5076000000 3.1828000000
1.4981000000 3.3531000000 3.1002000000
1.4978000000 0.2283000000 0.2144000000
1.4974000000 2.1709000000 2.2580000000
1.4959000000 0.3085000000 0.3060000000
1.2626000000 2.4166000000 2.3934000000
1.2615000000 6.9220000000 1.3171000000
1.2604000000 2.4358000000 2.4041000000
1.2598000000 7.9101000000 0.2736000000
1.2591000000 7.8519000000 0.3325000000
1.2588000000 7.8664000000 0.3170000000
1.2583000000 8.0131000000 0.1689000000
1.2580000000 8.2461000000 0.0670000000
1.2576000000 6.9877000000 1.2489000000
1.2574000000 1.6492000000 1.7083000000
1.2571000000 8.0841000000 0.0922000000
1.2569000000 6.2304000000 2.0360000000
1.2568000000 8.1593000000 0.0822000000
1.2563000000 4.4842000000 3.0696000000
1.2562000000 1.5338000000 1.5895000000
1.2559000000 5.1895000000 2.6970000000
1.2556000000 2.3851000000 2.3743000000
1.2553000000 4.6588000000 2.9819000000
1.2564000000 4.1190000000 3.2422000000
1.2549000000 7.7368000000 0.4549000000
1.2546000000 5.4360000000 2.5714000000
1.2545000000 2.9101000000 2.6512000000
1.2544000000 2.2880000000 2.3127000000
1.2543000000 7.6827000000 0.5091000000
1.2541000000 2.2714000000 2.3025000000
1.2538000000 2.3002000000 2.3277000000
1.2537000000 0.6023000000 0.6108000000
1.2534000000 4.8367000000 2.8839000000
1.2532000000 2.5034000000 2.4341000000
1.2530000000 4.4625000000 3.0738000000
1.2529000000 1.0229000000 1.0499000000
1.2526000000 5.6444000000 2.4561000000
1.2523000000 0.1217000000 0.1050000000
1.2520000000 4.0888000000 3.2520000000
1.2518000000 1.4530000000 1.5051000000
1.2517000000 1.8369000000 1.9066000000
1.2513000000 2.3158000000 2.3369000000
1.2508000000 1.2633000000 1.3059000000
1.2503000000 0.6509000000 0.6589000000
1.2500000000 6.9281000000 1.3106000000
1.2498000000 4.2219000000 3.1985000000
1.2495000000 2.8061000000 2.5878000000
1.2492000000 2.5699000000 2.4663000000
1.2488000000 7.0067000000 1.2291000000
1.2482000000 4.2821000000 3.1730000000
1.2480000000 2.9665000000 2.6751000000
1.2474000000 3.9096000000 3.1679000000
1.2470000000 0.9516000000 0.9754000000
1.2457000000 5.5006000000 2.5197000000
1.0123000000 5.8855000000 2.1078000000
1.0108000000 8.0805000000 0.0937000000
1.0099000000 5.4879000000 2.3189000000
1.0093000000 4.9570000000 2.6007000000
1.0086000000 6.3288000000 1.8708000000
1.0081000000 6.4306000000 1.8065000000
1.0075000000 7.7121000000 0.4857000000
1.0074000000 4.0810000000 3.0232000000
1.0073000000 3.4241000000 2.6956000000
1.0063000000 7.7934000000 0.3956000000
1.0060000000 3.9262000000 2.9561000000
1.0056000000 3.3643000000 2.6625000000
1.0054000000 7.4374000000 0.7736000000
1.0053000000 1.8093000000 1.8236000000
1.0050000000 6.1417000000 1.9711000000
1.0048000000 6.8046000000 1.4339000000
1.0045000000 2.0701000000 1.9841000000
1.0044000000 6.4240000000 1.8016000000
1.0041000000 0.1321000000 0.1183000000
1.0040000000 3.2544000000 2.6014000000
1.0035000000 4.4779000000 2.8496000000
1.0031000000 0.8857000000 0.9060000000
1.0030000000 7.9078000000 0.2771000000
1.0028000000 4.1386000000 3.0042000000
1.0024000000 0.2801000000 0.2738000000
1.0021000000 4.6785000000 2.7410000000
1.0018000000 2.4780000000 2.1896000000
1.0017000000 4.8855000000 2.6298000000
1.0014000000 3.9068000000 2.9429000000
1.0013000000 8.1290000000 0.1191000000
1.0011000000 4.6911000000 2.7283000000
1.0009000000 2.4474000000 2.1740000000
1.0003000000 4.0561000000 3.0044000000
1.0000000000 0.3912000000 0.3840000000
0.9991000000 0.6078000000 0.6139000000
0.9985000000 0.2837000000 0.2757000000
0.9968000000 0.2605000000 0.2565000000
0.9943000000 2.9858000000 2.4486000000
0.7610000000 6.0197000000 1.8149000000
0.7602000000 7.3796000000 0.8324000000
0.7595000000 7.7098000000 0.4853000000
0.7589000000 1.0946000000 1.1277000000
0.7582000000 7.2221000000 1.0010000000
0.7580000000 0.1422000000 0.1245000000
0.7578000000 7.1683000000 1.0595000000
0.7577000000 6.4646000000 1.5740000000
0.7574000000 4.9259000000 2.3775000000
0.7573000000 7.0919000000 1.1275000000
0.7570000000 8.2391000000 0.0719000000
0.7568000000 6.8491000000 1.3579000000
0.7566000000 4.9589000000 2.3703000000
0.7560000000 5.3187000000 2.1716000000
0.7558000000 6.6275000000 1.4850000000
0.7555000000 6.0744000000 1.7819000000
0.7551000000 2.8806000000 2.1815000000
0.7550000000 5.9925000000 1.8211000000
0.7548000000 3.7057000000 2.6127000000
0.7546000000 6.3147000000 1.6494000000
0.7545000000 6.1667000000 1.7359000000
0.7543000000 0.2140000000 0.1983000000
0.7541000000 7.0374000000 1.1888000000
0.7540000000 6.1218000000 1.7551000000
0.7538000000 2.9942000000 2.2421000000
0.7537000000 6.3954000000 1.6088000000
0.7535000000 6.9197000000 1.3002000000
0.7532000000 4.1350000000 2.7809000000
0.7530000000 3.8436000000 2.6790000000
0.7527000000 2.6429000000 2.0544000000
0.7526000000 5.2374000000 2.2173000000
0.7522000000 4.6723000000 2.5103000000
0.7520000000 1.7045000000 1.5600000000
0.7518000000 8.0327000000 0.1418000000
0.7513000000 6.6265000000 1.4797000000
0.7512000000 3.9635000000 2.7445000000
0.7508000000 4.1201000000 2.7843000000
0.7503000000 1.3024000000 1.3288000000
0.7498000000 5.0948000000 2.2854000000
0.7494000000 5.1052000000 2.2806000000
0.7492000000 3.1288000000 2.2996000000
0.7486000000 4.7620000000 2.4606000000
0.7480000000 3.1509000000 2.3102000000
0.7469000000 2.2642000000 1.8464000000
0.7450000000 0.6517000000 0.6653000000
0.5139000000 2.9633000000 1.9988000000
0.5115000000 6.1881000000 1.5031000000
0.5106000000 5.4655000000 1.8741000000
0.5100000000 4.6157000000 2.3265000000
0.5091000000 6.6430000000 1.2593000000
0.5086000000 4.0690000000 2.5629000000
0.5080000000 7.4231000000 0.7776000000
0.5077000000 6.0483000000 1.5688000000
0.5075000000 4.4202000000 2.4261000000
0.5073000000 8.1245000000 0.0503000000
0.5070000000 3.1866000000 2.1139000000
0.5064000000 3.5618000000 2.3101000000
0.5060000000 5.5309000000 1.8383000000
0.5058000000 2.3329000000 1.6631000000
0.5055000000 5.1311000000 2.0430000000
0.5052000000 2.5654000000 1.7888000000
0.5049000000 2.7771000000 1.8968000000
0.5045000000 2.5221000000 1.7664000000
0.5044000000 6.5217000000 1.3137000000
0.5041000000 2.7975000000 1.9110000000
0.5040000000 0.4282000000 0.4252000000
0.5037000000 4.9340000000 2.1480000000
0.5035000000 5.7056000000 1.7455000000
0.5032000000 3.2438000000 2.1377000000
0.5030000000 6.9828000000 1.0684000000
0.5028000000 1.8246000000 1.3903000000
0.5027000000 7.1584000000 0.9751000000
0.5025000000 2.5022000000 1.7459000000
0.5023000000 5.1175000000 2.0563000000
0.5018000000 4.4603000000 2.3943000000
0.5015000000 5.1368000000 2.0383000000
0.5008000000 4.4860000000 2.3812000000
0.5005000000 0.5970000000 0.6042000000
0.4998000000 1.6292000000 1.2914000000
0.4995000000 1.8287000000 1.3985000000
0.4993000000 0.5667000000 0.5686000000
0.4981000000 0.4063000000 0.4035000000
0.4970000000 3.8740000000 2.4646000000
0.4960000000 0.2709000000 0.2628000000
0.4943000000 1.3783000000 1.1471000000
0.2614000000 1.2209000000 0.8570000000
0.2598000000 4.4785000000 2.1686000000
0.2595000000 7.4410000000 0.6113000000
0.2589000000 6.4534000000 1.1280000000
0.2579000000 6.8213000000 0.9307000000
0.2575000000 5.9098000000 1.4133000000
0.2572000000 6.4284000000 1.1389000000
0.2571000000 5.8358000000 1.4531000000
0.2564000000 1.1214000000 0.7997000000
0.2563000000 7.1757000000 0.7447000000
0.2560000000 2.7583000000 1.6633000000
0.2558000000 6.4470000000 1.1260000000
0.2554000000 4.2190000000 2.2924000000
0.2553000000 0.7082000000 0.5807000000
0.2551000000 4.9987000000 1.8862000000
0.2549000000 1.5004000000 0.9975000000
0.2545000000 6.8457000000 0.9183000000
0.2544000000 4.1297000000 2.3258000000
0.2542000000 3.4568000000 2.0267000000
0.2541000000 7.9832000000 0.1999000000
0.2540000000 3.3484000000 1.9679000000
0.2537000000 0.8848000000 0.6697000000
0.2535000000 0.5463000000 0.4879000000
0.2534000000 7.4220000000 0.6076000000
0.2532000000 6.0870000000 1.3138000000
0.2529000000 2.4025000000 1.4682000000
0.2526000000 0.3883000000 0.3671000000
0.2525000000 3.4003000000 1.9913000000
0.2522000000 0.9251000000 0.6893000000
0.2518000000 0.6913000000 0.5648000000
0.2513000000 0.1093000000 0.0915000000
0.2511000000 6.5642000000 1.0650000000
0.2506000000 0.2001000000 0.1889000000
0.2503000000 6.0861000000 1.3113000000
0.2498000000 6.0147000000 1.3516000000
0.2493000000 1.5307000000 1.0141000000
0.2484000000 2.6623000000 1.6021000000
0.2470000000 1.9850000000 1.2433000000
0.0139000000 7.3561000000 0.4266000000
0.0092000000 7.7617000000 0.2155000000
0.0088000000 7.9629000000 0.1053000000
0.0083000000 1.1672000000 0.5958000000
0.0076000000 2.4665000000 1.2757000000
0.0069000000 6.8534000000 0.6915000000
0.0066000000 4.9509000000 1.6879000000
0.0065000000 7.9979000000 0.0836000000
0.0061000000 2.6930000000 1.3927000000
0.0060000000 1.0165000000 0.5194000000
0.0058000000 3.0296000000 1.5719000000
0.0056000000 5.0972000000 1.6062000000
0.0054000000 7.1890000000 0.5076000000
0.0052000000 0.4537000000 0.2228000000
0.0049000000 4.0656000000 2.1018000000
0.0047000000 4.2256000000 2.0650000000
0.0045000000 8.2092000000 0.0198000000
0.0043000000 4.9294000000 1.6942000000
0.0041000000 1.2783000000 0.6561000000
0.0039000000 5.6457000000 1.3143000000
0.0036000000 2.2344000000 1.1543000000
0.0034000000 1.9176000000 0.9862000000
0.0032000000 2.1816000000 1.1246000000
0.0031000000 0.4949000000 0.2359000000
0.0030000000 8.1697000000 0.0523000000
0.0027000000 2.3932000000 1.2374000000
0.0025000000 6.3810000000 0.9309000000
0.0024000000 3.9038000000 2.0305000000
0.0021000000 7.0674000000 0.5726000000
0.0020000000 2.7081000000 1.3997000000
0.0018000000 6.5217000000 0.8602000000
0.0008000000 4.1530000000 2.0929000000
0.0006000000 5.2514000000 1.5266000000
0.0001000000 2.5618000000 1.3229000000
-0.0002000000 7.9292000000 0.1095000000
0.0018000000 1.6806000000 0.8599000000
-0.0015000000 8.0161000000 0.0641000000
-0.0038000000 7.2794000000 0.4525000000
-0.0071000000 0.8166000000 0.4017000000
-0.2397000000 4.8401000000 1.5252000000
-0.2401000000 5.6857000000 1.0766000000
-0.2410000000 7.5757000000 0.0778000000
-0.2413000000 7.1327000000 0.3117000000
-0.2421000000 6.2223000000 0.7915000000
-0.2425000000 0.8759000000 0.2154000000
-0.2427000000 5.3212000000 1.2679000000
-0.2429000000 4.9552000000 1.4558000000
-0.2433000000 5.5302000000 1.1556000000
-0.2435000000 5.8028000000 1.0159000000
-0.2440000000 2.0495000000 0.8324000000
-0.2442000000 5.6262000000 1.1061000000
-0.2444000000 2.6310000000 1.1382000000
-0.2447000000 1.3324000000 0.4499000000
-0.2451000000 0.5732000000 0.0524000000
-0.2454000000 4.3049000000 1.7961000000
-0.2455000000 6.1641000000 0.8258000000
-0.2457000000 4.8471000000 1.5123000000
-0.2459000000 3.0669000000 1.3650000000
-0.2462000000 6.4852000000 0.6501000000
-0.2464000000 3.6793000000 1.6927000000
-0.2466000000 6.3343000000 0.7299000000
-0.2468000000 0.3088000000 0.0629000000
-0.2471000000 0.3250000000 0.0745000000
-0.2473000000 2.8976000000 1.2720000000
-0.2477000000 6.4585000000 0.6630000000
-0.2481000000 4.9759000000 1.4460000000
-0.2486000000 6.1547000000 0.8243000000
-0.2488000000 1.3091000000 0.4371000000
-0.2490000000 4.0654000000 1.8690000000
-0.2493000000 7.1228000000 0.3152000000
-0.2499000000 2.9886000000 1.3219000000
-0.2505000000 3.2324000000 1.4509000000
-0.2514000000 4.1291000000 1.8688000000
-0.2520000000 0.5031000000 0.0876000000
-0.2525000000 2.5522000000 1.0857000000
-0.2553000000 3.5509000000 1.6123000000
-0.4873000000 4.4552000000 1.4999000000
-0.4887000000 7.1860000000 0.0610000000
-0.4893000000 7.4350000000 0.0785000000
-0.4902000000 5.4358000000 0.9724000000
-0.4915000000 7.4018000000 0.0930000000
-0.4918000000 6.8229000000 0.2448000000
-0.4925000000 4.2442000000 1.6030000000
-0.4927000000 5.3286000000 1.0352000000
-0.4932000000 2.8728000000 1.0376000000
-0.4937000000 5.2144000000 1.0926000000
-0.4941000000 2.3447000000 0.7566000000
-0.4946000000 2.6996000000 0.9424000000
-0.4949000000 6.7017000000 0.3090000000
-0.4951000000 6.4893000000 0.4148000000
-0.4955000000 2.5452000000 0.8652000000
-0.4957000000 4.1282000000 1.6432000000
-0.4960000000 1.3234000000 0.2160000000
-0.4962000000 4.3161000000 1.5638000000
-0.4965000000 2.7248000000 0.9567000000
-0.4968000000 0.6319000000 0.0077000000
-0.4971000000 3.8644000000 1.5526000000
-0.4974000000 3.7149000000 1.4761000000
-0.4978000000 4.9164000000 1.2440000000
-0.4980000000 6.6287000000 0.3459000000
-0.4987000000 4.1760000000 1.6318000000
-0.4991000000 7.1022000000 0.0942000000
-0.4994000000 1.4553000000 0.2861000000
-0.5002000000 2.1184000000 0.6336000000
-0.5003000000 4.4799000000 1.4723000000
-0.5012000000 3.5127000000 1.3621000000
-0.5025000000 5.8007000000 0.7758000000
-0.5039000000 1.9693000000 0.5546000000
-0.7371000000 4.2711000000 1.3665000000
-0.7402000000 3.6912000000 1.2476000000
-0.7413000000 6.9698000000 0.0920000000
-0.7417000000 6.9120000000 0.0484000000
-0.7425000000 3.3888000000 1.0856000000
-0.7430000000 3.0122000000 0.8860000000
-0.7433000000 5.7112000000 0.6018000000
-0.7440000000 5.9466000000 0.4845000000
-0.7446000000 5.1089000000 0.9209000000
-0.7450000000 5.6585000000 0.6287000000
-0.7452000000 2.7615000000 0.7476000000
-0.7453000000 4.8665000000 1.0424000000
-0.7457000000 4.7826000000 1.0913000000
-0.7459000000 7.0598000000 0.0471000000
-0.7463000000 1.2602000000 0.0339000000
-0.7468000000 2.8824000000 0.8147000000
-0.7472000000 5.8324000000 0.5371000000
-0.7475000000 1.8963000000 0.2921000000
-0.7479000000 2.5784000000 0.6538000000
-0.7484000000 6.0073000000 0.4445000000
-0.7485000000 2.3996000000 0.5573000000
-0.7492000000 1.9629000000 0.3295000000
-0.7496000000 4.8915000000 1.0322000000
-0.7509000000 3.4271000000 1.0971000000
-0.7521000000 4.5552000000 1.2055000000
-0.9865000000 3.9134000000 1.1303000000
-0.9912000000 5.1295000000 0.6898000000
-0.9915000000 6.5397000000 0.0938000000
-0.9921000000 4.2451000000 1.1432000000
-0.9927000000 2.5598000000 0.4213000000
-0.9937000000 3.0283000000 0.6661000000
-0.9944000000 3.7631000000 1.0442000000
-0.9946000000 4.5096000000 1.0034000000
-0.9950000000 1.8073000000 0.0984000000
-0.9954000000 5.4102000000 0.5360000000
-0.9957000000 5.5304000000 0.4795000000
-0.9962000000 3.3397000000 0.8265000000
-0.9969000000 2.9817000000 0.6378000000
-0.9979000000 5.8889000000 0.2725000000
-0.9984000000 5.0666000000 0.7077000000
-0.9987000000 6.2025000000 0.1155000000
-0.9995000000 1.6589000000 0.0874000000
-1.0003000000 3.3996000000 0.8522000000
-1.0010000000 1.9990000000 0.1217000000
-1.0021000000 4.2589000000 1.1349000000
-1.0035000000 2.3476000000 0.2933000000
-1.2396000000 5.3025000000 0.3647000000
-1.2406000000 6.2257000000 0.0310000000
-1.2410000000 5.1328000000 0.4545000000
-1.2418000000 3.0299000000 0.4369000000
-1.2422000000 5.6131000000 0.1968000000
-1.2431000000 5.2460000000 0.3923000000
-1.2436000000 5.5823000000 0.2192000000
-1.2440000000 2.7028000000 0.2618000000
-1.2442000000 2.0600000000 0.0745000000
-1.2445000000 4.2796000000 0.8975000000
-1.2449000000 5.7540000000 0.1249000000
-1.2453000000 5.9229000000 0.1106000000
-1.2457000000 2.1877000000 0.0619000000
-1.2460000000 3.2337000000 0.5409000000
-1.2464000000 4.9288000000 0.5586000000
-1.2468000000 6.1624000000 0.0576000000
-1.2475000000 3.8514000000 0.8619000000
-1.2480000000 2.2733000000 0.1107000000
-1.2485000000 3.1857000000 0.5133000000
-1.2490000000 5.8443000000 0.0739000000
-1.2497000000 5.4261000000 0.2914000000
-1.2502000000 5.8360000000 0.0764000000
-1.2510000000 3.6703000000 0.7672000000
-1.2518000000 2.8597000000 0.3422000000
-1.4899000000 3.1981000000 0.2960000000
-1.4922000000 5.3314000000 0.1235000000
-1.4929000000 3.9978000000 0.7121000000
-1.4939000000 5.0155000000 0.2888000000
-1.4945000000 4.4087000000 0.6046000000
-1.4951000000 3.8682000000 0.6480000000
-1.4958000000 2.9915000000 0.1899000000
-1.4960000000 4.6796000000 0.4606000000
-1.4962000000 2.4834000000 0.0787000000
-1.4966000000 4.4544000000 0.5795000000
-1.4971000000 5.7497000000 0.0429000000
-1.4975000000 4.9871000000 0.2970000000
-1.4988000000 4.6126000000 0.4926000000
-1.4996000000 3.1407000000 0.2583000000
-1.5000000000 3.6441000000 0.5254000000
-1.5012000000 2.5845000000 0.0409000000
-1.5032000000 2.9273000000 0.1447000000
-1.7384000000 5.2862000000 0.0687000000
-1.7406000000 4.0824000000 0.5262000000
-1.7425000000 5.2959000000 0.0594000000
-1.7436000000 4.7481000000 0.2018000000
-1.7447000000 5.1545000000 0.0652000000
-1.7456000000 4.5853000000 0.2846000000
-1.7460000000 3.2877000000 0.1122000000
-1.7473000000 3.0619000000 0.0706000000
-1.7482000000 3.0571000000 0.0690000000
-1.7491000000 3.2821000000 0.1096000000
-1.7496000000 2.7937000000 -0.0007000000
-1.7525000000 4.7166000000 0.2076000000
-1.7545000000 3.7987000000 0.3757000000
-1.9948000000 4.5304000000 0.0816000000
-1.9967000000 3.7821000000 0.1386000000
-1.9972000000 4.3168000000 0.1961000000
-1.9979000000 3.7760000000 0.1347000000
-2.0000000000 4.7896000000 0.0868000000
