3.7530000000 5.1308000000 0.2330000000
3.7529000000 2.2374000000 0.7799000000
3.7529000000 3.7401000000 0.8472000000
3.7528000000 5.0732000000 0.2544000000
3.7527000000 5.2832000000 0.1622000000
3.7526000000 1.6805000000 0.5375000000
3.7526000000 4.1605000000 0.6541000000
3.7523000000 4.2694000000 0.6095000000
3.7522000000 5.2579000000 0.1742000000
3.7521000000 2.7593000000 1.0142000000
3.7521000000 1.7998000000 0.5872000000
3.7518000000 5.8712000000 0.0487000000
3.7519000000 1.7256000000 0.5584000000
3.7517000000 4.4748000000 0.5225000000
3.7513000000 5.8362000000 0.0623000000
3.7511000000 0.7648000000 0.1248000000
3.7511000000 2.2213000000 0.7759000000
3.7510000000 1.0185000000 0.2397000000
3.7508000000 0.3310000000 0.0049000000
3.7507000000 3.3163000000 1.0364000000
3.7506000000 3.3959000000 1.0039000000
3.7505000000 1.3519000000 0.3944000000
3.7500000000 4.8716000000 0.3488000000
3.7499000000 3.8496000000 0.7990000000
3.7492000000 1.1438000000 0.2972000000
3.7477000000 4.4307000000 0.5449000000
3.7474000000 3.3334000000 1.0275000000
3.7473000000 5.8647000000 0.0517000000
3.7470000000 2.1793000000 0.7634000000
3.7460000000 0.5520000000 0.1086000000
3.7450000000 0.9344000000 0.2103000000
3.5114000000 5.6577000000 0.1833000000
3.5104000000 3.8540000000 0.9824000000
3.5100000000 5.5415000000 0.2284000000
3.5099000000 6.0491000000 0.0662000000
3.5098000000 5.5695000000 0.2203000000
3.5097000000 6.0448000000 0.0692000000
3.5093000000 5.7293000000 0.1483000000
3.5093000000 5.6881000000 0.1635000000
3.5088000000 1.3491000000 0.5749000000
3.5087000000 4.2061000000 0.8267000000
3.5086000000 4.4833000000 0.7026000000
3.5085000000 2.8877000000 1.2556000000
3.5084000000 4.6395000000 0.6406000000
3.5083000000 0.6733000000 0.2739000000
3.5083000000 0.5594000000 0.2229000000
3.5082000000 5.9044000000 0.0734000000
3.5076000000 2.6564000000 1.1489000000
3.5076000000 4.1117000000 0.8670000000
3.5073000000 2.2863000000 0.9903000000
3.5071000000 4.6011000000 0.6518000000
3.5070000000 2.9426000000 1.2840000000
3.5070000000 3.5080000000 1.1371000000
3.5066000000 5.9962000000 0.0957000000
3.5065000000 4.2082000000 0.8260000000
3.5065000000 1.8986000000 0.8220000000
3.5064000000 3.9212000000 0.9541000000
3.5064000000 4.0097000000 0.9110000000
3.5062000000 3.2397000000 1.2573000000
3.5062000000 1.4721000000 0.6293000000
3.5061000000 1.4523000000 0.6229000000
3.5059000000 1.6611000000 0.7176000000
3.5058000000 5.8382000000 0.1052000000
3.5057000000 0.7535000000 0.3042000000
3.5056000000 1.2271000000 0.5230000000
3.5056000000 5.8095000000 0.1131000000
3.5055000000 1.2066000000 0.5132000000
3.5055000000 6.0896000000 0.0460000000
3.5054000000 5.5776000000 0.2162000000
3.5053000000 5.5970000000 0.2107000000
3.5053000000 0.0160000000 0.0302000000
3.5051000000 4.7789000000 0.5755000000
3.5051000000 2.5811000000 1.1272000000
3.5050000000 0.6667000000 0.2767000000
3.5050000000 0.5984000000 0.2405000000
3.5049000000 2.6229000000 1.1423000000
3.5049000000 4.1144000000 0.8725000000
3.5048000000 2.3540000000 1.0248000000
3.5047000000 3.9961000000 0.9231000000
3.5046000000 1.3547000000 0.5791000000
3.5045000000 4.3720000000 0.7590000000
3.5045000000 1.3914000000 0.5971000000
3.5041000000 1.4539000000 0.6258000000
3.5040000000 1.4416000000 0.6215000000
3.5039000000 4.6060000000 0.6571000000
3.5038000000 2.3218000000 1.0103000000
3.5038000000 0.2584000000 0.0938000000
3.5037000000 1.8395000000 0.7958000000
3.5034000000 4.9320000000 0.5064000000
3.5034000000 0.3109000000 0.1171000000
3.5033000000 3.3116000000 1.2311000000
3.5033000000 0.9652000000 0.4079000000
3.5028000000 3.2125000000 1.2712000000
3.5026000000 1.6721000000 0.7254000000
3.5025000000 3.7246000000 1.0493000000
3.5024000000 3.2614000000 1.2492000000
3.5024000000 2.9357000000 1.2854000000
3.5023000000 1.8472000000 0.8018000000
3.5023000000 2.2818000000 0.9969000000
3.5023000000 1.1839000000 0.5077000000
3.5018000000 2.9773000000 1.3016000000
3.5015000000 2.5548000000 1.1166000000
3.5014000000 2.1825000000 0.9527000000
3.5014000000 0.0749000000 0.0795000000
3.5010000000 5.3521000000 0.3279000000
3.5008000000 2.0398000000 0.8926000000
3.5007000000 4.3039000000 0.7903000000
3.5005000000 2.9614000000 1.2980000000
3.5003000000 1.8244000000 0.7939000000
3.5002000000 1.0281000000 0.4379000000
3.4999000000 3.7322000000 1.0437000000
3.4998000000 3.2478000000 1.2570000000
3.4997000000 3.9920000000 0.9291000000
3.4995000000 2.7022000000 1.1838000000
3.4991000000 0.4439000000 0.1764000000
3.4990000000 0.6468000000 0.2680000000
3.4989000000 1.8246000000 0.7960000000
3.4988000000 2.4223000000 1.0617000000
3.4983000000 2.5801000000 1.1287000000
3.4983000000 0.3198000000 0.1214000000
3.4982000000 2.7949000000 1.2238000000
3.4980000000 5.3500000000 0.3274000000
3.4979000000 4.9508000000 0.5026000000
3.4977000000 0.2800000000 0.1053000000
3.4975000000 1.6663000000 0.7244000000
3.4972000000 2.1731000000 0.9506000000
3.4971000000 0.4289000000 0.1736000000
3.4968000000 0.9390000000 0.4017000000
3.4965000000 2.5423000000 1.1154000000
3.4963000000 1.1198000000 0.4891000000
3.4949000000 0.3775000000 0.1474000000
3.2677000000 5.8372000000 0.2081000000
3.2634000000 3.9363000000 1.1377000000
3.2616000000 2.2766000000 1.1760000000
3.2603000000 4.3005000000 0.9799000000
3.2594000000 0.4848000000 0.4471000000
3.2592000000 5.8839000000 0.1694000000
3.2591000000 2.9716000000 1.4894000000
3.2588000000 3.5936000000 1.2922000000
3.2588000000 3.1457000000 1.4867000000
3.2585000000 6.1107000000 0.0394000000
3.2585000000 4.9524000000 0.6910000000
3.2583000000 5.4509000000 0.4649000000
3.2573000000 3.6557000000 1.2576000000
3.2573000000 2.5058000000 1.2790000000
3.2571000000 0.9876000000 0.6051000000
3.2568000000 5.7272000000 0.3706000000
3.2567000000 2.1954000000 1.1489000000
3.2565000000 2.5921000000 1.3246000000
3.2564000000 4.7007000000 0.8050000000
3.2564000000 1.5514000000 0.8548000000
3.2562000000 1.5159000000 0.8493000000
3.2560000000 5.0922000000 0.6284000000
3.2560000000 3.3783000000 1.3890000000
3.2558000000 5.3200000000 0.5248000000
3.2558000000 4.3678000000 0.9488000000
3.2552000000 5.5726000000 0.4749000000
3.2552000000 2.7113000000 1.3749000000
3.2550000000 3.8819000000 1.1636000000
3.2547000000 1.4220000000 0.8006000000
3.2547000000 3.6123000000 1.2916000000
3.2546000000 3.2924000000 1.4289000000
3.2546000000 1.3109000000 0.7552000000
3.2545000000 1.1143000000 0.6621000000
3.2544000000 4.1343000000 1.0518000000
3.2542000000 5.5387000000 0.4965000000
3.2539000000 0.1268000000 0.0632000000
3.2537000000 2.4764000000 1.2693000000
3.2537000000 2.1491000000 1.1240000000
3.2535000000 5.5433000000 0.4891000000
3.2534000000 3.2126000000 1.4667000000
3.2533000000 4.2761000000 0.9902000000
3.2533000000 5.2976000000 0.5402000000
3.2533000000 2.2799000000 1.1830000000
3.2532000000 3.2960000000 1.4291000000
3.2530000000 0.1964000000 0.1295000000
3.2530000000 5.8968000000 0.1563000000
3.2530000000 0.5649000000 0.4820000000
3.2527000000 2.7702000000 1.4000000000
3.2526000000 2.3846000000 1.2318000000
3.2526000000 0.0380000000 0.0616000000
3.2525000000 1.0328000000 0.6358000000
3.2524000000 1.4160000000 0.7983000000
3.2524000000 4.9338000000 0.7015000000
3.2523000000 6.0995000000 0.0556000000
3.2522000000 2.0138000000 1.0682000000
3.2522000000 0.0717000000 0.0979000000
3.2519000000 3.3548000000 1.4009000000
3.2518000000 2.1758000000 1.1425000000
3.2517000000 3.3205000000 1.4192000000
3.2517000000 4.7451000000 0.7836000000
3.2516000000 0.7836000000 0.5217000000
3.2515000000 5.1526000000 0.6063000000
3.2514000000 1.3117000000 0.7555000000
3.2513000000 1.0492000000 0.6409000000
3.2510000000 4.9486000000 0.6922000000
3.2508000000 5.6372000000 0.4544000000
3.2506000000 0.8355000000 0.5459000000
3.2508000000 2.7381000000 1.3876000000
3.2504000000 3.2853000000 1.4340000000
3.2503000000 0.1229000000 0.0651000000
3.2499000000 0.5352000000 0.4666000000
3.2498000000 0.2919000000 0.2099000000
3.2497000000 5.7685000000 0.2735000000
3.2495000000 0.9932000000 0.6124000000
3.2493000000 0.0682000000 0.0966000000
3.2490000000 0.6936000000 0.4876000000
3.2485000000 2.8554000000 1.4458000000
3.2479000000 0.1496000000 0.0898000000
3.2479000000 3.4090000000 1.3764000000
3.2478000000 2.0005000000 1.0682000000
3.2478000000 5.1590000000 0.6071000000
3.2475000000 0.2673000000 0.1966000000
3.2473000000 2.0343000000 1.0880000000
3.2473000000 2.5014000000 1.2845000000
3.2473000000 0.4059000000 0.3781000000
3.2472000000 0.5623000000 0.4829000000
3.2468000000 1.4582000000 0.8282000000
3.0122000000 3.5043000000 1.5181000000
3.0121000000 5.5247000000 0.4883000000
3.0120000000 5.9195000000 0.1397000000
3.0119000000 3.9195000000 1.3398000000
3.0115000000 5.4741000000 0.5333000000
3.0104000000 3.5807000000 1.4851000000
3.0103000000 2.9309000000 1.6617000000
3.0100000000 5.5866000000 0.4277000000
3.0099000000 0.4405000000 0.3449000000
3.0097000000 3.1909000000 1.6604000000
3.0095000000 1.8348000000 1.1730000000
3.0090000000 4.6454000000 1.0133000000
3.0089000000 5.2187000000 0.8153000000
3.0085000000 3.9360000000 1.3268000000
3.0079000000 0.3617000000 0.2766000000
3.0078000000 4.5667000000 1.0516000000
3.0075000000 4.4992000000 1.0818000000
3.0074000000 4.5398000000 1.0651000000
3.0073000000 1.1983000000 0.8921000000
3.0067000000 5.6046000000 0.4166000000
3.0066000000 2.8826000000 1.6446000000
3.0064000000 5.9635000000 0.0977000000
3.0063000000 6.1080000000 0.0472000000
3.0063000000 5.6869000000 0.3438000000
3.0061000000 3.7743000000 1.4044000000
3.0060000000 1.1123000000 0.8565000000
3.0061000000 5.0858000000 0.8215000000
3.0060000000 0.4278000000 0.3374000000
3.0058000000 3.0691000000 1.7728000000
3.0056000000 3.3666000000 1.5839000000
3.0054000000 5.7191000000 0.3140000000
3.0052000000 5.6610000000 0.3691000000
3.0051000000 2.4579000000 1.4577000000
3.0050000000 6.0999000000 0.0545000000
3.0049000000 3.4509000000 1.5594000000
3.0048000000 4.5968000000 1.0407000000
3.0047000000 2.7978000000 1.6099000000
3.0046000000 1.4174000000 0.9952000000
3.0045000000 5.3048000000 0.6680000000
3.0043000000 1.5939000000 1.0733000000
3.0041000000 4.1272000000 1.2537000000
3.0040000000 1.2170000000 0.9017000000
3.0039000000 3.6275000000 1.4756000000
3.0037000000 4.6005000000 1.0376000000
3.0036000000 1.4596000000 1.0148000000
3.0032000000 3.4282000000 1.5616000000
3.0030000000 1.4049000000 0.9934000000
3.0028000000 5.3862000000 0.6090000000
3.0024000000 1.9149000000 1.2199000000
3.0023000000 2.6026000000 1.5185000000
3.0022000000 4.0099000000 1.3033000000
3.0020000000 3.5507000000 1.5092000000
3.0018000000 1.4466000000 1.0055000000
3.0018000000 3.5780000000 1.4996000000
3.0016000000 0.6355000000 0.5220000000
3.0015000000 0.5919000000 0.4863000000
3.0014000000 2.5787000000 1.5152000000
3.0014000000 0.4509000000 0.3558000000
3.0013000000 2.5499000000 1.4975000000
3.0012000000 4.5013000000 1.0878000000
3.0010000000 2.4388000000 1.4540000000
3.0009000000 1.4948000000 1.0230000000
3.0010000000 0.1026000000 0.1263000000
3.0007000000 1.1495000000 0.8788000000
3.0003000000 2.4184000000 1.4391000000
3.0002000000 4.8365000000 0.9389000000
3.0001000000 0.8836000000 0.7984000000
3.0000000000 0.8395000000 0.7653000000
2.9999000000 3.0149000000 1.7681000000
2.9997000000 1.3625000000 0.9711000000
2.9997000000 2.1998000000 1.3413000000
2.9996000000 0.8449000000 0.7690000000
2.9995000000 1.3088000000 0.9445000000
2.9993000000 2.0987000000 1.3060000000
2.9991000000 2.1787000000 1.3312000000
2.9990000000 0.5736000000 0.4694000000
2.9988000000 4.4741000000 1.1053000000
2.9985000000 2.0490000000 1.2728000000
2.9983000000 3.8184000000 1.3945000000
2.9982000000 5.3312000000 0.6575000000
2.9981000000 2.8284000000 1.6273000000
2.9981000000 4.2617000000 1.1941000000
2.9970000000 0.2150000000 0.1468000000
2.9970000000 1.8586000000 1.2027000000
2.9961000000 2.3441000000 1.4077000000
2.9952000000 1.0604000000 0.8399000000
2.9939000000 0.7941000000 0.6625000000
2.7622000000 4.8724000000 1.1293000000
2.7620000000 2.8336000000 1.8057000000
2.7617000000 3.4810000000 1.7241000000
2.7613000000 1.8015000000 1.3501000000
2.7609000000 5.9632000000 0.0985000000
2.7606000000 4.4133000000 1.3110000000
2.7603000000 5.8655000000 0.1887000000
2.7595000000 6.1230000000 0.0308000000
2.7594000000 1.5227000000 1.2301000000
2.7588000000 4.7304000000 1.2389000000
2.7585000000 3.6825000000 1.6352000000
2.7584000000 2.6289000000 1.7232000000
2.7583000000 3.8030000000 1.5858000000
2.7583000000 4.2892000000 1.3681000000
2.7583000000 0.8508000000 0.7170000000
2.7580000000 2.2361000000 1.5471000000
2.7579000000 1.4380000000 1.2552000000
2.7579000000 5.2095000000 0.7662000000
2.7576000000 3.0768000000 1.9606000000
2.7571000000 3.5090000000 1.7177000000
2.7569000000 4.0420000000 1.4770000000
2.7568000000 1.5009000000 1.2184000000
2.7568000000 0.8393000000 0.7047000000
2.7567000000 1.4962000000 1.2211000000
2.7566000000 3.0857000000 1.9607000000
2.7565000000 1.2200000000 1.0400000000
2.7564000000 0.9899000000 0.8368000000
2.7563000000 5.3988000000 0.5995000000
2.7562000000 4.7086000000 1.2432000000
2.7560000000 1.8892000000 1.3944000000
2.7558000000 4.4542000000 1.2938000000
2.7556000000 1.5286000000 1.2394000000
2.7554000000 4.9139000000 1.0346000000
2.7552000000 6.1222000000 0.0299000000
2.7552000000 1.5349000000 1.2295000000
2.7551000000 3.7517000000 1.6087000000
2.7550000000 3.1609000000 1.8744000000
2.7550000000 2.6260000000 1.7249000000
2.7549000000 0.6231000000 0.5086000000
2.7548000000 4.5690000000 1.2451000000
2.7548000000 4.8984000000 1.0467000000
2.7548000000 3.8931000000 1.5450000000
2.7546000000 0.6969000000 0.5750000000
2.7545000000 5.6409000000 0.3818000000
2.7545000000 2.1179000000 1.4919000000
2.7545000000 1.1043000000 0.9369000000
2.7544000000 6.0473000000 0.0998000000
2.7543000000 3.0997000000 1.9602000000
2.7544000000 4.3282000000 1.3503000000
2.7540000000 0.6106000000 0.4970000000
2.7540000000 5.3966000000 0.6008000000
2.7538000000 3.4946000000 1.7214000000
2.7536000000 6.0871000000 0.0610000000
2.7535000000 2.5407000000 1.6837000000
2.7535000000 4.3037000000 1.3677000000
2.7533000000 4.5534000000 1.2507000000
2.7533000000 3.3491000000 1.7915000000
2.7532000000 0.6897000000 0.5647000000
2.7531000000 0.2824000000 0.2084000000
2.7530000000 4.4165000000 1.3170000000
2.7530000000 5.3597000000 0.6367000000
2.7529000000 4.2954000000 1.3651000000
2.7529000000 1.2623000000 1.1401000000
2.7528000000 4.9276000000 1.0211000000
2.7528000000 1.0441000000 0.8858000000
2.7525000000 4.7032000000 1.2439000000
2.7524000000 1.5447000000 1.2421000000
2.7523000000 2.2163000000 1.5418000000
2.7523000000 1.8272000000 1.3717000000
2.7523000000 5.0455000000 0.9128000000
2.7520000000 2.1726000000 1.5242000000
2.7519000000 2.2631000000 1.5596000000
2.7519000000 5.6600000000 0.3693000000
2.7518000000 0.2865000000 0.2097000000
2.7516000000 4.1081000000 1.4528000000
2.7516000000 0.4237000000 0.3360000000
2.7515000000 2.0390000000 1.4646000000
2.7513000000 4.3728000000 1.3311000000
2.7513000000 1.0194000000 0.8616000000
2.7511000000 3.4038000000 1.7643000000
2.7512000000 0.5111000000 0.4076000000
2.7510000000 3.7799000000 1.6035000000
2.7510000000 1.6710000000 1.2995000000
2.7509000000 4.9190000000 1.0240000000
2.7505000000 4.4335000000 1.3132000000
2.7504000000 1.1293000000 0.9625000000
2.7502000000 1.3713000000 1.2322000000
2.7501000000 3.4090000000 1.7696000000
2.7500000000 4.4045000000 1.3174000000
2.7497000000 3.3856000000 1.7767000000
2.7496000000 2.9932000000 1.8935000000
2.7493000000 4.0521000000 1.4802000000
2.7487000000 3.7529000000 1.6154000000
2.7485000000 2.4175000000 1.6351000000
2.7481000000 0.2529000000 0.1804000000
2.7480000000 0.7268000000 0.6077000000
2.7480000000 5.7537000000 0.2862000000
2.7478000000 1.8817000000 1.4002000000
2.7474000000 0.0258000000 0.0544000000
2.7461000000 2.8138000000 1.8042000000
2.7438000000 2.6227000000 1.7285000000
2.5127000000 0.8747000000 0.7291000000
2.5110000000 2.0475000000 1.6515000000
2.5100000000 2.2388000000 1.7388000000
2.5094000000 4.0997000000 1.6406000000
2.5092000000 2.6639000000 1.9340000000
2.5085000000 2.4957000000 1.8587000000
2.5082000000 3.8726000000 1.7484000000
2.5080000000 4.4960000000 1.4013000000
2.5078000000 1.0691000000 0.9059000000
2.5076000000 2.5804000000 1.8932000000
2.5075000000 2.4662000000 1.8428000000
2.5074000000 5.9399000000 0.1310000000
2.5070000000 2.8443000000 2.0058000000
2.5068000000 5.6763000000 0.3506000000
2.5068000000 3.3493000000 1.9802000000
2.5064000000 4.3186000000 1.6078000000
2.5063000000 4.5676000000 1.3407000000
2.5063000000 1.0613000000 0.8952000000
2.5061000000 1.1698000000 0.9945000000
2.5060000000 3.4831000000 1.9213000000
2.5060000000 4.9221000000 1.0303000000
2.5059000000 2.7541000000 1.9753000000
2.5059000000 0.3944000000 0.3064000000
2.5058000000 3.7241000000 1.8155000000
2.5058000000 4.5022000000 1.3998000000
2.5055000000 2.0038000000 1.6405000000
2.5054000000 5.5325000000 0.4866000000
2.5053000000 2.1011000000 1.6823000000
2.5053000000 6.0631000000 0.0821000000
2.5051000000 3.8873000000 1.7426000000
2.5052000000 0.6730000000 0.5620000000
2.5049000000 2.4367000000 1.8370000000
2.5048000000 4.4645000000 1.4280000000
2.5048000000 1.2411000000 1.0643000000
2.5047000000 2.6980000000 1.9493000000
2.5045000000 4.7546000000 1.1767000000
2.5041000000 5.3655000000 0.6294000000
2.5040000000 0.9014000000 0.7517000000
2.5039000000 3.3894000000 1.9630000000
2.5038000000 0.5417000000 0.4436000000
2.5037000000 1.7111000000 1.5442000000
2.5036000000 4.2799000000 1.6276000000
2.5034000000 3.6831000000 1.8334000000
2.5032000000 3.6710000000 1.8381000000
2.5031000000 4.9913000000 0.9593000000
2.5030000000 3.9317000000 1.7177000000
2.5030000000 4.0325000000 1.6806000000
2.5028000000 5.3878000000 0.6056000000
2.5028000000 2.7424000000 1.9715000000
2.5028000000 4.5141000000 1.3899000000
2.5027000000 2.4245000000 1.8252000000
2.5026000000 1.8596000000 1.6355000000
2.5025000000 0.2695000000 0.1953000000
2.5023000000 1.2063000000 1.0345000000
2.5023000000 1.7834000000 1.6042000000
2.5022000000 0.8577000000 0.7190000000
2.5021000000 4.3917000000 1.5481000000
2.5020000000 5.9118000000 0.1485000000
2.5020000000 2.5454000000 1.8800000000
2.5018000000 2.4174000000 1.8212000000
2.5018000000 1.2721000000 1.0828000000
2.5018000000 1.2717000000 1.0873000000
2.5016000000 0.6146000000 0.5094000000
2.5015000000 1.1690000000 0.9917000000
2.5015000000 1.7634000000 1.5865000000
2.5014000000 3.2457000000 2.0368000000
2.5013000000 3.6615000000 1.8414000000
2.5013000000 0.4557000000 0.3662000000
2.5012000000 0.4729000000 0.3771000000
2.5009000000 4.5688000000 1.3378000000
2.5008000000 0.7236000000 0.5979000000
2.5008000000 2.7050000000 1.9548000000
2.5006000000 1.0161000000 0.8573000000
2.5002000000 0.9717000000 0.8198000000
2.5000000000 5.6401000000 0.3867000000
2.4998000000 3.9875000000 1.6994000000
2.5000000000 0.8567000000 0.7211000000
2.4998000000 1.5757000000 1.3562000000
2.4993000000 2.9109000000 2.0465000000
2.4992000000 2.3688000000 1.8031000000
2.4990000000 4.7415000000 1.1838000000
2.4984000000 3.5929000000 1.8721000000
2.4979000000 0.3281000000 0.2456000000
2.4977000000 0.2734000000 0.2047000000
2.4975000000 1.1590000000 0.9852000000
2.4974000000 0.4180000000 0.3309000000
2.4970000000 0.6303000000 0.5167000000
2.4966000000 4.5303000000 1.3668000000
2.4965000000 1.8487000000 1.6427000000
2.4938000000 1.3228000000 1.1338000000
2.4929000000 1.7474000000 1.5671000000
2.2613000000 6.0737000000 0.0736000000
2.2612000000 3.8811000000 1.9951000000
2.2590000000 6.1315000000 0.0168000000
2.2585000000 2.9045000000 2.2262000000
2.2583000000 4.2451000000 1.6262000000
2.2580000000 2.3778000000 1.9898000000
2.2580000000 0.8269000000 0.6887000000
2.2580000000 4.4020000000 1.4796000000
2.2579000000 5.9355000000 0.1316000000
2.2577000000 1.0225000000 0.8683000000
2.2574000000 0.8694000000 0.7320000000
2.2573000000 2.5383000000 2.0616000000
2.2572000000 1.0239000000 0.8675000000
2.2571000000 3.7532000000 1.9943000000
2.2570000000 1.1560000000 0.9827000000
2.2570000000 3.1377000000 2.2632000000
2.2569000000 5.6382000000 0.3890000000
2.2569000000 1.2916000000 1.1013000000
2.2568000000 1.5890000000 1.3663000000
2.2565000000 1.1699000000 0.9967000000
2.2560000000 4.2255000000 1.6404000000
2.2560000000 4.0913000000 1.7603000000
2.2559000000 1.4251000000 1.2276000000
2.2559000000 4.0017000000 1.8304000000
2.2558000000 0.6340000000 0.5199000000
2.2558000000 4.5451000000 1.3567000000
2.2555000000 5.7968000000 0.2442000000
2.2555000000 2.5719000000 2.0813000000
2.2551000000 2.8583000000 2.2057000000
2.2548000000 3.4164000000 2.1448000000
2.2547000000 2.9211000000 2.2377000000
2.2545000000 1.8765000000 1.6209000000
2.2545000000 4.5424000000 1.3652000000
2.2545000000 3.7565000000 1.9921000000
2.2544000000 1.0723000000 0.9103000000
2.2542000000 3.2745000000 2.2082000000
2.2540000000 4.0161000000 1.8217000000
2.2538000000 2.3909000000 2.0039000000
2.2538000000 2.4723000000 2.0354000000
2.2535000000 5.0177000000 0.9367000000
2.2534000000 0.3674000000 0.2814000000
2.2532000000 3.7088000000 2.0155000000
2.2531000000 2.7322000000 2.1573000000
2.2530000000 2.1036000000 1.8212000000
2.2531000000 1.9607000000 1.6948000000
2.2529000000 0.9002000000 0.7582000000
2.2528000000 4.9941000000 0.9593000000
2.2528000000 3.6189000000 2.0542000000
2.2525000000 1.6615000000 1.4347000000
2.2525000000 0.6065000000 0.4929000000
2.2523000000 5.3635000000 0.6292000000
2.2521000000 1.7094000000 1.4761000000
2.2521000000 2.8421000000 2.2043000000
2.2519000000 3.4021000000 2.1563000000
2.2519000000 3.9816000000 1.9171000000
2.2518000000 2.3057000000 2.0263000000
2.2518000000 1.1975000000 1.0208000000
2.2515000000 1.7674000000 1.5274000000
2.2514000000 4.9683000000 0.9825000000
2.2512000000 0.1139000000 0.1334000000
2.2512000000 0.9176000000 0.7797000000
2.2510000000 4.2230000000 1.6477000000
2.2505000000 0.3138000000 0.2445000000
2.2505000000 4.7101000000 1.2145000000
2.2503000000 3.0605000000 2.3643000000
2.2500000000 0.3464000000 0.2630000000
2.2499000000 3.7915000000 1.9687000000
2.2496000000 0.1942000000 0.1334000000
2.2495000000 2.4732000000 2.0401000000
2.2493000000 3.1839000000 2.2521000000
2.2490000000 5.0407000000 0.9212000000
2.2490000000 3.0020000000 2.2780000000
2.2488000000 0.7446000000 0.6170000000
2.2485000000 1.4242000000 1.2175000000
2.2485000000 0.1537000000 0.0944000000
2.2485000000 3.8052000000 2.0424000000
2.2481000000 0.5936000000 0.4832000000
2.2480000000 5.1696000000 0.8085000000
2.2479000000 1.4452000000 1.2373000000
2.2477000000 3.1554000000 2.2615000000
2.2476000000 1.5809000000 1.3596000000
2.2469000000 3.9805000000 1.9264000000
2.2467000000 1.5094000000 1.2976000000
2.2463000000 1.9918000000 1.7260000000
2.2462000000 1.6933000000 1.4572000000
2.2420000000 0.2741000000 0.1992000000
2.0109000000 6.0428000000 0.1024000000
2.0096000000 0.5373000000 0.4342000000
2.0092000000 4.8061000000 1.1299000000
2.0087000000 4.5382000000 1.3637000000
2.0085000000 5.3255000000 0.6678000000
2.0082000000 5.0875000000 0.8760000000
2.0081000000 1.6576000000 1.4287000000
2.0075000000 1.3722000000 1.1747000000
2.0073000000 5.3120000000 0.6810000000
2.0073000000 2.7412000000 2.4139000000
2.0071000000 2.8072000000 2.3775000000
2.0071000000 0.1558000000 0.0997000000
2.0070000000 5.7509000000 0.2898000000
2.0070000000 2.9235000000 2.4305000000
2.0069000000 2.0765000000 1.8001000000
2.0068000000 4.1842000000 1.6816000000
2.0069000000 5.8599000000 0.1975000000
2.0065000000 2.9444000000 2.4389000000
2.0064000000 5.5689000000 0.4491000000
2.0063000000 3.4821000000 2.3617000000
2.0061000000 5.4741000000 0.5384000000
2.0057000000 4.9803000000 0.9744000000
2.0056000000 0.6794000000 0.5638000000
2.0057000000 0.6513000000 0.5336000000
2.0055000000 1.0189000000 0.8574000000
2.0054000000 4.0708000000 1.7812000000
2.0053000000 3.2048000000 2.4268000000
2.0051000000 5.2808000000 0.7056000000
2.0050000000 1.5417000000 1.3233000000
2.0050000000 4.0478000000 1.7993000000
2.0050000000 2.8675000000 2.4038000000
2.0049000000 3.6062000000 2.1858000000
2.0046000000 6.0089000000 0.1341000000
2.0045000000 4.8677000000 1.0680000000
2.0043000000 3.0874000000 2.5391000000
2.0042000000 4.3574000000 1.5276000000
2.0042000000 2.7563000000 2.3550000000
2.0040000000 2.5523000000 2.2849000000
2.0039000000 1.0035000000 0.8441000000
2.0039000000 2.5834000000 2.3156000000
2.0038000000 1.1918000000 1.0166000000
2.0038000000 2.5023000000 2.1771000000
2.0037000000 0.6571000000 0.5362000000
2.0035000000 5.7944000000 0.2446000000
2.0033000000 2.5533000000 2.2888000000
2.0032000000 2.2382000000 1.9480000000
2.0032000000 2.1899000000 1.9018000000
2.0029000000 4.1478000000 1.7127000000
2.0029000000 0.7260000000 0.6011000000
2.0028000000 0.1545000000 0.0924000000
2.0028000000 5.9465000000 0.1109000000
2.0028000000 1.6276000000 1.4060000000
2.0027000000 0.4014000000 0.3111000000
2.0025000000 1.0808000000 0.9148000000
2.0024000000 0.0670000000 0.0878000000
2.0021000000 3.5996000000 2.1985000000
2.0020000000 2.3059000000 2.0031000000
2.0020000000 0.3512000000 0.2644000000
2.0018000000 2.8235000000 2.3884000000
2.0017000000 5.5737000000 0.4441000000
2.0016000000 5.1120000000 0.8505000000
2.0015000000 2.5497000000 2.2882000000
2.0014000000 5.8529000000 0.2007000000
2.0013000000 2.8864000000 2.4125000000
2.0013000000 2.3432000000 2.0374000000
2.0013000000 3.9929000000 1.8485000000
2.0012000000 3.7026000000 2.1094000000
2.0011000000 0.3114000000 0.2298000000
2.0010000000 1.1146000000 0.9437000000
2.0009000000 2.5258000000 2.1955000000
2.0009000000 0.1507000000 0.0922000000
2.0006000000 1.6053000000 1.3822000000
2.0005000000 2.6310000000 2.3549000000
2.0004000000 6.0003000000 0.1406000000
2.0004000000 6.1069000000 0.0501000000
2.0003000000 4.1285000000 1.7297000000
2.0003000000 5.8258000000 0.2199000000
1.9997000000 4.3085000000 1.5671000000
1.9995000000 0.9612000000 0.8070000000
1.9992000000 2.2570000000 1.9635000000
1.9985000000 3.4685000000 2.3726000000
1.9980000000 2.1847000000 1.8943000000
1.9964000000 0.4059000000 0.3186000000
1.9963000000 0.4542000000 0.3552000000
1.9955000000 0.0167000000 0.0493000000
1.9954000000 4.8933000000 1.0498000000
1.9945000000 1.0801000000 0.9131000000
1.9904000000 1.2038000000 1.0256000000
1.7659000000 2.2506000000 1.9554000000
1.7624000000 4.4137000000 1.4761000000
1.7623000000 5.8264000000 0.2158000000
1.7622000000 3.6221000000 2.1781000000
1.7610000000 4.9014000000 1.0443000000
1.7605000000 5.4376000000 0.5657000000
1.7597000000 5.6510000000 0.3718000000
1.7595000000 3.1515000000 2.6236000000
1.7593000000 6.1170000000 0.0401000000
1.7593000000 5.7855000000 0.2584000000
1.7579000000 1.7699000000 1.5286000000
1.7578000000 2.9408000000 2.5602000000
1.7577000000 3.7267000000 2.0852000000
1.7576000000 2.4514000000 2.1362000000
1.7576000000 3.9746000000 1.8651000000
1.7573000000 0.0278000000 0.0556000000
1.7572000000 2.5592000000 2.2326000000
1.7571000000 5.7105000000 0.3248000000
1.7570000000 3.8803000000 1.9435000000
1.7568000000 5.2718000000 0.7139000000
1.7567000000 4.7624000000 1.1664000000
1.7566000000 3.7552000000 2.0606000000
1.7565000000 0.6625000000 0.5469000000
1.7565000000 5.6027000000 0.4171000000
1.7563000000 2.2841000000 1.9897000000
1.7561000000 1.3134000000 1.1263000000
1.7561000000 4.9321000000 1.0134000000
1.7557000000 0.3629000000 0.2778000000
1.7557000000 4.6629000000 1.2559000000
1.7554000000 4.5138000000 1.3842000000
1.7553000000 5.6995000000 0.3312000000
1.7551000000 5.7357000000 0.2955000000
1.7549000000 2.3527000000 2.0435000000
1.7542000000 1.9344000000 1.6746000000
1.7542000000 2.1414000000 1.8595000000
1.7541000000 4.2128000000 1.6564000000
1.7540000000 2.6602000000 2.3248000000
1.7540000000 2.4718000000 2.1463000000
1.7539000000 3.9808000000 1.8571000000
1.7538000000 0.2992000000 0.2278000000
1.7538000000 2.1838000000 1.8948000000
1.7537000000 4.0616000000 1.7910000000
1.7534000000 0.8237000000 0.6876000000
1.7531000000 5.8413000000 0.2034000000
1.7531000000 5.2772000000 0.7075000000
1.7530000000 1.6946000000 1.4552000000
1.7529000000 4.1759000000 1.6851000000
1.7528000000 3.5532000000 2.2374000000
1.7528000000 2.5749000000 2.2432000000
1.7528000000 0.9395000000 0.7915000000
1.7527000000 1.1573000000 0.9843000000
1.7525000000 4.9060000000 1.0367000000
1.7525000000 2.5340000000 2.2090000000
1.7525000000 4.2026000000 1.6618000000
1.7524000000 3.3890000000 2.3854000000
1.7524000000 1.8418000000 1.5933000000
1.7523000000 1.4824000000 1.2682000000
1.7523000000 3.9345000000 1.9029000000
1.7522000000 2.7453000000 2.3923000000
1.7521000000 5.4710000000 0.5415000000
1.7520000000 2.6370000000 2.2967000000
1.7520000000 0.3995000000 0.3090000000
1.7519000000 1.9671000000 1.7025000000
1.7517000000 6.1429000000 0.0119000000
1.7517000000 2.3887000000 2.0778000000
1.7516000000 4.9127000000 1.0231000000
1.7515000000 5.9605000000 0.1002000000
1.7514000000 4.6564000000 1.2599000000
1.7513000000 0.6698000000 0.5492000000
1.7513000000 2.0606000000 1.7906000000
1.7512000000 2.6997000000 2.3557000000
1.7505000000 1.2185000000 1.0334000000
1.7504000000 0.7797000000 0.6474000000
1.7503000000 3.9114000000 1.9220000000
1.7499000000 0.8712000000 0.7296000000
1.7498000000 3.0101000000 2.6256000000
1.7497000000 3.6372000000 2.1672000000
1.7496000000 4.5247000000 1.3748000000
1.7489000000 5.4156000000 0.5841000000
1.7488000000 4.6872000000 1.2353000000
1.7483000000 2.1230000000 1.8395000000
1.7467000000 1.8971000000 1.6495000000
1.7458000000 1.5010000000 1.2916000000
1.7456000000 1.6608000000 1.4337000000
1.5134000000 4.4847000000 1.4107000000
1.5128000000 6.1150000000 0.0375000000
1.5120000000 4.3710000000 1.5073000000
1.5116000000 5.0829000000 0.8808000000
1.5115000000 3.9841000000 1.8550000000
1.5109000000 5.6809000000 0.3461000000
1.5104000000 1.5933000000 1.3700000000
1.5103000000 5.1553000000 0.8147000000
1.5098000000 5.5626000000 0.4500000000
1.5088000000 4.8813000000 1.0599000000
1.5086000000 3.9966000000 1.8437000000
1.5084000000 5.2654000000 0.7197000000
1.5083000000 5.0530000000 0.9033000000
1.5082000000 5.0061000000 0.9439000000
1.5080000000 3.3745000000 2.3367000000
1.5080000000 3.7304000000 2.0859000000
1.5079000000 2.7608000000 2.3417000000
1.5077000000 5.5104000000 0.5019000000
1.5075000000 5.2924000000 0.6922000000
1.5070000000 0.8004000000 0.6641000000
1.5068000000 3.7552000000 2.0563000000
1.5067000000 5.2491000000 0.7351000000
1.5066000000 5.1616000000 0.8079000000
1.5065000000 2.8360000000 2.3805000000
1.5064000000 5.3277000000 0.6615000000
1.5063000000 2.8914000000 2.3983000000
1.5062000000 5.0747000000 0.8847000000
1.5060000000 6.0360000000 0.1073000000
1.5060000000 2.6169000000 2.3416000000
1.5059000000 0.8686000000 0.7280000000
1.5058000000 4.5175000000 1.3793000000
1.5057000000 2.8659000000 2.3921000000
1.5054000000 3.5371000000 2.3145000000
1.5052000000 0.4774000000 0.3794000000
1.5051000000 0.5738000000 0.4651000000
1.5050000000 3.2067000000 2.4090000000
1.5049000000 4.1534000000 1.7114000000
1.5049000000 5.5506000000 0.4702000000
1.5048000000 5.3027000000 0.6862000000
1.5048000000 1.5267000000 1.3095000000
1.5047000000 5.6234000000 0.4030000000
1.5046000000 2.3715000000 2.0620000000
1.5046000000 3.4770000000 2.3470000000
1.5045000000 5.8784000000 0.1753000000
1.5043000000 3.8733000000 1.9553000000
1.5042000000 0.4781000000 0.3847000000
1.5039000000 0.9169000000 0.7790000000
1.5039000000 1.7036000000 1.4747000000
1.5038000000 3.9210000000 1.9099000000
1.5038000000 0.2659000000 0.1931000000
1.5037000000 2.1790000000 1.8927000000
1.5036000000 3.0358000000 2.5257000000
1.5036000000 1.1600000000 0.9909000000
1.5035000000 2.3275000000 2.0240000000
1.5034000000 4.5988000000 1.3098000000
1.5034000000 4.9793000000 0.9741000000
1.5033000000 0.5538000000 0.4458000000
1.5033000000 6.0295000000 0.1148000000
1.5031000000 1.2218000000 1.0387000000
1.5032000000 4.9137000000 1.0302000000
1.5031000000 0.7417000000 0.6190000000
1.5030000000 4.0761000000 1.7742000000
1.5028000000 6.1077000000 0.0442000000
1.5028000000 2.1094000000 1.8379000000
1.5027000000 4.4822000000 1.4139000000
1.5026000000 2.5863000000 2.3128000000
1.5025000000 3.6242000000 2.1706000000
1.5025000000 2.5902000000 2.3172000000
1.5024000000 5.4709000000 0.5361000000
1.5023000000 1.4969000000 1.2876000000
1.5024000000 5.3910000000 0.6102000000
1.5022000000 4.7264000000 1.1946000000
1.5020000000 5.6761000000 0.3498000000
1.5020000000 1.7281000000 1.4954000000
1.5019000000 4.7834000000 1.1501000000
1.5018000000 3.1277000000 2.4421000000
1.5018000000 0.2335000000 0.1693000000
1.5016000000 0.5034000000 0.4040000000
1.5016000000 5.6485000000 0.3807000000
1.5015000000 4.7743000000 1.1569000000
1.5015000000 4.2570000000 1.6141000000
1.5015000000 2.2033000000 1.9134000000
1.5014000000 2.7084000000 2.3111000000
1.5012000000 3.8768000000 1.9534000000
1.5010000000 4.8405000000 1.0951000000
1.5008000000 0.4589000000 0.3623000000
1.5008000000 3.9930000000 1.8486000000
1.5007000000 4.7988000000 1.1321000000
1.5001000000 0.1824000000 0.1245000000
1.5001000000 1.2744000000 1.0879000000
1.5000000000 2.3838000000 2.0719000000
1.4997000000 1.3671000000 1.1681000000
1.4996000000 0.9153000000 0.7691000000
1.4995000000 5.2934000000 0.6887000000
1.4993000000 0.0432000000 0.0723000000
1.4993000000 2.1008000000 1.8213000000
1.4990000000 4.3058000000 1.5712000000
1.4988000000 1.1535000000 0.9772000000
1.4986000000 3.0076000000 2.4385000000
1.4982000000 1.5521000000 1.3384000000
1.4974000000 1.8162000000 1.5679000000
1.4967000000 0.3544000000 0.2744000000
1.4964000000 3.5166000000 2.3257000000
1.4960000000 0.5783000000 0.4674000000
1.2640000000 5.8673000000 0.1789000000
1.2635000000 2.1819000000 1.9537000000
1.2618000000 4.9053000000 1.0404000000
1.2617000000 2.6441000000 2.1020000000
1.2615000000 3.6553000000 2.0244000000
1.2610000000 4.5753000000 1.3282000000
1.2605000000 5.3862000000 0.6049000000
1.2601000000 3.0994000000 2.3275000000
1.2587000000 4.1383000000 1.7204000000
1.2586000000 4.5843000000 1.3250000000
1.2586000000 5.3008000000 0.6871000000
1.2585000000 0.3380000000 0.2621000000
1.2583000000 0.9573000000 0.8069000000
1.2576000000 4.6227000000 1.2874000000
1.2573000000 4.2474000000 1.6217000000
1.2573000000 5.8010000000 0.2401000000
1.2571000000 0.1403000000 0.0802000000
1.2570000000 6.0459000000 0.1006000000
1.2570000000 3.4493000000 2.1111000000
1.2569000000 1.2790000000 1.0913000000
1.2565000000 4.1207000000 1.7397000000
1.2565000000 5.5256000000 0.4880000000
1.2562000000 0.0450000000 0.0732000000
1.2560000000 1.1724000000 1.0010000000
1.2559000000 5.1673000000 0.8022000000
1.2558000000 5.6710000000 0.3556000000
1.2558000000 0.7274000000 0.6030000000
1.2557000000 3.1946000000 2.2272000000
1.2556000000 5.3932000000 0.6020000000
1.2555000000 3.8712000000 1.9847000000
1.2554000000 4.2335000000 1.6382000000
1.2553000000 3.1343000000 2.2504000000
1.2553000000 4.9906000000 0.9620000000
1.2552000000 4.9300000000 1.0175000000
1.2551000000 2.6859000000 2.1105000000
1.2550000000 3.6089000000 2.0340000000
1.2550000000 3.4680000000 2.1002000000
1.2550000000 4.7799000000 1.1543000000
1.2548000000 2.3970000000 1.9927000000
1.2548000000 5.1092000000 0.8604000000
1.2546000000 3.7054000000 1.9917000000
1.2545000000 1.3136000000 1.1262000000
1.2542000000 2.6609000000 2.1024000000
1.2541000000 3.5791000000 2.0514000000
1.2541000000 5.0378000000 0.9205000000
1.2539000000 0.6652000000 0.5453000000
1.2537000000 1.3940000000 1.1943000000
1.2536000000 5.6771000000 0.3550000000
1.2535000000 1.7506000000 1.5118000000
1.2534000000 2.2838000000 1.9275000000
1.2533000000 6.0498000000 0.0935000000
1.2532000000 0.5538000000 0.4508000000
1.2531000000 3.2219000000 2.2106000000
1.2531000000 1.7761000000 1.5342000000
1.2530000000 3.0127000000 2.3258000000
1.2528000000 5.7555000000 0.2835000000
1.2528000000 3.7041000000 1.9921000000
1.2528000000 3.5229000000 2.0745000000
1.2527000000 3.2693000000 2.1855000000
1.2527000000 4.8783000000 1.0572000000
1.2525000000 5.9114000000 0.1351000000
1.2524000000 4.8035000000 1.1311000000
1.2523000000 5.4609000000 0.5479000000
1.2522000000 1.6366000000 1.4102000000
1.2521000000 3.4896000000 2.0921000000
1.2520000000 0.3455000000 0.2577000000
1.2519000000 3.7185000000 1.9876000000
1.2518000000 5.2816000000 0.7019000000
1.2518000000 0.0570000000 0.0819000000
1.2517000000 4.7347000000 1.1939000000
1.2517000000 3.9884000000 1.9089000000
1.2516000000 5.1100000000 0.8535000000
1.2514000000 2.8179000000 2.1652000000
1.2513000000 3.5197000000 2.0761000000
1.2513000000 5.8107000000 0.2340000000
1.2511000000 0.9155000000 0.7694000000
1.2510000000 4.8026000000 1.1238000000
1.2508000000 5.1992000000 0.7743000000
1.2506000000 3.6938000000 1.9982000000
1.2504000000 3.1929000000 2.2251000000
1.2500000000 0.6617000000 0.5460000000
1.2500000000 0.5191000000 0.4156000000
1.2499000000 2.8478000000 2.1812000000
1.2494000000 1.7839000000 1.5450000000
1.2493000000 2.6807000000 2.1084000000
1.2490000000 0.5120000000 0.4087000000
1.2483000000 1.7127000000 1.4797000000
1.2471000000 2.1142000000 1.8974000000
1.2470000000 4.9525000000 1.0003000000
1.2448000000 3.7500000000 1.9657000000
1.2439000000 0.0897000000 0.1118000000
1.0118000000 5.8731000000 0.1811000000
1.0111000000 4.5149000000 1.3882000000
1.0105000000 1.4997000000 1.2885000000
1.0103000000 5.4136000000 0.5862000000
1.0098000000 0.9405000000 0.7900000000
1.0094000000 5.5317000000 0.4865000000
1.0094000000 0.6670000000 0.5479000000
1.0090000000 2.9071000000 2.0196000000
1.0088000000 0.5472000000 0.4462000000
1.0088000000 5.5459000000 0.4674000000
1.0086000000 4.0888000000 1.6379000000
1.0086000000 1.8380000000 1.6076000000
1.0081000000 2.9036000000 2.0225000000
1.0081000000 5.1996000000 0.7793000000
1.0080000000 4.3229000000 1.5870000000
1.0078000000 1.3085000000 1.1200000000
1.0074000000 1.7730000000 1.5802000000
1.0072000000 1.5163000000 1.3036000000
1.0070000000 0.2640000000 0.1893000000
1.0070000000 3.5206000000 1.8881000000
1.0069000000 5.8591000000 0.1946000000
1.0068000000 1.4845000000 1.2700000000
1.0066000000 0.0196000000 0.0495000000
1.0066000000 5.9537000000 0.1109000000
1.0065000000 2.3589000000 1.7823000000
1.0064000000 3.9536000000 1.6895000000
1.0063000000 3.6185000000 1.8397000000
1.0060000000 1.8104000000 1.5961000000
1.0059000000 4.2088000000 1.5807000000
1.0059000000 1.3764000000 1.1774000000
1.0058000000 5.9862000000 0.0762000000
1.0057000000 6.1265000000 0.0330000000
1.0056000000 5.3355000000 0.6624000000
1.0055000000 2.7266000000 1.9412000000
1.0054000000 5.8946000000 0.1596000000
1.0052000000 5.8104000000 0.2342000000
1.0054000000 2.9138000000 2.0271000000
1.0052000000 4.6330000000 1.2788000000
1.0051000000 2.9094000000 2.0166000000
1.0050000000 5.4398000000 0.5572000000
1.0050000000 1.5825000000 1.3639000000
1.0049000000 5.0478000000 0.9112000000
1.0048000000 3.9948000000 1.6767000000
1.0047000000 5.9992000000 0.1349000000
1.0044000000 3.6729000000 1.8207000000
1.0043000000 0.3174000000 0.2389000000
1.0043000000 3.6358000000 1.8300000000
1.0042000000 2.4467000000 1.8129000000
1.0041000000 3.0573000000 2.1529000000
1.0039000000 3.1459000000 2.0506000000
1.0038000000 4.2570000000 1.5612000000
1.0038000000 4.4859000000 1.4016000000
1.0036000000 2.0756000000 1.6520000000
1.0035000000 4.2930000000 1.5990000000
1.0034000000 2.7326000000 1.9429000000
1.0034000000 5.2828000000 0.6983000000
1.0033000000 0.7322000000 0.6047000000
1.0033000000 0.2776000000 0.1989000000
1.0033000000 3.3282000000 1.9669000000
1.0032000000 0.9093000000 0.7677000000
1.0031000000 1.1121000000 0.9447000000
1.0031000000 1.6286000000 1.3986000000
1.0030000000 3.0868000000 2.1397000000
1.0030000000 2.4361000000 1.8120000000
1.0028000000 4.1321000000 1.6150000000
1.0026000000 6.1251000000 0.0274000000
1.0027000000 2.6436000000 1.8971000000
1.0025000000 0.1141000000 0.1376000000
1.0024000000 3.0619000000 2.1465000000
1.0023000000 3.4495000000 1.9145000000
1.0021000000 5.4628000000 0.5506000000
1.0018000000 4.9823000000 0.9728000000
1.0017000000 5.4204000000 0.5835000000
1.0016000000 2.1661000000 1.6929000000
1.0013000000 3.9275000000 1.7011000000
1.0012000000 4.5894000000 1.3202000000
1.0011000000 1.5485000000 1.3295000000
1.0010000000 3.4268000000 1.9257000000
1.0008000000 1.1491000000 0.9737000000
1.0007000000 2.5440000000 1.8541000000
1.0007000000 1.2775000000 1.0920000000
1.0006000000 3.3083000000 1.9780000000
1.0006000000 1.0419000000 0.8800000000
1.0005000000 3.6471000000 1.8309000000
1.0005000000 2.2515000000 1.7268000000
1.0003000000 2.0687000000 1.6453000000
0.9995000000 0.0620000000 0.0816000000
0.9994000000 4.1741000000 1.5881000000
0.9993000000 1.1790000000 1.0033000000
0.9991000000 2.4284000000 1.8035000000
0.9991000000 3.1904000000 2.0299000000
0.9990000000 0.7615000000 0.6335000000
0.9990000000 1.9678000000 1.6025000000
0.9978000000 0.6587000000 0.5376000000
0.9965000000 0.8169000000 0.6793000000
0.9965000000 2.1799000000 1.6899000000
0.9956000000 1.1247000000 0.9559000000
0.7623000000 5.9442000000 0.1190000000
0.7614000000 6.0764000000 0.0766000000
0.7610000000 4.6872000000 1.1781000000
0.7605000000 2.5676000000 1.6832000000
0.7604000000 0.3524000000 0.2739000000
0.7595000000 3.8039000000 1.5697000000
0.7584000000 4.4049000000 1.3063000000
0.7579000000 2.5889000000 1.6871000000
0.7572000000 4.8554000000 1.1463000000
0.7572000000 4.7988000000 1.1892000000
0.7570000000 1.6180000000 1.2523000000
0.7570000000 2.9014000000 1.8251000000
0.7568000000 4.0742000000 1.4536000000
0.7567000000 4.9711000000 0.9815000000
0.7567000000 3.8813000000 1.5337000000
0.7566000000 4.9188000000 1.0196000000
0.7565000000 4.8351000000 1.1635000000
0.7565000000 5.0724000000 0.8917000000
0.7564000000 0.5710000000 0.4630000000
0.7562000000 3.1482000000 1.8577000000
0.7561000000 0.0128000000 0.0459000000
0.7560000000 3.4872000000 1.7052000000
0.7559000000 0.7589000000 0.6288000000
0.7559000000 4.6380000000 1.1936000000
0.7557000000 5.0073000000 0.9479000000
0.7553000000 2.9718000000 1.8577000000
0.7551000000 1.8459000000 1.3575000000
0.7549000000 3.7182000000 1.6080000000
0.7549000000 3.1369000000 1.8655000000
0.7548000000 2.8344000000 1.7952000000
0.7546000000 6.0522000000 0.0958000000
0.7545000000 2.8831000000 1.8129000000
0.7545000000 6.1330000000 0.0218000000
0.7544000000 4.8147000000 1.1825000000
0.7544000000 0.7149000000 0.5911000000
0.7543000000 4.4027000000 1.2976000000
0.7541000000 4.7038000000 1.1579000000
0.7540000000 5.4287000000 0.5716000000
0.7540000000 0.8459000000 0.7107000000
0.7539000000 1.7952000000 1.3353000000
0.7540000000 3.1844000000 1.8426000000
0.7539000000 2.2079000000 1.5224000000
0.7538000000 1.0428000000 0.8875000000
0.7538000000 3.9181000000 1.5119000000
0.7537000000 4.9380000000 1.0042000000
0.7535000000 1.3451000000 1.1949000000
0.7535000000 3.0918000000 1.9385000000
0.7534000000 4.7813000000 1.1934000000
0.7530000000 1.5896000000 1.2416000000
0.7528000000 3.2473000000 1.8112000000
0.7528000000 4.9107000000 1.0900000000
0.7526000000 5.5235000000 0.4894000000
0.7526000000 2.9078000000 1.8288000000
0.7524000000 4.7340000000 1.2128000000
0.7523000000 0.7002000000 0.5803000000
0.7522000000 5.4927000000 0.5093000000
0.7521000000 5.5581000000 0.4614000000
0.7520000000 3.7654000000 1.5842000000
0.7520000000 1.9520000000 1.4037000000
0.7519000000 2.2050000000 1.5191000000
0.7518000000 0.4472000000 0.3563000000
0.7518000000 0.2542000000 0.1782000000
0.7517000000 0.1622000000 0.1026000000
0.7514000000 5.9729000000 0.0917000000
0.7513000000 2.7204000000 1.7451000000
0.7512000000 3.6032000000 1.6583000000
0.7511000000 0.9716000000 0.8185000000
0.7511000000 4.7614000000 1.2006000000
0.7510000000 3.0664000000 1.9491000000
0.7510000000 3.2346000000 1.8138000000
0.7509000000 2.1086000000 1.4746000000
0.7506000000 0.9242000000 0.7794000000
0.7505000000 1.0443000000 0.8884000000
0.7503000000 2.4240000000 1.6117000000
0.7503000000 1.1752000000 0.9990000000
0.7502000000 2.2669000000 1.5421000000
0.7501000000 3.4041000000 1.7393000000
0.7498000000 1.1661000000 0.9885000000
0.7497000000 0.2068000000 0.1347000000
0.7497000000 1.5998000000 1.2450000000
0.7496000000 4.9491000000 1.0025000000
0.7495000000 5.3406000000 0.6527000000
0.7494000000 0.2747000000 0.1941000000
0.7490000000 2.5669000000 1.6766000000
0.7489000000 4.1376000000 1.4180000000
0.7489000000 0.6543000000 0.5393000000
0.7487000000 2.3541000000 1.5763000000
0.7483000000 4.1031000000 1.4339000000
0.7479000000 2.0227000000 1.4279000000
0.7479000000 1.8161000000 1.3412000000
0.7476000000 2.2035000000 1.5117000000
0.7475000000 1.6852000000 1.2818000000
0.7465000000 4.2694000000 1.3558000000
0.7464000000 0.4604000000 0.3700000000
0.7464000000 3.1995000000 1.8341000000
0.7461000000 0.0109000000 0.0484000000
0.7460000000 0.3781000000 0.2918000000
0.7453000000 0.9221000000 0.7764000000
0.5113000000 4.9131000000 0.8882000000
0.5110000000 3.6643000000 1.4439000000
0.5104000000 6.0904000000 0.0580000000
0.5103000000 5.6749000000 0.3494000000
0.5081000000 4.8530000000 0.9148000000
0.5079000000 2.9529000000 1.6610000000
0.5074000000 3.9455000000 1.3175000000
0.5070000000 5.3957000000 0.6023000000
0.5069000000 4.3122000000 1.1516000000
0.5068000000 0.8152000000 0.7421000000
0.5066000000 5.8467000000 0.2045000000
0.5065000000 3.8580000000 1.3501000000
0.5064000000 0.5261000000 0.4229000000
0.5063000000 4.9325000000 0.8808000000
0.5063000000 4.8702000000 0.8994000000
0.5060000000 2.5530000000 1.4790000000
0.5058000000 5.8978000000 0.1590000000
0.5055000000 3.1861000000 1.6550000000
0.5054000000 4.4881000000 1.0733000000
0.5053000000 3.1880000000 1.6478000000
0.5053000000 3.2567000000 1.6203000000
0.5050000000 1.7878000000 1.1350000000
0.5045000000 1.0659000000 0.8227000000
0.5045000000 5.7589000000 0.2819000000
0.5045000000 1.5928000000 1.0540000000
0.5043000000 4.6277000000 1.0129000000
0.5042000000 2.5278000000 1.4723000000
0.5041000000 0.4505000000 0.3518000000
0.5040000000 4.9198000000 0.8805000000
0.5038000000 0.6521000000 0.5341000000
0.5038000000 2.4733000000 1.4392000000
0.5036000000 5.6408000000 0.3832000000
0.5035000000 2.0870000000 1.2694000000
0.5035000000 4.2783000000 1.1650000000
0.5035000000 0.9809000000 0.7716000000
0.5034000000 3.8129000000 1.3682000000
0.5033000000 0.3316000000 0.2506000000
0.5031000000 1.5702000000 1.0406000000
0.5030000000 5.7610000000 0.2806000000
0.5030000000 4.0386000000 1.2692000000
0.5028000000 0.5644000000 0.4584000000
0.5027000000 6.1175000000 0.0323000000
0.5026000000 4.2052000000 1.1981000000
0.5025000000 1.4256000000 0.9753000000
0.5023000000 2.5014000000 1.4584000000
0.5021000000 0.8488000000 0.7721000000
0.5020000000 0.6817000000 0.5614000000
0.5017000000 4.4190000000 1.0995000000
0.5015000000 3.1960000000 1.6443000000
0.5015000000 3.0492000000 1.7559000000
0.5014000000 2.3076000000 1.3715000000
0.5013000000 2.6873000000 1.5367000000
0.5008000000 1.8397000000 1.1565000000
0.5002000000 4.3234000000 1.1406000000
0.5001000000 1.5064000000 1.0130000000
0.5001000000 2.0589000000 1.2586000000
0.5000000000 2.7395000000 1.5570000000
0.4998000000 4.8389000000 0.9192000000
0.4998000000 1.0744000000 0.8167000000
0.4996000000 0.4692000000 0.3761000000
0.4995000000 1.7463000000 1.1182000000
0.4993000000 5.1095000000 0.7911000000
0.4991000000 2.9415000000 1.6491000000
0.4990000000 1.7997000000 1.1333000000
0.4988000000 3.4124000000 1.5492000000
0.4986000000 4.8126000000 0.9247000000
0.4985000000 3.2019000000 1.6378000000
0.4982000000 2.7084000000 1.5458000000
0.4977000000 3.0482000000 1.7511000000
0.4973000000 0.5390000000 0.4346000000
0.4971000000 5.3395000000 0.7182000000
0.4930000000 4.4059000000 1.0993000000
0.2613000000 3.9559000000 1.1186000000
0.2608000000 1.8445000000 0.9772000000
0.2591000000 5.2232000000 0.5603000000
0.2591000000 1.3159000000 0.7386000000
0.2590000000 3.5329000000 1.3070000000
0.2581000000 4.3447000000 0.9418000000
0.2579000000 4.2229000000 0.9998000000
0.2579000000 5.9723000000 0.0890000000
0.2578000000 2.5772000000 1.3013000000
0.2576000000 4.0929000000 1.0613000000
0.2575000000 5.3857000000 0.4815000000
0.2573000000 3.4312000000 1.3442000000
0.2573000000 2.4860000000 1.2579000000
