7.0130000000 4.5699000000 0.0826000000
7.0089000000 4.1439000000 0.1206000000
7.0063000000 4.7467000000 0.0237000000
7.0048000000 3.9979000000 0.0835000000
7.0021000000 3.9413000000 0.0653000000
7.0004000000 3.7543000000 0.0818000000
6.7616000000 5.1638000000 0.0219000000
6.7578000000 4.9001000000 0.0421000000
6.7563000000 3.2852000000 0.0591000000
6.7552000000 3.5971000000 0.0923000000
6.7544000000 3.7995000000 0.1688000000
6.7539000000 3.5405000000 0.0725000000
6.7533000000 4.1425000000 0.2814000000
6.7526000000 3.5646000000 0.0886000000
6.7520000000 4.0544000000 0.2665000000
6.7508000000 3.9409000000 0.2203000000
6.7487000000 3.9502000000 0.2239000000
6.5097000000 5.3367000000 0.0400000000
6.5082000000 4.3276000000 0.3988000000
6.5068000000 4.3076000000 0.4035000000
6.5058000000 2.6913000000 0.0055000000
6.5049000000 3.6256000000 0.2571000000
6.5044000000 5.0274000000 0.1507000000
6.5037000000 5.6710000000 0.0061000000
6.5030000000 2.9210000000 0.0117000000
6.5018000000 3.8283000000 0.3317000000
6.5015000000 3.9355000000 0.3697000000
6.5006000000 3.5910000000 0.2481000000
6.2659000000 3.8611000000 0.4856000000
6.2621000000 4.6701000000 0.4292000000
6.2609000000 5.5257000000 0.1239000000
6.2594000000 5.3624000000 0.1826000000
6.2587000000 3.1076000000 0.2282000000
6.2579000000 3.9798000000 0.5383000000
6.2574000000 2.4184000000 0.0646000000
6.2564000000 5.2459000000 0.2304000000
6.2561000000 4.1772000000 0.5895000000
6.2556000000 5.7042000000 0.0691000000
6.2554000000 5.4592000000 0.1494000000
6.2551000000 4.9160000000 0.3463000000
6.2547000000 4.3012000000 0.5657000000
6.2544000000 2.7708000000 0.1156000000
6.2541000000 5.1078000000 0.2779000000
6.2533000000 3.9214000000 0.5128000000
6.2527000000 5.2923000000 0.2097000000
6.2516000000 3.4415000000 0.3506000000
6.2494000000 5.6120000000 0.1075000000
6.2475000000 3.1680000000 0.2563000000
6.0121000000 6.0028000000 0.1082000000
6.0111000000 3.8466000000 0.6344000000
6.0098000000 2.4205000000 0.1354000000
6.0096000000 5.3404000000 0.3490000000
6.0083000000 6.3891000000 0.0509000000
6.0076000000 4.8830000000 0.5062000000
6.0070000000 5.2287000000 0.3870000000
6.0068000000 3.8568000000 0.6431000000
6.0062000000 4.5790000000 0.6159000000
6.0058000000 4.7837000000 0.5456000000
6.0051000000 1.9904000000 0.0634000000
6.0043000000 2.0775000000 0.0168000000
6.0040000000 2.3042000000 0.0966000000
6.0037000000 5.3720000000 0.3407000000
6.0033000000 5.3234000000 0.3529000000
6.0023000000 2.2965000000 0.0972000000
6.0019000000 2.5904000000 0.2012000000
6.0016000000 5.5376000000 0.2830000000
6.0011000000 2.8762000000 0.2975000000
6.0007000000 3.1892000000 0.4138000000
5.9998000000 3.7966000000 0.6268000000
5.9990000000 2.1349000000 0.0421000000
5.9958000000 2.5569000000 0.1920000000
5.7630000000 6.5048000000 0.0851000000
5.7616000000 3.7140000000 0.7397000000
5.7610000000 4.9471000000 0.6315000000
5.7595000000 4.3437000000 0.8464000000
5.7591000000 4.1853000000 0.8900000000
5.7585000000 4.4785000000 0.8047000000
5.7583000000 5.6563000000 0.3851000000
5.7578000000 6.4125000000 0.1231000000
5.7576000000 5.5033000000 0.4423000000
5.7574000000 3.4209000000 0.6449000000
5.7570000000 2.2026000000 0.2148000000
5.7566000000 2.5147000000 0.3271000000
5.7563000000 2.1268000000 0.1822000000
5.7558000000 3.7779000000 0.7626000000
5.7555000000 1.5433000000 0.0611000000
5.7553000000 1.3815000000 -0.0023000000
5.7550000000 5.7419000000 0.3583000000
5.7546000000 2.6194000000 0.3607000000
5.7544000000 3.9509000000 0.8280000000
5.7542000000 1.9570000000 0.1301000000
5.7536000000 2.5881000000 0.3524000000
5.7535000000 6.2369000000 0.1844000000
5.7532000000 1.6532000000 0.0257000000
5.7529000000 4.9122000000 0.6499000000
5.7522000000 5.9532000000 0.2858000000
5.7520000000 5.0421000000 0.6065000000
5.7515000000 4.6156000000 0.7540000000
5.7512000000 4.0871000000 0.8774000000
5.7507000000 4.5451000000 0.7784000000
5.7504000000 4.2221000000 0.8901000000
5.7493000000 5.1519000000 0.5651000000
5.7475000000 1.7804000000 0.0710000000
5.5135000000 4.7557000000 0.8496000000
5.5114000000 7.2327000000 0.0607000000
5.5110000000 2.8768000000 0.6026000000
5.5099000000 6.6542000000 0.1882000000
5.5092000000 3.9418000000 0.9750000000
5.5086000000 2.3974000000 0.4389000000
5.5080000000 5.7289000000 0.5140000000
5.5078000000 5.4622000000 0.6047000000
5.5070000000 5.7919000000 0.4898000000
5.5065000000 2.2679000000 0.3856000000
5.5062000000 5.4045000000 0.6239000000
5.5059000000 4.7555000000 0.8604000000
5.5055000000 5.7741000000 0.5015000000
5.5050000000 5.8411000000 0.4803000000
5.5047000000 7.1730000000 0.0884000000
5.5040000000 3.6685000000 0.8784000000
5.5040000000 2.1036000000 0.3290000000
5.5038000000 2.1134000000 0.3403000000
5.5037000000 1.4266000000 0.0928000000
5.5033000000 3.7064000000 0.8931000000
5.5028000000 3.8564000000 0.9500000000
5.5024000000 1.4037000000 0.0874000000
5.5021000000 1.4163000000 0.0904000000
5.5016000000 4.3079000000 1.0176000000
5.5012000000 1.8095000000 0.2242000000
5.5011000000 2.7675000000 0.5653000000
5.5009000000 3.0964000000 0.6828000000
5.4995000000 1.4227000000 0.0940000000
5.4991000000 1.7580000000 0.2149000000
5.4965000000 1.4580000000 0.1179000000
5.2607000000 3.9060000000 1.1205000000
5.2595000000 3.0506000000 0.8141000000
5.2593000000 4.7894000000 0.9980000000
5.2588000000 6.0780000000 0.5432000000
5.2581000000 7.5252000000 0.0364000000
5.2578000000 4.3646000000 1.1443000000
5.2577000000 4.1985000000 1.1985000000
5.2573000000 2.0671000000 0.4684000000
5.2570000000 7.5414000000 0.0316000000
5.2566000000 4.4949000000 1.1032000000
5.2563000000 6.8754000000 0.2653000000
5.2561000000 4.0810000000 1.1771000000
5.2559000000 4.8848000000 0.9648000000
5.2555000000 4.8711000000 0.9678000000
5.2552000000 5.8814000000 0.6099000000
5.2550000000 6.9514000000 0.2351000000
5.2548000000 3.9020000000 1.1177000000
5.2545000000 5.1038000000 0.8889000000
5.2542000000 4.0964000000 1.1857000000
5.2540000000 5.4428000000 0.7740000000
5.2538000000 6.6505000000 0.3386000000
5.2536000000 3.0005000000 0.7985000000
5.2531000000 1.5828000000 0.3069000000
5.2524000000 6.1078000000 0.5400000000
5.2521000000 4.2983000000 1.1737000000
5.2519000000 1.3196000000 0.2152000000
5.2516000000 5.2976000000 0.8198000000
5.2513000000 5.9578000000 0.5924000000
5.2507000000 4.1133000000 1.1905000000
5.2504000000 2.9745000000 0.7885000000
5.2497000000 2.8979000000 0.7713000000
5.2491000000 2.4009000000 0.5946000000
5.2478000000 4.8410000000 0.9838000000
5.2470000000 0.8293000000 0.0399000000
5.0146000000 8.0581000000 0.0728000000
5.0123000000 7.7532000000 0.1049000000
5.0114000000 7.7109000000 0.1172000000
5.0109000000 2.9588000000 0.9346000000
5.0104000000 6.8912000000 0.4088000000
5.0095000000 6.1488000000 0.6745000000
5.0089000000 5.0052000000 1.0818000000
5.0081000000 1.8547000000 0.5479000000
5.0079000000 6.0587000000 0.7037000000
5.0075000000 6.1985000000 0.6535000000
5.0070000000 0.9973000000 0.2473000000
5.0069000000 3.4378000000 1.1054000000
5.0065000000 2.9847000000 0.9464000000
5.0063000000 7.5448000000 0.1802000000
5.0061000000 8.2021000000 0.0242000000
5.0055000000 6.6001000000 0.5170000000
5.0053000000 2.4632000000 0.7638000000
5.0048000000 2.5999000000 0.8066000000
5.0046000000 5.9644000000 0.7426000000
5.0045000000 4.9158000000 1.1065000000
5.0043000000 6.0423000000 0.7161000000
5.0042000000 6.3760000000 0.5885000000
5.0040000000 5.4094000000 0.9387000000
5.0038000000 7.9922000000 0.0248000000
5.0033000000 1.6601000000 0.4810000000
5.0030000000 3.5231000000 1.1398000000
5.0026000000 2.8654000000 0.9028000000
5.0023000000 1.1659000000 0.3118000000
5.0020000000 2.8590000000 0.9009000000
5.0017000000 0.1012000000 0.0110000000
5.0011000000 0.3027000000 0.0802000000
5.0010000000 2.5127000000 0.7869000000
5.0008000000 6.5600000000 0.5275000000
5.0002000000 3.9184000000 1.2766000000
4.9990000000 3.5996000000 1.1651000000
4.9986000000 1.5798000000 0.4566000000
4.9978000000 4.2212000000 1.3459000000
4.9968000000 1.6080000000 0.4654000000
4.7629000000 4.1725000000 1.4976000000
4.7619000000 8.3760000000 0.0691000000
4.7617000000 7.8501000000 0.2260000000
4.7605000000 6.5009000000 0.6974000000
4.7601000000 7.2671000000 0.4328000000
4.7598000000 8.2783000000 0.0564000000
4.7593000000 2.5522000000 0.9441000000
4.7589000000 3.1102000000 1.1415000000
4.7584000000 7.5131000000 0.3425000000
4.7580000000 7.3693000000 0.3926000000
4.7577000000 1.7398000000 0.6608000000
4.7571000000 0.5990000000 0.2602000000
4.7568000000 5.5783000000 1.0205000000
4.7565000000 7.5933000000 0.3133000000
4.7561000000 5.0627000000 1.2015000000
4.7560000000 7.3454000000 0.4047000000
4.7558000000 4.1063000000 1.4934000000
4.7554000000 4.6366000000 1.3549000000
4.7552000000 1.7752000000 0.6696000000
4.7550000000 6.7690000000 0.6081000000
4.7548000000 0.9444000000 0.3820000000
4.7545000000 4.7444000000 1.3178000000
4.7544000000 6.0602000000 0.8558000000
4.7542000000 2.9904000000 1.1001000000
4.7541000000 2.8763000000 1.0640000000
4.7540000000 0.2198000000 0.1241000000
4.7534000000 4.5684000000 1.3707000000
4.7533000000 4.3411000000 1.4554000000
4.7531000000 0.2451000000 0.1385000000
4.7528000000 5.6513000000 0.9999000000
4.7525000000 3.7261000000 1.3584000000
4.7522000000 2.3211000000 0.8695000000
4.7518000000 7.8750000000 0.2190000000
4.7517000000 1.2595000000 0.4952000000
4.7513000000 1.7641000000 0.6693000000
4.7509000000 6.5999000000 0.6642000000
4.7506000000 6.9852000000 0.5368000000
4.7504000000 0.3466000000 0.1733000000
4.7500000000 5.1663000000 1.1693000000
4.7499000000 0.1444000000 0.0967000000
4.7495000000 1.4581000000 0.5666000000
4.7486000000 2.4913000000 0.9318000000
4.7480000000 6.4326000000 0.7313000000
4.7466000000 4.1040000000 1.4927000000
4.5133000000 6.1776000000 0.9599000000
4.5125000000 2.2995000000 1.0017000000
4.5116000000 3.0375000000 1.2657000000
4.5111000000 2.5311000000 1.0916000000
4.5100000000 4.1141000000 1.6459000000
4.5098000000 6.8590000000 0.7246000000
4.5093000000 3.8177000000 1.5415000000
4.5085000000 6.8190000000 0.7380000000
4.5082000000 6.2455000000 0.9424000000
4.5079000000 4.3595000000 1.6049000000
4.5075000000 2.8872000000 1.2157000000
4.5073000000 4.4116000000 1.5851000000
4.5067000000 8.1856000000 0.1278000000
4.5063000000 4.2905000000 1.6314000000
4.5060000000 6.6600000000 0.7990000000
4.5058000000 2.7025000000 1.1549000000
4.5055000000 4.0084000000 1.6110000000
4.5053000000 4.3413000000 1.6091000000
4.5047000000 8.2508000000 0.0829000000
4.5045000000 8.1911000000 0.1238000000
4.5041000000 2.1305000000 0.9517000000
4.5038000000 0.3604000000 0.2625000000
4.5036000000 1.9979000000 0.9037000000
4.5035000000 1.6247000000 0.7747000000
4.5032000000 5.9540000000 1.0442000000
4.5030000000 3.4786000000 1.4275000000
4.5027000000 5.3357000000 1.2632000000
4.5024000000 1.3203000000 0.6664000000
4.5021000000 2.5314000000 1.0960000000
4.5019000000 5.9606000000 1.0399000000
4.5017000000 5.7385000000 1.1191000000
4.5013000000 0.8017000000 0.4888000000
4.5011000000 0.2855000000 0.2095000000
4.5010000000 4.6183000000 1.5192000000
4.5005000000 4.6893000000 1.4953000000
4.5001000000 5.0502000000 1.3641000000
4.4996000000 3.2097000000 1.3331000000
4.4989000000 2.6327000000 1.1313000000
4.4984000000 4.5846000000 1.5320000000
4.4966000000 0.6302000000 0.4195000000
4.4960000000 0.3561000000 0.2650000000
4.4942000000 3.7383000000 1.5185000000
4.2625000000 6.8840000000 0.8674000000
4.2613000000 8.1245000000 0.1728000000
4.2610000000 8.1013000000 0.1875000000
4.2603000000 0.5556000000 0.3974000000
4.2596000000 8.3579000000 0.0812000000
4.2583000000 5.3618000000 1.4059000000
4.2579000000 6.8794000000 0.8711000000
4.2576000000 7.4656000000 0.6249000000
4.2574000000 3.5578000000 1.6062000000
4.2572000000 4.1077000000 1.7992000000
4.2568000000 6.6536000000 0.9494000000
4.2566000000 4.8016000000 1.6023000000
4.2564000000 5.8913000000 1.2261000000
4.2561000000 4.4667000000 1.7211000000
4.2559000000 1.4078000000 0.8473000000
4.2557000000 4.8610000000 1.5821000000
4.2553000000 5.7977000000 1.2589000000
4.2546000000 7.9992000000 0.2594000000
4.2544000000 5.8569000000 1.2307000000
4.2542000000 6.2352000000 1.1001000000
4.2540000000 2.9963000000 1.4110000000
4.2539000000 5.3374000000 1.4125000000
4.2533000000 6.2831000000 1.0816000000
4.2531000000 2.7301000000 1.3142000000
4.2529000000 1.9832000000 1.0541000000
4.2528000000 4.6962000000 1.6421000000
4.2526000000 8.2110000000 0.1112000000
4.2523000000 1.3308000000 0.8267000000
4.2520000000 3.2308000000 1.4937000000
4.2516000000 6.5289000000 0.9976000000
4.2513000000 5.6122000000 1.3225000000
4.2510000000 5.9304000000 1.2079000000
4.2508000000 0.3404000000 0.2465000000
4.2499000000 6.3220000000 1.0706000000
4.2496000000 0.3058000000 0.2243000000
4.2492000000 2.0973000000 1.0977000000
4.2475000000 5.1276000000 1.4864000000
4.2468000000 1.1751000000 0.7765000000
4.0140000000 4.2407000000 1.9460000000
4.0108000000 7.4980000000 0.6132000000
4.0099000000 1.8301000000 1.1452000000
4.0091000000 4.3426000000 1.9166000000
4.0088000000 7.5811000000 0.5563000000
4.0083000000 4.7035000000 1.7846000000
4.0081000000 6.0460000000 1.3157000000
4.0080000000 6.9794000000 0.9618000000
4.0078000000 4.8081000000 1.7557000000
4.0075000000 6.9397000000 0.9976000000
4.0072000000 1.9283000000 1.1796000000
4.0069000000 2.4989000000 1.3804000000
4.0066000000 1.4610000000 1.0062000000
4.0064000000 1.9616000000 1.1963000000
4.0063000000 0.7489000000 0.5381000000
4.0061000000 1.8984000000 1.1743000000
4.0059000000 6.1209000000 1.2905000000
4.0054000000 6.0951000000 1.3024000000
4.0051000000 3.0170000000 1.5680000000
4.0049000000 1.3285000000 0.9327000000
4.0048000000 0.3266000000 0.2342000000
4.0045000000 6.8903000000 1.0106000000
4.0042000000 7.3684000000 0.7021000000
4.0039000000 5.1907000000 1.6191000000
4.0037000000 6.6185000000 1.1180000000
4.0035000000 4.8857000000 1.7281000000
4.0033000000 1.8328000000 1.1479000000
4.0030000000 5.8911000000 1.3735000000
4.0029000000 3.1790000000 1.6228000000
4.0025000000 7.0697000000 0.9141000000
4.0024000000 4.3102000000 1.9302000000
4.0022000000 0.7944000000 0.5656000000
4.0020000000 4.2908000000 1.9361000000
4.0019000000 2.5965000000 1.4189000000
4.0015000000 6.8964000000 1.0107000000
4.0012000000 3.3593000000 1.6934000000
4.0006000000 1.7032000000 1.1050000000
4.0001000000 1.3235000000 0.9339000000
3.9999000000 6.1783000000 1.2790000000
3.9992000000 4.6505000000 1.8112000000
3.9990000000 4.5348000000 1.8546000000
3.9979000000 0.4205000000 0.3049000000
3.9968000000 2.1404000000 1.2652000000
3.7638000000 7.6747000000 0.4871000000
3.7619000000 4.9531000000 1.8520000000
3.7611000000 7.5953000000 0.5419000000
3.7607000000 2.7736000000 1.6317000000
3.7596000000 4.6107000000 1.9720000000
3.7591000000 3.9260000000 2.0346000000
3.7587000000 7.3126000000 0.7414000000
3.7585000000 8.1101000000 0.1797000000
3.7582000000 6.8109000000 1.0982000000
3.7581000000 8.0775000000 0.2012000000
3.7574000000 4.2794000000 2.0906000000
3.7573000000 4.8489000000 1.8907000000
3.7571000000 5.9284000000 1.5134000000
3.7570000000 2.5151000000 1.5387000000
3.7568000000 7.2172000000 0.8100000000
3.7565000000 4.8253000000 1.8997000000
3.7562000000 1.6671000000 1.1775000000
3.7558000000 2.9074000000 1.6794000000
3.7557000000 2.2829000000 1.4619000000
3.7555000000 5.4744000000 1.6714000000
3.7553000000 7.7745000000 0.4206000000
3.7549000000 4.4007000000 2.0502000000
3.7547000000 6.9383000000 1.0099000000
3.7545000000 4.8390000000 1.8967000000
3.7544000000 2.2751000000 1.4610000000
3.7540000000 4.0110000000 2.0606000000
3.7537000000 5.5358000000 1.6576000000
3.7535000000 3.1817000000 1.7796000000
3.7532000000 5.9837000000 1.4935000000
3.7529000000 0.8748000000 0.6267000000
3.7526000000 0.2828000000 0.2144000000
3.7525000000 6.9473000000 0.9970000000
3.7522000000 7.4053000000 0.6773000000
3.7521000000 5.5241000000 1.6557000000
3.7519000000 0.3869000000 0.2810000000
3.7516000000 5.8964000000 1.5235000000
3.7513000000 2.6471000000 1.5863000000
3.7508000000 1.9732000000 1.3515000000
3.7501000000 3.9171000000 2.0407000000
3.7498000000 1.8160000000 1.2757000000
3.7492000000 2.3882000000 1.5026000000
3.7482000000 0.6612000000 0.4745000000
3.7471000000 1.0985000000 0.7761000000
3.7453000000 2.7983000000 1.6498000000
3.5120000000 4.4580000000 2.1744000000
3.5097000000 4.9289000000 2.0015000000
3.5091000000 7.5963000000 0.5439000000
3.5089000000 6.8121000000 1.0902000000
3.5084000000 7.1787000000 0.8346000000
3.5081000000 3.0356000000 1.8747000000
3.5076000000 6.9351000000 1.0096000000
3.5075000000 1.6689000000 1.1827000000
3.5073000000 0.8680000000 0.6203000000
3.5070000000 5.2172000000 1.9175000000
3.5068000000 4.3664000000 2.2117000000
3.5065000000 6.7746000000 1.1203000000
3.5060000000 3.5046000000 2.0439000000
3.5057000000 4.3942000000 2.2080000000
3.5055000000 6.5601000000 1.2706000000
3.5052000000 7.5427000000 0.5831000000
3.5048000000 5.4757000000 1.8206000000
3.5045000000 3.9523000000 2.1971000000
3.5042000000 4.2687000000 2.2441000000
3.5038000000 4.6209000000 2.1237000000
3.5037000000 1.6916000000 1.1976000000
3.5035000000 6.4100000000 1.3769000000
3.5033000000 1.5573000000 1.0992000000
3.5029000000 1.6215000000 1.1437000000
3.5026000000 7.5953000000 0.5364000000
3.5024000000 0.9459000000 0.6750000000
3.5020000000 2.7917000000 1.7909000000
3.5016000000 2.4733000000 1.6811000000
3.5013000000 0.3633000000 0.2642000000
3.5009000000 1.0962000000 0.7808000000
3.5007000000 2.6957000000 1.7581000000
3.4997000000 3.0048000000 1.8694000000
3.4990000000 6.5330000000 1.2932000000
3.4987000000 1.3130000000 0.9291000000
3.4980000000 5.0529000000 1.9772000000
3.2641000000 7.9039000000 0.3303000000
3.2625000000 7.9072000000 0.3284000000
3.2610000000 6.1752000000 1.5430000000
3.2601000000 5.5180000000 1.9612000000
3.2598000000 8.1422000000 0.1541000000
3.2592000000 6.5633000000 1.2705000000
3.2589000000 5.7903000000 1.8084000000
3.2586000000 7.2605000000 0.7720000000
3.2583000000 2.8252000000 1.9499000000
3.2579000000 4.5243000000 2.3067000000
3.2576000000 8.0508000000 0.2212000000
3.2571000000 5.5404000000 1.9467000000
3.2568000000 0.1446000000 0.1077000000
3.2565000000 1.8710000000 1.3229000000
3.2563000000 6.7173000000 1.1575000000
3.2560000000 5.7472000000 1.8379000000
3.2558000000 5.0310000000 2.1280000000
3.2556000000 2.6859000000 1.8813000000
3.2554000000 5.6247000000 1.9134000000
3.2552000000 6.6943000000 1.1813000000
3.2550000000 4.7247000000 2.2414000000
3.2548000000 7.0418000000 0.9332000000
3.2541000000 3.3046000000 2.1204000000
3.2539000000 7.6411000000 0.5061000000
3.2537000000 7.6305000000 0.5177000000
3.2535000000 6.5960000000 1.2462000000
3.2533000000 7.7329000000 0.4499000000
3.2531000000 4.7468000000 2.2301000000
3.2528000000 3.6449000000 2.2420000000
3.2525000000 5.1229000000 2.1046000000
3.2523000000 6.7419000000 1.1403000000
3.2522000000 1.7187000000 1.2180000000
3.2519000000 3.0329000000 2.0336000000
3.2517000000 4.0309000000 2.3838000000
3.2513000000 3.8842000000 2.3352000000
3.2509000000 1.4980000000 1.0646000000
3.2504000000 6.2698000000 1.4731000000
3.2502000000 0.0821000000 0.0705000000
3.2500000000 1.5241000000 1.0829000000
3.2494000000 0.6164000000 0.4412000000
3.2482000000 1.1800000000 0.8385000000
3.2466000000 4.9322000000 2.1748000000
3.0135000000 7.6454000000 0.5069000000
3.0118000000 6.3572000000 1.4115000000
3.0102000000 7.5149000000 0.6015000000
3.0094000000 0.8599000000 0.6088000000
3.0091000000 4.7337000000 2.3832000000
3.0084000000 4.9022000000 2.3272000000
3.0079000000 4.8253000000 2.3579000000
3.0076000000 1.2148000000 0.8717000000
3.0072000000 2.3881000000 1.6929000000
3.0069000000 4.6032000000 2.4398000000
3.0067000000 2.8520000000 2.0159000000
3.0066000000 7.6456000000 0.5047000000
3.0061000000 3.7601000000 2.4343000000
3.0060000000 5.5732000000 1.9619000000
3.0057000000 3.6695000000 2.4094000000
3.0053000000 3.3129000000 2.2758000000
3.0048000000 1.0598000000 0.7542000000
3.0047000000 2.5969000000 1.8321000000
3.0042000000 1.2385000000 0.8776000000
3.0037000000 0.9644000000 0.6851000000
3.0035000000 3.5571000000 2.3669000000
3.0031000000 6.3173000000 1.4419000000
3.0030000000 5.7310000000 1.8495000000
3.0027000000 0.6023000000 0.4365000000
3.0022000000 4.0331000000 2.5365000000
3.0018000000 3.6764000000 2.4109000000
3.0013000000 1.2254000000 0.8699000000
3.0010000000 5.9104000000 1.7255000000
3.0009000000 3.4884000000 2.3425000000
3.0005000000 7.0170000000 0.9450000000
3.0003000000 2.2400000000 1.5806000000
3.0000000000 3.2275000000 2.2412000000
2.9999000000 2.0455000000 1.4443000000
2.9993000000 0.7374000000 0.5268000000
2.9983000000 5.1480000000 2.2388000000
2.9972000000 2.2621000000 1.6004000000
2.9963000000 0.8613000000 0.6152000000
2.7614000000 1.3316000000 0.9419000000
2.7609000000 2.3335000000 1.6500000000
2.7598000000 6.7214000000 1.1603000000
2.7594000000 7.0889000000 0.8972000000
2.7587000000 7.4597000000 0.6405000000
2.7583000000 4.3371000000 2.6771000000
2.7581000000 6.0980000000 1.5984000000
2.7576000000 7.7149000000 0.4551000000
2.7574000000 0.4530000000 0.3243000000
2.7571000000 6.4262000000 1.3637000000
2.7568000000 1.6255000000 1.1534000000
2.7562000000 6.0674000000 1.6181000000
2.7555000000 3.5666000000 2.5020000000
2.7554000000 6.2545000000 1.4800000000
2.7552000000 4.4832000000 2.6309000000
2.7550000000 7.4071000000 0.6741000000
2.7548000000 1.9851000000 1.4089000000
2.7545000000 4.1577000000 2.7190000000
2.7544000000 1.8167000000 1.2847000000
2.7542000000 2.7036000000 1.9133000000
2.7539000000 1.6098000000 1.1419000000
2.7534000000 1.3133000000 0.9246000000
2.7533000000 3.6261000000 2.5264000000
2.7528000000 4.7377000000 2.5314000000
2.7525000000 2.3387000000 1.6476000000
2.7523000000 5.9529000000 1.6983000000
2.7519000000 5.2383000000 2.1976000000
2.7513000000 6.3503000000 1.4137000000
2.7509000000 5.0325000000 2.3502000000
2.7505000000 1.5787000000 1.1253000000
2.7498000000 4.4643000000 2.6355000000
2.7495000000 0.6210000000 0.4425000000
2.7490000000 3.8511000000 2.6247000000
2.7486000000 0.7193000000 0.5175000000
2.7460000000 4.3875000000 2.6665000000
2.5126000000 7.0235000000 0.9424000000
2.5112000000 5.3868000000 2.0936000000
2.5108000000 7.6041000000 0.5337000000
2.5095000000 8.2195000000 0.1076000000
2.5090000000 1.3403000000 0.9534000000
2.5085000000 7.1826000000 0.8357000000
2.5080000000 6.5275000000 1.2919000000
2.5077000000 4.8006000000 2.5055000000
2.5074000000 7.9334000000 0.3063000000
2.5067000000 7.9762000000 0.2760000000
2.5064000000 7.7961000000 0.4043000000
2.5058000000 6.1484000000 1.5626000000
2.5056000000 5.9924000000 1.6651000000
2.5054000000 2.5662000000 1.8136000000
2.5052000000 3.5193000000 2.4842000000
2.5050000000 5.9929000000 1.6714000000
2.5049000000 5.2980000000 2.1517000000
2.5048000000 4.4413000000 2.7558000000
2.5045000000 4.3047000000 2.8335000000
2.5043000000 7.1685000000 0.8414000000
2.5041000000 2.0700000000 1.4692000000
2.5039000000 1.3639000000 0.9664000000
2.5036000000 1.4582000000 1.0332000000
2.5034000000 0.5875000000 0.4194000000
2.5030000000 7.8646000000 0.3563000000
2.5028000000 0.8011000000 0.5777000000
2.5025000000 3.7313000000 2.6360000000
2.5021000000 7.3721000000 0.6978000000
2.5019000000 4.9913000000 2.3769000000
2.5015000000 3.5259000000 2.4937000000
2.5014000000 0.8851000000 0.6335000000
2.5012000000 0.3440000000 0.2553000000
2.5006000000 1.5511000000 1.1016000000
2.5003000000 5.8529000000 1.7641000000
2.4997000000 2.1122000000 1.4946000000
2.4989000000 2.1465000000 1.5184000000
2.4981000000 0.5968000000 0.4302000000
2.4974000000 1.0058000000 0.7146000000
2.2647000000 3.8564000000 2.7088000000
2.2618000000 6.8328000000 1.0779000000
2.2608000000 7.8038000000 0.3948000000
2.2597000000 3.5007000000 2.4701000000
2.2595000000 8.1107000000 0.1825000000
2.2585000000 6.5343000000 1.2888000000
2.2583000000 3.4553000000 2.4338000000
2.2580000000 2.9859000000 2.1042000000
2.2578000000 6.1438000000 1.5627000000
2.2575000000 7.5822000000 0.5485000000
2.2570000000 4.3067000000 2.8081000000
2.2567000000 7.0155000000 0.9555000000
2.2562000000 6.6258000000 1.2327000000
2.2560000000 5.2810000000 2.1694000000
2.2558000000 5.7620000000 1.8330000000
2.2556000000 7.4822000000 0.6233000000
2.2555000000 1.1274000000 0.7995000000
2.2552000000 5.8940000000 1.7372000000
2.2549000000 0.7431000000 0.5276000000
2.2547000000 3.3719000000 2.3796000000
2.2545000000 7.7225000000 0.4538000000
2.2541000000 3.9205000000 2.7519000000
2.2538000000 1.9739000000 1.3958000000
2.2535000000 7.1598000000 0.8552000000
2.2534000000 6.4253000000 1.3643000000
2.2533000000 0.6015000000 0.4376000000
2.2530000000 7.6193000000 0.5258000000
2.2528000000 3.5265000000 2.4930000000
2.2526000000 6.9186000000 1.0141000000
2.2525000000 3.1032000000 2.1907000000
2.2521000000 6.5490000000 1.2778000000
2.2516000000 1.1111000000 0.7886000000
2.2513000000 4.7394000000 2.5505000000
2.2506000000 5.0712000000 2.3167000000
2.2499000000 6.6350000000 1.2211000000
2.2494000000 0.1059000000 0.0820000000
2.2491000000 2.5991000000 1.8360000000
2.2488000000 8.0927000000 0.1924000000
2.2454000000 4.6926000000 2.5850000000
2.0173000000 6.2894000000 1.4553000000
2.0112000000 4.6240000000 2.5462000000
2.0108000000 7.4699000000 0.6369000000
2.0099000000 7.7817000000 0.4114000000
2.0086000000 7.9435000000 0.2940000000
2.0078000000 4.3837000000 2.6282000000
2.0074000000 2.2187000000 1.5712000000
2.0072000000 5.9468000000 1.7034000000
2.0069000000 6.7862000000 1.1056000000
2.0067000000 5.2338000000 2.2064000000
2.0064000000 5.9167000000 1.7263000000
2.0063000000 6.3327000000 1.4326000000
2.0061000000 4.4113000000 2.6179000000
2.0060000000 0.2176000000 0.1601000000
2.0058000000 7.3692000000 0.7043000000
2.0055000000 7.1048000000 0.8816000000
2.0052000000 4.2005000000 2.6760000000
2.0050000000 5.8411000000 1.7761000000
2.0049000000 0.0195000000 0.0192000000
2.0047000000 2.5482000000 1.8003000000
2.0045000000 5.1249000000 2.2809000000
2.0044000000 3.9213000000 2.6060000000
2.0043000000 5.0339000000 2.3472000000
2.0041000000 3.2198000000 2.2704000000
2.0040000000 7.8332000000 0.3759000000
2.0037000000 0.2818000000 0.2119000000
2.0035000000 3.0536000000 2.1550000000
2.0034000000 2.5980000000 1.8360000000
2.0030000000 2.3912000000 1.6865000000
2.0026000000 5.5353000000 1.9871000000
2.0024000000 2.6471000000 1.8722000000
2.0021000000 2.0821000000 1.4785000000
2.0018000000 0.2179000000 0.1627000000
2.0014000000 2.8053000000 1.9794000000
2.0011000000 4.5758000000 2.5624000000
2.0008000000 5.9981000000 1.6658000000
2.0005000000 4.9922000000 2.3651000000
2.0001000000 7.1590000000 0.8516000000
1.9997000000 2.8636000000 2.0200000000
1.9990000000 6.9227000000 1.0123000000
1.9980000000 3.2706000000 2.3064000000
1.9974000000 0.8438000000 0.6002000000
1.7630000000 6.1918000000 1.5309000000
1.7613000000 2.8170000000 1.9908000000
1.7602000000 6.0590000000 1.6206000000
1.7597000000 3.5748000000 2.3374000000
1.7593000000 6.0019000000 1.6663000000
1.7583000000 8.0828000000 0.2060000000
1.7579000000 4.8736000000 2.3032000000
1.7575000000 6.8866000000 1.0383000000
1.7573000000 3.3532000000 2.2563000000
1.7571000000 2.0097000000 1.4233000000
1.7566000000 0.6246000000 0.4520000000
1.7564000000 5.8475000000 1.7723000000
1.7561000000 6.3363000000 1.4286000000
1.7559000000 1.4649000000 1.0389000000
1.7555000000 0.2525000000 0.1930000000
1.7553000000 1.7440000000 1.2344000000
1.7551000000 4.1141000000 2.5233000000
1.7549000000 3.5240000000 2.3137000000
1.7546000000 0.7721000000 0.5498000000
1.7544000000 4.1355000000 2.5107000000
1.7539000000 4.8445000000 2.3111000000
1.7538000000 4.0153000000 2.4892000000
1.7534000000 8.0980000000 0.1854000000
1.7532000000 3.6640000000 2.3689000000
1.7528000000 4.9449000000 2.2716000000
1.7524000000 6.6600000000 1.1974000000
1.7523000000 3.4930000000 2.3018000000
1.7518000000 6.3072000000 1.4466000000
1.7513000000 8.2910000000 0.0537000000
1.7509000000 7.8155000000 0.3898000000
1.7508000000 5.0117000000 2.2480000000
1.7503000000 4.1237000000 2.5215000000
1.7500000000 0.7889000000 0.5619000000
1.7498000000 1.6861000000 1.1934000000
1.7494000000 4.9652000000 2.2681000000
1.7488000000 0.4039000000 0.2877000000
1.7478000000 1.5718000000 1.1182000000
1.7472000000 4.9024000000 2.2892000000
1.7468000000 1.5652000000 1.1161000000
1.5155000000 0.9051000000 0.6413000000
1.5106000000 8.3497000000 0.0127000000
1.5092000000 7.2466000000 0.7901000000
1.5086000000 5.0332000000 2.0938000000
1.5078000000 2.1454000000 1.5209000000
1.5075000000 7.5999000000 0.5400000000
1.5074000000 8.1881000000 0.1227000000
1.5069000000 2.4818000000 1.7550000000
1.5066000000 6.1730000000 1.5415000000
1.5063000000 5.0836000000 2.0741000000
1.5061000000 3.3209000000 2.0923000000
1.5059000000 6.3189000000 1.4340000000
1.5056000000 0.9312000000 0.6618000000
1.5054000000 0.0750000000 0.0594000000
1.5052000000 8.2403000000 0.0885000000
1.5049000000 1.8565000000 1.3168000000
1.5046000000 7.2443000000 0.7836000000
1.5045000000 3.5954000000 2.1857000000
1.5043000000 4.6225000000 2.2317000000
1.5040000000 3.8393000000 2.2720000000
1.5037000000 4.6807000000 2.2149000000
1.5034000000 7.9181000000 0.3202000000
1.5033000000 3.5539000000 2.1723000000
1.5030000000 8.0972000000 0.1884000000
1.5029000000 6.6195000000 1.2342000000
1.5025000000 1.4179000000 1.0084000000
1.5021000000 3.4962000000 2.1504000000
1.5017000000 5.2427000000 2.0211000000
1.5014000000 6.5213000000 1.3058000000
1.5008000000 2.1344000000 1.5099000000
1.5003000000 2.5050000000 1.7575000000
1.4996000000 1.3994000000 0.9920000000
1.4994000000 4.6462000000 2.2226000000
1.4988000000 6.9886000000 0.9668000000
1.4977000000 2.9204000000 1.9451000000
1.4945000000 0.3037000000 0.2191000000
1.4928000000 0.4280000000 0.3092000000
1.2620000000 5.6817000000 1.7141000000
1.2619000000 5.5803000000 1.7523000000
1.2615000000 1.6319000000 1.1519000000
1.2605000000 8.2661000000 0.0701000000
1.2598000000 6.1861000000 1.5269000000
1.2593000000 8.2193000000 0.1017000000
1.2591000000 7.6294000000 0.5227000000
1.2586000000 8.2723000000 0.0701000000
1.2581000000 6.9556000000 0.9945000000
1.2574000000 6.3140000000 1.4455000000
1.2571000000 6.6318000000 1.2167000000
1.2569000000 5.5105000000 1.7717000000
1.2566000000 0.4108000000 0.2945000000
1.2565000000 4.7700000000 2.0377000000
1.2563000000 4.6713000000 2.0668000000
1.2561000000 6.3759000000 1.4029000000
1.2557000000 0.9377000000 0.6715000000
1.2555000000 3.9727000000 2.1645000000
1.2552000000 0.7954000000 0.5711000000
1.2550000000 2.6641000000 1.7104000000
1.2547000000 4.6986000000 2.0593000000
1.2544000000 3.3574000000 1.9497000000
1.2542000000 7.1859000000 0.8310000000
1.2540000000 5.0268000000 1.9420000000
1.2538000000 0.9675000000 0.6904000000
1.2537000000 0.0337000000 0.0311000000
1.2535000000 0.6986000000 0.4995000000
1.2533000000 1.7884000000 1.2668000000
1.2532000000 3.1760000000 1.8886000000
1.2530000000 1.7230000000 1.2193000000
1.2528000000 1.3297000000 0.9517000000
1.2525000000 3.3338000000 1.9455000000
1.2522000000 1.3386000000 0.9556000000
1.2520000000 2.9797000000 1.8199000000
1.2517000000 2.5259000000 1.6592000000
1.2513000000 1.1868000000 0.8444000000
1.2510000000 1.8162000000 1.2826000000
1.2508000000 5.7629000000 1.6798000000
1.2505000000 1.6408000000 1.1606000000
1.2503000000 2.7942000000 1.7553000000
1.2494000000 1.2627000000 0.8968000000
1.2485000000 5.1073000000 1.9071000000
1.2480000000 4.5374000000 2.1132000000
1.2473000000 0.3977000000 0.2863000000
1.2460000000 2.6734000000 1.7103000000
1.0124000000 2.7454000000 1.5890000000
1.0110000000 7.9273000000 0.3070000000
1.0104000000 7.0954000000 0.9007000000
1.0096000000 8.3430000000 0.0222000000
1.0092000000 3.5666000000 1.8792000000
1.0088000000 7.0307000000 0.9391000000
1.0082000000 8.2611000000 0.0779000000
1.0074000000 5.5764000000 1.6040000000
1.0072000000 3.2131000000 1.7566000000
1.0070000000 3.1933000000 1.7375000000
1.0066000000 5.0983000000 1.7671000000
1.0065000000 5.1951000000 1.7320000000
1.0061000000 8.1038000000 0.1881000000
1.0060000000 2.3912000000 1.4669000000
1.0056000000 7.7606000000 0.4242000000
1.0054000000 5.3785000000 1.6704000000
1.0052000000 1.8518000000 1.2667000000
1.0045000000 3.4531000000 1.8350000000
1.0043000000 3.5581000000 1.8735000000
1.0042000000 4.1008000000 2.0601000000
1.0039000000 1.4994000000 1.0612000000
1.0037000000 5.6643000000 1.5662000000
1.0035000000 2.7263000000 1.5782000000
1.0031000000 6.0361000000 1.4387000000
1.0028000000 0.5533000000 0.3945000000
1.0026000000 4.3410000000 2.0297000000
1.0021000000 3.7496000000 1.9362000000
1.0020000000 1.0218000000 0.7284000000
1.0018000000 7.1223000000 0.8725000000
1.0011000000 2.2570000000 1.4181000000
1.0005000000 8.2576000000 0.0780000000
1.0002000000 0.5876000000 0.4231000000
0.9997000000 1.5069000000 1.0655000000
0.9990000000 0.9325000000 0.6655000000
0.9976000000 3.0406000000 1.6866000000
0.9970000000 2.2363000000 1.4015000000
0.9952000000 5.6630000000 1.5605000000
0.7635000000 5.3448000000 1.5305000000
0.7628000000 7.5457000000 0.5723000000
0.7621000000 5.5824000000 1.4464000000
0.7614000000 8.2114000000 0.1089000000
0.7606000000 3.8772000000 1.8342000000
0.7600000000 8.2695000000 0.0658000000
0.7594000000 6.7157000000 1.0508000000
0.7587000000 6.5041000000 1.1273000000
0.7585000000 6.3077000000 1.1947000000
0.7582000000 6.1906000000 1.2342000000
0.7580000000 6.5365000000 1.1152000000
0.7575000000 3.2895000000 1.6242000000
0.7570000000 6.2633000000 1.1977000000
0.7567000000 3.6439000000 1.7487000000
0.7564000000 3.9050000000 1.8435000000
0.7562000000 5.5780000000 1.4473000000
0.7560000000 3.8846000000 1.8318000000
0.7556000000 0.6852000000 0.4899000000
0.7554000000 5.3890000000 1.5169000000
0.7552000000 8.2341000000 0.0885000000
0.7550000000 7.6218000000 0.5271000000
0.7549000000 4.3299000000 1.8840000000
0.7547000000 0.8534000000 0.6076000000
0.7545000000 5.9821000000 1.3029000000
0.7542000000 3.6639000000 1.7536000000
0.7540000000 3.2655000000 1.6191000000
0.7539000000 7.0764000000 0.8943000000
0.7537000000 5.9985000000 1.2956000000
0.7535000000 4.4294000000 1.8437000000
0.7533000000 3.0391000000 1.5378000000
0.7529000000 7.0391000000 0.9182000000
0.7526000000 2.4170000000 1.3200000000
0.7524000000 5.4168000000 1.5004000000
0.7522000000 3.0672000000 1.5472000000
0.7517000000 0.2919000000 0.2083000000
0.7513000000 2.4820000000 1.3433000000
0.7508000000 7.7811000000 0.4181000000
0.7505000000 1.0490000000 0.7468000000
0.7499000000 4.3618000000 1.8709000000
0.7495000000 5.6498000000 1.4147000000
0.7488000000 0.1324000000 0.1022000000
0.7484000000 0.8259000000 0.5872000000
0.7480000000 3.2049000000 1.5895000000
0.7467000000 4.1978000000 1.9177000000
0.7452000000 0.6347000000 0.4533000000
0.5153000000 8.1367000000 0.1622000000
0.5113000000 6.0697000000 1.1286000000
0.5102000000 3.4011000000 1.5098000000
0.5097000000 6.4166000000 0.9959000000
0.5092000000 6.8548000000 0.8486000000
0.5089000000 4.8512000000 1.5476000000
0.5085000000 5.9347000000 1.1694000000
0.5080000000 1.5409000000 0.8581000000
0.5076000000 7.4640000000 0.6222000000
0.5074000000 7.9366000000 0.3042000000
0.5065000000 1.1698000000 0.7286000000
0.5063000000 2.0144000000 1.0281000000
0.5061000000 3.9061000000 1.6929000000
0.5060000000 6.3096000000 1.0387000000
0.5057000000 6.6558000000 0.9125000000
0.5055000000 0.6657000000 0.4801000000
0.5053000000 0.8768000000 0.6132000000
0.5050000000 7.7181000000 0.4517000000
0.5048000000 1.3201000000 0.7748000000
0.5043000000 0.1474000000 0.1182000000
0.5041000000 1.7234000000 0.9281000000
0.5039000000 4.0351000000 1.7328000000
0.5037000000 5.2782000000 1.3975000000
0.5034000000 3.9906000000 1.7171000000
0.5033000000 6.4727000000 0.9754000000
0.5028000000 0.3832000000 0.2831000000
0.5026000000 3.4356000000 1.5221000000
0.5025000000 4.7859000000 1.5697000000
0.5024000000 1.8135000000 0.9500000000
0.5022000000 1.8727000000 0.9761000000
0.5020000000 3.2096000000 1.4429000000
0.5017000000 6.9097000000 0.8186000000
0.5014000000 8.0370000000 0.2306000000
0.5011000000 0.2339000000 0.1734000000
0.5009000000 4.1796000000 1.7677000000
0.5003000000 2.0831000000 1.0471000000
0.5002000000 4.4489000000 1.6894000000
0.4994000000 2.0057000000 1.0166000000
0.4987000000 0.4086000000 0.2966000000
0.4975000000 4.2663000000 1.7499000000
0.4970000000 2.9307000000 1.3439000000
0.4953000000 0.9000000000 0.6102000000
0.2619000000 2.6582000000 1.0989000000
0.2607000000 8.3147000000 0.0428000000
0.2589000000 8.2170000000 0.1100000000
0.2583000000 6.4806000000 0.8250000000
0.2579000000 4.0314000000 1.5859000000
0.2576000000 5.8095000000 1.0607000000
0.2574000000 3.6718000000 1.4548000000
0.2572000000 0.9871000000 0.5080000000
0.2569000000 7.2573000000 0.5526000000
0.2566000000 4.1727000000 1.6262000000
0.2565000000 7.4679000000 0.4774000000
0.2563000000 8.3014000000 0.0425000000
0.2560000000 6.9131000000 0.6708000000
0.2559000000 6.5835000000 0.7847000000
0.2557000000 6.2667000000 0.9037000000
0.2555000000 2.5415000000 1.0576000000
0.2553000000 1.0794000000 0.5446000000
0.2551000000 6.7661000000 0.7255000000
0.2549000000 2.0279000000 0.8818000000
0.2546000000 0.0058000000 0.0168000000
0.2543000000 4.9661000000 1.3556000000
0.2541000000 6.3256000000 0.8770000000
0.2539000000 4.6160000000 1.4786000000
0.2538000000 0.6334000000 0.3843000000
0.2535000000 1.2077000000 0.5846000000
0.2533000000 5.1575000000 1.2874000000
0.2531000000 1.4952000000 0.6932000000
0.2530000000 0.8431000000 0.4577000000
0.2527000000 0.5383000000 0.3439000000
0.2524000000 0.8400000000 0.4567000000
0.2521000000 1.9325000000 0.8473000000
0.2518000000 3.8475000000 1.5149000000
0.2513000000 2.5939000000 1.0794000000
0.2508000000 5.6153000000 1.1218000000
0.2503000000 1.1246000000 0.5583000000
0.2500000000 1.2465000000 0.5977000000
0.2488000000 3.7151000000 1.4655000000
0.2475000000 2.6002000000 1.0744000000
0.2457000000 1.6498000000 0.7362000000
0.0125000000 4.6237000000 1.3302000000
0.0114000000 7.7919000000 0.2175000000
0.0106000000 2.5460000000 0.9125000000
0.0091000000 6.2802000000 0.7488000000
0.0085000000 8.3175000000 0.0164000000
0.0080000000 3.4929000000 1.2389000000
0.0073000000 5.2805000000 1.0921000000
0.0068000000 5.9564000000 0.8580000000
0.0061000000 0.8399000000 0.3073000000
0.0058000000 3.9695000000 1.4053000000
0.0056000000 7.6113000000 0.2705000000
0.0054000000 6.2261000000 0.7570000000
0.0050000000 6.4632000000 0.6753000000
0.0049000000 7.1198000000 0.4449000000
0.0045000000 2.2016000000 0.7842000000
0.0044000000 3.6355000000 1.2864000000
0.0041000000 7.6538000000 0.2611000000
0.0040000000 8.1658000000 0.0796000000
0.0038000000 4.0523000000 1.4366000000
0.0037000000 6.9029000000 0.5212000000
0.0033000000 6.8546000000 0.5399000000
0.0029000000 3.9303000000 1.3941000000
0.0025000000 6.5149000000 0.6596000000
0.0022000000 4.4527000000 1.3831000000
0.0020000000 3.6882000000 1.3093000000
0.0019000000 1.5626000000 0.5568000000
0.0016000000 1.0354000000 0.3715000000
0.0013000000 0.5005000000 0.1880000000
0.0011000000 1.8656000000 0.6673000000
0.0008000000 3.3501000000 1.1896000000
0.0003000000 4.5084000000 1.3598000000
-0.0001000000 8.1778000000 0.0690000000
-0.0004000000 0.4978000000 0.1861000000
-0.0009000000 0.6166000000 0.2243000000
-0.0013000000 5.3742000000 1.0571000000
-0.0016000000 1.5875000000 0.5666000000
-0.0019000000 1.3285000000 0.4723000000
-0.0028000000 2.0333000000 0.7238000000
-0.0045000000 4.4556000000 1.3805000000
-0.2362000000 4.2505000000 1.3091000000
-0.2392000000 7.9646000000 0.0745000000
-0.2402000000 5.0110000000 1.0362000000
-0.2411000000 6.5771000000 0.4874000000
-0.2414000000 5.0163000000 1.0328000000
-0.2417000000 7.3999000000 0.1977000000
-0.2419000000 2.4117000000 0.7118000000
-0.2423000000 8.0925000000 0.0322000000
-0.2425000000 7.0051000000 0.3329000000
-0.2428000000 6.6570000000 0.4611000000
-0.2433000000 2.1697000000 0.6270000000
-0.2436000000 4.9989000000 1.0405000000
-0.2439000000 1.0001000000 0.2142000000
-0.2443000000 7.8480000000 0.0357000000
-0.2445000000 3.1783000000 0.9809000000
-0.2447000000 6.8296000000 0.3962000000
-0.2453000000 6.0642000000 0.6623000000
-0.2455000000 3.0155000000 0.9218000000
-0.2456000000 5.4192000000 0.8950000000
-0.2460000000 1.7483000000 0.4789000000
-0.2464000000 4.4788000000 1.2252000000
-0.2466000000 3.9747000000 1.2580000000
-0.2467000000 2.4883000000 0.7336000000
-0.2469000000 3.4813000000 1.0821000000
-0.2472000000 0.6723000000 0.0920000000
-0.2474000000 5.3411000000 0.9144000000
-0.2476000000 7.7452000000 0.0748000000
-0.2479000000 4.8017000000 1.1064000000
-0.2482000000 2.5185000000 0.7415000000
-0.2485000000 2.6689000000 0.7971000000
-0.2488000000 1.0586000000 0.2310000000
-0.2492000000 4.3159000000 1.2768000000
-0.2496000000 7.5471000000 0.1405000000
-0.2499000000 6.6353000000 0.4650000000
-0.2502000000 6.7222000000 0.4293000000
-0.2512000000 0.6436000000 0.0817000000
-0.2522000000 4.4981000000 1.2095000000
-0.2529000000 3.1598000000 0.9663000000
-0.2535000000 3.3337000000 1.0235000000
-0.2542000000 4.8710000000 1.0763000000
-0.4877000000 6.8923000000 0.2249000000
-0.4896000000 6.9464000000 0.2064000000
-0.4908000000 5.6825000000 0.6559000000
-0.4912000000 7.3494000000 0.0622000000
-0.4924000000 5.1495000000 0.8402000000
-0.4927000000 5.2080000000 0.8180000000
-0.4930000000 6.9151000000 0.2228000000
-0.4935000000 4.6166000000 1.0237000000
-0.4938000000 5.3034000000 0.7827000000
-0.4941000000 1.1765000000 0.1199000000
-0.4942000000 4.9914000000 0.8884000000
-0.4950000000 7.3005000000 0.0763000000
-0.4952000000 6.6536000000 0.3075000000
-0.4954000000 1.9087000000 0.3761000000
-0.4958000000 4.0622000000 1.1352000000
-0.4963000000 1.9777000000 0.4023000000
-0.4965000000 6.5145000000 0.3514000000
-0.4968000000 1.8437000000 0.3579000000
-0.4970000000 4.8725000000 0.9288000000
-0.4974000000 7.2688000000 0.0880000000
-0.4980000000 3.4113000000 0.9009000000
-0.4983000000 1.1347000000 0.1081000000
-0.4988000000 3.3424000000 0.8782000000
-0.4990000000 3.6761000000 0.9958000000
-0.4993000000 1.0263000000 0.0688000000
-0.5001000000 6.4453000000 0.3782000000
-0.5005000000 6.7089000000 0.2807000000
-0.5009000000 2.7229000000 0.6601000000
-0.5013000000 4.9076000000 0.9140000000
-0.5020000000 3.0370000000 0.7680000000
-0.5025000000 3.2470000000 0.8461000000
-0.7367000000 4.6913000000 0.8512000000
-0.7389000000 6.9242000000 0.0574000000
-0.7394000000 1.7767000000 0.1850000000
-0.7401000000 3.0755000000 0.6387000000
-0.7410000000 2.8862000000 0.5740000000
-0.7425000000 3.9625000000 0.9457000000
-0.7428000000 5.6274000000 0.5172000000
-0.7432000000 2.1877000000 0.3262000000
-0.7435000000 5.7870000000 0.4585000000
-0.7441000000 6.3484000000 0.2662000000
-0.7442000000 5.1578000000 0.6810000000
-0.7446000000 4.5816000000 0.8765000000
-0.7449000000 3.3523000000 0.7286000000
-0.7451000000 3.4489000000 0.7691000000
-0.7452000000 5.7692000000 0.4604000000
-0.7456000000 5.3669000000 0.6089000000
-0.7457000000 4.3289000000 0.9683000000
-0.7464000000 4.7535000000 0.8259000000
-0.7469000000 5.7893000000 0.4587000000
-0.7471000000 3.4785000000 0.7749000000
-0.7475000000 1.2243000000 0.0562000000
-0.7478000000 3.1805000000 0.6719000000
-0.7485000000 2.6854000000 0.4961000000
-0.7491000000 4.7505000000 0.8223000000
-0.7495000000 5.0667000000 0.7049000000
-0.7499000000 1.5939000000 0.1155000000
-0.7500000000 1.5182000000 0.0849000000
-0.7506000000 6.1456000000 0.3238000000
-0.7514000000 3.7885000000 0.8868000000
-0.7562000000 2.1850000000 0.3159000000
-0.9897000000 2.9515000000 0.4458000000
-0.9915000000 6.2510000000 0.1434000000
-0.9918000000 5.6656000000 0.3471000000
-0.9924000000 4.3868000000 0.8008000000
-0.9934000000 3.6179000000 0.6798000000
-0.9940000000 6.5232000000 0.0446000000
-0.9943000000 5.1150000000 0.5437000000
-0.9947000000 2.6543000000 0.3350000000
-0.9953000000 3.9114000000 0.7755000000
-0.9956000000 3.1640000000 0.5136000000
-0.9961000000 5.8945000000 0.2701000000
-0.9965000000 1.7778000000 0.0245000000
-0.9971000000 6.4019000000 0.0830000000
-0.9976000000 5.2857000000 0.4783000000
-0.9980000000 2.0839000000 0.1348000000
-0.9982000000 2.9390000000 0.4352000000
-0.9988000000 2.4491000000 0.2570000000
-0.9991000000 2.1446000000 0.1564000000
-0.9995000000 6.6488000000 0.0745000000
-0.9999000000 3.0580000000 0.4763000000
-1.0006000000 2.8663000000 0.4095000000
-1.0012000000 2.4423000000 0.2568000000
-1.0026000000 4.3364000000 0.8145000000
-1.0035000000 5.7833000000 0.2992000000
-1.2382000000 6.3832000000 0.0249000000
-1.2408000000 6.0560000000 0.0632000000
-1.2419000000 5.1166000000 0.3900000000
-1.2423000000 2.7257000000 0.2146000000
-1.2429000000 3.7296000000 0.5644000000
-1.2436000000 3.1223000000 0.3499000000
-1.2445000000 6.2075000000 0.0810000000
-1.2447000000 5.4079000000 0.2856000000
-1.2455000000 6.3169000000 0.0382000000
-1.2462000000 2.7627000000 0.2203000000
-1.2472000000 3.4615000000 0.4663000000
-1.2476000000 4.2367000000 0.6955000000
-1.2481000000 4.0633000000 0.6772000000
-1.2482000000 2.0704000000 0.0511000000
-1.2490000000 3.0720000000 0.3231000000
-1.2492000000 5.8132000000 0.1420000000
-1.2498000000 5.4664000000 0.2630000000
-1.2507000000 4.2558000000 0.6903000000
-1.2518000000 2.8282000000 0.2405000000
-1.2577000000 6.2105000000 0.0711000000
-1.4900000000 3.6497000000 0.3810000000
-1.4923000000 5.1789000000 0.2156000000
-1.4930000000 3.4188000000 0.2991000000
-1.4934000000 5.0461000000 0.2619000000
-1.4937000000 3.9477000000 0.4939000000
-1.4944000000 4.1161000000 0.5423000000
-1.4947000000 3.8216000000 0.4440000000
-1.4951000000 4.4289000000 0.4769000000
-1.4956000000 5.9592000000 0.0180000000
-1.4962000000 4.6654000000 0.3937000000
-1.4970000000 3.5805000000 0.3606000000
-1.4977000000 2.7380000000 0.0592000000
-1.4980000000 4.6414000000 0.4034000000
-1.4983000000 5.4915000000 0.1008000000
-1.4987000000 3.0363000000 0.1669000000
-1.5002000000 2.5248000000 0.0566000000
-1.5011000000 3.7720000000 0.4197000000
-1.5022000000 4.6061000000 0.4077000000
-1.7408000000 2.8871000000 0.0412000000
-1.7421000000 4.9906000000 0.1327000000
-1.7425000000 4.3714000000 0.3494000000
-1.7439000000 4.6465000000 0.2487000000
-1.7450000000 3.9607000000 0.3372000000
-1.7452000000 3.3929000000 0.1420000000
-1.7460000000 2.8981000000 0.0393000000
-1.7464000000 3.1042000000 0.0327000000
-1.7479000000 4.6804000000 0.2339000000
-1.7490000000 4.5184000000 0.2930000000
-1.7495000000 3.1106000000 0.0401000000
-1.7525000000 4.7784000000 0.1989000000
-1.9924000000 4.8555000000 0.0293000000
-1.9935000000 4.4591000000 0.1671000000
-1.9946000000 4.8760000000 0.0205000000
-1.9957000000 3.9319000000 0.1785000000
-1.9962000000 4.5421000000 0.1387000000
-1.9981000000 5.0098000000 0.0394000000
-1.9985000000 3.8181000000 0.1375000000
-1.9999000000 4.0070000000 0.2021000000
