5.7595000000 3.1406000000 0.0591000000
5.7537000000 3.5155000000 0.0265000000
5.7517000000 3.0512000000 0.0177000000
5.7506000000 3.6816000000 0.0081000000
5.5095000000 4.0212000000 0.0470000000
5.5065000000 3.8670000000 0.0645000000
5.5049000000 3.6638000000 0.1235000000
5.5043000000 3.6718000000 0.1205000000
5.5026000000 3.5126000000 0.2248000000
5.5025000000 3.1191000000 0.1717000000
5.4995000000 3.0221000000 0.1171000000
5.4969000000 3.3137000000 0.2830000000
5.2616000000 3.9605000000 0.2018000000
5.2608000000 2.6725000000 0.1527000000
5.2573000000 2.7976000000 0.2388000000
5.2565000000 3.1008000000 0.4243000000
5.2564000000 3.7849000000 0.3090000000
5.2559000000 4.4745000000 0.0386000000
5.2550000000 2.6550000000 0.1513000000
5.2546000000 2.7645000000 0.2239000000
5.2544000000 3.9387000000 0.2231000000
5.2534000000 2.2173000000 0.0425000000
5.2527000000 3.6972000000 0.3675000000
5.2517000000 2.3581000000 0.0529000000
5.2515000000 3.0263000000 0.3821000000
5.2510000000 2.8156000000 0.2520000000
5.2502000000 3.2812000000 0.5340000000
5.2495000000 3.4398000000 0.5323000000
5.0102000000 4.1733000000 0.3357000000
5.0086000000 2.8383000000 0.5209000000
5.0080000000 1.8088000000 0.0502000000
5.0070000000 2.0694000000 0.1364000000
5.0068000000 3.2762000000 0.7919000000
5.0063000000 4.6795000000 0.1092000000
5.0058000000 2.0273000000 0.1078000000
5.0056000000 2.2093000000 0.1459000000
5.0053000000 4.5942000000 0.0823000000
5.0048000000 3.3436000000 0.8193000000
5.0045000000 4.7043000000 0.0945000000
5.0035000000 2.5805000000 0.3741000000
5.0032000000 2.1365000000 0.1047000000
5.0030000000 3.5035000000 0.7523000000
5.0028000000 2.6591000000 0.4221000000
5.0027000000 4.6379000000 0.1329000000
5.0016000000 2.2867000000 0.1940000000
5.0015000000 4.3915000000 0.2114000000
5.0008000000 2.9562000000 0.6034000000
5.0006000000 4.9317000000 0.0284000000
5.0003000000 2.9605000000 0.6067000000
4.9998000000 1.7180000000 -0.0002000000
4.9983000000 3.6525000000 0.6658000000
4.9969000000 4.3893000000 0.2218000000
4.9934000000 2.1421000000 0.1148000000
4.7617000000 2.5158000000 0.5863000000
4.7590000000 3.8216000000 0.8154000000
4.7587000000 2.1272000000 0.3563000000
4.7586000000 5.1034000000 0.1098000000
4.7581000000 4.8545000000 0.1869000000
4.7578000000 2.4589000000 0.5546000000
4.7577000000 4.6745000000 0.2972000000
4.7575000000 3.6979000000 0.8961000000
4.7574000000 2.9057000000 0.8258000000
4.7570000000 2.7350000000 0.7237000000
4.7569000000 2.2398000000 0.4221000000
4.7566000000 3.4135000000 1.0693000000
4.7563000000 1.3544000000 0.0303000000
4.7556000000 4.7338000000 0.2644000000
4.7555000000 3.3818000000 1.0672000000
4.7553000000 1.9192000000 0.2347000000
4.7548000000 2.9196000000 0.8401000000
4.7546000000 2.6734000000 0.6926000000
4.7537000000 3.4052000000 1.0642000000
4.7531000000 4.4985000000 0.4073000000
4.7527000000 2.5883000000 0.6402000000
4.7525000000 2.5806000000 0.6371000000
4.7520000000 4.0177000000 0.7029000000
4.7513000000 4.3795000000 0.4791000000
4.7509000000 2.4988000000 0.5881000000
4.7500000000 2.1530000000 0.3800000000
4.7498000000 3.5995000000 0.9603000000
4.7493000000 4.2835000000 0.5405000000
4.7474000000 1.4410000000 0.0261000000
4.7466000000 4.2982000000 0.5354000000
4.5110000000 4.2746000000 0.8015000000
4.5104000000 1.6438000000 0.3232000000
4.5098000000 2.0814000000 0.5932000000
4.5091000000 4.6639000000 0.5691000000
4.5090000000 4.5051000000 0.6664000000
4.5087000000 4.1506000000 0.8793000000
4.5082000000 4.5970000000 0.6033000000
4.5078000000 1.3594000000 0.1536000000
4.5071000000 4.3178000000 0.7775000000
4.5068000000 5.1709000000 0.2572000000
4.5064000000 4.8790000000 0.4349000000
4.5061000000 2.5753000000 0.8919000000
4.5060000000 3.6535000000 1.1840000000
4.5059000000 4.0176000000 0.9615000000
4.5058000000 2.3653000000 0.7637000000
4.5056000000 4.3938000000 0.7328000000
4.5052000000 1.1944000000 0.1330000000
4.5050000000 5.7907000000 0.0374000000
4.5044000000 4.0007000000 0.9762000000
4.5044000000 4.8368000000 0.4685000000
4.5036000000 4.6134000000 0.5983000000
4.5033000000 1.1532000000 0.1059000000
4.5030000000 4.8075000000 0.4819000000
4.5028000000 4.4144000000 0.7185000000
4.5028000000 2.6592000000 0.9432000000
4.5021000000 5.3390000000 0.1605000000
4.5020000000 3.7077000000 1.1558000000
4.5018000000 3.2996000000 1.3339000000
4.5018000000 4.1919000000 0.8631000000
4.5013000000 1.9056000000 0.4883000000
4.5010000000 4.1481000000 0.8865000000
4.5009000000 2.5835000000 0.9014000000
4.5007000000 3.0954000000 1.2166000000
4.4998000000 1.1216000000 0.0883000000
4.4997000000 3.5586000000 1.2514000000
4.4979000000 5.1818000000 0.2624000000
4.2639000000 3.4205000000 1.5838000000
4.2613000000 4.0959000000 1.1703000000
4.2609000000 0.8146000000 0.0818000000
4.2602000000 3.1542000000 1.5033000000
4.2595000000 5.8856000000 0.0831000000
4.2590000000 3.1214000000 1.4868000000
4.2587000000 4.4598000000 0.9536000000
4.2585000000 3.0905000000 1.4692000000
4.2585000000 5.1472000000 0.5404000000
4.2583000000 3.4054000000 1.5893000000
4.2577000000 1.8126000000 0.6866000000
4.2573000000 6.2722000000 0.0044000000
4.2569000000 1.5061000000 0.5042000000
4.2568000000 2.2949000000 0.9885000000
4.2564000000 1.2833000000 0.3717000000
4.2563000000 6.2415000000 0.0196000000
4.2559000000 0.5400000000 0.0751000000
4.2558000000 3.8824000000 1.3073000000
4.2556000000 3.0009000000 1.4199000000
4.2555000000 5.5774000000 0.2782000000
4.2553000000 1.5464000000 0.5284000000
4.2552000000 1.1005000000 0.2626000000
4.2549000000 4.5962000000 0.8740000000
4.2549000000 0.8755000000 0.1242000000
4.2547000000 5.1090000000 0.5652000000
4.2546000000 4.3414000000 1.0332000000
4.2543000000 2.1105000000 0.8753000000
4.2540000000 0.4307000000 0.0005000000
4.2538000000 1.5354000000 0.5319000000
4.2535000000 1.6661000000 0.6092000000
4.2533000000 3.8623000000 1.3267000000
4.2530000000 1.3683000000 0.4228000000
4.2527000000 1.2667000000 0.3619000000
4.2526000000 3.3736000000 1.5970000000
4.2525000000 5.5785000000 0.2805000000
4.2523000000 2.9187000000 1.3686000000
4.2521000000 5.5112000000 0.3204000000
4.2520000000 5.4778000000 0.3477000000
4.2517000000 3.9799000000 1.2528000000
4.2514000000 0.4776000000 0.0342000000
4.2511000000 5.2388000000 0.4912000000
4.2508000000 4.1141000000 1.1749000000
4.2506000000 1.3714000000 0.4249000000
4.2499000000 1.4524000000 0.4803000000
4.2492000000 3.9639000000 1.2662000000
4.2484000000 1.1614000000 0.2964000000
4.2480000000 1.6027000000 0.5757000000
4.2474000000 2.7766000000 1.2884000000
4.2471000000 3.4124000000 1.6082000000
4.0136000000 6.4417000000 0.0757000000
4.0135000000 0.7349000000 0.2951000000
4.0118000000 4.7486000000 1.0390000000
4.0099000000 4.5099000000 1.1746000000
4.0093000000 5.8875000000 0.3485000000
4.0090000000 6.1016000000 0.2149000000
4.0088000000 2.0121000000 1.0721000000
4.0085000000 4.7538000000 1.0386000000
4.0081000000 5.7967000000 0.4034000000
4.0078000000 6.4399000000 0.0843000000
4.0076000000 4.9252000000 0.9341000000
4.0074000000 2.1039000000 1.1365000000
4.0068000000 3.5561000000 1.7681000000
4.0062000000 1.7244000000 0.8981000000
4.0059000000 4.1849000000 1.3829000000
4.0059000000 5.9896000000 0.2871000000
4.0058000000 1.1131000000 0.5291000000
4.0055000000 6.1397000000 0.2002000000
4.0053000000 0.3802000000 0.0838000000
4.0048000000 6.1106000000 0.2138000000
4.0046000000 2.7287000000 1.5176000000
4.0045000000 4.0522000000 1.4712000000
4.0043000000 6.2748000000 0.1189000000
4.0040000000 6.3733000000 0.1346000000
4.0039000000 3.2859000000 1.8539000000
4.0038000000 1.4227000000 0.7270000000
4.0036000000 3.3284000000 1.8640000000
4.0034000000 0.2349000000 0.0730000000
4.0032000000 0.3739000000 0.0845000000
4.0029000000 3.9753000000 1.5207000000
4.0028000000 2.2230000000 1.2093000000
4.0025000000 0.5966000000 0.2174000000
4.0023000000 1.4435000000 0.7329000000
4.0022000000 0.4337000000 0.1163000000
4.0017000000 0.8282000000 0.3569000000
4.0015000000 4.7030000000 1.0782000000
4.0013000000 2.2618000000 1.2352000000
4.0010000000 0.2333000000 0.0703000000
4.0005000000 5.6511000000 0.5016000000
3.9998000000 1.3510000000 0.6809000000
3.9991000000 0.0770000000 0.0520000000
3.9988000000 0.5204000000 0.1780000000
3.9980000000 2.0908000000 1.1329000000
3.9964000000 0.2782000000 0.1050000000
3.9947000000 0.1652000000 0.0356000000
3.7620000000 6.0425000000 0.5184000000
3.7611000000 4.6446000000 1.3640000000
3.7607000000 2.6994000000 1.7552000000
3.7603000000 6.5644000000 0.1483000000
3.7599000000 0.0939000000 0.0999000000
3.7596000000 4.1749000000 1.6502000000
3.7592000000 5.9213000000 0.5917000000
3.7589000000 1.5451000000 1.0488000000
3.7583000000 6.2394000000 0.3972000000
3.7579000000 1.1567000000 0.8165000000
3.7578000000 0.2085000000 0.2212000000
3.7576000000 3.1138000000 2.0080000000
3.7573000000 3.3945000000 2.1052000000
3.7571000000 1.7385000000 1.1746000000
3.7570000000 1.4294000000 0.9870000000
3.7568000000 2.9215000000 1.8945000000
3.7565000000 5.8217000000 0.6500000000
3.7562000000 6.6882000000 0.0911000000
3.7560000000 5.1191000000 1.0815000000
3.7558000000 2.4565000000 1.6106000000
3.7558000000 4.7882000000 1.2844000000
3.7557000000 6.3471000000 0.3371000000
3.7555000000 5.6271000000 0.7715000000
3.7554000000 0.1913000000 0.2176000000
3.7553000000 4.7526000000 1.3052000000
3.7551000000 2.3040000000 1.5171000000
3.7549000000 3.6310000000 1.9870000000
3.7548000000 6.3454000000 0.3354000000
3.7547000000 4.9973000000 1.1573000000
3.7546000000 5.1173000000 1.0837000000
3.7543000000 0.9875000000 0.7186000000
3.7537000000 3.2459000000 2.0939000000
3.7533000000 0.8400000000 0.6313000000
3.7533000000 0.1116000000 0.1170000000
3.7530000000 1.8799000000 1.2640000000
3.7528000000 5.2875000000 0.9857000000
3.7526000000 6.6345000000 0.0813000000
3.7524000000 0.7949000000 0.5991000000
3.7522000000 0.6931000000 0.5432000000
3.7515000000 5.1147000000 1.0936000000
3.7512000000 4.2718000000 1.6033000000
3.7507000000 2.1750000000 1.4495000000
3.7505000000 6.3589000000 0.3349000000
3.7502000000 4.0854000000 1.7139000000
3.7501000000 2.8239000000 1.8360000000
3.7500000000 4.9440000000 1.1929000000
3.7487000000 0.9232000000 0.6924000000
3.7468000000 5.4834000000 0.8689000000
3.5112000000 5.6949000000 0.9922000000
3.5101000000 5.8517000000 0.9018000000
3.5098000000 3.2588000000 2.3617000000
3.5095000000 2.7743000000 2.0689000000
3.5088000000 5.9611000000 0.8339000000
3.5079000000 2.0742000000 1.6385000000
3.5074000000 3.3349000000 2.3957000000
3.5071000000 3.9838000000 2.0384000000
3.5070000000 0.4793000000 0.5783000000
3.5067000000 0.1659000000 0.1964000000
3.5064000000 2.9945000000 2.2040000000
3.5063000000 0.6760000000 0.7706000000
3.5058000000 2.9798000000 2.1939000000
3.5056000000 3.0531000000 2.2413000000
3.5054000000 0.3545000000 0.4282000000
3.5052000000 0.6638000000 0.7664000000
3.5050000000 1.5820000000 1.3447000000
3.5046000000 3.3522000000 2.4055000000
3.5044000000 0.3156000000 0.3789000000
3.5041000000 2.6237000000 1.9823000000
3.5040000000 0.3721000000 0.4495000000
3.5039000000 3.1777000000 2.3184000000
3.5038000000 2.4248000000 1.8543000000
3.5034000000 4.7723000000 1.5595000000
3.5033000000 1.0219000000 1.0056000000
3.5028000000 1.2563000000 1.1491000000
3.5023000000 0.4902000000 0.5943000000
3.5021000000 3.4236000000 2.3829000000
3.5020000000 0.9905000000 0.9923000000
3.5019000000 2.1795000000 1.7155000000
3.5016000000 4.3259000000 1.8363000000
3.5015000000 0.6503000000 0.7625000000
3.5010000000 5.5442000000 1.0939000000
3.5007000000 5.5967000000 1.0615000000
3.5005000000 2.3052000000 1.7880000000
3.5003000000 0.9527000000 0.9655000000
3.4999000000 1.8408000000 1.5100000000
3.4996000000 0.9856000000 0.9896000000
3.4993000000 1.2152000000 1.1295000000
3.4992000000 6.1197000000 0.6944000000
3.4988000000 5.7622000000 0.9584000000
3.4978000000 0.9134000000 0.9431000000
3.4942000000 2.5077000000 1.9209000000
3.2616000000 1.4836000000 1.5424000000
3.2609000000 5.8153000000 1.0825000000
3.2605000000 5.5857000000 1.3074000000
3.2596000000 5.3451000000 1.4685000000
3.2594000000 3.7032000000 2.4694000000
3.2593000000 6.2561000000 0.5436000000
3.2591000000 5.3484000000 1.4702000000
3.2586000000 3.5193000000 2.5796000000
3.2584000000 4.3863000000 2.0601000000
3.2583000000 6.4022000000 0.3691000000
3.2580000000 0.1787000000 0.2138000000
3.2579000000 5.0887000000 1.6249000000
3.2573000000 6.4268000000 0.3374000000
3.2570000000 5.2397000000 1.5375000000
3.2569000000 5.1915000000 1.5703000000
3.2568000000 5.5075000000 1.3707000000
3.2567000000 3.2094000000 2.5989000000
3.2565000000 4.4541000000 2.0168000000
3.2563000000 5.3043000000 1.4967000000
3.2560000000 4.0955000000 2.2318000000
3.2558000000 0.3328000000 0.4040000000
3.2556000000 3.2612000000 2.6306000000
3.2552000000 4.8659000000 1.7667000000
3.2551000000 3.0571000000 2.5030000000
3.2549000000 4.6031000000 1.9258000000
3.2546000000 2.7965000000 2.3506000000
3.2546000000 2.8181000000 2.3602000000
3.2541000000 3.3166000000 2.6531000000
3.2536000000 2.6554000000 2.2656000000
3.2535000000 3.7037000000 2.4726000000
3.2533000000 1.9927000000 1.8603000000
3.2530000000 0.3857000000 0.4662000000
3.2528000000 3.2340000000 2.6227000000
3.2526000000 0.2703000000 0.3301000000
3.2519000000 4.9773000000 1.7004000000
3.2516000000 4.5925000000 1.9340000000
3.2513000000 1.7993000000 1.7422000000
3.2510000000 3.6751000000 2.4936000000
3.2509000000 2.0644000000 1.9071000000
3.2507000000 5.2204000000 1.5544000000
3.2505000000 5.3476000000 1.4765000000
3.2500000000 3.8150000000 2.4118000000
3.2497000000 1.9362000000 1.8315000000
3.2496000000 0.1845000000 0.2251000000
3.2493000000 0.7825000000 0.9462000000
3.2485000000 6.2858000000 0.5055000000
3.2483000000 1.1997000000 1.3851000000
3.2477000000 1.3918000000 1.5002000000
3.2470000000 5.4769000000 1.3989000000
3.2456000000 2.0025000000 1.8746000000
3.2425000000 5.2644000000 1.5363000000
3.0118000000 5.8929000000 0.9847000000
3.0115000000 4.2622000000 2.3859000000
3.0109000000 2.7149000000 2.5529000000
3.0101000000 2.4280000000 2.3836000000
3.0098000000 5.8315000000 1.0622000000
3.0090000000 2.4706000000 2.4090000000
3.0088000000 1.1039000000 1.3424000000
3.0083000000 3.3066000000 2.9003000000
3.0082000000 6.0770000000 0.7574000000
3.0081000000 4.7359000000 2.1068000000
3.0076000000 1.3479000000 1.6398000000
3.0074000000 4.8675000000 2.0247000000
3.0073000000 2.3061000000 2.3114000000
3.0069000000 6.5658000000 0.1661000000
3.0068000000 3.9397000000 2.5907000000
3.0064000000 5.5517000000 1.4019000000
3.0063000000 2.6167000000 2.5041000000
3.0062000000 1.2274000000 1.4878000000
3.0058000000 6.3969000000 0.3777000000
3.0056000000 1.4881000000 1.7905000000
3.0054000000 3.9467000000 2.5935000000
3.0053000000 1.7504000000 1.9718000000
3.0050000000 2.6719000000 2.5364000000
3.0049000000 3.1285000000 2.8218000000
3.0048000000 1.0999000000 1.3326000000
3.0047000000 5.2973000000 1.6929000000
3.0045000000 3.1695000000 2.8411000000
3.0043000000 1.0665000000 1.2899000000
3.0040000000 2.6537000000 2.5254000000
3.0038000000 1.8770000000 2.0520000000
3.0035000000 4.6428000000 2.1673000000
3.0034000000 5.7328000000 1.1776000000
3.0033000000 1.0237000000 1.2408000000
3.0027000000 2.3391000000 2.3366000000
3.0026000000 0.4567000000 0.5537000000
3.0024000000 2.9913000000 2.7351000000
3.0023000000 2.6518000000 2.5241000000
3.0022000000 4.3106000000 2.3695000000
3.0020000000 6.4083000000 0.3568000000
3.0019000000 3.2966000000 2.9156000000
3.0013000000 4.0199000000 2.5513000000
3.0011000000 0.2264000000 0.2700000000
3.0009000000 3.9392000000 2.6010000000
3.0008000000 1.6354000000 1.9129000000
3.0006000000 1.9695000000 2.1124000000
3.0005000000 0.5502000000 0.6687000000
3.0001000000 5.7518000000 1.1597000000
2.9998000000 5.0527000000 1.9199000000
2.9991000000 1.7004000000 1.9440000000
2.9990000000 0.3598000000 0.4321000000
2.9978000000 3.6056000000 2.8070000000
2.9975000000 2.2238000000 2.2771000000
2.9969000000 0.3453000000 0.4147000000
2.7614000000 5.9806000000 0.8824000000
2.7600000000 2.1925000000 2.5033000000
2.7594000000 2.4862000000 2.6825000000
2.7589000000 5.7624000000 1.1445000000
2.7581000000 3.5090000000 3.1158000000
2.7569000000 6.4289000000 0.3346000000
2.7565000000 4.3959000000 2.5816000000
2.7563000000 3.1976000000 3.1170000000
2.7561000000 4.0740000000 2.7726000000
2.7558000000 3.3902000000 3.1721000000
2.7554000000 1.0738000000 1.3056000000
2.7552000000 5.2157000000 1.8138000000
2.7548000000 1.6398000000 1.9941000000
2.7548000000 1.7343000000 2.1070000000
2.7547000000 4.0596000000 2.7869000000
2.7545000000 1.7231000000 2.0933000000
2.7545000000 3.9509000000 2.8496000000
2.7543000000 6.2903000000 0.5035000000
2.7541000000 0.7914000000 0.9557000000
2.7540000000 1.5155000000 1.8427000000
2.7537000000 6.6923000000 0.0912000000
2.7535000000 2.1703000000 2.4951000000
2.7535000000 4.7009000000 2.3778000000
2.7533000000 3.6272000000 3.0526000000
2.7530000000 4.8501000000 2.2429000000
2.7528000000 5.3243000000 1.6830000000
2.7525000000 1.5075000000 1.8305000000
2.7523000000 1.2126000000 1.4717000000
2.7518000000 3.4702000000 3.1516000000
2.7517000000 5.6955000000 1.2235000000
2.7514000000 0.6836000000 0.8285000000
2.7510000000 4.2323000000 2.6900000000
2.7508000000 1.5727000000 1.9148000000
2.7505000000 5.1840000000 1.8532000000
2.7503000000 0.5574000000 0.6722000000
2.7499000000 1.3735000000 1.6678000000
2.7495000000 2.0243000000 2.3924000000
2.7490000000 5.1313000000 1.9077000000
2.7485000000 1.3936000000 1.6933000000
2.7480000000 0.6426000000 0.7789000000
2.7466000000 0.4342000000 0.5245000000
2.5133000000 5.5683000000 1.3855000000
2.5124000000 6.4659000000 0.2872000000
2.5108000000 3.8755000000 3.1542000000
2.5099000000 3.1103000000 3.3255000000
2.5094000000 5.1737000000 1.8592000000
2.5088000000 4.8871000000 2.2091000000
2.5087000000 6.1962000000 0.6146000000
2.5082000000 0.0745000000 0.0928000000
2.5080000000 2.6026000000 3.0194000000
2.5074000000 1.2875000000 1.5641000000
2.5072000000 1.0237000000 1.2393000000
2.5068000000 2.0298000000 2.4735000000
2.5066000000 2.3424000000 2.8305000000
2.5066000000 5.2034000000 1.8230000000
2.5063000000 1.8733000000 2.2740000000
2.5062000000 1.6210000000 1.9683000000
2.5060000000 6.5747000000 0.1571000000
2.5059000000 4.3536000000 2.8385000000
2.5056000000 0.8793000000 1.0650000000
2.5055000000 0.9483000000 1.1520000000
2.5053000000 3.2917000000 3.4330000000
2.5050000000 4.5360000000 2.6404000000
2.5048000000 1.6080000000 1.9524000000
2.5045000000 0.7168000000 0.8659000000
2.5045000000 3.0960000000 3.3201000000
2.5043000000 1.9051000000 2.3195000000
2.5040000000 2.1001000000 2.5535000000
2.5037000000 0.1698000000 0.2015000000
2.5036000000 6.2231000000 0.5848000000
2.5033000000 1.3840000000 1.6874000000
2.5031000000 4.1069000000 3.0259000000
2.5030000000 6.6985000000 0.0807000000
2.5028000000 5.6201000000 1.3227000000
2.5025000000 2.3676000000 2.8595000000
2.5024000000 3.8184000000 3.1941000000
2.5023000000 5.7964000000 1.1084000000
2.5019000000 1.3196000000 1.6055000000
2.5015000000 5.5749000000 1.3703000000
2.5016000000 4.2774000000 2.9008000000
2.5011000000 4.9756000000 2.0996000000
2.5010000000 1.8354000000 2.2307000000
2.5009000000 2.7834000000 3.1315000000
2.5007000000 2.1247000000 2.5812000000
2.5005000000 3.1280000000 3.3444000000
2.5003000000 4.3523000000 2.8396000000
2.5001000000 1.6131000000 1.9648000000
2.4995000000 1.2722000000 1.5429000000
2.4989000000 0.0391000000 0.1165000000
2.4987000000 2.4935000000 2.9660000000
2.4985000000 1.5788000000 1.9191000000
2.5078000000 4.4391000000 2.7420000000
2.4967000000 5.8176000000 1.0796000000
2.2640000000 6.1124000000 0.7233000000
2.2612000000 3.4692000000 3.6637000000
2.2610000000 1.6542000000 2.0124000000
2.2596000000 2.4200000000 2.9430000000
2.2587000000 0.3255000000 0.3918000000
2.2585000000 0.2393000000 0.2828000000
2.2584000000 4.3927000000 2.8130000000
2.2581000000 2.7938000000 3.3768000000
2.2579000000 6.1721000000 0.6446000000
2.2572000000 5.9468000000 0.9197000000
2.2571000000 3.5727000000 3.6079000000
2.2570000000 5.9474000000 0.9181000000
2.2566000000 0.2143000000 0.2559000000
2.2565000000 2.4886000000 3.0266000000
2.2563000000 6.2552000000 0.5464000000
2.2561000000 5.7629000000 1.1472000000
2.2560000000 5.3590000000 1.6366000000
2.2559000000 3.2029000000 3.6513000000
2.2557000000 6.4184000000 0.3480000000
2.2551000000 3.2189000000 3.6594000000
2.2550000000 0.1560000000 0.1868000000
2.2549000000 5.8735000000 1.0053000000
2.2548000000 1.3973000000 1.6971000000
2.2546000000 2.9947000000 3.5196000000
2.2543000000 1.1931000000 1.4517000000
2.2543000000 1.5302000000 1.8653000000
2.2540000000 0.1056000000 0.1247000000
2.2538000000 5.5917000000 1.3562000000
2.2534000000 6.4799000000 0.2704000000
2.2531000000 1.8370000000 2.2261000000
2.2528000000 0.8425000000 1.0228000000
2.2525000000 4.9730000000 2.1063000000
2.2522000000 1.9428000000 2.3702000000
2.2520000000 5.8495000000 1.0372000000
2.2518000000 0.9899000000 1.2066000000
2.2516000000 2.1759000000 2.6490000000
2.2515000000 2.0675000000 2.5083000000
2.2510000000 4.0738000000 3.2025000000
2.2508000000 2.3631000000 2.8679000000
2.2508000000 6.1618000000 0.6584000000
2.2506000000 6.7057000000 0.0675000000
2.2503000000 1.7430000000 2.1177000000
2.2501000000 4.6345000000 2.5164000000
2.2497000000 1.7184000000 2.0887000000
2.2492000000 3.0498000000 3.5603000000
2.2488000000 5.5452000000 1.4105000000
2.2476000000 1.7258000000 2.0994000000
2.2468000000 2.3603000000 2.8665000000
2.0125000000 6.2225000000 0.5846000000
2.0115000000 3.7050000000 3.6515000000
2.0113000000 5.1069000000 1.9374000000
2.0108000000 4.4105000000 2.7927000000
2.0102000000 5.7020000000 1.2227000000
2.0085000000 0.0363000000 0.1159000000
2.0083000000 5.3752000000 1.6196000000
2.0079000000 6.4857000000 0.2649000000
2.0074000000 4.9904000000 2.0836000000
2.0070000000 5.1024000000 1.9420000000
2.0066000000 4.2405000000 2.9949000000
2.0063000000 0.2509000000 0.3054000000
2.0062000000 0.8644000000 1.0509000000
2.0060000000 0.6355000000 0.7763000000
2.0055000000 6.0344000000 0.8118000000
2.0052000000 1.6290000000 1.9814000000
2.0050000000 4.1425000000 3.1149000000
2.0049000000 6.7150000000 0.0588000000
2.0048000000 4.9534000000 2.1270000000
2.0047000000 5.6848000000 1.2369000000
2.0045000000 5.1404000000 1.9048000000
2.0042000000 2.5766000000 3.1367000000
2.0041000000 4.9255000000 2.1679000000
2.0039000000 6.4171000000 0.3528000000
2.0035000000 1.3221000000 1.6020000000
2.0033000000 5.5911000000 1.3529000000
2.0032000000 4.9273000000 2.1612000000
2.0029000000 5.1297000000 1.9187000000
2.0027000000 0.1535000000 0.1810000000
2.0026000000 1.1957000000 1.4502000000
2.0024000000 1.1047000000 1.3424000000
2.0023000000 4.4449000000 2.7523000000
2.0022000000 6.2033000000 0.6068000000
2.0020000000 0.8851000000 1.0772000000
2.0018000000 3.8939000000 3.4248000000
2.0013000000 0.5934000000 0.7145000000
2.0011000000 1.2878000000 1.5624000000
2.0011000000 5.7422000000 1.1704000000
2.0008000000 5.8515000000 1.0330000000
2.0007000000 0.3581000000 0.4306000000
2.0005000000 2.6078000000 3.1785000000
2.0002000000 2.0189000000 2.4559000000
2.0001000000 5.0258000000 2.0384000000
2.0000000000 1.9126000000 2.3284000000
1.9998000000 2.3690000000 2.8792000000
1.9994000000 4.3497000000 2.8629000000
1.9991000000 4.4230000000 2.7780000000
1.9990000000 3.1716000000 3.8379000000
1.9985000000 2.6151000000 3.1761000000
1.9980000000 2.7445000000 3.3358000000
1.9967000000 3.0883000000 3.7523000000
1.7638000000 0.5368000000 0.6483000000
1.7610000000 5.7975000000 1.1004000000
1.7606000000 3.3858000000 3.8547000000
1.7600000000 3.6764000000 3.6640000000
1.7596000000 5.8559000000 1.0313000000
1.7590000000 1.8390000000 2.2364000000
1.7588000000 0.7432000000 0.9085000000
1.7584000000 5.5766000000 1.3717000000
1.7584000000 5.8358000000 1.0563000000
1.7580000000 3.2708000000 3.8401000000
1.7576000000 6.1939000000 0.6203000000
1.7573000000 4.5852000000 2.5809000000
1.7571000000 3.9088000000 3.3998000000
1.7570000000 3.5689000000 3.7436000000
1.7566000000 2.6773000000 3.2484000000
1.7562000000 5.6563000000 1.2765000000
1.7559000000 0.6700000000 0.8139000000
1.7555000000 3.3050000000 3.8467000000
1.7554000000 2.7054000000 3.2887000000
1.7553000000 4.6452000000 2.5062000000
1.7550000000 0.0793000000 0.0976000000
1.7548000000 2.3349000000 2.8396000000
1.7545000000 5.4735000000 1.4971000000
1.7542000000 3.8977000000 3.4145000000
1.7539000000 2.6666000000 3.2408000000
1.7538000000 5.9534000000 0.9146000000
1.7537000000 4.7410000000 2.3854000000
1.7535000000 0.0159000000 0.0916000000
1.7535000000 1.6421000000 1.9970000000
1.7533000000 4.4352000000 2.7614000000
1.7531000000 2.5395000000 3.0875000000
1.7529000000 2.0643000000 2.5095000000
1.7528000000 2.4131000000 2.9327000000
1.7527000000 0.9242000000 1.1239000000
1.7525000000 0.9506000000 1.1565000000
1.7521000000 1.0554000000 1.2832000000
1.7516000000 3.9141000000 3.3986000000
1.7511000000 1.2377000000 1.5032000000
1.7505000000 2.4778000000 3.0104000000
1.7501000000 2.2398000000 2.7231000000
1.7497000000 3.4666000000 3.8205000000
1.7495000000 3.5417000000 3.7704000000
1.7494000000 0.5264000000 0.6368000000
1.7490000000 4.7071000000 2.4300000000
1.7487000000 3.9839000000 3.3104000000
1.7484000000 0.5608000000 0.6777000000
1.7483000000 6.5559000000 0.1822000000
1.7478000000 2.6269000000 3.1975000000
1.5138000000 4.7754000000 2.3399000000
1.5127000000 4.1732000000 3.0614000000
1.5122000000 6.5078000000 0.2363000000
1.5100000000 5.6435000000 1.2880000000
1.5097000000 6.7445000000 0.0222000000
1.5095000000 4.3382000000 2.8825000000
1.5090000000 3.8988000000 3.2975000000
1.5082000000 2.9053000000 3.3569000000
1.5080000000 3.3894000000 3.5898000000
1.5073000000 3.3295000000 3.5972000000
1.5072000000 6.0838000000 0.7515000000
1.5070000000 3.7057000000 3.4173000000
1.5070000000 3.6338000000 3.4607000000
1.5068000000 5.3440000000 1.6538000000
1.5066000000 1.2405000000 1.5106000000
1.5064000000 3.7846000000 3.3661000000
1.5062000000 5.7945000000 1.1048000000
1.5060000000 3.4476000000 3.5620000000
1.5058000000 5.9304000000 0.9417000000
1.5056000000 6.5571000000 0.1738000000
1.5055000000 0.2386000000 0.2850000000
1.5054000000 4.6300000000 2.5238000000
1.5051000000 6.0242000000 0.8259000000
1.5050000000 1.5136000000 1.8408000000
1.5048000000 1.9056000000 2.3148000000
1.5046000000 5.7113000000 1.2090000000
1.5045000000 3.3536000000 3.6050000000
1.5042000000 4.8392000000 2.2688000000
1.5040000000 0.1999000000 0.2387000000
1.5038000000 4.8155000000 2.2984000000
1.5035000000 4.6288000000 2.5267000000
1.5031000000 0.6649000000 0.8011000000
1.5027000000 4.0281000000 3.1904000000
1.5026000000 1.3401000000 1.6275000000
1.5025000000 0.1334000000 0.1565000000
1.5023000000 5.8742000000 1.0131000000
1.5021000000 0.6462000000 0.7838000000
1.5019000000 1.2863000000 1.5621000000
1.5016000000 3.1949000000 3.5277000000
1.5014000000 0.4376000000 0.5240000000
1.5013000000 5.6644000000 1.2617000000
1.5012000000 1.3497000000 1.6414000000
1.5009000000 6.2536000000 0.5488000000
1.5003000000 1.9508000000 2.3758000000
1.5000000000 6.2145000000 0.5935000000
1.4994000000 4.1855000000 3.0387000000
1.4991000000 2.4269000000 2.9477000000
1.4985000000 0.3252000000 0.3939000000
1.4983000000 1.3253000000 1.6116000000
1.4967000000 0.4122000000 0.4937000000
1.2677000000 5.1166000000 1.9262000000
1.2618000000 4.5596000000 2.5907000000
1.2610000000 6.2530000000 0.5475000000
1.2607000000 5.2149000000 1.8119000000
1.2603000000 5.1654000000 1.8696000000
1.2593000000 3.2381000000 3.2950000000
1.2577000000 4.1553000000 2.8713000000
1.2572000000 3.2467000000 3.3007000000
1.2568000000 5.5356000000 1.4213000000
1.2567000000 5.2457000000 1.7689000000
1.2565000000 6.2882000000 0.5045000000
1.2564000000 4.5788000000 2.5692000000
1.2563000000 3.6866000000 3.1590000000
1.2561000000 0.3287000000 0.3977000000
1.2560000000 2.7406000000 2.9900000000
1.2559000000 3.4611000000 3.2969000000
1.2557000000 5.5372000000 1.4154000000
1.2553000000 1.8718000000 2.2747000000
1.2551000000 4.3060000000 2.7824000000
1.2549000000 2.7333000000 2.9855000000
1.2546000000 0.5873000000 0.7122000000
1.2545000000 3.3921000000 3.3194000000
1.2543000000 4.5127000000 2.6320000000
1.2541000000 4.9843000000 2.0947000000
1.2538000000 0.2414000000 0.2896000000
1.2534000000 1.7461000000 2.1253000000
1.2535000000 0.2600000000 0.3135000000
1.2532000000 1.1915000000 1.4413000000
1.2531000000 1.6247000000 1.9760000000
1.2528000000 5.9843000000 0.8720000000
1.2527000000 0.4837000000 0.5849000000
1.2523000000 3.2545000000 3.3012000000
1.2521000000 0.3960000000 0.4842000000
1.2520000000 2.8029000000 3.0270000000
1.2516000000 1.1706000000 1.4227000000
1.2516000000 5.0499000000 2.0131000000
1.2511000000 1.5648000000 1.9010000000
1.2511000000 0.6821000000 0.8318000000
1.2508000000 5.9950000000 0.8620000000
1.2508000000 5.1114000000 1.9336000000
1.2506000000 1.9203000000 2.3354000000
1.2502000000 4.6408000000 2.4980000000
1.2495000000 2.6354000000 2.9166000000
1.2491000000 4.7607000000 2.3640000000
1.2481000000 1.7826000000 2.1686000000
1.2461000000 0.7822000000 0.9463000000
1.2450000000 1.1940000000 1.4475000000
1.0127000000 6.6195000000 0.1020000000
1.0105000000 5.9846000000 0.8754000000
1.0100000000 5.2307000000 1.7937000000
1.0098000000 6.2488000000 0.5528000000
1.0095000000 5.2000000000 1.8301000000
1.0093000000 6.3728000000 0.4005000000
1.0088000000 6.7475000000 0.0161000000
1.0084000000 0.7875000000 0.9532000000
1.0082000000 1.4535000000 1.7637000000
1.0078000000 2.6226000000 2.6566000000
1.0074000000 5.2306000000 1.7908000000
1.0072000000 3.9379000000 2.7458000000
1.0068000000 5.3744000000 1.6197000000
1.0069000000 6.3856000000 0.3828000000
1.0066000000 4.5755000000 2.3550000000
1.0063000000 0.2621000000 0.3152000000
1.0059000000 6.1683000000 0.6506000000
1.0055000000 5.0814000000 1.9724000000
1.0054000000 2.3797000000 2.5046000000
1.0048000000 6.2671000000 0.5322000000
1.0045000000 1.7421000000 2.0950000000
1.0043000000 1.5077000000 1.8327000000
1.0042000000 5.9346000000 0.9430000000
1.0040000000 0.5305000000 0.6397000000
1.0039000000 3.2469000000 3.0362000000
1.0037000000 6.4789000000 0.2775000000
1.0035000000 6.6359000000 0.0802000000
1.0032000000 6.3372000000 0.4452000000
1.0029000000 1.5242000000 1.8509000000
1.0026000000 1.1820000000 1.4323000000
1.0025000000 0.5549000000 0.6686000000
1.0020000000 3.2352000000 3.0230000000
1.0019000000 2.0966000000 2.3285000000
1.0017000000 3.2605000000 3.0410000000
1.0015000000 6.1464000000 0.6785000000
1.0013000000 2.0947000000 2.3305000000
1.0011000000 6.6336000000 0.0844000000
1.0009000000 0.3840000000 0.4639000000
1.0005000000 5.9130000000 0.9600000000
1.0003000000 3.3058000000 3.0454000000
0.9999000000 2.0543000000 2.2995000000
0.9998000000 1.7259000000 2.0768000000
0.9993000000 6.5109000000 0.2332000000
0.9990000000 0.2713000000 0.3292000000
0.9988000000 2.1251000000 2.3442000000
0.9982000000 4.8577000000 2.1743000000
0.9979000000 3.3075000000 3.0452000000
0.9976000000 0.5235000000 0.6364000000
0.9972000000 0.2692000000 0.3258000000
0.9957000000 4.4353000000 2.4298000000
0.7615000000 6.6150000000 0.1116000000
0.7608000000 4.6271000000 2.0649000000
0.7604000000 3.8677000000 2.5261000000
0.7589000000 4.9263000000 1.8787000000
0.7582000000 1.1278000000 1.3688000000
0.7579000000 6.0502000000 0.7941000000
0.7571000000 5.2042000000 1.7066000000
0.7570000000 5.4625000000 1.4962000000
0.7568000000 2.6242000000 2.3959000000
0.7566000000 2.0877000000 2.0665000000
0.7565000000 6.6814000000 0.0983000000
0.7563000000 0.0670000000 0.0776000000
0.7560000000 2.2310000000 2.1518000000
0.7558000000 0.1560000000 0.1875000000
0.7557000000 6.1348000000 0.6885000000
0.7555000000 0.0785000000 0.0933000000
0.7550000000 6.3445000000 0.4398000000
0.7548000000 4.0722000000 2.3950000000
0.7547000000 6.6758000000 0.1105000000
0.7546000000 4.0362000000 2.4201000000
0.7541000000 4.8351000000 1.9324000000
0.7540000000 3.4275000000 2.7865000000
0.7537000000 6.2710000000 0.5257000000
0.7534000000 1.2781000000 1.5303000000
0.7533000000 6.1121000000 0.7239000000
0.7532000000 4.8340000000 1.9297000000
0.7530000000 3.5674000000 2.7004000000
0.7526000000 5.4157000000 1.5536000000
0.7525000000 3.0753000000 2.6586000000
0.7524000000 3.7781000000 2.5707000000
0.7518000000 0.6749000000 0.8161000000
0.7516000000 3.0692000000 2.6615000000
0.7515000000 6.7469000000 0.0199000000
0.7512000000 5.6614000000 1.2622000000
0.7508000000 1.2612000000 1.5104000000
0.7506000000 5.4403000000 1.5215000000
0.7503000000 5.0393000000 1.8024000000
0.7498000000 1.6199000000 1.7698000000
0.7494000000 5.8651000000 1.0273000000
0.7485000000 6.6355000000 0.0844000000
0.7478000000 1.9085000000 1.9437000000
0.7474000000 0.6794000000 0.8249000000
0.7464000000 4.7839000000 1.9548000000
0.7457000000 2.7713000000 2.4660000000
0.5124000000 1.4664000000 1.4275000000
0.5117000000 4.8485000000 1.6685000000
0.5104000000 6.3705000000 0.4021000000
0.5100000000 1.6830000000 1.5648000000
0.5095000000 6.6633000000 0.1200000000
0.5082000000 6.6991000000 0.0758000000
0.5078000000 4.3949000000 1.9356000000
0.5076000000 0.6038000000 0.7308000000
0.5073000000 4.0278000000 2.1613000000
0.5070000000 5.5562000000 1.2319000000
0.5068000000 0.9987000000 1.1356000000
0.5063000000 4.0505000000 2.1431000000
0.5058000000 3.3888000000 2.5283000000
0.5057000000 3.4463000000 2.5136000000
0.5056000000 5.4732000000 1.2760000000
0.5053000000 3.6029000000 2.4220000000
0.5050000000 0.3463000000 0.4202000000
0.5050000000 5.1741000000 1.4643000000
0.5048000000 4.9959000000 1.5690000000
0.5047000000 2.6197000000 2.1167000000
0.5045000000 5.8128000000 1.0474000000
0.5044000000 5.5251000000 1.2482000000
0.5039000000 0.8374000000 0.9949000000
0.5038000000 0.0708000000 0.0819000000
0.5036000000 1.1213000000 1.2084000000
0.5034000000 4.8832000000 1.6377000000
0.5033000000 5.9867000000 0.8727000000
0.5031000000 3.5991000000 2.4190000000
0.5029000000 4.6537000000 1.7771000000
0.5027000000 1.9692000000 1.7299000000
0.5025000000 1.2271000000 1.2732000000
0.5023000000 1.3072000000 1.3249000000
0.5022000000 2.8558000000 2.2683000000
0.5020000000 3.7100000000 2.3499000000
0.5018000000 2.5325000000 2.0665000000
0.5016000000 2.0878000000 1.7982000000
0.5013000000 0.0066000000 0.0784000000
0.5012000000 0.9575000000 1.0920000000
0.5008000000 2.8100000000 2.2329000000
0.5007000000 0.0663000000 0.0793000000
0.5001000000 3.2202000000 2.4844000000
0.4999000000 1.4465000000 1.4069000000
0.4993000000 0.6343000000 0.7706000000
0.4991000000 1.3503000000 1.3439000000
0.4985000000 1.7271000000 1.5659000000
0.4983000000 3.5387000000 2.4465000000
0.4973000000 2.2348000000 1.8790000000
0.4972000000 5.0364000000 1.5335000000
0.4967000000 2.1113000000 1.8075000000
0.4941000000 5.0313000000 1.5354000000
0.2650000000 1.2086000000 1.0169000000
0.2617000000 5.8105000000 0.8166000000
0.2588000000 3.8492000000 2.0068000000
0.2586000000 5.7820000000 0.8363000000
0.2580000000 2.9019000000 2.0255000000
0.2575000000 3.7749000000 2.0523000000
0.2574000000 5.9892000000 0.7061000000
0.2574000000 6.3885000000 0.3745000000
0.2569000000 2.2827000000 1.6520000000
0.2567000000 1.7735000000 1.3428000000
0.2566000000 3.5741000000 2.1784000000
0.2563000000 3.6655000000 2.1209000000
0.2559000000 0.2261000000 0.2764000000
0.2558000000 5.8302000000 0.7998000000
0.2556000000 2.6201000000 1.8613000000
0.2555000000 1.2127000000 1.0018000000
0.2553000000 2.0788000000 1.5335000000
0.2550000000 2.5664000000 1.8321000000
0.2549000000 4.8321000000 1.4048000000
0.2548000000 4.8131000000 1.4174000000
0.2545000000 4.0818000000 1.8612000000
0.2544000000 0.3185000000 0.3859000000
0.2542000000 4.0753000000 1.8629000000
0.2538000000 4.1727000000 1.8082000000
0.2535000000 6.7450000000 0.0203000000
0.2534000000 6.2255000000 0.5351000000
0.2531000000 6.0037000000 0.6949000000
0.2529000000 2.3738000000 1.7068000000
0.2525000000 2.2327000000 1.6166000000
0.2524000000 0.6911000000 0.6798000000
0.2523000000 3.2084000000 2.2155000000
0.2520000000 0.3570000000 0.4112000000
0.2519000000 4.2634000000 1.7462000000
0.2517000000 2.3496000000 1.6935000000
0.2515000000 1.5268000000 1.1919000000
0.2515000000 2.9307000000 2.0454000000
0.2512000000 3.8872000000 1.9772000000
0.2510000000 3.3033000000 2.2577000000
0.2508000000 3.4056000000 2.2593000000
0.2502000000 1.9001000000 1.4163000000
0.2500000000 1.2404000000 1.0162000000
0.2498000000 0.5247000000 0.5593000000
0.2494000000 1.3358000000 1.0709000000
0.2492000000 3.3348000000 2.2695000000
0.2488000000 3.0695000000 2.1276000000
0.2486000000 4.7877000000 1.4249000000
0.2482000000 0.0235000000 0.1013000000
0.2477000000 2.0770000000 1.5209000000
0.2454000000 0.3678000000 0.4156000000
0.0124000000 6.3332000000 0.2342000000
0.0118000000 4.4296000000 1.3941000000
0.0104000000 6.4514000000 0.1671000000
0.0090000000 4.9012000000 1.1017000000
0.0088000000 5.6730000000 0.6408000000
0.0079000000 6.5711000000 0.0847000000
0.0073000000 4.5091000000 1.3376000000
0.0071000000 5.2916000000 0.8650000000
0.0068000000 6.0874000000 0.3801000000
0.0066000000 5.2762000000 0.8785000000
0.0064000000 0.3684000000 0.2255000000
0.0060000000 1.0363000000 0.6307000000
0.0060000000 4.9754000000 1.0577000000
0.0055000000 6.2835000000 0.2618000000
0.0054000000 2.2189000000 1.3544000000
0.0051000000 6.6707000000 0.0754000000
0.0049000000 5.6802000000 0.6232000000
0.0046000000 0.7267000000 0.4423000000
0.0045000000 4.6797000000 1.2352000000
0.0043000000 5.8333000000 0.5291000000
0.0039000000 6.0713000000 0.3848000000
0.0037000000 0.4430000000 0.2623000000
0.0036000000 5.2845000000 0.8656000000
0.0031000000 3.6911000000 1.8376000000
0.0028000000 0.3353000000 0.2006000000
0.0028000000 1.3072000000 0.7951000000
0.0026000000 1.4755000000 0.8973000000
0.0024000000 4.3317000000 1.4458000000
0.0021000000 6.5120000000 0.1208000000
0.0018000000 3.2783000000 1.9922000000
0.0017000000 3.9802000000 1.6568000000
0.0013000000 5.0223000000 1.0191000000
0.0011000000 6.7175000000 0.0387000000
0.0010000000 1.1475000000 0.7005000000
0.0008000000 6.2532000000 0.2770000000
0.0002000000 5.8115000000 0.5396000000
0.0000000000 0.8302000000 0.4978000000
-0.0006000000 1.4910000000 0.9054000000
-0.0011000000 1.1296000000 0.6819000000
-0.0012000000 1.5795000000 0.9572000000
-0.0012000000 5.0709000000 0.9900000000
-0.0019000000 1.3030000000 0.7877000000
-0.0021000000 2.5418000000 1.5452000000
-0.0042000000 1.3872000000 0.8332000000
-0.2380000000 3.9192000000 1.4416000000
-0.2395000000 5.1335000000 0.7035000000
-0.2411000000 3.9631000000 1.4161000000
-0.2417000000 4.2518000000 1.2383000000
-0.2419000000 4.3043000000 1.2034000000
-0.2422000000 5.5316000000 0.4564000000
-0.2426000000 4.1691000000 1.2894000000
-0.2432000000 2.9542000000 1.5374000000
-0.2437000000 3.4896000000 1.6973000000
-0.2441000000 3.6930000000 1.5726000000
-0.2442000000 2.6812000000 1.3756000000
-0.2444000000 4.9837000000 0.7823000000
-0.2445000000 2.6320000000 1.3384000000
-0.2446000000 2.1006000000 1.0182000000
-0.2448000000 0.5101000000 0.1173000000
-0.2451000000 4.6419000000 0.9955000000
-0.2452000000 5.3201000000 0.5809000000
-0.2454000000 3.1920000000 1.6787000000
-0.2456000000 1.3484000000 0.5516000000
-0.2458000000 4.4951000000 1.0827000000
-0.2461000000 2.9793000000 1.5454000000
-0.2462000000 0.8347000000 0.2473000000
-0.2464000000 3.4755000000 1.7027000000
-0.2464000000 2.3064000000 1.1396000000
-0.2465000000 3.3014000000 1.7406000000
-0.2467000000 3.7222000000 1.5492000000
-0.2469000000 2.6663000000 1.3612000000
-0.2472000000 0.9358000000 0.3042000000
-0.2474000000 1.0184000000 0.3563000000
-0.2477000000 4.8361000000 0.8751000000
-0.2481000000 5.6857000000 0.3564000000
-0.2483000000 4.8801000000 0.8505000000
-0.2485000000 1.0204000000 0.3542000000
-0.2486000000 1.7844000000 0.8194000000
-0.2486000000 5.0841000000 0.7201000000
-0.2492000000 2.2377000000 1.0950000000
-0.2495000000 6.4231000000 0.0480000000
-0.2498000000 5.4542000000 0.5006000000
-0.2502000000 4.1303000000 1.3060000000
-0.2503000000 2.2641000000 1.1122000000
-0.2507000000 5.7558000000 0.3170000000
-0.2520000000 3.0794000000 1.6113000000
-0.2528000000 5.5958000000 0.4033000000
-0.2532000000 5.3658000000 0.5418000000
-0.2567000000 0.4918000000 0.1037000000
-0.4902000000 5.6577000000 0.1204000000
-0.4915000000 2.1913000000 0.8081000000
-0.4922000000 5.5213000000 0.1959000000
-0.4929000000 3.1304000000 1.3808000000
-0.4930000000 5.4125000000 0.2604000000
-0.4935000000 5.1922000000 0.3976000000
-0.4939000000 4.2908000000 0.9365000000
-0.4942000000 3.1817000000 1.4138000000
-0.4943000000 2.4283000000 0.9497000000
-0.4947000000 0.8416000000 0.0576000000
-0.4949000000 0.7577000000 0.0825000000
-0.4952000000 5.7323000000 0.1407000000
-0.4954000000 5.4087000000 0.2643000000
-0.4957000000 1.3765000000 0.3070000000
-0.4960000000 5.7780000000 0.1112000000
-0.4962000000 5.8293000000 0.0739000000
-0.4967000000 2.7888000000 1.1713000000
-0.4969000000 5.2458000000 0.3650000000
-0.4971000000 3.7101000000 1.2965000000
-0.4975000000 2.1378000000 0.7732000000
-0.4978000000 1.9588000000 0.6604000000
-0.4979000000 3.3657000000 1.4858000000
-0.4984000000 0.9161000000 0.1018000000
-0.4987000000 3.0030000000 1.2973000000
-0.4987000000 4.1911000000 1.0037000000
-0.4989000000 3.4113000000 1.4712000000
-0.4990000000 3.8862000000 1.1902000000
-0.4992000000 4.1411000000 1.0304000000
-0.4994000000 0.8263000000 0.0500000000
-0.4995000000 2.1673000000 0.7887000000
-0.5001000000 5.0453000000 0.4830000000
-0.5003000000 0.6865000000 0.0329000000
-0.5010000000 5.1574000000 0.4132000000
-0.5012000000 1.3351000000 0.2817000000
-0.5017000000 1.8413000000 0.5934000000
-0.5025000000 2.2540000000 0.8407000000
-0.5031000000 1.5503000000 0.4130000000
-0.5037000000 3.3323000000 1.4746000000
-0.5086000000 1.1240000000 0.1439000000
-0.7412000000 5.5709000000 0.0465000000
-0.7417000000 3.3578000000 1.2355000000
-0.7420000000 1.1790000000 0.0820000000
-0.7423000000 1.7229000000 0.2614000000
-0.7434000000 1.1327000000 0.0516000000
-0.7440000000 1.1417000000 0.0523000000
-0.7442000000 3.0105000000 1.0464000000
-0.7444000000 1.2928000000 0.0707000000
-0.7446000000 2.5613000000 0.7716000000
-0.7448000000 1.9763000000 0.4115000000
-0.7450000000 2.6503000000 0.8242000000
-0.7452000000 2.5712000000 0.7771000000
-0.7453000000 1.2623000000 0.0540000000
-0.7462000000 2.5286000000 0.7474000000
-0.7467000000 3.7905000000 0.9781000000
-0.7471000000 2.7431000000 0.8778000000
-0.7478000000 4.3855000000 0.6175000000
-0.7481000000 5.6130000000 0.0231000000
-0.7483000000 5.4760000000 0.1093000000
-0.7486000000 2.5212000000 0.7422000000
-0.7490000000 4.5032000000 0.5473000000
-0.7494000000 2.1894000000 0.5374000000
-0.7499000000 4.5565000000 0.5172000000
-0.7504000000 1.8136000000 0.3098000000
-0.7516000000 1.4650000000 0.0925000000
-0.7528000000 2.9554000000 0.9943000000
-0.7544000000 4.7709000000 0.3784000000
-0.9887000000 4.5147000000 0.2925000000
-0.9895000000 3.0273000000 0.7934000000
-0.9928000000 4.0541000000 0.5665000000
-0.9935000000 2.2906000000 0.3473000000
-0.9943000000 3.8542000000 0.6854000000
-0.9946000000 4.9489000000 0.0916000000
-0.9947000000 3.4279000000 0.9435000000
-0.9952000000 4.7116000000 0.1580000000
-0.9952000000 2.0825000000 0.2180000000
-0.9955000000 4.1562000000 0.4992000000
-0.9955000000 1.4974000000 0.0044000000
-0.9964000000 3.5110000000 0.8911000000
-0.9971000000 3.3578000000 0.9664000000
-0.9972000000 2.6111000000 0.5376000000
-0.9973000000 2.4481000000 0.4376000000
-0.9975000000 4.7772000000 0.1199000000
-0.9976000000 2.7104000000 0.5901000000
-0.9982000000 4.2924000000 0.4133000000
-0.9990000000 2.3849000000 0.3976000000
-0.9992000000 1.5179000000 0.0169000000
-0.9998000000 3.7543000000 0.7320000000
-1.0010000000 3.4085000000 0.9365000000
-1.0013000000 1.5404000000 0.0257000000
-1.0082000000 4.7257000000 0.1364000000
-1.2424000000 3.7998000000 0.4576000000
-1.2427000000 4.2823000000 0.1614000000
-1.2440000000 2.6608000000 0.3033000000
-1.2452000000 4.4823000000 0.1128000000
-1.2459000000 2.2160000000 0.1082000000
-1.2470000000 2.4366000000 0.1614000000
-1.2481000000 2.8570000000 0.4179000000
-1.2492000000 3.4270000000 0.6753000000
-1.2497000000 2.3491000000 0.1144000000
-1.2503000000 2.5228000000 0.2160000000
-1.2509000000 3.5155000000 0.6154000000
-1.2515000000 2.7046000000 0.3246000000
-1.2534000000 2.6356000000 0.2751000000
-1.4895000000 2.4046000000 0.0414000000
-1.4893000000 2.6148000000 0.0892000000
-1.4912000000 3.6371000000 0.2915000000
-1.4935000000 3.8402000000 0.1691000000
-1.4940000000 3.7867000000 0.1899000000
-1.4944000000 3.8673000000 0.1487000000
-1.4946000000 3.5862000000 0.3179000000
-1.4950000000 3.0977000000 0.3064000000
-1.4963000000 3.0590000000 0.2819000000
-1.4971000000 4.2725000000 0.0458000000
-1.4974000000 3.0992000000 0.3023000000
-1.4981000000 3.6804000000 0.2567000000
-1.4996000000 2.3573000000 0.0009000000
-1.4999000000 3.5982000000 0.3029000000
-1.5010000000 3.4632000000 0.3907000000
-1.5022000000 3.4879000000 0.3722000000
-1.5037000000 3.0231000000 0.2500000000
-1.7428000000 2.7848000000 0.0061000000
-1.7436000000 3.5728000000 0.1314000000
-1.7441000000 3.0133000000 0.0669000000
-1.7455000000 2.9148000000 0.0072000000
-1.7460000000 2.9520000000 0.0288000000
-1.7464000000 2.8976000000 0.0657000000
-1.7469000000 2.9808000000 0.0412000000
-1.7472000000 3.0500000000 0.0838000000
-1.7480000000 3.3965000000 0.1489000000
-1.7519000000 2.9573000000 0.1021000000
