3.2572000000 5.0096000000 0.0226000000
3.2569000000 3.9869000000 0.5958000000
3.2567000000 4.3117000000 0.3905000000
3.2566000000 2.6263000000 1.4290000000
3.2564000000 3.4718000000 0.9255000000
3.2562000000 4.7389000000 0.1269000000
3.2561000000 5.0225000000 0.0165000000
3.2560000000 5.1167000000 0.0305000000
3.2559000000 3.0143000000 1.2164000000
3.2558000000 3.5885000000 0.8627000000
3.2557000000 1.4519000000 0.7010000000
3.2556000000 1.3101000000 0.6085000000
3.2549000000 1.4772000000 0.7186000000
3.2548000000 4.8057000000 0.0831000000
3.2548000000 2.8279000000 1.3432000000
3.2547000000 3.7788000000 0.7408000000
3.2546000000 4.4378000000 0.3154000000
3.2543000000 1.4041000000 0.6712000000
3.2540000000 4.7823000000 0.0962000000
3.2539000000 1.3963000000 0.6673000000
3.2534000000 5.1017000000 0.0494000000
3.2532000000 3.2120000000 1.0987000000
3.2531000000 3.2149000000 1.0994000000
3.2528000000 3.5485000000 0.8824000000
3.2528000000 0.7207000000 0.2397000000
3.2527000000 3.1860000000 1.1163000000
3.2525000000 2.0883000000 1.1125000000
3.2523000000 3.5778000000 0.8689000000
3.2519000000 4.8232000000 0.0720000000
3.2517000000 0.1833000000 0.0488000000
3.2516000000 1.5189000000 0.7491000000
3.2516000000 4.2896000000 0.4151000000
3.2514000000 1.6220000000 0.8137000000
3.2513000000 4.1862000000 0.4860000000
3.2511000000 1.7275000000 0.8795000000
3.2506000000 0.9420000000 0.3774000000
3.2503000000 2.5671000000 1.4240000000
3.2503000000 0.9433000000 0.3841000000
3.2500000000 2.1563000000 1.1598000000
3.2497000000 0.6897000000 0.2241000000
3.2496000000 0.7347000000 0.2513000000
3.2493000000 1.9330000000 1.0122000000
3.2491000000 0.2477000000 0.0163000000
3.2488000000 3.0602000000 1.1995000000
3.2484000000 0.1127000000 0.0011000000
3.2480000000 0.8105000000 0.2955000000
3.2479000000 0.2142000000 0.0721000000
3.2477000000 1.2880000000 0.6122000000
3.2476000000 1.9516000000 1.0351000000
3.2473000000 0.6251000000 0.1838000000
3.2472000000 2.6341000000 1.4464000000
3.2470000000 2.6699000000 1.4280000000
3.2461000000 0.8532000000 0.3314000000
3.2452000000 2.1810000000 1.1784000000
3.0135000000 1.5988000000 1.0596000000
3.0129000000 4.7684000000 0.3761000000
3.0110000000 2.5372000000 1.6644000000
3.0110000000 4.0731000000 0.8135000000
3.0102000000 2.1914000000 1.4397000000
3.0094000000 3.1669000000 1.3937000000
3.0090000000 0.7463000000 0.5268000000
3.0075000000 3.5675000000 1.1413000000
3.0074000000 1.4242000000 0.9574000000
3.0071000000 0.4852000000 0.3554000000
3.0070000000 0.5566000000 0.4059000000
3.0068000000 3.5297000000 1.1717000000
3.0067000000 0.4090000000 0.3080000000
3.0065000000 3.0663000000 1.4623000000
3.0065000000 0.3579000000 0.2802000000
3.0065000000 2.7034000000 1.6936000000
3.0064000000 3.0847000000 1.4596000000
3.0063000000 2.4282000000 1.5959000000
3.0062000000 4.0115000000 0.8663000000
3.0060000000 4.3705000000 0.6367000000
3.0059000000 3.3597000000 1.2758000000
3.0058000000 1.5672000000 1.0486000000
3.0058000000 2.1273000000 1.4104000000
3.0058000000 1.7458000000 1.1682000000
3.0053000000 3.3838000000 1.2596000000
3.0053000000 1.4991000000 1.0086000000
3.0052000000 3.1228000000 1.4269000000
3.0051000000 0.3326000000 0.2633000000
3.0050000000 1.1888000000 0.8103000000
3.0048000000 4.8322000000 0.3454000000
3.0048000000 4.9516000000 0.2656000000
3.0048000000 1.7887000000 1.1879000000
3.0047000000 4.8951000000 0.3026000000
3.0045000000 3.5780000000 1.1358000000
3.0044000000 3.6581000000 1.0933000000
3.0044000000 0.9267000000 0.6420000000
3.0043000000 0.8536000000 0.5985000000
3.0042000000 3.0818000000 1.4608000000
3.0041000000 1.0583000000 0.7279000000
3.0035000000 1.3422000000 0.9108000000
3.0035000000 3.6633000000 1.0879000000
3.0034000000 2.7405000000 1.6743000000
3.0033000000 1.0365000000 0.7138000000
3.0029000000 1.3312000000 0.9046000000
3.0029000000 4.1983000000 0.7464000000
3.0028000000 1.2747000000 0.8656000000
3.0028000000 3.8343000000 0.9738000000
3.0026000000 2.5715000000 1.6911000000
3.0026000000 0.4318000000 0.3239000000
3.0023000000 1.2523000000 0.8532000000
3.0023000000 2.6836000000 1.6894000000
3.0022000000 1.2518000000 0.8504000000
3.0018000000 2.9355000000 1.5557000000
3.0017000000 3.8322000000 0.9844000000
3.0016000000 1.2616000000 0.8559000000
3.0015000000 0.5669000000 0.4182000000
3.0014000000 5.1922000000 0.0959000000
3.0010000000 5.1979000000 0.0939000000
3.0009000000 2.3223000000 1.5417000000
3.0007000000 1.2054000000 0.8274000000
3.0003000000 4.0474000000 0.8438000000
2.9997000000 2.2148000000 1.4671000000
2.9997000000 2.5913000000 1.6950000000
2.9995000000 3.0667000000 1.4707000000
2.9994000000 2.5628000000 1.6874000000
2.9994000000 2.7941000000 1.6477000000
2.9993000000 5.0265000000 0.2181000000
2.9992000000 1.5897000000 1.0708000000
2.9991000000 1.8455000000 1.2365000000
2.9989000000 2.5670000000 1.6910000000
2.9985000000 2.2712000000 1.5070000000
2.9985000000 0.8699000000 0.6138000000
2.9981000000 3.2327000000 1.3641000000
2.9980000000 1.7230000000 1.1614000000
2.9978000000 0.0517000000 0.0455000000
2.9978000000 0.7717000000 0.5516000000
2.9976000000 0.1500000000 0.1343000000
2.9976000000 3.4692000000 1.2155000000
2.9967000000 1.6997000000 1.1442000000
2.7631000000 4.8596000000 0.5210000000
2.7623000000 4.6314000000 0.7344000000
2.7610000000 4.8948000000 0.4161000000
2.7607000000 3.4216000000 1.5038000000
2.7603000000 3.7062000000 1.3252000000
2.7603000000 4.9162000000 0.4713000000
2.7595000000 3.7400000000 1.3066000000
2.7592000000 4.7632000000 0.6374000000
2.7591000000 2.7097000000 1.9630000000
2.7590000000 0.3340000000 0.4312000000
2.7588000000 4.4375000000 0.8645000000
2.7585000000 2.1914000000 1.7179000000
2.7585000000 3.6091000000 1.3981000000
2.7583000000 3.1806000000 1.6668000000
2.7579000000 0.3428000000 0.4403000000
2.7577000000 0.0822000000 0.1029000000
2.7576000000 5.1308000000 0.2036000000
2.7576000000 3.6145000000 1.3875000000
2.7573000000 3.1634000000 1.6736000000
2.7573000000 2.7554000000 1.9340000000
2.7570000000 4.5547000000 0.7886000000
2.7570000000 1.4737000000 1.2654000000
2.7569000000 2.3106000000 1.7998000000
2.7566000000 1.7010000000 1.4125000000
2.7566000000 4.0533000000 1.1087000000
2.7565000000 3.1413000000 1.6954000000
2.7564000000 3.9697000000 1.1570000000
2.7563000000 0.3460000000 0.4443000000
2.7562000000 4.0727000000 1.0980000000
2.7560000000 0.7506000000 0.8087000000
2.7559000000 2.2924000000 1.7892000000
2.7556000000 3.8285000000 1.2552000000
2.7556000000 4.2317000000 1.0008000000
2.7555000000 4.9148000000 0.4696000000
2.7554000000 2.2658000000 1.7659000000
2.7554000000 4.1555000000 1.0500000000
2.7553000000 0.6552000000 0.7393000000
2.7553000000 2.3092000000 1.8042000000
2.7552000000 1.2642000000 1.1289000000
2.7552000000 0.1677000000 0.2215000000
2.7551000000 2.9983000000 1.7868000000
2.7550000000 3.0317000000 1.7651000000
2.7549000000 2.5958000000 1.9655000000
2.7547000000 2.9107000000 1.8434000000
2.7546000000 3.4375000000 1.5099000000
2.7545000000 0.3861000000 0.4261000000
2.7542000000 2.1188000000 1.6835000000
2.7541000000 4.7392000000 0.6569000000
2.7540000000 5.0463000000 0.3094000000
2.7540000000 4.5496000000 0.8001000000
2.7539000000 4.4515000000 0.8593000000
2.7538000000 4.5683000000 0.7847000000
2.7537000000 1.4435000000 1.2516000000
2.7536000000 0.7738000000 0.8177000000
2.7536000000 2.6832000000 1.9685000000
2.7535000000 2.2642000000 1.7730000000
2.7533000000 1.6211000000 1.3658000000
2.7533000000 1.1222000000 1.0441000000
2.7532000000 1.7752000000 1.4677000000
2.7530000000 2.6446000000 1.9864000000
2.7529000000 0.5599000000 0.6619000000
2.7528000000 1.4790000000 1.2688000000
2.7528000000 2.5818000000 1.9724000000
2.7527000000 2.6528000000 1.9813000000
2.7525000000 2.7449000000 1.9497000000
2.7524000000 1.3325000000 1.1861000000
2.7520000000 0.4804000000 0.5926000000
2.7520000000 3.5235000000 1.4569000000
2.7520000000 5.0496000000 0.3096000000
2.7519000000 0.9737000000 0.9563000000
2.7517000000 4.7137000000 0.6833000000
2.7515000000 4.9823000000 0.3902000000
2.7515000000 4.3553000000 0.9262000000
2.7514000000 0.1394000000 0.1807000000
2.7510000000 3.4457000000 1.5041000000
2.7507000000 2.7684000000 1.9361000000
2.7503000000 1.4029000000 1.2242000000
2.7502000000 3.4445000000 1.5113000000
2.7499000000 4.7492000000 0.6590000000
2.7499000000 3.4357000000 1.5102000000
2.7498000000 0.3917000000 0.5010000000
2.7497000000 1.0888000000 1.0240000000
2.7496000000 1.8927000000 1.5386000000
2.7496000000 4.4117000000 0.8863000000
2.7493000000 1.7313000000 1.4349000000
2.7491000000 1.9444000000 1.5716000000
2.7490000000 3.6519000000 1.3737000000
2.7486000000 1.9842000000 1.6049000000
2.7481000000 0.0963000000 0.1274000000
2.7478000000 2.3766000000 1.8543000000
2.7476000000 1.7070000000 1.4274000000
2.7470000000 2.4141000000 1.8782000000
2.7470000000 0.5194000000 0.6425000000
2.5135000000 4.7498000000 0.6833000000
2.5120000000 4.2665000000 1.2232000000
2.5114000000 1.2999000000 1.4257000000
2.5104000000 5.2487000000 0.0534000000
2.5093000000 3.3797000000 1.8130000000
2.5089000000 1.2746000000 1.4101000000
2.5084000000 5.2193000000 0.0880000000
2.5080000000 5.0509000000 0.3048000000
2.5078000000 3.0488000000 2.0265000000
2.5077000000 2.6362000000 2.2607000000
2.5077000000 5.2982000000 0.0613000000
2.5075000000 3.9439000000 1.4559000000
2.5073000000 1.8492000000 1.7802000000
2.5071000000 4.8297000000 0.5852000000
2.5069000000 4.7410000000 0.6974000000
2.5067000000 2.4858000000 2.1912000000
2.5067000000 2.1093000000 1.9408000000
2.5062000000 2.2568000000 2.0393000000
2.5056000000 3.6966000000 1.6175000000
2.5055000000 3.6223000000 1.6613000000
2.5053000000 4.3642000000 1.1551000000
2.5045000000 1.3049000000 1.4397000000
2.5045000000 0.3930000000 0.5125000000
2.5044000000 2.9974000000 2.0563000000
2.5044000000 2.1943000000 1.9987000000
2.5043000000 2.9601000000 2.0875000000
2.5043000000 2.3208000000 2.0854000000
2.5042000000 1.6159000000 1.6328000000
2.5040000000 0.8599000000 1.0795000000
2.5040000000 0.0535000000 0.0657000000
2.5040000000 2.8774000000 2.1376000000
2.5038000000 2.5750000000 2.2450000000
2.5035000000 4.7151000000 0.7295000000
2.5035000000 3.1192000000 1.9811000000
2.5034000000 1.0718000000 1.2830000000
2.5033000000 3.4078000000 1.7985000000
2.5033000000 2.7621000000 2.2093000000
2.5031000000 2.2390000000 2.0360000000
2.5031000000 1.8868000000 1.8129000000
2.5028000000 2.4581000000 2.1714000000
2.5027000000 2.0075000000 1.8831000000
2.5027000000 1.2876000000 1.4269000000
2.5026000000 4.3348000000 1.1961000000
2.5025000000 4.4707000000 1.0387000000
2.5024000000 2.8122000000 2.1836000000
2.5022000000 0.1268000000 0.1582000000
2.5021000000 4.0614000000 1.3890000000
2.5019000000 1.3365000000 1.4557000000
2.5015000000 1.2654000000 1.4161000000
2.5015000000 5.0512000000 0.3048000000
2.5014000000 4.8307000000 0.5786000000
2.5011000000 0.9227000000 1.1597000000
2.5011000000 4.1969000000 1.3060000000
2.5008000000 4.5305000000 0.9638000000
2.5005000000 1.6277000000 1.6508000000
2.5002000000 0.8598000000 1.0774000000
2.5002000000 3.9134000000 1.4880000000
2.5001000000 1.2185000000 1.3824000000
2.5001000000 3.4538000000 1.7723000000
2.5000000000 4.3321000000 1.1933000000
2.5000000000 0.4336000000 0.5591000000
2.4995000000 4.4934000000 1.0125000000
2.4995000000 1.2714000000 1.4165000000
2.4993000000 2.0197000000 1.9006000000
2.4993000000 3.3960000000 1.8133000000
2.4991000000 0.9595000000 1.1983000000
2.4985000000 1.7619000000 1.7357000000
2.4982000000 3.5326000000 1.7311000000
2.4981000000 0.7936000000 1.0162000000
2.4981000000 1.3292000000 1.4596000000
2.4980000000 0.7892000000 1.0084000000
2.4978000000 4.6792000000 0.7719000000
2.4977000000 0.5816000000 0.7455000000
2.4965000000 2.9257000000 2.1150000000
2.4964000000 1.5087000000 1.5757000000
2.4962000000 0.9014000000 1.1351000000
2.4961000000 2.2127000000 2.0258000000
2.4955000000 2.3924000000 2.1381000000
2.4943000000 2.6328000000 2.2646000000
2.4940000000 0.2683000000 0.3478000000
2.2620000000 4.3748000000 1.1635000000
2.2605000000 5.2338000000 0.0705000000
2.2598000000 4.3833000000 1.1506000000
2.2590000000 4.5150000000 0.9826000000
2.2587000000 4.1293000000 1.4691000000
2.2582000000 4.9067000000 0.4808000000
2.2582000000 3.2539000000 2.1715000000
2.2581000000 2.6662000000 2.5227000000
2.2580000000 5.0149000000 0.3546000000
2.2576000000 1.0546000000 1.3496000000
2.2570000000 2.6458000000 2.5386000000
2.2568000000 0.7554000000 0.9702000000
2.2568000000 5.1216000000 0.2125000000
2.2566000000 4.9964000000 0.3659000000
2.2564000000 4.2063000000 1.3794000000
2.2563000000 3.7622000000 1.8457000000
2.2562000000 2.6701000000 2.5318000000
2.2560000000 4.0863000000 1.5301000000
2.2557000000 5.2167000000 0.0907000000
2.2555000000 4.6333000000 0.8339000000
2.2555000000 2.0250000000 2.1683000000
2.2554000000 0.8353000000 1.0678000000
2.2553000000 3.9126000000 1.7303000000
2.2553000000 1.7968000000 2.0278000000
2.2550000000 3.2360000000 2.1905000000
2.2548000000 0.0987000000 0.1310000000
2.2542000000 2.0714000000 2.1999000000
2.2540000000 1.6128000000 1.9136000000
2.2539000000 0.4468000000 0.5699000000
2.2537000000 2.6344000000 2.5420000000
2.2536000000 2.8466000000 2.4366000000
2.2535000000 3.8645000000 1.7667000000
2.2533000000 4.4688000000 1.0440000000
2.2531000000 2.2267000000 2.2956000000
2.2532000000 4.3205000000 1.2335000000
2.2530000000 0.2356000000 0.3016000000
2.2528000000 3.9890000000 1.6319000000
2.2525000000 1.6983000000 1.9597000000
2.2523000000 3.0974000000 2.2734000000
2.2522000000 2.9162000000 2.3963000000
2.2520000000 3.2513000000 2.1763000000
2.2519000000 4.7678000000 0.6645000000
2.2513000000 4.3451000000 1.2013000000
2.2513000000 4.3358000000 1.2072000000
2.2508000000 3.2134000000 2.2004000000
2.2507000000 3.4300000000 2.0677000000
2.2505000000 2.7960000000 2.4651000000
2.2504000000 0.9237000000 1.1820000000
2.2502000000 0.0778000000 0.1001000000
2.2495000000 3.6786000000 1.9077000000
2.2493000000 0.8391000000 1.0711000000
2.2490000000 0.8567000000 1.0945000000
2.2490000000 0.3809000000 0.4942000000
2.2482000000 4.4795000000 1.0291000000
2.2472000000 2.2461000000 2.3217000000
2.2467000000 2.1162000000 2.2364000000
2.2466000000 3.5172000000 2.0154000000
2.2455000000 2.0341000000 2.1816000000
2.2448000000 3.1109000000 2.2767000000
2.0110000000 4.4008000000 1.1323000000
2.0105000000 3.3848000000 2.3480000000
2.0103000000 3.5717000000 2.1648000000
2.0100000000 2.8905000000 2.6759000000
2.0098000000 1.0827000000 1.3840000000
2.0094000000 4.6776000000 0.7769000000
2.0093000000 5.1959000000 0.1190000000
2.0088000000 1.7829000000 2.2525000000
2.0087000000 4.8871000000 0.5106000000
2.0086000000 0.8643000000 1.1035000000
2.0085000000 2.8239000000 2.7200000000
2.0079000000 3.8279000000 1.8596000000
2.0072000000 1.7673000000 2.2382000000
2.0068000000 0.7693000000 0.9802000000
2.0068000000 3.1588000000 2.5077000000
2.0066000000 1.2700000000 1.6148000000
2.0064000000 2.6496000000 2.8135000000
2.0063000000 2.6635000000 2.8073000000
2.0063000000 2.0050000000 2.4301000000
2.0063000000 4.7260000000 0.7111000000
2.0058000000 2.8784000000 2.6854000000
2.0057000000 3.4754000000 2.2854000000
2.0056000000 1.0430000000 1.3318000000
2.0053000000 1.1529000000 1.4722000000
2.0052000000 0.8634000000 1.0992000000
2.0052000000 4.3286000000 1.2237000000
2.0051000000 0.2536000000 0.3284000000
2.0049000000 4.1536000000 1.4371000000
2.0048000000 1.3978000000 1.7881000000
2.0048000000 2.2339000000 2.5775000000
2.0046000000 4.2784000000 1.2832000000
2.0046000000 1.6282000000 2.0797000000
2.0045000000 3.2627000000 2.4415000000
2.0043000000 1.7824000000 2.2551000000
2.0043000000 2.9261000000 2.6596000000
2.0041000000 1.7801000000 2.2486000000
2.0040000000 4.2668000000 1.3018000000
2.0040000000 3.7765000000 1.9238000000
2.0036000000 0.1691000000 0.2178000000
2.0036000000 0.0848000000 0.1069000000
2.0035000000 1.3064000000 1.6702000000
2.0034000000 3.3960000000 2.3388000000
2.0032000000 3.3101000000 2.4122000000
2.0032000000 1.5739000000 2.0077000000
2.0030000000 5.1967000000 0.1148000000
2.0029000000 2.8979000000 2.6792000000
2.0028000000 2.2554000000 2.5929000000
2.0028000000 0.9554000000 1.2181000000
2.0027000000 2.5362000000 2.7724000000
2.0022000000 1.4476000000 1.8452000000
2.0021000000 2.8758000000 2.6970000000
2.0021000000 3.5039000000 2.2535000000
2.0020000000 3.3630000000 2.3656000000
2.0020000000 3.6169000000 2.1199000000
2.0018000000 1.3356000000 1.7065000000
2.0018000000 4.3108000000 1.2420000000
2.0016000000 0.0421000000 0.0532000000
2.0014000000 3.0911000000 2.5587000000
2.0010000000 5.1592000000 0.1621000000
2.0009000000 0.5808000000 0.7431000000
2.0008000000 2.9290000000 2.6602000000
2.0004000000 2.6738000000 2.7975000000
2.0001000000 4.7565000000 0.6771000000
2.0000000000 4.0515000000 1.5740000000
1.9999000000 1.1619000000 1.4807000000
1.9993000000 1.1274000000 1.4349000000
1.9991000000 3.3411000000 2.4019000000
1.9972000000 2.4817000000 2.7488000000
1.9970000000 4.4675000000 1.0408000000
1.9965000000 0.5559000000 0.7118000000
1.9952000000 0.7582000000 0.9707000000
1.9936000000 0.5412000000 0.6905000000
1.7594000000 2.5723000000 3.0668000000
1.7593000000 1.3459000000 1.7245000000
1.7593000000 1.7679000000 2.2644000000
1.7588000000 1.4490000000 1.8490000000
1.7587000000 4.7902000000 0.6317000000
1.7573000000 4.6902000000 0.7613000000
1.7573000000 4.0851000000 1.5281000000
1.7570000000 2.3296000000 2.8904000000
1.7568000000 1.5978000000 2.0360000000
1.7567000000 5.0234000000 0.3330000000
1.7565000000 2.9478000000 2.8944000000
1.7561000000 1.7894000000 2.2793000000
1.7560000000 2.3368000000 2.9054000000
1.7560000000 3.2858000000 2.5461000000
1.7557000000 5.2817000000 0.0006000000
1.7556000000 1.7671000000 2.2541000000
1.7554000000 3.0627000000 2.8082000000
1.7553000000 1.5361000000 1.9645000000
1.7549000000 3.0583000000 2.8193000000
1.7547000000 3.5579000000 2.1998000000
1.7546000000 4.4440000000 1.0739000000
1.7546000000 4.8782000000 0.5208000000
1.7544000000 5.2324000000 0.0738000000
1.7542000000 1.2822000000 1.6303000000
1.7538000000 0.2179000000 0.2812000000
1.7537000000 3.6027000000 2.1458000000
1.7537000000 3.6955000000 2.0258000000
1.7536000000 0.7905000000 1.0078000000
1.7535000000 0.3795000000 0.4849000000
1.7535000000 0.7492000000 0.9600000000
1.7533000000 4.0209000000 1.6105000000
1.7533000000 1.3770000000 1.7539000000
1.7532000000 3.6505000000 2.0903000000
1.7532000000 3.2542000000 2.5888000000
1.7530000000 3.7822000000 1.9180000000
1.7529000000 3.2578000000 2.5792000000
1.7527000000 3.4394000000 2.3531000000
1.7526000000 0.6962000000 0.8903000000
1.7525000000 0.2155000000 0.2756000000
1.7523000000 0.4953000000 0.6303000000
1.7523000000 4.3375000000 1.2086000000
1.7522000000 5.1122000000 0.2188000000
1.7518000000 1.5162000000 1.9360000000
1.7516000000 1.8679000000 2.3769000000
1.7515000000 2.2226000000 2.8175000000
1.7514000000 0.8252000000 1.0558000000
1.7515000000 0.0004000000 0.0021000000
1.7513000000 0.0540000000 0.0688000000
1.7513000000 3.1714000000 2.6941000000
1.7513000000 3.2618000000 2.5793000000
1.7510000000 0.1026000000 0.1278000000
1.7509000000 4.8501000000 0.5594000000
1.7508000000 0.2933000000 0.3748000000
1.7508000000 1.8366000000 2.3444000000
1.7507000000 3.9325000000 1.7233000000
1.7504000000 1.8688000000 2.3793000000
1.7501000000 1.0231000000 1.3074000000
1.7500000000 1.6129000000 2.0643000000
1.7497000000 1.0317000000 1.3123000000
1.7494000000 1.3509000000 1.7244000000
1.7493000000 1.0004000000 1.2799000000
1.7491000000 1.1989000000 1.5331000000
1.7489000000 0.2893000000 0.3765000000
1.7488000000 1.5769000000 2.0102000000
1.7480000000 3.3290000000 2.4874000000
1.7480000000 1.4475000000 1.8437000000
1.7468000000 3.5878000000 2.1646000000
1.5115000000 3.6285000000 2.1079000000
1.5103000000 3.3362000000 2.4859000000
1.5098000000 4.1156000000 1.4928000000
1.5097000000 1.6586000000 2.1129000000
1.5095000000 2.8123000000 3.1538000000
1.5086000000 3.4661000000 2.3199000000
1.5085000000 0.6727000000 0.8592000000
1.5083000000 2.6509000000 3.2606000000
1.5080000000 5.1943000000 0.1171000000
1.5078000000 4.6190000000 0.8495000000
1.5078000000 4.9103000000 0.4781000000
1.5076000000 4.9568000000 0.4168000000
1.5074000000 3.9855000000 1.6538000000
1.5075000000 5.2357000000 0.0663000000
1.5072000000 2.6888000000 3.2631000000
1.5070000000 2.9663000000 2.9564000000
1.5069000000 4.8019000000 0.6208000000
1.5067000000 1.8500000000 2.3549000000
1.5064000000 0.4670000000 0.5929000000
1.5066000000 4.1757000000 1.4090000000
1.5063000000 0.4316000000 0.5549000000
1.5062000000 4.0012000000 1.6372000000
1.5061000000 1.2465000000 1.5874000000
1.5061000000 3.9863000000 1.6572000000
1.5058000000 1.2495000000 1.5956000000
1.5056000000 3.7640000000 1.9382000000
1.5056000000 4.8131000000 0.6040000000
1.5057000000 0.4418000000 0.5676000000
1.5055000000 1.6100000000 2.0559000000
1.5055000000 0.3995000000 0.5147000000
1.5054000000 4.7258000000 0.7163000000
1.5053000000 2.2989000000 2.9322000000
1.5053000000 3.1795000000 2.6841000000
1.5052000000 0.0651000000 0.0851000000
1.5050000000 3.6346000000 2.1037000000
1.5050000000 0.1780000000 0.2347000000
1.5047000000 3.7120000000 2.0039000000
1.5046000000 2.9045000000 3.0329000000
1.5045000000 2.6725000000 3.2626000000
1.5044000000 2.0429000000 2.6043000000
1.5043000000 4.9038000000 0.4874000000
1.5042000000 1.0277000000 1.3099000000
1.5040000000 2.7381000000 3.1767000000
1.5040000000 4.1291000000 1.4700000000
1.5038000000 4.0294000000 1.6005000000
1.5037000000 1.6564000000 2.1119000000
1.5035000000 1.0806000000 1.3796000000
1.5030000000 0.8707000000 1.1135000000
1.5030000000 0.1548000000 0.2008000000
1.5027000000 1.7543000000 2.2366000000
1.5025000000 2.4315000000 3.0963000000
1.5024000000 4.5036000000 0.9985000000
1.5023000000 0.0919000000 0.1210000000
1.5021000000 5.1261000000 0.2049000000
1.5021000000 2.3905000000 3.0505000000
1.5020000000 4.4239000000 1.0986000000
1.5016000000 0.5147000000 0.6579000000
1.5015000000 0.8755000000 1.1208000000
1.5014000000 0.8268000000 1.0585000000
1.5010000000 2.8343000000 3.1289000000
1.5010000000 1.6178000000 2.0638000000
1.5009000000 4.0942000000 1.5232000000
1.5006000000 1.6507000000 2.1090000000
1.5005000000 0.8215000000 1.0490000000
1.5002000000 2.7443000000 3.1809000000
1.5000000000 1.9090000000 2.4380000000
1.4998000000 1.1271000000 1.4418000000
1.4997000000 4.8159000000 0.6021000000
1.4996000000 1.7047000000 2.1766000000
1.4995000000 5.2404000000 0.0577000000
1.4994000000 1.2895000000 1.6426000000
1.4993000000 3.1407000000 2.7369000000
1.4989000000 1.0414000000 1.3315000000
1.4988000000 0.7997000000 1.0226000000
1.4983000000 3.1928000000 2.6652000000
1.4981000000 0.6232000000 0.7942000000
1.4971000000 0.4127000000 0.5257000000
1.4967000000 0.8459000000 1.0807000000
1.4920000000 1.8562000000 2.3660000000
1.2628000000 5.2951000000 0.0596000000
1.2624000000 4.2834000000 1.2804000000
1.2595000000 4.5453000000 0.9396000000
1.2594000000 5.1141000000 0.2174000000
1.2588000000 3.0921000000 2.7700000000
1.2587000000 4.2241000000 1.3515000000
1.2586000000 1.1495000000 1.4640000000
1.2581000000 4.9323000000 0.4498000000
1.2580000000 0.6012000000 0.7679000000
1.2577000000 1.6106000000 2.0533000000
1.2573000000 5.2186000000 0.0890000000
1.2569000000 2.8061000000 2.9716000000
1.2567000000 1.4782000000 1.8836000000
1.2565000000 5.0499000000 0.3012000000
1.2565000000 3.8549000000 1.8250000000
1.2558000000 4.0902000000 1.5264000000
1.2553000000 3.5540000000 2.2092000000
1.2550000000 0.2181000000 0.2844000000
1.2549000000 4.9371000000 0.4506000000
1.2548000000 4.2448000000 1.3277000000
1.2547000000 5.2259000000 0.0790000000
1.2546000000 1.4273000000 1.8241000000
1.2545000000 3.9391000000 1.7141000000
1.2545000000 1.6438000000 2.0965000000
1.2544000000 5.0568000000 0.2923000000
1.2544000000 4.2429000000 1.3337000000
1.2541000000 5.1212000000 0.2110000000
1.2539000000 1.1352000000 1.4469000000
1.2532000000 2.3393000000 2.8754000000
1.2530000000 2.8084000000 2.9665000000
1.2530000000 2.8703000000 2.9233000000
1.2529000000 4.4664000000 1.0474000000
1.2529000000 3.6124000000 2.1338000000
1.2526000000 0.3113000000 0.3978000000
1.2523000000 0.8955000000 1.1449000000
1.2522000000 0.9986000000 1.2728000000
1.2522000000 0.7199000000 0.9248000000
1.2520000000 0.2696000000 0.3513000000
1.2520000000 3.6400000000 2.0917000000
1.2518000000 1.6485000000 2.1019000000
1.2517000000 5.2101000000 0.0966000000
1.2515000000 3.6917000000 2.0309000000
1.2513000000 3.6735000000 2.0555000000
1.2511000000 2.5960000000 3.0215000000
1.2511000000 0.0556000000 0.0755000000
1.2510000000 1.1002000000 1.4029000000
1.2510000000 3.2446000000 2.5254000000
1.2509000000 3.6467000000 2.0899000000
1.2508000000 0.3668000000 0.4733000000
1.2507000000 3.9697000000 1.6796000000
1.2506000000 1.6960000000 2.1594000000
1.2503000000 4.8294000000 0.5851000000
1.2503000000 3.0872000000 2.7618000000
1.2501000000 3.2391000000 2.5311000000
1.2500000000 2.9368000000 2.8840000000
1.2500000000 3.0073000000 2.8276000000
1.2499000000 1.6184000000 2.0637000000
1.2498000000 4.4315000000 1.0905000000
1.2498000000 5.0166000000 0.3459000000
1.2497000000 4.8671000000 0.5364000000
1.2490000000 1.2655000000 1.6152000000
1.2488000000 4.6988000000 0.7534000000
1.2487000000 0.8191000000 1.0496000000
1.2484000000 3.4355000000 2.3622000000
1.2477000000 2.7133000000 3.0157000000
1.2461000000 1.1066000000 1.4211000000
1.0128000000 2.9265000000 2.6208000000
1.0105000000 2.3859000000 2.6392000000
1.0098000000 4.9889000000 0.3782000000
1.0096000000 4.5830000000 0.8923000000
1.0082000000 3.8796000000 1.7919000000
1.0081000000 4.2231000000 1.3578000000
1.0079000000 4.8751000000 0.5208000000
1.0071000000 1.0255000000 1.3110000000
1.0070000000 3.2326000000 2.4246000000
1.0069000000 4.0063000000 1.6305000000
1.0068000000 1.5109000000 1.9280000000
1.0067000000 0.7264000000 0.9249000000
1.0066000000 3.0629000000 2.5288000000
1.0057000000 4.3988000000 1.1292000000
1.0056000000 1.8994000000 2.3244000000
1.0055000000 0.3502000000 0.4531000000
1.0055000000 3.5326000000 2.2081000000
1.0053000000 2.9243000000 2.6117000000
1.0053000000 1.9578000000 2.3579000000
1.0052000000 3.9959000000 1.6441000000
1.0052000000 2.3042000000 2.5796000000
1.0051000000 1.6918000000 2.1348000000
1.0050000000 5.2331000000 0.0710000000
1.0050000000 0.1066000000 0.1414000000
1.0050000000 1.7878000000 2.2293000000
1.0049000000 2.9428000000 2.6002000000
1.0046000000 4.5856000000 0.8972000000
1.0045000000 2.2035000000 2.5136000000
1.0045000000 0.8509000000 1.0888000000
1.0043000000 1.1484000000 1.4680000000
1.0043000000 1.6536000000 2.0946000000
1.0040000000 4.6917000000 0.7632000000
1.0040000000 1.4969000000 1.9075000000
1.0037000000 2.2944000000 2.5679000000
1.0035000000 5.0146000000 0.3457000000
1.0035000000 2.4931000000 2.7012000000
1.0036000000 2.6014000000 2.7474000000
1.0035000000 1.4236000000 1.8168000000
1.0031000000 5.1231000000 0.2041000000
1.0030000000 2.9021000000 2.6338000000
1.0029000000 2.8414000000 2.6616000000
1.0026000000 0.6817000000 0.8734000000
1.0025000000 5.2362000000 0.0643000000
1.0023000000 2.3020000000 2.5730000000
1.0021000000 1.4029000000 1.7844000000
1.0020000000 4.8097000000 0.6051000000
1.0016000000 1.6552000000 2.0923000000
1.0016000000 2.3279000000 2.5964000000
1.0013000000 3.7748000000 1.9248000000
1.0013000000 2.1978000000 2.5044000000
1.0012000000 0.0769000000 0.1012000000
1.0011000000 1.0838000000 1.3821000000
1.0010000000 0.8851000000 1.1325000000
1.0010000000 1.0098000000 1.2885000000
1.0009000000 2.0572000000 2.4147000000
1.0007000000 0.3728000000 0.4765000000
1.0006000000 1.1884000000 1.5152000000
1.0004000000 1.2110000000 1.5458000000
1.0004000000 3.2960000000 2.3720000000
1.0003000000 5.2991000000 0.0611000000
0.9999000000 2.9667000000 2.5794000000
0.9998000000 0.7497000000 0.9535000000
0.9998000000 4.4039000000 1.1220000000
0.9996000000 0.7334000000 0.9381000000
0.9996000000 4.2964000000 1.2583000000
0.9995000000 4.9975000000 0.3694000000
0.9994000000 0.5679000000 0.7225000000
0.9990000000 1.9220000000 2.3272000000
0.9988000000 1.2524000000 1.5974000000
0.9986000000 2.3058000000 2.5754000000
0.9983000000 1.1546000000 1.4703000000
0.9982000000 3.1811000000 2.4467000000
0.9980000000 0.6285000000 0.8027000000
0.9971000000 2.8989000000 2.6187000000
0.9968000000 2.0708000000 2.4226000000
0.9966000000 4.0945000000 1.5192000000
0.9962000000 0.5424000000 0.6944000000
0.9960000000 2.8415000000 2.6542000000
0.9939000000 3.5194000000 2.2058000000
0.7615000000 2.2736000000 2.2914000000
0.7604000000 4.2966000000 1.2587000000
0.7601000000 5.2990000000 0.0637000000
0.7593000000 2.7882000000 2.4258000000
0.7591000000 2.8827000000 2.3716000000
0.7591000000 4.1411000000 1.4581000000
0.7582000000 0.7077000000 0.9071000000
0.7581000000 3.7686000000 1.7973000000
0.7579000000 4.4427000000 1.0783000000
0.7578000000 0.1471000000 0.1941000000
0.7577000000 3.7358000000 1.8182000000
0.7576000000 5.1396000000 0.1836000000
0.7574000000 4.8951000000 0.4971000000
0.7574000000 3.1555000000 2.1957000000
0.7570000000 4.5319000000 0.9669000000
0.7570000000 2.4708000000 2.4136000000
0.7567000000 5.2146000000 0.0936000000
0.7567000000 2.7853000000 2.4323000000
0.7564000000 3.2489000000 2.1300000000
0.7561000000 0.9546000000 1.2182000000
0.7560000000 4.8738000000 0.5226000000
0.7555000000 1.3510000000 1.6811000000
0.7553000000 3.4057000000 2.0293000000
0.7553000000 1.6176000000 1.8682000000
0.7551000000 2.1818000000 2.2290000000
0.7550000000 4.0710000000 1.5251000000
0.7549000000 2.5968000000 2.4741000000
0.7548000000 0.2271000000 0.2902000000
0.7547000000 2.7801000000 2.4333000000
0.7541000000 1.1251000000 1.4322000000
0.7540000000 -0.0003000000 0.0746000000
0.7539000000 1.1226000000 1.4299000000
0.7535000000 2.1313000000 2.1873000000
0.7534000000 2.7894000000 2.4278000000
0.7533000000 4.7187000000 0.7242000000
0.7533000000 0.3201000000 0.4117000000
0.7528000000 0.5765000000 0.7420000000
0.7527000000 1.5071000000 1.7954000000
0.7527000000 1.8341000000 2.0037000000
0.7526000000 4.0265000000 1.5877000000
0.7523000000 4.3092000000 1.2476000000
0.7520000000 0.2717000000 0.3523000000
0.7519000000 1.4310000000 1.7464000000
0.7518000000 1.4747000000 1.7722000000
0.7516000000 0.0182000000 0.0249000000
0.7515000000 0.1274000000 0.1643000000
0.7515000000 0.1952000000 0.2545000000
0.7513000000 3.5626000000 1.9245000000
0.7512000000 1.7639000000 1.9586000000
0.7511000000 2.1902000000 2.2225000000
0.7510000000 4.2564000000 1.3154000000
0.7508000000 3.6811000000 1.8482000000
0.7507000000 1.4672000000 1.7643000000
0.7506000000 2.4383000000 2.3838000000
0.7506000000 2.6825000000 2.4657000000
0.7505000000 4.1780000000 1.4135000000
0.7501000000 0.6989000000 0.8959000000
0.7497000000 4.6754000000 0.7816000000
0.7495000000 1.1446000000 1.4617000000
0.7495000000 0.1872000000 0.2390000000
0.7494000000 2.7727000000 2.4302000000
0.7491000000 4.1521000000 1.4448000000
0.7487000000 0.2375000000 0.3073000000
0.7485000000 2.0626000000 2.1442000000
0.7484000000 3.7525000000 1.8030000000
0.7482000000 2.7331000000 2.4535000000
0.7478000000 4.8097000000 0.6109000000
0.7477000000 2.3380000000 2.3151000000
0.7470000000 2.7714000000 2.4285000000
0.7468000000 2.8066000000 2.4101000000
0.7466000000 0.0845000000 0.1035000000
0.7458000000 5.2035000000 0.1053000000
0.7454000000 1.3859000000 1.6925000000
0.7450000000 0.1918000000 0.2463000000
0.7430000000 2.2680000000 2.2672000000
0.5121000000 4.5326000000 0.9555000000
0.5106000000 3.3747000000 1.7863000000
0.5089000000 3.2001000000 1.8916000000
0.5087000000 3.4022000000 1.7622000000
0.5084000000 5.2191000000 0.0862000000
0.5079000000 3.6295000000 1.6173000000
0.5078000000 5.2482000000 0.0518000000
0.5078000000 4.7219000000 0.7163000000
0.5076000000 3.4245000000 1.7505000000
0.5074000000 3.0705000000 1.9751000000
0.5069000000 4.4771000000 1.0143000000
0.5068000000 0.1545000000 0.2038000000
0.5068000000 4.6221000000 0.8432000000
0.5067000000 2.5090000000 2.1584000000
0.5067000000 1.5811000000 1.5721000000
0.5065000000 4.3019000000 1.1756000000
0.5065000000 5.2538000000 0.0400000000
0.5064000000 3.9725000000 1.3976000000
0.5063000000 1.8324000000 1.7305000000
0.5063000000 3.0756000000 1.9676000000
0.5060000000 1.3133000000 1.3991000000
0.5058000000 4.6676000000 0.7842000000
0.5056000000 1.7450000000 1.6740000000
0.5055000000 3.1534000000 1.9207000000
0.5054000000 3.6283000000 1.6121000000
0.5053000000 4.4660000000 1.0222000000
0.5052000000 4.2416000000 1.2248000000
0.5050000000 1.6029000000 1.5783000000
0.5050000000 5.1662000000 0.1517000000
0.5050000000 3.1085000000 1.9488000000
0.5049000000 4.4439000000 1.0552000000
0.5048000000 3.3442000000 1.7999000000
0.5047000000 4.2927000000 1.1162000000
0.5046000000 1.8943000000 1.7690000000
0.5045000000 5.1053000000 0.2324000000
0.5043000000 0.9807000000 1.1693000000
0.5043000000 0.6961000000 0.8887000000
0.5041000000 1.0189000000 1.2084000000
0.5041000000 1.8807000000 1.7646000000
0.5039000000 0.1822000000 0.2374000000
0.5038000000 3.3501000000 1.7921000000
0.5037000000 0.6180000000 0.7907000000
0.5037000000 0.1683000000 0.2163000000
0.5035000000 0.5076000000 0.6478000000
0.5035000000 3.8063000000 1.5027000000
0.5033000000 3.2370000000 1.8625000000
0.5032000000 1.1401000000 1.2785000000
0.5030000000 4.1875000000 1.2614000000
0.5028000000 1.1053000000 1.2642000000
0.5027000000 1.9363000000 1.7875000000
0.5026000000 0.8574000000 1.0749000000
0.5025000000 2.5062000000 2.1537000000
0.5021000000 1.8024000000 1.7032000000
0.5020000000 1.9471000000 1.7946000000
0.5019000000 4.2239000000 1.2325000000
0.5018000000 4.4233000000 1.0783000000
0.5018000000 0.1860000000 0.2353000000
0.5016000000 0.8151000000 1.0250000000
0.5015000000 1.2857000000 1.3762000000
0.5014000000 3.0314000000 1.9959000000
0.5013000000 3.1003000000 1.9479000000
0.5013000000 4.2665000000 1.2058000000
0.5012000000 2.0191000000 1.8425000000
0.5012000000 4.7366000000 0.6998000000
0.5011000000 2.3387000000 2.0419000000
0.5011000000 5.2851000000 0.0734000000
0.5010000000 3.2738000000 1.8354000000
0.5009000000 2.5217000000 2.1607000000
0.5007000000 3.6319000000 1.6121000000
0.5006000000 2.1122000000 1.9066000000
0.5004000000 0.7720000000 0.9695000000
0.5003000000 0.4831000000 0.6220000000
0.5002000000 3.6910000000 1.5700000000
0.5001000000 2.8474000000 2.1082000000
0.4998000000 2.1538000000 1.9262000000
0.4996000000 3.3931000000 1.7592000000
0.4990000000 2.8029000000 2.1389000000
0.4989000000 2.1764000000 1.9361000000
0.4988000000 1.6052000000 1.5776000000
0.4985000000 1.8583000000 1.7333000000
0.4983000000 1.3447000000 1.4084000000
0.4983000000 2.6234000000 2.2036000000
0.4982000000 4.6145000000 0.8561000000
0.4980000000 1.0560000000 1.2206000000
0.4979000000 0.4644000000 0.6001000000
0.4977000000 3.1851000000 1.8891000000
0.4968000000 0.7679000000 0.9697000000
0.4967000000 2.8314000000 2.1200000000
0.4964000000 1.9358000000 1.7870000000
0.2598000000 3.9694000000 1.1328000000
0.2592000000 2.0268000000 1.5808000000
0.2586000000 5.1825000000 0.1342000000
0.2584000000 4.8743000000 0.5067000000
0.2574000000 2.3208000000 1.7661000000
0.2573000000 1.6507000000 1.3358000000
0.2573000000 1.9565000000 1.5368000000
0.2570000000 4.4637000000 0.8111000000
0.2569000000 3.0330000000 1.7196000000
0.2568000000 2.1787000000 1.6772000000
0.2568000000 2.0998000000 1.6212000000
0.2567000000 4.4739000000 0.7996000000
0.2566000000 4.6418000000 0.6970000000
0.2563000000 2.9969000000 1.7462000000
0.2560000000 1.0768000000 0.9690000000
0.2558000000 4.2254000000 0.9582000000
0.2555000000 4.7522000000 0.6044000000
0.2555000000 4.5375000000 0.7604000000
0.2553000000 4.6435000000 0.6922000000
0.2552000000 4.7741000000 0.5917000000
0.2551000000 2.5202000000 1.8923000000
0.2549000000 0.2750000000 0.3562000000
0.2549000000 2.2788000000 1.7363000000
0.2548000000 4.7455000000 0.6205000000
0.2548000000 0.9112000000 0.8598000000
0.2546000000 1.3356000000 1.1359000000
0.2546000000 3.7429000000 1.2640000000
0.2545000000 4.5860000000 0.7310000000
0.2538000000 1.9746000000 1.5458000000
0.2536000000 0.7853000000 0.7833000000
0.2535000000 1.3073000000 1.1123000000
0.2533000000 3.8803000000 1.1783000000
0.2532000000 5.2774000000 0.0103000000
0.2530000000 3.0626000000 1.6972000000
0.2530000000 2.2868000000 1.7470000000
0.2528000000 4.7562000000 0.6008000000
0.2527000000 1.3430000000 1.1395000000
0.2525000000 2.4605000000 1.8571000000
0.2523000000 2.7756000000 1.8803000000
0.2522000000 3.9969000000 1.1041000000
0.2521000000 3.2816000000 1.5615000000
0.2520000000 3.2441000000 1.5834000000
0.2515000000 3.9405000000 1.1415000000
0.2514000000 0.2302000000 0.2908000000
0.2514000000 0.5419000000 0.6181000000
0.2512000000 3.2014000000 1.6029000000
0.2511000000 0.2034000000 0.2678000000
0.2509000000 1.9114000000 1.4964000000
0.2507000000 1.1426000000 1.0058000000
0.2506000000 1.2919000000 1.0991000000
0.2501000000 1.2613000000 1.0822000000
0.2499000000 0.6018000000 0.6651000000
0.2499000000 0.2659000000 0.3406000000
0.2498000000 2.8903000000 1.8045000000
0.2498000000 0.1339000000 0.1681000000
0.2497000000 2.6837000000 1.9129000000
0.2495000000 1.8678000000 1.4647000000
0.2494000000 4.7515000000 0.6041000000
0.2493000000 4.3281000000 0.8849000000
0.2491000000 3.0299000000 1.7160000000
0.2491000000 4.6881000000 0.6586000000
0.2490000000 2.1172000000 1.6260000000
0.2487000000 4.7500000000 0.6108000000
0.2487000000 2.7182000000 1.9108000000
0.2486000000 3.1666000000 1.6230000000
0.2480000000 0.8130000000 0.7914000000
0.2470000000 3.7427000000 1.2565000000
0.2465000000 4.5587000000 0.7369000000
0.2464000000 0.1222000000 0.1608000000
0.2460000000 0.5872000000 0.6451000000
0.2458000000 0.5106000000 0.5760000000
0.2458000000 2.6042000000 1.9154000000
0.2451000000 2.3744000000 1.7911000000
0.2451000000 2.6592000000 1.9237000000
0.2448000000 2.9382000000 1.7701000000
0.2442000000 0.6225000000 0.6712000000
0.0105000000 2.4352000000 1.5609000000
0.0098000000 1.9985000000 1.2878000000
0.0097000000 4.2805000000 0.6492000000
0.0090000000 3.4085000000 1.2099000000
0.0085000000 4.1822000000 0.7221000000
0.0085000000 3.6984000000 1.0302000000
0.0080000000 4.5289000000 0.4913000000
0.0078000000 3.2047000000 1.3356000000
0.0076000000 5.2142000000 0.0366000000
0.0075000000 2.6584000000 1.6639000000
0.0070000000 3.0335000000 1.4451000000
0.0069000000 3.0140000000 1.4574000000
0.0068000000 4.9899000000 0.1957000000
0.0067000000 4.1712000000 0.7147000000
0.0061000000 4.7618000000 0.3428000000
0.0060000000 0.4726000000 0.3127000000
0.0059000000 2.0446000000 1.3153000000
0.0058000000 4.8444000000 0.2942000000
0.0055000000 0.9865000000 0.6395000000
0.0055000000 2.7667000000 1.6177000000
0.0053000000 2.0284000000 1.3008000000
0.0050000000 3.8483000000 0.9223000000
0.0050000000 2.7804000000 1.6039000000
0.0049000000 3.5312000000 1.1217000000
0.0047000000 1.1327000000 0.7363000000
0.0044000000 1.5099000000 0.9666000000
0.0043000000 2.6718000000 1.6487000000
0.0041000000 4.1976000000 0.6983000000
0.0042000000 4.8552000000 0.2784000000
0.0040000000 0.6856000000 0.4479000000
0.0040000000 2.7817000000 1.5960000000
0.0038000000 3.6444000000 1.0563000000
0.0038000000 1.9622000000 1.2599000000
0.0036000000 1.8676000000 1.1949000000
0.0035000000 2.8044000000 1.5913000000
0.0033000000 2.5917000000 1.6435000000
0.0033000000 4.7573000000 0.3399000000
0.0032000000 2.2630000000 1.4461000000
0.0029000000 1.6144000000 1.0316000000
0.0032000000 3.3883000000 1.2151000000
0.0029000000 5.1114000000 0.1149000000
0.0028000000 0.1370000000 0.0885000000
0.0028000000 5.1332000000 0.1015000000
0.0027000000 0.6725000000 0.4333000000
0.0025000000 1.2707000000 0.8140000000
0.0023000000 0.1952000000 0.1293000000
0.0023000000 1.1249000000 0.7187000000
0.0023000000 3.4137000000 1.1975000000
0.0020000000 4.2002000000 0.6974000000
0.0019000000 3.8518000000 0.9191000000
0.0020000000 3.1650000000 1.3579000000
0.0016000000 1.4448000000 0.9291000000
0.0014000000 3.3695000000 1.2254000000
0.0013000000 1.4697000000 0.9383000000
0.0013000000 3.2402000000 1.3094000000
0.0012000000 2.1175000000 1.3495000000
0.0009000000 3.6114000000 1.0710000000
0.0007000000 5.2469000000 0.0817000000
0.0007000000 3.9618000000 0.8481000000
0.0006000000 0.4184000000 0.2667000000
0.0005000000 4.8325000000 0.2868000000
0.0003000000 2.0637000000 1.3157000000
0.0002000000 4.6633000000 0.3950000000
0.0001000000 4.8356000000 0.2864000000
-0.0000000000 0.9997000000 0.6428000000
-0.0003000000 0.5141000000 0.3277000000
-0.0004000000 1.9104000000 1.2166000000
-0.0010000000 1.6229000000 1.0353000000
-0.0012000000 1.0834000000 0.6874000000
-0.0013000000 3.9884000000 0.8301000000
-0.0025000000 0.8821000000 0.5652000000
-0.0030000000 3.7948000000 0.9477000000
-0.0040000000 1.2682000000 0.8116000000
-0.0045000000 0.4740000000 0.3009000000
-0.0073000000 4.1446000000 0.7237000000
-0.2362000000 2.8323000000 1.3069000000
-0.2390000000 4.7661000000 0.0720000000
-0.2415000000 4.9149000000 0.0489000000
-0.2416000000 2.9250000000 1.2347000000
-0.2417000000 4.7164000000 0.0968000000
-0.2417000000 4.0105000000 0.5428000000
-0.2422000000 3.7995000000 0.6811000000
-0.2423000000 1.1477000000 0.4637000000
-0.2426000000 1.3464000000 0.5949000000
-0.2427000000 3.3496000000 0.9666000000
-0.2432000000 3.3373000000 0.9755000000
-0.2435000000 4.7615000000 0.0672000000
-0.2439000000 0.7458000000 0.2088000000
-0.2440000000 3.6932000000 0.7511000000
-0.2441000000 3.6834000000 0.7526000000
-0.2442000000 4.8531000000 0.0095000000
-0.2442000000 4.8085000000 0.0403000000
-0.2444000000 2.1353000000 1.0929000000
-0.2445000000 4.6606000000 0.1293000000
-0.2445000000 1.7825000000 0.8701000000
-0.2447000000 1.3192000000 0.5741000000
-0.2450000000 2.1532000000 1.1111000000
-0.2452000000 0.7356000000 0.2041000000
-0.2452000000 3.0573000000 1.1509000000
-0.2455000000 0.6712000000 0.1612000000
-0.2457000000 3.1030000000 1.1269000000
-0.2457000000 4.8209000000 0.0232000000
-0.2458000000 4.4999000000 0.2304000000
-0.2460000000 2.3023000000 1.1958000000
-0.2461000000 3.2023000000 1.0583000000
-0.2462000000 1.9415000000 0.9713000000
-0.2462000000 0.4549000000 0.0190000000
-0.2462000000 1.4089000000 0.6259000000
-0.2464000000 2.7304000000 1.3582000000
-0.2466000000 0.3837000000 0.0455000000
-0.2467000000 1.5311000000 0.7020000000
-0.2468000000 4.8883000000 0.0533000000
-0.2469000000 4.9401000000 0.0233000000
-0.2470000000 1.5227000000 0.6966000000
-0.2472000000 4.2327000000 0.3965000000
-0.2472000000 0.7179000000 0.1862000000
-0.2473000000 3.0499000000 1.1524000000
-0.2475000000 2.7429000000 1.3484000000
-0.2477000000 2.1078000000 1.0767000000
-0.2477000000 4.8451000000 0.0050000000
-0.2479000000 3.7967000000 0.6770000000
-0.2480000000 4.7757000000 0.0516000000
-0.2482000000 5.0725000000 0.0153000000
-0.2482000000 4.3684000000 0.3166000000
-0.2483000000 1.8281000000 0.8878000000
-0.2486000000 2.0588000000 1.0373000000
-0.2486000000 2.2508000000 1.1588000000
-0.2487000000 3.4633000000 0.8924000000
-0.2489000000 1.4511000000 0.6542000000
-0.2489000000 3.3561000000 0.9520000000
-0.2490000000 3.4677000000 0.8860000000
-0.2493000000 4.1844000000 0.4260000000
-0.2494000000 0.4507000000 0.0120000000
-0.2495000000 4.0812000000 0.4968000000
-0.2496000000 1.8430000000 0.9001000000
-0.2498000000 4.9395000000 0.0200000000
-0.2500000000 3.5733000000 0.8151000000
-0.2501000000 0.4968000000 0.0407000000
-0.2502000000 3.2439000000 1.0219000000
-0.2502000000 0.7002000000 0.1714000000
-0.2512000000 4.7628000000 0.0629000000
-0.2515000000 0.9303000000 0.3187000000
-0.2511000000 3.7642000000 0.6957000000
-0.2521000000 3.4089000000 0.9198000000
-0.2522000000 0.4472000000 0.0055000000
-0.2524000000 0.8865000000 0.2860000000
-0.2530000000 3.1801000000 1.0599000000
-0.4887000000 4.6517000000 0.0155000000
-0.4911000000 2.6030000000 1.0957000000
-0.4914000000 3.6522000000 0.5020000000
-0.4917000000 1.8293000000 0.6241000000
-0.4920000000 3.1307000000 0.8354000000
-0.4930000000 2.9576000000 0.9441000000
-0.4934000000 3.1823000000 0.7999000000
-0.4935000000 2.7974000000 1.0465000000
-0.4941000000 1.7579000000 0.5755000000
-0.4943000000 1.2466000000 0.2554000000
-0.4944000000 3.2572000000 0.7457000000
-0.4949000000 4.4928000000 0.0331000000
-0.4953000000 1.4681000000 0.3917000000
-0.4954000000 2.9581000000 0.9405000000
-0.4956000000 4.3830000000 0.0294000000
-0.4957000000 2.5926000000 1.0941000000
-0.4959000000 4.2253000000 0.1288000000
-0.4961000000 3.9144000000 0.3290000000
-0.4963000000 2.9790000000 0.9245000000
-0.4964000000 4.3761000000 0.0400000000
-0.4965000000 0.9928000000 0.0887000000
-0.4965000000 3.3396000000 0.6956000000
-0.4966000000 1.5769000000 0.4617000000
-0.4967000000 4.5505000000 0.0705000000
-0.4969000000 4.3026000000 0.0781000000
-0.4971000000 1.5527000000 0.4421000000
-0.4974000000 1.2528000000 0.2554000000
-0.4975000000 1.3385000000 0.3072000000
-0.4977000000 1.5023000000 0.4175000000
-0.4977000000 3.6387000000 0.5012000000
-0.4979000000 0.7988000000 0.0388000000
-0.4983000000 2.1841000000 0.8466000000
-0.4984000000 2.2044000000 0.8565000000
-0.4986000000 1.3761000000 0.3295000000
-0.4987000000 4.3151000000 0.0734000000
-0.4988000000 4.1967000000 0.1500000000
-0.4989000000 3.4085000000 0.6521000000
-0.4989000000 3.0123000000 0.8999000000
-0.4991000000 1.6988000000 0.5324000000
-0.4992000000 1.0009000000 0.0857000000
-0.4993000000 3.2016000000 0.7826000000
-0.4997000000 0.6257000000 -0.0023000000
-0.4997000000 1.9134000000 0.6745000000
-0.4998000000 1.8958000000 0.6622000000
-0.5001000000 4.3964000000 0.0151000000
-0.5003000000 3.7452000000 0.4303000000
-0.5011000000 4.4293000000 0.0727000000
-0.5029000000 4.0003000000 0.2631000000
-0.5030000000 2.6595000000 1.0967000000
-0.5042000000 2.7194000000 1.0826000000
-0.5060000000 2.6800000000 1.0830000000
-0.7377000000 1.8589000000 0.3744000000
-0.7391000000 3.4738000000 0.3421000000
-0.7407000000 1.4106000000 0.0856000000
-0.7423000000 3.7123000000 0.1869000000
-0.7432000000 3.4971000000 0.3227000000
-0.7440000000 4.2286000000 -0.0003000000
-0.7440000000 3.6470000000 0.2260000000
-0.7442000000 3.2312000000 0.4937000000
-0.7442000000 1.9566000000 0.4304000000
-0.7443000000 1.7837000000 0.3157000000
-0.7445000000 1.1048000000 0.0359000000
-0.7449000000 2.3464000000 0.6756000000
-0.7450000000 4.0196000000 0.0593000000
-0.7450000000 3.6325000000 0.2265000000
-0.7454000000 3.0003000000 0.6335000000
-0.7455000000 2.8195000000 0.7500000000
-0.7457000000 1.3070000000 0.0120000000
-0.7458000000 3.5682000000 0.2736000000
-0.7460000000 2.6660000000 0.8309000000
-0.7465000000 2.4801000000 0.7561000000
-0.7466000000 3.6213000000 0.2397000000
-0.7467000000 1.1558000000 0.0653000000
-0.7469000000 1.7973000000 0.3292000000
-0.7471000000 3.8551000000 0.0904000000
-0.7472000000 1.5271000000 0.1507000000
-0.7476000000 3.8016000000 0.1263000000
-0.7476000000 2.2421000000 0.6051000000
-0.7479000000 3.7446000000 0.1642000000
-0.7480000000 3.5513000000 0.2810000000
-0.7480000000 1.6815000000 0.2491000000
-0.7482000000 2.4298000000 0.7225000000
-0.7485000000 1.2316000000 0.0339000000
-0.7486000000 2.8425000000 0.7303000000
-0.7486000000 1.1112000000 0.0343000000
-0.7487000000 3.1653000000 0.5221000000
-0.7487000000 3.1389000000 0.5421000000
-0.7488000000 2.9458000000 0.6700000000
-0.7489000000 3.0332000000 0.6129000000
-0.7493000000 1.6965000000 0.2574000000
-0.7495000000 2.9023000000 0.6914000000
-0.7499000000 2.2493000000 0.6078000000
-0.7502000000 3.5082000000 0.3078000000
-0.7503000000 3.7081000000 0.1841000000
-0.7510000000 2.6892000000 0.8082000000
-0.7510000000 1.4363000000 0.0907000000
-0.7515000000 1.9503000000 0.4143000000
-0.7513000000 1.8368000000 0.3402000000
-0.7518000000 1.1129000000 0.0301000000
-0.7521000000 1.7716000000 0.2958000000
-0.7523000000 2.0322000000 0.4697000000
-0.7526000000 2.7169000000 0.8109000000
-0.7536000000 1.1966000000 0.0109000000
-0.7542000000 3.0645000000 0.5798000000
-0.7543000000 1.6562000000 0.2267000000
-0.9871000000 3.2036000000 0.2435000000
-0.9894000000 2.6175000000 0.5622000000
-0.9908000000 3.5893000000 0.0629000000
-0.9917000000 2.9138000000 0.4141000000
-0.9920000000 2.8996000000 0.4303000000
