4.2523000000 4.1550000000 0.1465000000
4.2520000000 2.4161000000 0.3546000000
4.2518000000 4.4845000000 0.0365000000
4.2518000000 3.4581000000 0.3849000000
4.2517000000 2.8818000000 0.5186000000
4.2515000000 1.6610000000 0.0912000000
4.2510000000 1.5172000000 0.0471000000
4.2510000000 1.5358000000 0.0571000000
4.2509000000 3.8121000000 0.2633000000
4.2497000000 3.0889000000 0.5146000000
4.2495000000 4.0034000000 0.1967000000
4.2492000000 2.7115000000 0.4526000000
4.2490000000 1.4536000000 0.0292000000
4.2488000000 4.5351000000 0.0190000000
4.2487000000 1.5652000000 0.0634000000
4.2485000000 3.8524000000 0.2501000000
4.2460000000 2.6720000000 0.4405000000
4.2450000000 3.3174000000 0.4392000000
4.2421000000 2.5047000000 0.3894000000
4.0111000000 5.0773000000 0.0507000000
4.0092000000 4.2881000000 0.2450000000
4.0090000000 3.2408000000 0.6028000000
4.0089000000 1.1283000000 0.0580000000
4.0086000000 4.3348000000 0.2254000000
4.0086000000 4.0862000000 0.3131000000
4.0084000000 4.0338000000 0.3362000000
4.0082000000 1.1221000000 0.0533000000
4.0078000000 0.8573000000 0.0406000000
4.0078000000 2.1091000000 0.3862000000
4.0074000000 3.9925000000 0.3446000000
4.0070000000 4.9145000000 0.0298000000
4.0066000000 3.9852000000 0.3475000000
4.0064000000 1.8868000000 0.3164000000
4.0064000000 3.5427000000 0.5030000000
4.0062000000 4.6065000000 0.1463000000
4.0061000000 5.1682000000 0.0169000000
4.0060000000 3.8676000000 0.3860000000
4.0060000000 3.1922000000 0.6177000000
4.0059000000 2.1405000000 0.4090000000
4.0058000000 2.1813000000 0.4158000000
4.0059000000 3.7172000000 0.4435000000
4.0054000000 4.0256000000 0.3380000000
4.0054000000 4.3078000000 0.2435000000
4.0053000000 2.7669000000 0.6205000000
4.0052000000 1.7492000000 0.2689000000
4.0051000000 4.7552000000 0.0863000000
4.0050000000 1.6405000000 0.2333000000
4.0050000000 3.8728000000 0.3902000000
4.0050000000 3.6272000000 0.4734000000
4.0046000000 4.9183000000 0.0312000000
4.0045000000 4.1428000000 0.2934000000
4.0043000000 4.7172000000 0.1021000000
4.0043000000 4.2036000000 0.2760000000
4.0042000000 2.2368000000 0.4377000000
4.0040000000 1.5516000000 0.2043000000
4.0040000000 1.1855000000 0.0781000000
4.0038000000 3.9070000000 0.3824000000
4.0037000000 4.2398000000 0.2615000000
4.0037000000 4.7182000000 0.0987000000
4.0029000000 1.1865000000 0.0827000000
4.0027000000 2.1750000000 0.4164000000
4.0023000000 4.2372000000 0.2624000000
4.0019000000 0.8990000000 0.0550000000
4.0018000000 2.5691000000 0.5580000000
4.0013000000 2.1975000000 0.4242000000
4.0010000000 2.7982000000 0.6260000000
4.0008000000 4.2990000000 0.2477000000
4.0008000000 3.0752000000 0.6686000000
4.0004000000 5.0391000000 0.0685000000
4.0001000000 3.3994000000 0.5500000000
4.0000000000 2.8795000000 0.6589000000
4.0000000000 3.1178000000 0.6539000000
3.9998000000 5.1732000000 0.0265000000
3.9995000000 2.6727000000 0.5873000000
3.9994000000 2.6252000000 0.5720000000
3.9991000000 0.9106000000 0.0618000000
3.9985000000 1.2259000000 0.0989000000
3.9975000000 0.8590000000 0.0505000000
3.9957000000 3.5890000000 0.4903000000
3.7656000000 4.2822000000 0.3876000000
3.7647000000 1.8136000000 0.4290000000
3.7628000000 1.9338000000 0.4810000000
3.7617000000 3.7814000000 0.5656000000
3.7610000000 5.3911000000 0.0125000000
3.7610000000 3.4715000000 0.6627000000
3.7607000000 5.2889000000 0.0476000000
3.7601000000 3.1771000000 0.7717000000
3.7598000000 5.4677000000 0.0610000000
3.7586000000 2.7981000000 0.7761000000
3.7585000000 1.7337000000 0.4095000000
3.7585000000 4.7513000000 0.2349000000
3.7583000000 3.8304000000 0.5538000000
3.7579000000 0.9325000000 0.1376000000
3.7570000000 1.7929000000 0.4328000000
3.7568000000 5.0593000000 0.1305000000
3.7565000000 5.4071000000 0.0118000000
3.7563000000 1.1794000000 0.2261000000
3.7560000000 1.7971000000 0.4362000000
3.7559000000 2.7450000000 0.7575000000
3.7557000000 1.4884000000 0.3304000000
3.7555000000 2.2893000000 0.6039000000
3.7552000000 1.9058000000 0.4719000000
3.7552000000 2.7090000000 0.7484000000
3.7551000000 3.1874000000 0.7738000000
3.7550000000 4.1764000000 0.4331000000
3.7550000000 5.2285000000 0.0723000000
3.7548000000 2.9246000000 0.8171000000
3.7547000000 5.3693000000 0.0267000000
3.7546000000 3.0986000000 0.7988000000
3.7545000000 2.2070000000 0.5762000000
3.7543000000 4.7789000000 0.2281000000
3.7544000000 0.3745000000 0.0233000000
3.7543000000 2.6882000000 0.7400000000
3.7542000000 4.6446000000 0.2768000000
3.7541000000 3.4574000000 0.6794000000
3.7540000000 1.9421000000 0.4861000000
3.7538000000 1.6183000000 0.3763000000
3.7536000000 1.5646000000 0.3586000000
3.7532000000 4.2205000000 0.4165000000
3.7530000000 4.9478000000 0.1684000000
3.7528000000 5.0996000000 0.1206000000
3.7528000000 3.4139000000 0.6959000000
3.7527000000 4.2253000000 0.4174000000
3.7526000000 4.3275000000 0.3817000000
3.7525000000 4.3750000000 0.3645000000
3.7525000000 2.0891000000 0.5437000000
3.7524000000 3.9170000000 0.5261000000
3.7524000000 5.1004000000 0.1216000000
3.7520000000 3.0406000000 0.8253000000
3.7516000000 3.9350000000 0.5157000000
3.7515000000 4.3536000000 0.3824000000
3.7511000000 3.2034000000 0.7659000000
3.7511000000 3.5488000000 0.6485000000
3.7510000000 3.0486000000 0.8195000000
3.7509000000 1.4423000000 0.3190000000
3.7508000000 1.1420000000 0.2177000000
3.7507000000 0.5776000000 0.0196000000
3.7505000000 3.8171000000 0.5551000000
3.7503000000 1.3757000000 0.2935000000
3.7503000000 5.4715000000 0.0645000000
3.7502000000 2.5529000000 0.6994000000
3.7501000000 5.3699000000 0.0254000000
3.7499000000 1.5418000000 0.3523000000
3.7495000000 2.6114000000 0.7162000000
3.7495000000 1.8194000000 0.4464000000
3.7492000000 5.5644000000 0.0382000000
3.7489000000 1.8317000000 0.4602000000
3.7490000000 0.4906000000 0.0684000000
3.7488000000 1.1736000000 0.2237000000
3.7486000000 2.2263000000 0.5891000000
3.7483000000 3.8898000000 0.5352000000
3.7480000000 0.3841000000 0.0312000000
3.7479000000 4.4705000000 0.3357000000
3.7477000000 4.6025000000 0.2902000000
3.7474000000 4.0699000000 0.4733000000
3.7474000000 1.7854000000 0.4355000000
3.7462000000 0.7473000000 0.0799000000
3.7441000000 1.1960000000 0.2403000000
3.7439000000 2.3692000000 0.6358000000
3.5138000000 3.6793000000 0.7476000000
3.5132000000 3.9550000000 0.6499000000
3.5116000000 1.6491000000 0.5295000000
3.5115000000 3.9290000000 0.6665000000
3.5108000000 1.9752000000 0.6386000000
3.5107000000 3.2401000000 0.8992000000
3.5105000000 4.3658000000 0.5076000000
3.5100000000 5.0698000000 0.2742000000
3.5099000000 5.6515000000 0.0772000000
3.5098000000 5.3791000000 0.1713000000
3.5095000000 3.3607000000 0.8591000000
3.5093000000 5.1919000000 0.2334000000
3.5092000000 5.7492000000 0.0415000000
3.5091000000 4.8262000000 0.3569000000
3.5090000000 5.1040000000 0.2623000000
3.5089000000 2.7617000000 0.9151000000
3.5083000000 1.6151000000 0.5218000000
3.5082000000 5.0973000000 0.2651000000
3.5075000000 2.7266000000 0.9026000000
3.5073000000 4.4339000000 0.4917000000
3.5072000000 0.9779000000 0.2982000000
3.5071000000 5.8487000000 0.0059000000
3.5070000000 2.3917000000 0.7898000000
3.5070000000 0.7691000000 0.2302000000
3.5068000000 4.6005000000 0.4361000000
3.5065000000 0.8800000000 0.2644000000
3.5065000000 3.7249000000 0.7348000000
3.5065000000 1.5575000000 0.5020000000
3.5064000000 5.3344000000 0.1805000000
3.5062000000 3.6104000000 0.7804000000
3.5060000000 1.4749000000 0.4722000000
3.5059000000 4.4424000000 0.4897000000
3.5058000000 3.6372000000 0.7659000000
3.5057000000 5.5989000000 0.0907000000
3.5056000000 0.7369000000 0.2248000000
3.5053000000 0.9964000000 0.3106000000
3.5050000000 1.3595000000 0.4375000000
3.5050000000 5.7733000000 0.0344000000
3.5049000000 5.5528000000 0.1108000000
3.5048000000 5.1501000000 0.2436000000
3.5045000000 3.4665000000 0.8162000000
3.5045000000 4.8710000000 0.3416000000
3.5043000000 4.0015000000 0.6430000000
3.5042000000 3.7849000000 0.7192000000
3.5041000000 3.1889000000 0.9180000000
3.5041000000 3.2391000000 0.9008000000
3.5040000000 0.9337000000 0.2801000000
3.5039000000 3.8042000000 0.7058000000
3.5039000000 3.3722000000 0.8568000000
3.5038000000 0.5958000000 0.1785000000
3.5038000000 2.3066000000 0.7589000000
3.5038000000 0.8153000000 0.2534000000
3.5037000000 1.6176000000 0.5213000000
3.5035000000 0.3721000000 0.0981000000
3.5035000000 1.1112000000 0.3555000000
3.5033000000 1.4596000000 0.4728000000
3.5033000000 1.2532000000 0.3994000000
3.5033000000 0.4201000000 0.1143000000
3.5032000000 5.7511000000 0.0461000000
3.5029000000 3.7973000000 0.7126000000
3.5029000000 3.7111000000 0.7487000000
3.5028000000 0.3189000000 0.0763000000
3.5027000000 2.2577000000 0.7422000000
3.5026000000 0.5412000000 0.1585000000
3.5025000000 1.1701000000 0.3701000000
3.5022000000 0.3344000000 0.0860000000
3.5021000000 2.2581000000 0.7465000000
3.5020000000 2.2513000000 0.7417000000
3.5019000000 2.1073000000 0.6922000000
3.5019000000 2.2259000000 0.7300000000
3.5018000000 0.0544000000 0.0639000000
3.5018000000 0.7258000000 0.2168000000
3.5017000000 2.4351000000 0.8006000000
3.5011000000 2.8198000000 0.9357000000
3.5010000000 1.4812000000 0.4769000000
3.5009000000 2.3036000000 0.7591000000
3.5008000000 2.6837000000 0.8914000000
3.5008000000 2.7270000000 0.9024000000
3.5004000000 3.3469000000 0.8632000000
3.5003000000 3.3684000000 0.8610000000
3.5002000000 0.3633000000 0.1020000000
3.5001000000 0.4013000000 0.1126000000
3.4996000000 0.8963000000 0.2840000000
3.4992000000 0.1059000000 0.0060000000
3.4988000000 1.0824000000 0.3433000000
3.4988000000 1.3272000000 0.4278000000
3.4986000000 0.9401000000 0.3001000000
3.4985000000 3.8713000000 0.6946000000
3.4984000000 2.1354000000 0.7048000000
3.4975000000 1.0583000000 0.3394000000
3.4975000000 5.3044000000 0.2003000000
3.4973000000 1.0098000000 0.3205000000
3.4970000000 0.2612000000 0.0622000000
3.2610000000 3.1971000000 1.0587000000
3.2609000000 4.2791000000 0.6863000000
3.2606000000 3.6016000000 0.9257000000
3.2590000000 5.6229000000 0.2204000000
3.2580000000 1.8787000000 0.7632000000
3.2579000000 3.9698000000 0.7987000000
3.2578000000 5.1689000000 0.3905000000
3.2577000000 5.0595000000 0.4201000000
3.2572000000 2.9772000000 1.1246000000
3.2572000000 5.8162000000 0.1102000000
3.2571000000 3.6348000000 0.9105000000
3.2570000000 4.3570000000 0.6640000000
3.2569000000 3.0073000000 1.1168000000
3.2568000000 5.0501000000 0.4293000000
3.2566000000 4.6717000000 0.5558000000
3.2565000000 4.3774000000 0.6602000000
3.2564000000 2.8314000000 1.0846000000
3.2564000000 2.1988000000 0.8693000000
3.2563000000 2.2606000000 0.8857000000
3.2562000000 2.4235000000 0.9432000000
3.2561000000 3.7556000000 0.8693000000
3.2561000000 1.6135000000 0.6739000000
3.2559000000 5.8045000000 0.1183000000
3.2557000000 5.4974000000 0.2734000000
3.2557000000 2.4369000000 0.9422000000
3.2556000000 4.0320000000 0.7764000000
3.2555000000 5.3339000000 0.3310000000
3.2555000000 1.7236000000 0.7096000000
3.2554000000 3.4687000000 0.9705000000
3.2553000000 1.7388000000 0.7087000000
3.2553000000 5.9572000000 0.0097000000
3.2552000000 5.6831000000 0.1857000000
3.2552000000 2.8004000000 1.0743000000
3.2551000000 4.2829000000 0.6960000000
3.2550000000 4.7417000000 0.5340000000
3.2549000000 1.2679000000 0.5506000000
3.2548000000 1.4520000000 0.6121000000
3.2546000000 0.8835000000 0.4169000000
3.2545000000 5.4316000000 0.3030000000
3.2543000000 0.0480000000 0.0372000000
3.2542000000 4.1961000000 0.7234000000
3.2542000000 3.6939000000 0.8927000000
3.2540000000 3.3422000000 1.0184000000
3.2540000000 0.9277000000 0.4367000000
3.2539000000 0.9725000000 0.4526000000
3.2538000000 1.6040000000 0.6619000000
3.2538000000 4.2290000000 0.7056000000
3.2535000000 0.9214000000 0.4354000000
3.2534000000 0.8810000000 0.4133000000
3.2531000000 3.6490000000 0.9072000000
3.2530000000 5.4783000000 0.2784000000
3.2529000000 4.2038000000 0.7171000000
3.2528000000 0.4500000000 0.2681000000
3.2525000000 1.3360000000 0.5796000000
3.2523000000 1.1658000000 0.5184000000
3.2521000000 5.8178000000 0.1069000000
3.2519000000 2.6300000000 1.0179000000
3.2518000000 2.2336000000 0.8840000000
3.2517000000 4.0170000000 0.7842000000
3.2514000000 1.3519000000 0.5841000000
3.2513000000 4.2016000000 0.7211000000
3.2513000000 3.9849000000 0.7974000000
3.2512000000 1.7952000000 0.7364000000
3.2510000000 3.1678000000 1.0814000000
3.2510000000 5.1612000000 0.3925000000
3.2505000000 0.7061000000 0.3581000000
3.2502000000 0.6995000000 0.3612000000
3.2501000000 1.4397000000 0.6122000000
3.2501000000 1.3953000000 0.5968000000
3.2499000000 0.5659000000 0.3070000000
3.2499000000 1.7534000000 0.7210000000
3.2497000000 2.3369000000 0.9189000000
3.2492000000 4.3890000000 0.6595000000
3.2486000000 0.2288000000 0.1632000000
3.2485000000 1.2031000000 0.5358000000
3.2484000000 1.2381000000 0.5438000000
3.2482000000 3.0388000000 1.1215000000
3.2481000000 4.8927000000 0.4933000000
3.2475000000 1.3515000000 0.5795000000
3.2467000000 0.2025000000 0.1443000000
3.2458000000 3.4574000000 0.9838000000
3.2457000000 2.9919000000 1.1263000000
3.2455000000 3.0130000000 1.1205000000
3.2450000000 3.4640000000 0.9771000000
3.2449000000 0.9288000000 0.4384000000
3.2445000000 4.6578000000 0.5714000000
3.2433000000 3.9136000000 0.8271000000
3.2430000000 0.7022000000 0.3610000000
3.2425000000 0.0316000000 0.0299000000
3.0108000000 2.4704000000 1.1042000000
3.0107000000 5.2976000000 0.4547000000
3.0090000000 5.6656000000 0.2115000000
3.0090000000 0.6988000000 0.4745000000
3.0089000000 1.1727000000 0.6670000000
3.0087000000 4.4433000000 0.7843000000
3.0086000000 2.3695000000 1.0719000000
3.0085000000 5.2263000000 0.5041000000
3.0083000000 4.9802000000 0.5964000000
3.0082000000 1.9295000000 0.9251000000
3.0078000000 5.3854000000 0.4031000000
3.0078000000 3.9419000000 0.9545000000
3.0077000000 3.0287000000 1.2601000000
3.0077000000 1.0881000000 0.6385000000
3.0076000000 0.2762000000 0.1952000000
3.0075000000 0.9703000000 0.5997000000
3.0070000000 4.4202000000 0.7954000000
3.0070000000 5.0407000000 0.5831000000
3.0069000000 2.8048000000 1.2191000000
3.0065000000 2.7444000000 1.2069000000
3.0065000000 4.2143000000 0.8643000000
3.0064000000 3.4353000000 1.1303000000
3.0063000000 1.4817000000 0.7709000000
3.0061000000 5.2022000000 0.5122000000
3.0061000000 4.0653000000 0.9159000000
3.0060000000 3.3727000000 1.1599000000
3.0060000000 1.9220000000 0.9194000000
3.0059000000 4.6989000000 0.6962000000
3.0058000000 0.3220000000 0.2241000000
3.0058000000 0.6712000000 0.4562000000
3.0058000000 2.4794000000 1.1093000000
3.0053000000 5.8511000000 0.0862000000
3.0053000000 4.4109000000 0.7956000000
3.0052000000 0.5706000000 0.3990000000
3.0049000000 1.1003000000 0.6434000000
3.0047000000 0.1560000000 0.1140000000
3.0043000000 0.5194000000 0.3644000000
3.0042000000 5.0197000000 0.5880000000
3.0041000000 4.2086000000 0.8645000000
3.0040000000 1.9599000000 0.9359000000
3.0038000000 5.4373000000 0.3682000000
3.0038000000 0.7562000000 0.5150000000
3.0038000000 1.1908000000 0.6750000000
3.0036000000 1.6042000000 0.8101000000
3.0032000000 3.6492000000 1.0514000000
3.0031000000 3.1392000000 1.2311000000
3.0030000000 3.3555000000 1.1596000000
3.0029000000 0.8047000000 0.5279000000
3.0029000000 0.6890000000 0.4667000000
3.0027000000 2.4329000000 1.0965000000
3.0026000000 4.1820000000 0.8745000000
3.0025000000 0.9482000000 0.5879000000
3.0021000000 3.2842000000 1.1835000000
3.0020000000 0.2314000000 0.1640000000
3.0020000000 5.8701000000 0.0732000000
3.0018000000 0.4735000000 0.3331000000
3.0018000000 0.5050000000 0.3494000000
3.0015000000 3.3760000000 1.1520000000
3.0010000000 5.3532000000 0.4235000000
3.0004000000 3.2688000000 1.1869000000
3.0002000000 2.7717000000 1.2135000000
3.0000000000 5.7791000000 0.1375000000
2.9996000000 0.8229000000 0.5375000000
2.9993000000 2.3181000000 1.0599000000
2.9989000000 3.8375000000 0.9957000000
2.9988000000 0.0155000000 0.0139000000
2.9988000000 4.1404000000 0.8914000000
2.9987000000 3.1895000000 1.2179000000
2.9984000000 2.7912000000 1.2236000000
2.9982000000 2.7370000000 1.2002000000
2.9981000000 3.7984000000 1.0102000000
2.9969000000 3.6603000000 1.0569000000
2.9948000000 5.1848000000 0.5315000000
2.9943000000 0.0090000000 0.0187000000
2.7636000000 1.5301000000 0.9303000000
2.7622000000 5.0279000000 0.6498000000
2.7613000000 2.9997000000 1.4190000000
2.7603000000 1.9991000000 1.0924000000
2.7598000000 5.1426000000 0.5729000000
2.7591000000 4.0689000000 1.0576000000
2.7590000000 5.2765000000 0.4747000000
2.7588000000 3.9695000000 1.0967000000
2.7588000000 5.3352000000 0.4382000000
2.7587000000 5.2408000000 0.5049000000
2.7586000000 3.6810000000 1.1903000000
2.7585000000 2.9004000000 1.4032000000
2.7584000000 3.9770000000 1.0890000000
2.7581000000 5.4810000000 0.3372000000
2.7579000000 3.0483000000 1.4077000000
2.7579000000 3.7241000000 1.1760000000
2.7576000000 5.3542000000 0.4278000000
2.7576000000 5.7178000000 0.1773000000
2.7575000000 3.9417000000 1.1005000000
2.7574000000 1.7611000000 1.0114000000
2.7573000000 3.5894000000 1.2229000000
2.7573000000 3.0175000000 1.4088000000
2.7572000000 4.5817000000 0.8806000000
2.7571000000 4.1412000000 1.0360000000
2.7570000000 3.0799000000 1.3958000000
2.7568000000 4.0335000000 1.0739000000
2.7568000000 5.8609000000 0.0801000000
2.7567000000 5.7787000000 0.1361000000
2.7566000000 0.4073000000 0.2867000000
2.7565000000 3.4509000000 1.2716000000
2.7564000000 2.9097000000 1.4076000000
2.7563000000 2.4839000000 1.2654000000
2.7561000000 3.7355000000 1.1797000000
2.7560000000 3.6095000000 1.2102000000
2.7559000000 0.5147000000 0.3590000000
2.7559000000 3.9633000000 1.0936000000
2.7558000000 3.0155000000 1.4103000000
2.7558000000 5.2268000000 0.5094000000
2.7556000000 2.2202000000 1.1709000000
2.7555000000 2.9841000000 1.4171000000
2.7555000000 5.2259000000 0.5156000000
2.7553000000 3.3813000000 1.2974000000
2.7553000000 3.2060000000 1.3616000000
2.7552000000 5.9220000000 0.0361000000
2.7553000000 0.4865000000 0.3330000000
2.7551000000 4.6870000000 0.8372000000
2.7551000000 0.5418000000 0.3796000000
2.7548000000 2.0917000000 1.1220000000
2.7548000000 2.0694000000 1.1266000000
2.7543000000 1.6225000000 0.9653000000
2.7541000000 1.0048000000 0.6917000000
2.7540000000 4.1175000000 1.0495000000
2.7537000000 2.1055000000 1.1309000000
2.7537000000 1.3167000000 0.8613000000
2.7535000000 2.6172000000 1.3091000000
2.7535000000 1.9468000000 1.0761000000
2.7533000000 0.1700000000 0.1170000000
2.7532000000 3.9205000000 1.1134000000
2.7528000000 4.5527000000 0.9018000000
2.7528000000 0.6073000000 0.4226000000
2.7525000000 0.9346000000 0.6433000000
2.7524000000 5.2313000000 0.5117000000
2.7523000000 2.7076000000 1.3321000000
2.7520000000 0.7058000000 0.4856000000
2.7520000000 5.5441000000 0.3006000000
2.7518000000 1.0700000000 0.7377000000
2.7518000000 4.3056000000 0.9807000000
2.7516000000 0.8102000000 0.5590000000
2.7512000000 5.6052000000 0.2560000000
2.7512000000 0.9027000000 0.6244000000
2.7507000000 5.5195000000 0.3089000000
2.7506000000 5.4796000000 0.3379000000
2.7504000000 5.1203000000 0.5813000000
2.7502000000 0.4980000000 0.3466000000
2.7500000000 1.6722000000 0.9863000000
2.7498000000 1.9134000000 1.0696000000
2.7497000000 4.4958000000 0.9175000000
2.7488000000 0.2414000000 0.1665000000
2.7483000000 0.7042000000 0.4876000000
2.7473000000 2.9647000000 1.4203000000
2.7470000000 0.6765000000 0.4673000000
2.7468000000 3.3339000000 1.3180000000
2.7462000000 3.9396000000 1.1138000000
2.7457000000 0.6215000000 0.4335000000
2.5149000000 5.0954000000 0.6003000000
2.5113000000 4.6260000000 0.9171000000
2.5103000000 4.0791000000 1.2057000000
2.5099000000 1.6048000000 1.0903000000
2.5098000000 3.1748000000 1.5156000000
2.5096000000 4.1971000000 1.1597000000
2.5094000000 5.1019000000 0.5951000000
2.5090000000 0.5011000000 0.3439000000
2.5086000000 3.3483000000 1.4547000000
2.5084000000 4.2761000000 1.1301000000
2.5083000000 4.7984000000 0.8011000000
2.5083000000 5.9697000000 0.0782000000
2.5083000000 4.0676000000 1.2084000000
2.5078000000 2.9998000000 1.5618000000
2.5076000000 2.9633000000 1.5679000000
2.5076000000 2.0142000000 1.2485000000
2.5074000000 5.4633000000 0.3500000000
2.5071000000 2.3166000000 1.3513000000
2.5068000000 0.5232000000 0.3660000000
2.5067000000 5.0184000000 0.6528000000
2.5067000000 4.9984000000 0.6640000000
2.5066000000 5.0510000000 0.6280000000
2.5063000000 5.8108000000 0.1121000000
2.5061000000 3.0790000000 1.5474000000
2.5060000000 5.2248000000 0.5139000000
2.5059000000 3.1438000000 1.5224000000
2.5057000000 2.8810000000 1.5451000000
2.5055000000 3.4650000000 1.4135000000
2.5053000000 4.0306000000 1.2212000000
2.5053000000 0.7623000000 0.5281000000
2.5052000000 2.6363000000 1.4574000000
2.5049000000 3.5746000000 1.3751000000
2.5051000000 0.6752000000 0.4707000000
2.5048000000 2.8670000000 1.5376000000
2.5048000000 2.7819000000 1.5148000000
2.5046000000 4.6998000000 0.8720000000
2.5047000000 2.2564000000 1.3356000000
2.5047000000 1.5974000000 1.0873000000
2.5043000000 5.5622000000 0.2765000000
2.5043000000 2.5268000000 1.4242000000
2.5042000000 3.5437000000 1.3887000000
2.5041000000 4.7074000000 0.8650000000
2.5041000000 0.6562000000 0.4555000000
2.5037000000 2.0199000000 1.2501000000
2.5036000000 5.1672000000 0.5451000000
2.5036000000 4.3308000000 1.1046000000
2.5035000000 4.3759000000 1.0802000000
2.5035000000 1.4620000000 1.0053000000
2.5032000000 2.4894000000 1.4142000000
2.5030000000 0.2801000000 0.1997000000
2.5028000000 5.0332000000 0.6379000000
2.5028000000 5.1893000000 0.5343000000
2.5028000000 0.9411000000 0.6472000000
2.5027000000 0.7252000000 0.5011000000
2.5026000000 1.2481000000 0.8555000000
2.5026000000 1.9424000000 1.2184000000
2.5025000000 2.7709000000 1.5101000000
2.5025000000 5.7984000000 0.1207000000
2.5023000000 1.6820000000 1.1279000000
2.5021000000 2.6885000000 1.4809000000
2.5021000000 2.5358000000 1.4309000000
2.5020000000 0.7467000000 0.5183000000
2.5019000000 3.2127000000 1.4966000000
2.5018000000 4.4205000000 1.0542000000
2.5017000000 0.9751000000 0.6784000000
2.5015000000 0.1709000000 0.1232000000
2.5014000000 0.9660000000 0.6674000000
2.5014000000 1.6448000000 1.1188000000
2.5013000000 5.2350000000 0.5031000000
2.5011000000 5.8482000000 0.0896000000
2.5010000000 0.1153000000 0.0852000000
2.5010000000 5.1579000000 0.5621000000
2.5007000000 1.9384000000 1.2252000000
2.5007000000 4.6056000000 0.9309000000
2.5006000000 3.6630000000 1.3528000000
2.5005000000 5.3478000000 0.4207000000
2.5005000000 3.9300000000 1.2580000000
2.5002000000 3.1463000000 1.5296000000
2.5001000000 4.6953000000 0.8714000000
2.5000000000 2.1618000000 1.2995000000
2.4998000000 3.0464000000 1.5627000000
2.4997000000 2.5031000000 1.4182000000
2.4996000000 0.7650000000 0.5267000000
2.4992000000 0.2858000000 0.2076000000
2.4990000000 0.3070000000 0.2152000000
2.4990000000 3.4633000000 1.4165000000
2.4987000000 1.2155000000 0.8348000000
2.4976000000 3.9649000000 1.2513000000
2.4970000000 2.7343000000 1.4986000000
2.4969000000 1.3842000000 0.9554000000
2.4956000000 1.3160000000 0.9067000000
2.2627000000 2.8504000000 1.6780000000
2.2626000000 3.3472000000 1.5955000000
2.2622000000 4.3143000000 1.1368000000
2.2618000000 5.5696000000 0.2749000000
2.2617000000 4.7802000000 0.8130000000
2.2610000000 4.6395000000 0.9125000000
2.2593000000 0.2465000000 0.1722000000
2.2590000000 3.5004000000 1.5473000000
2.2589000000 3.5211000000 1.5427000000
2.2588000000 2.8400000000 1.6795000000
2.2587000000 5.6696000000 0.2015000000
2.2586000000 4.7866000000 0.8119000000
2.2579000000 5.0185000000 0.6541000000
2.2578000000 5.3660000000 0.4164000000
2.2574000000 4.0712000000 1.2977000000
2.2573000000 3.8546000000 1.4188000000
2.2572000000 3.6535000000 1.4983000000
2.2571000000 4.0643000000 1.3050000000
2.2570000000 0.0387000000 0.0344000000
2.2570000000 0.7828000000 0.5371000000
2.2568000000 1.3913000000 0.9551000000
2.2567000000 0.8888000000 0.6140000000
2.2567000000 2.9649000000 1.7156000000
2.2568000000 5.0544000000 0.6272000000
2.2566000000 3.4731000000 1.5618000000
2.2566000000 5.5530000000 0.2888000000
2.2565000000 5.0689000000 0.6170000000
2.2565000000 0.2689000000 0.1878000000
2.2564000000 5.4268000000 0.3735000000
2.2563000000 4.8950000000 0.7385000000
2.2563000000 2.1470000000 1.4329000000
2.2562000000 1.1689000000 0.8002000000
2.2561000000 2.6409000000 1.6150000000
2.2555000000 4.4110000000 1.0737000000
2.2555000000 5.5281000000 0.3065000000
2.2554000000 3.4457000000 1.5695000000
2.2554000000 4.9367000000 0.7085000000
2.2551000000 2.1746000000 1.4482000000
2.2550000000 2.0066000000 1.3687000000
2.2550000000 0.8861000000 0.6151000000
2.2549000000 3.1004000000 1.6912000000
2.2548000000 0.9900000000 0.6783000000
2.2548000000 0.2334000000 0.1679000000
2.2548000000 2.5646000000 1.5828000000
2.2547000000 3.4144000000 1.5805000000
2.2545000000 2.7559000000 1.6448000000
2.2545000000 3.0887000000 1.6884000000
2.2544000000 2.2537000000 1.4720000000
2.2543000000 3.9119000000 1.3948000000
2.2543000000 3.2973000000 1.6203000000
2.2542000000 2.5313000000 1.5729000000
2.2541000000 4.4583000000 1.0372000000
2.2541000000 3.3094000000 1.6162000000
2.2540000000 4.0814000000 1.2894000000
2.2540000000 3.2544000000 1.6280000000
2.2539000000 5.1952000000 0.5255000000
2.2537000000 2.3655000000 1.5174000000
2.2536000000 1.0191000000 0.7003000000
2.2535000000 5.6212000000 0.2472000000
2.2535000000 4.3567000000 1.1058000000
2.2534000000 0.6385000000 0.4405000000
2.2533000000 3.6390000000 1.5052000000
2.2532000000 5.5474000000 0.2916000000
2.2532000000 2.9240000000 1.7107000000
2.2530000000 5.5718000000 0.2740000000
2.2528000000 5.3871000000 0.3983000000
2.2527000000 1.4284000000 0.9871000000
2.2526000000 2.7003000000 1.6363000000
2.2526000000 0.4734000000 0.3240000000
2.2525000000 3.6517000000 1.5040000000
2.2524000000 1.9421000000 1.3305000000
2.2522000000 2.7204000000 1.6427000000
2.2520000000 0.0831000000 0.0607000000
2.2521000000 3.2249000000 1.6502000000
2.2520000000 5.3747000000 0.4092000000
2.2519000000 3.3979000000 1.5848000000
2.2518000000 0.6616000000 0.4637000000
2.2518000000 0.5247000000 0.3631000000
2.2517000000 5.5542000000 0.2886000000
2.2515000000 0.9842000000 0.6807000000
2.2515000000 3.9135000000 1.3952000000
2.2516000000 1.2409000000 0.8544000000
2.2514000000 1.7393000000 1.1909000000
2.2509000000 3.1299000000 1.6787000000
2.2508000000 2.3207000000 1.5025000000
2.2505000000 3.0544000000 1.7046000000
2.2504000000 5.0391000000 0.6369000000
2.2503000000 3.2564000000 1.6399000000
2.2501000000 1.4204000000 0.9800000000
2.2501000000 1.2692000000 0.8777000000
2.2500000000 2.4790000000 1.5555000000
2.2498000000 3.1069000000 1.6905000000
2.2496000000 3.8060000000 1.4365000000
2.2495000000 2.2342000000 1.4792000000
2.2494000000 3.8029000000 1.4422000000
2.2493000000 1.5746000000 1.0830000000
2.2489000000 3.0789000000 1.6963000000
2.2489000000 0.1968000000 0.1451000000
2.2488000000 0.2224000000 0.1649000000
2.2485000000 2.0368000000 1.3854000000
2.2484000000 3.6524000000 1.5021000000
2.2480000000 1.2183000000 0.8356000000
2.2479000000 0.2085000000 0.1477000000
2.2476000000 5.4679000000 0.3504000000
2.2474000000 0.7987000000 0.5534000000
2.2471000000 1.6762000000 1.1507000000
2.2466000000 0.1148000000 0.0852000000
2.2450000000 2.2868000000 1.4951000000
2.2441000000 4.4708000000 1.0271000000
2.0099000000 4.7373000000 0.8455000000
2.0097000000 2.5692000000 1.7188000000
2.0096000000 5.0597000000 0.6264000000
2.0094000000 5.7276000000 0.1667000000
2.0090000000 0.3200000000 0.2301000000
2.0087000000 4.5696000000 0.9606000000
2.0087000000 0.0784000000 0.0613000000
2.0086000000 3.8836000000 1.4295000000
2.0080000000 1.4967000000 1.0291000000
2.0078000000 1.8078000000 1.2397000000
2.0075000000 3.5089000000 1.6732000000
2.0070000000 4.2651000000 1.1711000000
2.0070000000 3.1729000000 1.8094000000
2.0068000000 1.5617000000 1.0639000000
2.0068000000 3.0827000000 1.8430000000
2.0065000000 3.6990000000 1.5551000000
2.0065000000 0.2769000000 0.1943000000
2.0064000000 4.1558000000 1.2419000000
2.0064000000 3.8945000000 1.4227000000
2.0063000000 4.0920000000 1.2860000000
2.0061000000 1.7520000000 1.2091000000
2.0060000000 0.7585000000 0.5219000000
2.0059000000 0.1736000000 0.1253000000
2.0059000000 3.1601000000 1.8122000000
2.0058000000 2.2327000000 1.5355000000
2.0057000000 1.8181000000 1.2448000000
2.0055000000 2.9101000000 1.8545000000
2.0052000000 5.5352000000 0.3034000000
2.0051000000 2.9738000000 1.8604000000
2.0050000000 0.5160000000 0.3588000000
2.0050000000 4.5876000000 0.9407000000
2.0050000000 3.3335000000 1.7531000000
2.0048000000 4.8425000000 0.7739000000
2.0047000000 3.8523000000 1.4530000000
2.0046000000 4.3426000000 1.1169000000
2.0045000000 0.6301000000 0.4374000000
2.0045000000 1.1038000000 0.7600000000
2.0045000000 0.1940000000 0.1364000000
2.0043000000 5.8039000000 0.1166000000
2.0042000000 5.2512000000 0.4989000000
2.0041000000 1.5026000000 1.0372000000
2.0040000000 0.9683000000 0.6749000000
2.0040000000 2.6809000000 1.7716000000
2.0039000000 1.2813000000 0.8814000000
2.0036000000 2.4892000000 1.6949000000
2.0035000000 1.1628000000 0.7974000000
2.0035000000 0.6385000000 0.4392000000
2.0034000000 2.9577000000 1.8584000000
2.0033000000 1.4311000000 0.9878000000
2.0033000000 2.5162000000 1.7084000000
2.0033000000 5.1295000000 0.5719000000
2.0032000000 5.6758000000 0.2092000000
2.0029000000 4.5998000000 0.9371000000
2.0028000000 0.2911000000 0.2049000000
2.0027000000 5.2717000000 0.4805000000
2.0025000000 4.4986000000 1.0092000000
2.0024000000 4.6766000000 0.8876000000
2.0023000000 2.0254000000 1.3901000000
2.0024000000 3.1889000000 1.8079000000
2.0023000000 1.8736000000 1.2851000000
2.0022000000 2.7372000000 1.7915000000
2.0020000000 3.1197000000 1.8340000000
2.0018000000 3.8366000000 1.4649000000
2.0018000000 1.3963000000 0.9583000000
2.0014000000 4.2554000000 1.1724000000
2.0013000000 1.6264000000 1.1257000000
2.0011000000 0.6142000000 0.4239000000
2.0011000000 5.1621000000 0.5543000000
2.0010000000 2.2527000000 1.5483000000
2.0009000000 3.5817000000 1.6330000000
2.0008000000 3.5927000000 1.6184000000
2.0006000000 1.3379000000 0.9225000000
2.0005000000 2.2923000000 1.5740000000
2.0004000000 4.1691000000 1.2320000000
2.0004000000 1.3802000000 0.9444000000
2.0003000000 4.5985000000 0.9360000000
1.9994000000 3.2024000000 1.8073000000
1.9993000000 5.6979000000 0.1931000000
1.9988000000 2.7625000000 1.8066000000
1.9988000000 3.1040000000 1.8376000000
1.9987000000 2.1397000000 1.4726000000
1.9986000000 4.6664000000 0.8978000000
1.9986000000 2.5476000000 1.7138000000
1.9985000000 0.7953000000 0.5498000000
1.9981000000 4.6447000000 0.9084000000
1.9979000000 0.4709000000 0.3250000000
1.9975000000 0.2590000000 0.1851000000
1.9973000000 2.8809000000 1.8437000000
1.9972000000 1.5268000000 1.0525000000
1.9960000000 0.0330000000 0.0351000000
1.9941000000 1.6794000000 1.1518000000
1.9934000000 0.7840000000 0.5453000000
1.7626000000 4.5001000000 1.0076000000
1.7614000000 2.5635000000 1.7587000000
1.7609000000 5.8942000000 0.0600000000
1.7608000000 3.5649000000 1.6486000000
1.7598000000 1.1901000000 0.8162000000
1.7588000000 2.4336000000 1.6698000000
1.7588000000 4.8633000000 0.7632000000
1.7586000000 5.9205000000 0.0371000000
1.7584000000 3.4297000000 1.7380000000
1.7580000000 2.0931000000 1.4337000000
1.7579000000 4.5365000000 0.9824000000
1.7577000000 5.2579000000 0.4890000000
1.7573000000 4.9078000000 0.7329000000
1.7571000000 0.0830000000 0.0642000000
1.7570000000 0.4543000000 0.3193000000
1.7569000000 5.9167000000 0.0399000000
1.7568000000 2.0699000000 1.4199000000
1.7563000000 3.9377000000 1.3918000000
1.7562000000 4.2333000000 1.1851000000
1.7561000000 5.4485000000 0.3597000000
1.7559000000 3.0340000000 1.9424000000
1.7558000000 2.3993000000 1.6436000000
1.7556000000 2.5395000000 1.7343000000
1.7555000000 3.5801000000 1.6306000000
1.7555000000 2.2960000000 1.5708000000
1.7555000000 1.1853000000 0.8115000000
1.7554000000 3.3973000000 1.7572000000
1.7551000000 1.8559000000 1.2754000000
1.7550000000 5.6044000000 0.2530000000
1.7548000000 2.4288000000 1.6690000000
1.7546000000 0.0471000000 0.0369000000
1.7545000000 4.9682000000 0.6812000000
1.7544000000 2.2469000000 1.5422000000
1.7544000000 4.0755000000 1.3019000000
1.7543000000 4.9869000000 0.6760000000
1.7543000000 2.8413000000 1.9283000000
1.7542000000 2.8209000000 1.9268000000
1.7542000000 4.4706000000 1.0258000000
1.7541000000 3.0523000000 1.9335000000
1.7540000000 3.1708000000 1.9188000000
1.7540000000 3.5522000000 1.6478000000
1.7540000000 1.5266000000 1.0482000000
1.7539000000 1.8236000000 1.2518000000
1.7538000000 2.4785000000 1.7033000000
1.7536000000 3.8774000000 1.4310000000
1.7533000000 0.6370000000 0.4395000000
1.7532000000 5.0310000000 0.6473000000
1.7531000000 1.2723000000 0.8744000000
1.7530000000 1.4490000000 1.0002000000
1.7531000000 0.4943000000 0.3466000000
1.7530000000 2.1856000000 1.4992000000
1.7528000000 3.9073000000 1.4064000000
1.7528000000 1.3690000000 0.9383000000
1.7527000000 2.7653000000 1.9024000000
1.7523000000 0.9459000000 0.6506000000
1.7523000000 3.6066000000 1.6152000000
1.7521000000 3.7281000000 1.5312000000
1.7520000000 1.8193000000 1.2521000000
1.7519000000 1.4753000000 1.0167000000
1.7516000000 1.1979000000 0.8248000000
1.7517000000 1.1310000000 0.7763000000
1.7515000000 3.6930000000 1.5573000000
1.7514000000 0.8151000000 0.5607000000
1.7513000000 1.2905000000 0.8920000000
1.7513000000 1.6703000000 1.1505000000
1.7513000000 3.4034000000 1.7591000000
1.7512000000 2.8291000000 1.9319000000
1.7508000000 3.7309000000 1.5340000000
1.7508000000 3.4947000000 1.6944000000
1.7505000000 4.1060000000 1.2797000000
1.7505000000 5.4397000000 0.3655000000
1.7502000000 2.7513000000 1.8846000000
1.7496000000 0.8206000000 0.5657000000
1.7495000000 4.3535000000 1.1100000000
1.7494000000 2.2390000000 1.5370000000
1.7490000000 5.0869000000 0.6060000000
1.7489000000 4.7292000000 0.8445000000
1.7487000000 1.6617000000 1.1444000000
1.7480000000 0.1556000000 0.1096000000
1.7457000000 4.7088000000 0.8657000000
1.7424000000 5.3540000000 0.4254000000
1.5106000000 4.0911000000 1.2840000000
1.5095000000 4.8398000000 0.7786000000
1.5093000000 5.4040000000 0.3863000000
1.5089000000 1.8109000000 1.2488000000
1.5088000000 3.3438000000 1.7790000000
1.5082000000 5.5722000000 0.2730000000
1.5076000000 2.3812000000 1.6369000000
1.5076000000 5.8127000000 0.1101000000
1.5072000000 4.9360000000 0.7092000000
1.5071000000 0.5979000000 0.4197000000
1.5070000000 4.2025000000 1.2065000000
1.5070000000 1.1127000000 0.7645000000
1.5068000000 5.0951000000 0.5994000000
1.5068000000 0.7272000000 0.5000000000
1.5068000000 1.6528000000 1.1336000000
1.5063000000 3.7165000000 1.5443000000
1.5061000000 5.9393000000 0.0291000000
1.5058000000 1.2158000000 0.8385000000
1.5057000000 5.5107000000 0.3141000000
1.5055000000 3.6348000000 1.5977000000
1.5053000000 1.3526000000 0.9283000000
1.5052000000 5.0498000000 0.6368000000
1.5050000000 3.6313000000 1.6002000000
1.5049000000 0.1449000000 0.1072000000
1.5048000000 5.1181000000 0.5871000000
1.5047000000 5.6568000000 0.2160000000
1.5046000000 5.5866000000 0.2655000000
1.5046000000 0.6286000000 0.4399000000
1.5045000000 1.6293000000 1.1209000000
1.5045000000 0.9480000000 0.6508000000
1.5044000000 5.7509000000 0.1538000000
1.5043000000 3.2471000000 1.8205000000
1.5041000000 5.4473000000 0.3592000000
1.5040000000 2.6597000000 1.7924000000
1.5040000000 1.2342000000 0.8512000000
1.5039000000 2.2341000000 1.5358000000
1.5038000000 2.5171000000 1.7196000000
1.5038000000 0.7654000000 0.5264000000
1.5037000000 1.3673000000 0.9432000000
1.5035000000 1.1190000000 0.7731000000
1.5034000000 4.2197000000 1.1933000000
1.5033000000 1.2567000000 0.8696000000
1.5033000000 1.9934000000 1.3648000000
1.5031000000 2.3283000000 1.5939000000
1.5031000000 1.4946000000 1.0239000000
1.5030000000 5.0869000000 0.6060000000
1.5030000000 4.2631000000 1.1656000000
1.5028000000 3.7391000000 1.5228000000
1.5027000000 5.7623000000 0.1437000000
1.5026000000 4.0915000000 1.2826000000
1.5025000000 2.7580000000 1.8375000000
1.5026000000 3.0177000000 1.8912000000
1.5023000000 2.2145000000 1.5224000000
1.5022000000 0.2611000000 0.1863000000
1.5021000000 1.9959000000 1.3686000000
1.5020000000 2.5964000000 1.7655000000
1.5019000000 5.6074000000 0.2527000000
1.5018000000 4.0285000000 1.3337000000
1.5018000000 1.6093000000 1.1063000000
1.5017000000 3.6878000000 1.5591000000
1.5016000000 3.4492000000 1.7129000000
1.5013000000 5.7446000000 0.1577000000
1.5012000000 3.8829000000 1.4310000000
1.5009000000 4.4419000000 1.0458000000
1.5008000000 1.2386000000 0.8538000000
1.5005000000 2.6065000000 1.7718000000
1.5005000000 0.7394000000 0.5142000000
1.5005000000 0.5082000000 0.3556000000
1.5003000000 1.3056000000 0.8977000000
1.4998000000 2.3227000000 1.5951000000
1.4996000000 2.7600000000 1.8394000000
1.4995000000 2.6581000000 1.7909000000
1.4995000000 3.4355000000 1.7236000000
1.4993000000 0.9308000000 0.6423000000
1.4993000000 1.0131000000 0.6987000000
1.4987000000 3.3439000000 1.7787000000
1.4986000000 2.2779000000 1.5620000000
1.4984000000 4.4089000000 1.0694000000
1.4976000000 0.5749000000 0.3979000000
1.4974000000 1.2439000000 0.8592000000
1.4973000000 1.3941000000 0.9607000000
1.4953000000 3.7865000000 1.4966000000
1.2653000000 3.5518000000 1.5806000000
1.2619000000 4.1497000000 1.2507000000
1.2615000000 4.3651000000 1.1063000000
1.2605000000 4.6883000000 0.8819000000
1.2599000000 5.8962000000 0.0611000000
1.2599000000 3.4846000000 1.6040000000
1.2594000000 3.8137000000 1.4700000000
1.2593000000 5.3177000000 0.4415000000
1.2592000000 0.1675000000 0.1189000000
1.2590000000 2.9725000000 1.7536000000
1.2590000000 5.6055000000 0.2573000000
1.2590000000 2.1690000000 1.4781000000
1.2588000000 3.6158000000 1.5608000000
1.2583000000 5.9423000000 0.0246000000
1.2581000000 0.4221000000 0.2906000000
1.2580000000 5.2703000000 0.4781000000
1.2577000000 0.9178000000 0.6321000000
1.2574000000 3.0636000000 1.7421000000
1.2574000000 4.8210000000 0.7839000000
1.2573000000 5.5918000000 0.2620000000
1.2571000000 2.4819000000 1.5935000000
1.2570000000 1.1725000000 0.8049000000
1.2568000000 2.6136000000 1.6386000000
1.2568000000 2.2316000000 1.4980000000
1.2567000000 4.9502000000 0.6969000000
1.2568000000 5.4218000000 0.3778000000
1.2567000000 5.1978000000 0.5309000000
1.2566000000 0.1743000000 0.1278000000
1.2563000000 3.0538000000 1.7416000000
1.2562000000 5.6036000000 0.2526000000
1.2561000000 3.6415000000 1.5399000000
1.2561000000 4.1328000000 1.2631000000
1.2560000000 4.3191000000 1.1315000000
1.2556000000 2.5159000000 1.6090000000
1.2555000000 4.3060000000 1.1409000000
1.2554000000 0.1582000000 0.1134000000
1.2554000000 5.6522000000 0.2216000000
1.2553000000 5.5987000000 0.2574000000
1.2551000000 5.9169000000 0.0412000000
1.2552000000 3.9125000000 1.4037000000
1.2550000000 4.3922000000 1.0822000000
1.2550000000 1.7939000000 1.2339000000
1.2547000000 0.0122000000 0.0171000000
1.2548000000 2.6194000000 1.6437000000
1.2546000000 3.4244000000 1.6235000000
1.2544000000 2.1918000000 1.4888000000
1.2543000000 3.0581000000 1.7404000000
1.2542000000 3.1011000000 1.7259000000
1.2542000000 0.3345000000 0.2340000000
1.2540000000 2.1418000000 1.4529000000
1.2540000000 5.4253000000 0.3812000000
1.2539000000 4.5042000000 1.0035000000
1.2540000000 4.3978000000 1.0782000000
1.2539000000 5.6664000000 0.2139000000
1.2538000000 5.3802000000 0.4083000000
1.2537000000 3.2181000000 1.6898000000
1.2537000000 0.4041000000 0.2837000000
1.2536000000 2.1991000000 1.4883000000
1.2535000000 1.9346000000 1.3262000000
1.2534000000 2.7804000000 1.7006000000
1.2535000000 0.1490000000 0.1100000000
1.2532000000 0.4882000000 0.3452000000
1.2530000000 3.5373000000 1.5747000000
1.2530000000 4.9038000000 0.7334000000
1.2529000000 0.9651000000 0.6671000000
1.2524000000 5.8149000000 0.1072000000
1.2523000000 3.9029000000 1.4202000000
1.2521000000 2.0351000000 1.3999000000
1.2520000000 1.7304000000 1.1929000000
1.2519000000 4.6747000000 0.8908000000
1.2519000000 0.5289000000 0.3703000000
1.2515000000 1.9879000000 1.3668000000
1.2514000000 5.4431000000 0.3655000000
1.2513000000 2.0345000000 1.3980000000
1.2510000000 0.4566000000 0.3210000000
1.2508000000 0.2139000000 0.1527000000
1.2506000000 2.6094000000 1.6358000000
1.2505000000 3.4352000000 1.6087000000
1.2504000000 0.4240000000 0.2932000000
1.2503000000 4.5103000000 0.9997000000
1.2502000000 4.1288000000 1.2641000000
1.2501000000 4.7217000000 0.8573000000
1.2500000000 0.3613000000 0.2555000000
1.2499000000 1.0660000000 0.7355000000
1.2493000000 0.0631000000 0.0557000000
1.2487000000 0.6870000000 0.4758000000
1.2480000000 0.2526000000 0.1798000000
1.2475000000 0.8360000000 0.5781000000
1.2471000000 0.6549000000 0.4564000000
1.2460000000 1.0724000000 0.7369000000
1.2457000000 4.9957000000 0.6684000000
1.2449000000 4.0575000000 1.3129000000
1.2435000000 4.2029000000 1.2112000000
1.2430000000 0.9156000000 0.6311000000
1.2407000000 0.7693000000 0.5338000000
1.0123000000 3.9646000000 1.2874000000
1.0109000000 4.1249000000 1.2240000000
1.0108000000 5.8919000000 0.0580000000
1.0103000000 4.5181000000 0.9947000000
1.0096000000 2.7415000000 1.5443000000
1.0090000000 4.2156000000 1.1849000000
1.0089000000 2.8759000000 1.5841000000
1.0088000000 1.7852000000 1.2091000000
1.0085000000 2.8025000000 1.5596000000
1.0081000000 3.8669000000 1.3251000000
1.0080000000 1.7366000000 1.1863000000
1.0075000000 5.3604000000 0.4224000000
1.0073000000 5.0834000000 0.6079000000
1.0065000000 4.7441000000 0.8422000000
1.0063000000 4.5035000000 1.0092000000
1.0060000000 3.3655000000 1.4892000000
1.0059000000 0.8114000000 0.5605000000
1.0058000000 4.6367000000 0.9100000000
1.0058000000 4.0744000000 1.2447000000
1.0057000000 5.8334000000 0.0959000000
1.0056000000 3.6548000000 1.3859000000
1.0055000000 0.4389000000 0.3067000000
1.0053000000 3.0651000000 1.5937000000
1.0052000000 1.5668000000 1.0743000000
1.0051000000 4.0017000000 1.2737000000
1.0050000000 2.2215000000 1.3645000000
1.0050000000 3.6137000000 1.4027000000
1.0048000000 1.2983000000 0.8971000000
1.0048000000 3.3946000000 1.4810000000
1.0045000000 1.2142000000 0.8358000000
1.0045000000 3.4759000000 1.4514000000
1.0044000000 5.1010000000 0.5973000000
1.0043000000 5.2954000000 0.4681000000
1.0042000000 3.8309000000 1.3284000000
1.0041000000 5.6718000000 0.2059000000
1.0038000000 2.5369000000 1.4642000000
1.0038000000 3.2557000000 1.5251000000
1.0037000000 0.9684000000 0.6657000000
1.0036000000 0.6967000000 0.4748000000
1.0035000000 0.3636000000 0.2523000000
1.0035000000 1.6109000000 1.1121000000
1.0034000000 3.9743000000 1.2778000000
1.0034000000 0.9194000000 0.6322000000
1.0033000000 4.0213000000 1.2684000000
1.0032000000 2.5819000000 1.4820000000
1.0031000000 5.5856000000 0.2663000000
1.0030000000 5.8429000000 0.0948000000
1.0028000000 5.8522000000 0.0808000000
1.0028000000 3.3316000000 1.4989000000
1.0026000000 3.9633000000 1.2775000000
1.0023000000 0.2052000000 0.1487000000
1.0022000000 3.3837000000 1.4792000000
1.0021000000 2.8440000000 1.5724000000
1.0020000000 1.6566000000 1.1290000000
1.0017000000 5.4518000000 0.3636000000
1.0016000000 5.0167000000 0.6561000000
1.0016000000 2.1152000000 1.3194000000
1.0015000000 5.0546000000 0.6274000000
1.0013000000 1.2458000000 0.8568000000
1.0013000000 3.3313000000 1.4923000000
1.0013000000 0.2378000000 0.1734000000
1.0011000000 1.0333000000 0.7080000000
1.0010000000 1.1904000000 0.8217000000
1.0005000000 2.4570000000 1.4382000000
1.0005000000 1.2425000000 0.8582000000
1.0003000000 1.4461000000 0.9938000000
1.0000000000 2.3375000000 1.3986000000
0.9998000000 2.8380000000 1.5637000000
0.9996000000 4.6908000000 0.8779000000
0.9994000000 1.2667000000 0.8741000000
0.9985000000 4.6681000000 0.8963000000
0.9985000000 1.1958000000 0.8287000000
0.9984000000 3.0803000000 1.5870000000
0.9983000000 0.0014000000 0.0129000000
0.9983000000 0.8435000000 0.5798000000
0.9982000000 1.9460000000 1.2608000000
0.9980000000 0.3110000000 0.2184000000
0.9974000000 2.1089000000 1.3176000000
0.9967000000 0.5364000000 0.3773000000
0.9963000000 0.4754000000 0.3297000000
0.7619000000 3.8144000000 1.1869000000
0.7604000000 5.1278000000 0.5833000000
0.7595000000 2.1160000000 1.1767000000
0.7594000000 4.8684000000 0.7552000000
0.7594000000 4.8141000000 0.7942000000
0.7591000000 5.1670000000 0.5538000000
0.7590000000 0.5760000000 0.3983000000
0.7588000000 0.7506000000 0.5249000000
0.7582000000 4.0230000000 1.1223000000
0.7580000000 1.9206000000 1.1164000000
0.7578000000 2.0987000000 1.1688000000
0.7576000000 2.7471000000 1.3922000000
0.7575000000 4.7213000000 0.8454000000
0.7574000000 3.0202000000 1.4446000000
0.7573000000 2.3509000000 1.2549000000
0.7569000000 4.9343000000 0.7134000000
0.7568000000 5.5011000000 0.3202000000
0.7565000000 0.2230000000 0.1640000000
0.7565000000 4.7623000000 0.8219000000
0.7564000000 3.7604000000 1.2104000000
0.7563000000 3.2006000000 1.3959000000
0.7561000000 4.7229000000 0.8401000000
0.7560000000 5.7074000000 0.1823000000
0.7561000000 4.8626000000 0.7615000000
0.7560000000 4.4910000000 0.9598000000
0.7560000000 1.5619000000 0.9890000000
0.7558000000 3.2850000000 1.3744000000
0.7556000000 3.0268000000 1.4520000000
0.7555000000 3.2955000000 1.3656000000
0.7553000000 4.6655000000 0.8826000000
0.7553000000 2.2069000000 1.2089000000
0.7552000000 3.0744000000 1.4376000000
0.7551000000 3.2427000000 1.3838000000
0.7550000000 0.3831000000 0.2656000000
0.7549000000 3.9883000000 1.1230000000
0.7547000000 1.2586000000 0.8541000000
0.7547000000 5.8197000000 0.1070000000
0.7543000000 5.7025000000 0.1856000000
0.7543000000 3.7809000000 1.1946000000
0.7540000000 2.9078000000 1.4468000000
0.7538000000 4.3721000000 0.9954000000
0.7538000000 4.2590000000 1.0399000000
0.7534000000 3.8228000000 1.1854000000
0.7532000000 0.8564000000 0.5909000000
0.7531000000 1.4901000000 0.9637000000
0.7530000000 1.0584000000 0.7287000000
0.7530000000 3.7418000000 1.2156000000
0.7529000000 1.5291000000 0.9769000000
0.7528000000 5.5710000000 0.2777000000
0.7527000000 4.4657000000 0.9646000000
0.7526000000 4.4274000000 0.9758000000
0.7525000000 0.5848000000 0.4123000000
0.7525000000 2.4687000000 1.2951000000
0.7523000000 3.1885000000 1.3986000000
0.7520000000 0.2010000000 0.1471000000
0.7520000000 1.8247000000 1.0862000000
0.7518000000 2.9433000000 1.4431000000
0.7518000000 4.8166000000 0.7871000000
0.7517000000 1.6461000000 1.0143000000
0.7515000000 1.6530000000 1.0175000000
0.7515000000 4.5859000000 0.9107000000
0.7514000000 2.6689000000 1.3663000000
0.7514000000 1.2017000000 0.8226000000
0.7513000000 1.2697000000 0.8623000000
0.7513000000 4.9991000000 0.6702000000
0.7512000000 3.1024000000 1.4295000000
0.7511000000 5.1323000000 0.5764000000
0.7511000000 3.9899000000 1.1223000000
0.7510000000 1.7886000000 1.0647000000
0.7509000000 2.2405000000 1.2198000000
0.7508000000 5.8794000000 0.0704000000
0.7504000000 0.6144000000 0.4260000000
0.7500000000 3.2496000000 1.3790000000
0.7499000000 2.5188000000 1.3085000000
0.7495000000 0.1312000000 0.0939000000
0.7493000000 0.4594000000 0.3185000000
0.7490000000 0.9306000000 0.6390000000
0.7489000000 1.2289000000 0.8365000000
0.7488000000 1.4627000000 0.9516000000
0.7481000000 0.8751000000 0.6103000000
0.7470000000 1.8173000000 1.0661000000
0.7465000000 1.8044000000 1.0657000000
0.7444000000 2.1385000000 1.1724000000
0.5126000000 4.8515000000 0.6925000000
0.5122000000 1.9626000000 0.9777000000
0.5116000000 2.1205000000 1.0368000000
0.5103000000 3.9248000000 1.0081000000
0.5097000000 5.8854000000 0.0609000000
0.5095000000 0.8995000000 0.6079000000
0.5094000000 1.9569000000 0.9769000000
0.5089000000 4.5759000000 0.7790000000
0.5083000000 4.0957000000 0.9446000000
0.5081000000 2.3456000000 1.1072000000
0.5079000000 5.6522000000 0.2178000000
0.5078000000 5.2141000000 0.5106000000
0.5078000000 5.7076000000 0.1838000000
0.5075000000 0.6085000000 0.4189000000
0.5074000000 5.9316000000 0.0298000000
0.5072000000 1.8567000000 0.9435000000
0.5073000000 5.4438000000 0.3547000000
0.5069000000 5.4074000000 0.3853000000
