5.0075000000 1.7276000000 0.2242000000
5.0071000000 3.4869000000 0.8247000000
5.0067000000 4.1482000000 0.8063000000
5.0064000000 1.5533000000 0.1709000000
5.0061000000 4.3051000000 0.7573000000
5.0057000000 5.8673000000 0.2187000000
5.0054000000 3.8681000000 0.9059000000
5.0052000000 0.9230000000 0.0257000000
5.0050000000 5.9375000000 0.1970000000
5.0049000000 3.6225000000 0.8750000000
5.0047000000 2.9822000000 0.6565000000
5.0046000000 2.7588000000 0.5851000000
5.0045000000 3.5537000000 0.8502000000
5.0043000000 3.5894000000 0.8618000000
5.0042000000 1.6733000000 0.2074000000
5.0041000000 3.0920000000 0.6873000000
5.0040000000 3.4156000000 0.8044000000
5.0038000000 2.7923000000 0.5863000000
5.0033000000 1.2382000000 0.0675000000
5.0032000000 6.1332000000 0.1313000000
5.0028000000 1.6400000000 0.2017000000
5.0027000000 3.6987000000 0.9040000000
5.0024000000 2.2380000000 0.4016000000
5.0021000000 3.5832000000 0.8618000000
5.0021000000 3.6444000000 0.8850000000
5.0015000000 6.6424000000 0.0324000000
5.0015000000 1.1691000000 0.0383000000
5.0013000000 5.7981000000 0.2460000000
5.0010000000 2.0847000000 0.3472000000
5.0006000000 2.4649000000 0.4801000000
5.0000000000 1.0431000000 0.0681000000
4.9998000000 3.5882000000 0.8623000000
4.9993000000 6.4865000000 0.0164000000
4.9987000000 3.9201000000 0.8934000000
4.9965000000 1.7927000000 0.2484000000
4.7617000000 7.1499000000 0.0013000000
4.7608000000 3.8819000000 1.0486000000
4.7600000000 5.3956000000 0.5225000000
4.7595000000 6.0887000000 0.2916000000
4.7589000000 6.5816000000 0.1276000000
4.7587000000 5.4375000000 0.5123000000
4.7583000000 4.7687000000 0.7439000000
4.7581000000 5.1719000000 0.6027000000
4.7579000000 7.0429000000 0.0433000000
4.7577000000 6.3599000000 0.2036000000
4.7575000000 0.5523000000 0.0420000000
4.7572000000 2.8252000000 0.7501000000
4.7570000000 1.4649000000 0.2801000000
4.7568000000 0.9162000000 0.0912000000
4.7568000000 5.4154000000 0.5258000000
4.7565000000 1.3759000000 0.2539000000
4.7563000000 4.7649000000 0.7477000000
4.7560000000 2.6307000000 0.6814000000
4.7557000000 6.2106000000 0.2550000000
4.7556000000 3.0823000000 0.8369000000
4.7554000000 6.5213000000 0.1465000000
4.7551000000 5.8121000000 0.3869000000
4.7549000000 6.3341000000 0.2120000000
4.7548000000 4.8834000000 0.7047000000
4.7547000000 6.3553000000 0.2029000000
4.7545000000 3.0443000000 0.8198000000
4.7544000000 1.1518000000 0.1811000000
4.7542000000 5.7526000000 0.4072000000
4.7540000000 4.8976000000 0.6989000000
4.7535000000 4.4838000000 0.8456000000
4.7533000000 5.7581000000 0.4087000000
4.7532000000 5.6572000000 0.4466000000
4.7529000000 2.7232000000 0.7114000000
4.7527000000 1.1094000000 0.1651000000
4.7524000000 2.8162000000 0.7491000000
4.7523000000 4.6253000000 0.7983000000
4.7522000000 1.0294000000 0.1394000000
4.7520000000 4.6251000000 0.7947000000
4.7513000000 6.4207000000 0.1862000000
4.7510000000 3.9039000000 1.0411000000
4.7505000000 2.7482000000 0.7257000000
4.7503000000 0.8456000000 0.0813000000
4.7498000000 5.5338000000 0.4848000000
4.7489000000 0.7623000000 0.0447000000
4.7482000000 1.8549000000 0.4214000000
4.7480000000 4.7918000000 0.7445000000
4.7468000000 0.9852000000 0.1264000000
4.7462000000 3.3347000000 0.9317000000
4.5146000000 7.1238000000 0.0821000000
4.5116000000 5.2604000000 0.7200000000
4.5113000000 6.5629000000 0.2755000000
4.5110000000 3.9214000000 1.1809000000
4.5103000000 5.6203000000 0.5996000000
4.5098000000 2.8017000000 0.8848000000
4.5094000000 6.5292000000 0.2887000000
4.5094000000 3.9869000000 1.1595000000
4.5090000000 4.7443000000 0.9058000000
4.5088000000 7.1362000000 0.0829000000
4.5088000000 6.5769000000 0.2768000000
4.5083000000 0.7000000000 0.1665000000
4.5081000000 0.0772000000 0.0344000000
4.5080000000 6.7108000000 0.2341000000
4.5078000000 3.4883000000 1.1135000000
4.5077000000 0.1870000000 0.0731000000
4.5073000000 0.4910000000 0.0974000000
4.5072000000 2.7591000000 0.8756000000
4.5068000000 0.9438000000 0.2508000000
4.5067000000 2.2944000000 0.7195000000
4.5066000000 6.6433000000 0.2534000000
4.5064000000 6.5287000000 0.2883000000
4.5059000000 2.3498000000 0.7340000000
4.5057000000 0.9372000000 0.2510000000
4.5056000000 5.2204000000 0.7424000000
4.5055000000 4.9569000000 0.8271000000
4.5053000000 6.1427000000 0.4279000000
4.5052000000 1.6068000000 0.4824000000
4.5049000000 0.8015000000 0.2020000000
4.5048000000 5.4056000000 0.6833000000
4.5045000000 3.8644000000 1.2046000000
4.5044000000 4.7711000000 0.8964000000
4.5043000000 2.8358000000 0.9018000000
4.5041000000 0.8475000000 0.2322000000
4.5040000000 1.5959000000 0.4755000000
4.5038000000 5.3844000000 0.6886000000
4.5035000000 3.3869000000 1.0908000000
4.5034000000 3.5656000000 1.1558000000
4.5033000000 2.6937000000 0.8550000000
4.5032000000 3.4239000000 1.1048000000
4.5031000000 3.7339000000 1.2074000000
4.5028000000 4.9820000000 0.8181000000
4.5027000000 3.3953000000 1.0898000000
4.5025000000 4.0413000000 1.1378000000
4.5025000000 4.3022000000 1.0570000000
4.5022000000 5.4350000000 0.6661000000
4.5018000000 4.3738000000 1.0321000000
4.5017000000 2.1863000000 0.6821000000
4.5015000000 2.5547000000 0.8102000000
4.5014000000 0.4782000000 0.0906000000
4.5005000000 0.9241000000 0.2497000000
4.4999000000 1.4793000000 0.4340000000
4.4995000000 3.7711000000 1.2159000000
4.4994000000 2.5795000000 0.8166000000
4.4989000000 2.3753000000 0.7447000000
4.4982000000 5.6716000000 0.5898000000
4.4967000000 0.4125000000 0.0736000000
4.4962000000 1.4982000000 0.4464000000
4.2635000000 3.7585000000 1.3482000000
4.2618000000 5.1054000000 0.9213000000
4.2603000000 6.1005000000 0.5806000000
4.2595000000 3.4646000000 1.2609000000
4.2594000000 3.5518000000 1.2914000000
4.2591000000 6.8151000000 0.3412000000
4.2585000000 3.6561000000 1.3272000000
4.2583000000 6.6881000000 0.3900000000
4.2582000000 2.8220000000 1.0408000000
4.2578000000 2.3136000000 0.8679000000
4.2570000000 1.4170000000 0.5622000000
4.2569000000 3.9812000000 1.3133000000
4.2568000000 0.4681000000 0.2399000000
4.2567000000 6.9224000000 0.3039000000
4.2563000000 4.3029000000 1.2034000000
4.2560000000 3.3582000000 1.2286000000
4.2558000000 5.6289000000 0.7466000000
4.2557000000 1.5561000000 0.6184000000
4.2555000000 5.3894000000 0.8300000000
4.2554000000 6.0234000000 0.6128000000
4.2553000000 1.4441000000 0.5775000000
4.2551000000 4.7530000000 1.0501000000
4.2550000000 1.4350000000 0.5689000000
4.2548000000 3.3029000000 1.2093000000
4.2545000000 6.2661000000 0.5301000000
4.2541000000 1.2851000000 0.5155000000
4.2539000000 1.5364000000 0.5997000000
4.2537000000 4.8472000000 1.0155000000
4.2535000000 1.6285000000 0.6306000000
4.2534000000 3.0212000000 1.1103000000
4.2533000000 3.1056000000 1.1398000000
4.2530000000 7.2282000000 0.2074000000
4.2528000000 1.2935000000 0.5242000000
4.2525000000 2.0613000000 0.7832000000
4.2523000000 1.3458000000 0.5394000000
4.2519000000 5.9463000000 0.6470000000
4.2518000000 6.9273000000 0.3063000000
4.2517000000 6.2109000000 0.5478000000
4.2514000000 4.5045000000 1.1363000000
4.2511000000 1.6128000000 0.6348000000
4.2508000000 2.3135000000 0.8718000000
4.2505000000 0.1153000000 0.0823000000
4.2503000000 5.9258000000 0.6486000000
4.2502000000 5.7039000000 0.7229000000
4.2498000000 1.1376000000 0.4775000000
4.2490000000 2.9107000000 1.0743000000
4.2470000000 1.9130000000 0.7408000000
4.2468000000 4.2725000000 1.2211000000
4.2459000000 2.5996000000 0.9768000000
4.2433000000 0.9364000000 0.4039000000
4.0154000000 3.4798000000 1.4098000000
4.0138000000 6.5243000000 0.5842000000
4.0125000000 6.4445000000 0.6076000000
4.0119000000 1.2763000000 0.6602000000
4.0110000000 7.3445000000 0.1715000000
4.0102000000 4.3078000000 1.3437000000
4.0095000000 4.5078000000 1.2705000000
4.0092000000 6.0805000000 0.7416000000
4.0091000000 3.7283000000 1.5021000000
4.0083000000 1.2972000000 0.6721000000
4.0079000000 5.8616000000 0.8139000000
4.0075000000 6.3484000000 0.6478000000
4.0074000000 0.6609000000 0.4434000000
4.0072000000 1.6915000000 0.7976000000
4.0068000000 5.1717000000 1.0480000000
4.0066000000 3.8395000000 1.4986000000
4.0064000000 6.5925000000 0.5665000000
4.0063000000 3.9900000000 1.4541000000
4.0059000000 6.5831000000 0.5679000000
4.0058000000 2.4349000000 1.0583000000
4.0056000000 5.8668000000 0.8154000000
4.0054000000 7.1134000000 0.3301000000
4.0053000000 7.0575000000 0.3652000000
4.0050000000 2.2654000000 1.0005000000
4.0051000000 4.4776000000 1.2871000000
4.0049000000 5.9068000000 0.7968000000
4.0046000000 0.5229000000 0.3598000000
4.0045000000 1.5546000000 0.7543000000
4.0043000000 0.5610000000 0.3795000000
4.0041000000 6.0266000000 0.7564000000
4.0039000000 2.3991000000 1.0506000000
4.0037000000 3.4987000000 1.4229000000
4.0033000000 3.1386000000 1.2999000000
4.0030000000 4.4996000000 1.2772000000
4.0029000000 3.1522000000 1.3110000000
4.0025000000 2.0510000000 0.9258000000
4.0024000000 3.1506000000 1.3025000000
4.0023000000 2.6712000000 1.1477000000
4.0021000000 0.5305000000 0.3704000000
4.0020000000 7.4429000000 0.1037000000
4.0019000000 5.9030000000 0.8008000000
4.0018000000 0.9775000000 0.5620000000
4.0016000000 0.0416000000 0.0389000000
4.0013000000 2.3776000000 1.0436000000
4.0012000000 4.9576000000 1.1283000000
4.0011000000 6.4277000000 0.6273000000
4.0008000000 1.0969000000 0.6043000000
4.0006000000 2.5864000000 1.1116000000
4.0005000000 0.6802000000 0.4493000000
4.0004000000 2.9859000000 1.2447000000
3.9999000000 5.0628000000 1.0924000000
3.9994000000 2.2950000000 1.0129000000
3.9988000000 0.7810000000 0.4973000000
3.9985000000 4.1830000000 1.3933000000
3.9977000000 0.2450000000 0.1771000000
3.9970000000 1.2871000000 0.6696000000
3.7607000000 3.9724000000 1.5996000000
3.7604000000 5.7671000000 0.9915000000
3.7600000000 4.9365000000 1.2815000000
3.7598000000 5.5192000000 1.0788000000
3.7591000000 3.5980000000 1.6024000000
3.7586000000 5.5724000000 1.0538000000
3.7583000000 2.7007000000 1.2994000000
3.7581000000 5.0778000000 1.2347000000
3.7580000000 6.4205000000 0.7603000000
3.7577000000 6.8745000000 0.4943000000
3.7575000000 6.7458000000 0.5806000000
3.7575000000 5.8299000000 0.9724000000
3.7570000000 5.2261000000 1.1755000000
3.7570000000 1.3941000000 0.8523000000
3.7568000000 7.2428000000 0.2410000000
3.7567000000 4.1172000000 1.5594000000
3.7563000000 7.0732000000 0.3594000000
3.7561000000 4.7893000000 1.3240000000
3.7559000000 3.0544000000 1.4176000000
3.7558000000 4.1244000000 1.5581000000
3.7557000000 0.0575000000 0.0452000000
3.7554000000 7.1522000000 0.2985000000
3.7551000000 2.2655000000 1.1473000000
3.7550000000 6.5417000000 0.7056000000
3.7547000000 1.6542000000 0.9368000000
3.7544000000 0.4770000000 0.3326000000
3.7543000000 6.0557000000 0.9020000000
3.7541000000 6.3563000000 0.7935000000
3.7537000000 1.8284000000 0.9970000000
3.7535000000 2.1929000000 1.1218000000
3.7533000000 0.3169000000 0.2246000000
3.7530000000 2.6244000000 1.2733000000
3.7528000000 0.4869000000 0.3395000000
3.7526000000 2.2653000000 1.1539000000
3.7525000000 0.9397000000 0.6485000000
3.7524000000 1.5386000000 0.8999000000
3.7523000000 2.7044000000 1.3025000000
3.7518000000 3.9102000000 1.6301000000
3.7516000000 1.2390000000 0.7996000000
3.7514000000 5.7901000000 0.9943000000
3.7512000000 2.2272000000 1.1370000000
3.7511000000 5.9044000000 0.9499000000
3.7509000000 0.2961000000 0.2066000000
3.7506000000 6.1325000000 0.8718000000
3.7504000000 2.6759000000 1.2899000000
3.7503000000 4.4273000000 1.4509000000
3.7497000000 4.2347000000 1.5241000000
3.7495000000 3.0775000000 1.4356000000
3.7487000000 3.8329000000 1.6485000000
3.7481000000 4.2538000000 1.5115000000
3.7476000000 2.9449000000 1.3848000000
3.7463000000 4.6899000000 1.3663000000
3.7458000000 3.7259000000 1.6501000000
3.5148000000 4.2541000000 1.6587000000
3.5123000000 2.0638000000 1.2257000000
3.5115000000 3.9376000000 1.7696000000
3.5110000000 6.8666000000 0.4989000000
3.5105000000 6.8358000000 0.5179000000
3.5101000000 2.4603000000 1.3614000000
3.5095000000 6.5478000000 0.7177000000
3.5092000000 6.6690000000 0.6304000000
3.5090000000 6.0356000000 1.0333000000
3.5090000000 5.9391000000 1.0865000000
3.5086000000 6.6263000000 0.6569000000
3.5083000000 6.7236000000 0.5914000000
3.5082000000 5.8562000000 1.1087000000
3.5080000000 4.2894000000 1.6461000000
3.5077000000 6.3743000000 0.8322000000
3.5071000000 6.5924000000 0.6822000000
3.5067000000 4.5343000000 1.5644000000
3.5064000000 2.8674000000 1.5072000000
3.5062000000 2.6960000000 1.4465000000
3.5057000000 2.6454000000 1.4260000000
3.5056000000 7.0000000000 0.4088000000
3.5055000000 5.3160000000 1.2964000000
3.5053000000 5.5362000000 1.2257000000
3.5053000000 3.6537000000 1.7718000000
3.5049000000 3.3891000000 1.6826000000
3.5050000000 2.1043000000 1.2393000000
3.5048000000 5.8906000000 1.1009000000
3.5047000000 6.9118000000 0.4689000000
3.5046000000 2.6023000000 1.4154000000
3.5044000000 1.7741000000 1.1278000000
3.5041000000 6.3544000000 0.8436000000
3.5038000000 2.6007000000 1.4160000000
3.5038000000 3.0702000000 1.5759000000
3.5034000000 3.5694000000 1.7421000000
3.5033000000 5.0873000000 1.3801000000
3.5030000000 2.2312000000 1.2814000000
3.5028000000 4.0960000000 1.7104000000
3.5028000000 3.1285000000 1.5927000000
3.5027000000 6.0928000000 1.0112000000
3.5025000000 3.3331000000 1.6629000000
3.5023000000 1.9412000000 1.1898000000
3.5020000000 7.6022000000 0.0723000000
3.5019000000 0.5550000000 0.3883000000
3.5018000000 0.9189000000 0.6363000000
3.5016000000 2.6439000000 1.4268000000
3.5015000000 0.4300000000 0.2966000000
3.5013000000 2.7951000000 1.4797000000
3.5011000000 2.1164000000 1.2521000000
3.5007000000 5.5123000000 1.2356000000
3.5005000000 1.7685000000 1.1322000000
3.5004000000 1.4467000000 0.9834000000
3.5002000000 2.4066000000 1.3482000000
3.4999000000 0.9229000000 0.6415000000
3.4993000000 2.4590000000 1.3710000000
3.4982000000 1.3091000000 0.8993000000
3.4977000000 6.2728000000 0.9044000000
3.4972000000 3.5035000000 1.7273000000
3.2670000000 6.3450000000 0.8534000000
3.2625000000 6.7068000000 0.6061000000
3.2612000000 6.6728000000 0.6300000000
3.2606000000 5.3591000000 1.4343000000
3.2603000000 6.1514000000 0.9865000000
3.2601000000 6.7966000000 0.5448000000
3.2597000000 7.2505000000 0.2346000000
3.2595000000 6.0050000000 1.0860000000
3.2588000000 4.1952000000 1.8302000000
3.2585000000 4.6894000000 1.6597000000
3.2581000000 6.7707000000 0.5636000000
3.2579000000 5.6727000000 1.2986000000
3.2577000000 6.1637000000 0.9723000000
3.2576000000 3.2215000000 1.7714000000
3.2574000000 7.5763000000 0.0159000000
3.2573000000 6.2523000000 0.9209000000
3.2570000000 5.7050000000 1.2807000000
3.2570000000 2.8278000000 1.6387000000
3.2567000000 6.3188000000 0.8723000000
3.2565000000 4.3186000000 1.7858000000
3.2564000000 5.7822000000 1.2425000000
3.2563000000 4.0426000000 1.8791000000
3.2559000000 6.5726000000 0.6949000000
3.2557000000 5.9954000000 1.0878000000
3.2556000000 1.8710000000 1.2797000000
3.2553000000 4.2581000000 1.8079000000
3.2552000000 4.6705000000 1.6664000000
3.2550000000 5.1492000000 1.4972000000
3.2547000000 3.8896000000 1.9379000000
3.2545000000 3.4480000000 1.8505000000
3.2544000000 7.1203000000 0.3291000000
3.2543000000 3.8416000000 1.9440000000
3.2542000000 3.9916000000 1.8943000000
3.2541000000 0.0556000000 0.0473000000
3.2539000000 5.2618000000 1.4667000000
3.2537000000 5.4726000000 1.3903000000
3.2536000000 6.5827000000 0.6932000000
3.2534000000 5.8652000000 1.1913000000
3.2533000000 0.8300000000 0.5812000000
3.2530000000 4.0096000000 1.8940000000
3.2529000000 1.5645000000 1.0768000000
3.2528000000 1.8254000000 1.2544000000
3.2526000000 4.8495000000 1.6088000000
3.2525000000 1.4980000000 1.0245000000
3.2523000000 7.1701000000 0.2880000000
3.2522000000 6.0672000000 1.0486000000
3.2520000000 0.9296000000 0.6408000000
3.2515000000 4.1351000000 1.8567000000
3.2510000000 0.7340000000 0.5064000000
3.2509000000 4.5624000000 1.7004000000
3.2508000000 3.3205000000 1.8110000000
3.2507000000 6.8334000000 0.5268000000
3.2506000000 3.4966000000 1.8673000000
3.2505000000 0.4712000000 0.3226000000
3.2500000000 2.6652000000 1.5787000000
3.2498000000 5.9621000000 1.1178000000
3.2496000000 4.2644000000 1.8131000000
3.2495000000 2.1590000000 1.4172000000
3.2490000000 1.2417000000 0.8554000000
3.2482000000 0.0196000000 0.0191000000
3.2481000000 1.8125000000 1.2447000000
3.2449000000 1.7307000000 1.1859000000
3.0119000000 7.5903000000 0.0776000000
3.0115000000 1.3402000000 0.9195000000
3.0105000000 4.6037000000 1.8331000000
3.0098000000 3.8986000000 2.0799000000
3.0086000000 3.7826000000 2.0978000000
3.0085000000 3.2600000000 1.9261000000
3.0083000000 4.3312000000 1.9310000000
3.0078000000 1.3138000000 0.9060000000
3.0076000000 6.0147000000 1.0823000000
3.0074000000 5.5808000000 1.3789000000
3.0073000000 4.3047000000 1.9378000000
3.0072000000 3.9557000000 2.0554000000
3.0071000000 4.3958000000 1.9034000000
3.0068000000 7.3859000000 0.1418000000
3.0066000000 2.4543000000 1.6440000000
3.0065000000 0.7956000000 0.5516000000
3.0064000000 6.0601000000 1.0504000000
3.0062000000 4.4628000000 1.8848000000
3.0059000000 7.1855000000 0.2749000000
3.0056000000 4.1572000000 1.9848000000
3.0055000000 2.7326000000 1.7570000000
3.0053000000 7.5294000000 0.0411000000
3.0050000000 4.1627000000 1.9923000000
3.0048000000 6.5092000000 0.7399000000
3.0045000000 4.0734000000 2.0199000000
3.0043000000 6.3501000000 0.8461000000
3.0042000000 3.8847000000 2.0857000000
3.0041000000 6.8395000000 0.5165000000
3.0040000000 3.4901000000 2.0081000000
3.0038000000 6.1519000000 0.9850000000
3.0035000000 1.8077000000 1.2430000000
3.0031000000 3.8896000000 2.0829000000
3.0029000000 5.9843000000 1.0985000000
3.0028000000 0.0652000000 0.0475000000
3.0028000000 2.3440000000 1.6007000000
3.0027000000 1.9143000000 1.3220000000
3.0024000000 0.9553000000 0.6642000000
3.0022000000 6.0924000000 1.0235000000
3.0021000000 4.5093000000 1.8757000000
3.0020000000 0.9678000000 0.6713000000
3.0018000000 0.5773000000 0.4057000000
3.0014000000 6.6366000000 0.6594000000
3.0012000000 1.8835000000 1.2898000000
3.0009000000 2.6780000000 1.7407000000
3.0008000000 5.6432000000 1.3380000000
3.0006000000 0.6579000000 0.4515000000
2.9991000000 6.4789000000 0.7588000000
2.9987000000 0.8255000000 0.5640000000
2.9976000000 3.7634000000 2.0998000000
2.9975000000 3.5809000000 2.0461000000
2.9963000000 0.9870000000 0.6880000000
2.7617000000 6.2593000000 0.9159000000
2.7605000000 5.0596000000 1.7276000000
2.7596000000 4.0803000000 2.1643000000
2.7592000000 6.5908000000 0.6838000000
2.7584000000 6.7366000000 0.5863000000
2.7579000000 5.2831000000 1.5806000000
2.7578000000 1.0346000000 0.7165000000
2.7575000000 3.3333000000 2.1027000000
2.7573000000 4.2963000000 2.0928000000
2.7569000000 3.8545000000 2.2376000000
2.7567000000 2.9417000000 1.9690000000
2.7565000000 5.9789000000 1.1054000000
2.7562000000 7.2183000000 0.2539000000
2.7560000000 2.8640000000 1.9411000000
2.7560000000 5.1017000000 1.7099000000
2.7558000000 2.7515000000 1.8775000000
2.7555000000 4.9853000000 1.7794000000
2.7553000000 5.9312000000 1.1374000000
2.7552000000 6.0849000000 1.0314000000
2.7551000000 7.5465000000 0.0344000000
2.7549000000 1.0935000000 0.7537000000
2.7548000000 6.2244000000 0.9380000000
2.7546000000 4.0120000000 2.1923000000
2.7545000000 6.8662000000 0.4987000000
2.7543000000 6.4664000000 0.7667000000
2.7542000000 4.9320000000 1.8156000000
2.7541000000 7.5500000000 0.0292000000
2.7540000000 4.0996000000 2.1534000000
2.7539000000 3.3886000000 2.1259000000
2.7537000000 0.6447000000 0.4533000000
2.7536000000 3.8108000000 2.2449000000
2.7533000000 4.5114000000 2.0161000000
2.7529000000 4.5179000000 2.0210000000
2.7527000000 7.4555000000 0.0932000000
2.7522000000 6.9596000000 0.4340000000
2.7519000000 3.9839000000 2.1972000000
2.7518000000 1.3704000000 0.9441000000
2.7515000000 4.3982000000 2.0621000000
2.7511000000 4.0618000000 2.1790000000
2.7510000000 0.3884000000 0.2798000000
2.7506000000 7.5859000000 0.0839000000
2.7505000000 5.2540000000 1.6000000000
2.7502000000 6.8955000000 0.4809000000
2.7498000000 5.7425000000 1.2619000000
2.7497000000 1.5451000000 1.0575000000
2.7494000000 1.8347000000 1.2617000000
2.7483000000 1.7976000000 1.2369000000
2.7460000000 3.4986000000 2.1680000000
2.7456000000 0.2370000000 0.1679000000
2.5110000000 4.9604000000 1.7954000000
2.5105000000 3.4087000000 2.2740000000
2.5102000000 4.5634000000 2.0662000000
2.5094000000 1.2597000000 0.8696000000
2.5092000000 5.4534000000 1.4617000000
2.5088000000 4.2789000000 2.2372000000
2.5082000000 3.2224000000 2.1964000000
2.5079000000 1.6468000000 1.1369000000
2.5076000000 4.1008000000 2.3045000000
2.5075000000 7.2388000000 0.2453000000
2.5073000000 6.9021000000 0.4707000000
2.5070000000 1.0462000000 0.7211000000
2.5068000000 3.7519000000 2.3877000000
2.5065000000 0.5478000000 0.3851000000
2.5064000000 7.5295000000 0.0492000000
2.5063000000 6.9737000000 0.4268000000
2.5062000000 6.4459000000 0.7879000000
2.5060000000 7.1110000000 0.3331000000
2.5058000000 5.3245000000 1.5545000000
2.5057000000 7.0584000000 0.3686000000
2.5054000000 3.0243000000 2.0741000000
2.5051000000 3.0766000000 2.1100000000
2.5050000000 7.2983000000 0.2031000000
2.5048000000 2.7752000000 1.9082000000
2.5046000000 6.7985000000 0.5417000000
2.5045000000 3.6425000000 2.3616000000
2.5045000000 2.4216000000 1.6622000000
2.5043000000 6.0147000000 1.0805000000
2.5041000000 2.4525000000 1.6828000000
2.5040000000 2.0059000000 1.3757000000
2.5039000000 7.5304000000 0.0459000000
2.5038000000 4.9151000000 1.8356000000
2.5035000000 2.1739000000 1.4896000000
2.5034000000 3.3077000000 2.2342000000
2.5032000000 1.4980000000 1.0336000000
2.5031000000 4.2805000000 2.2341000000
2.5028000000 4.0102000000 2.3358000000
2.5025000000 7.5398000000 0.0425000000
2.5025000000 4.5805000000 2.0586000000
2.5019000000 0.1693000000 0.1243000000
2.5015000000 4.3860000000 2.1845000000
2.5009000000 3.7702000000 2.3976000000
2.5003000000 2.6901000000 1.8442000000
2.4998000000 0.7215000000 0.4978000000
2.4996000000 3.0046000000 2.0593000000
2.4990000000 7.3956000000 0.1444000000
2.4985000000 6.1356000000 0.9941000000
2.4983000000 2.9789000000 2.0468000000
2.4972000000 3.9791000000 2.3551000000
2.4949000000 0.0684000000 0.0576000000
2.2649000000 7.5149000000 0.0547000000
2.2644000000 3.6146000000 2.4682000000
2.2622000000 2.6293000000 1.8084000000
2.2604000000 6.9276000000 0.4536000000
2.2598000000 4.7587000000 1.9382000000
2.2595000000 4.6764000000 1.9956000000
2.2590000000 4.9258000000 1.8251000000
2.2587000000 4.5520000000 2.0748000000
2.2584000000 4.0391000000 2.4256000000
2.2580000000 1.8158000000 1.2472000000
2.2578000000 5.6807000000 1.3109000000
2.2574000000 7.4805000000 0.0748000000
2.2572000000 6.7743000000 0.5667000000
2.2571000000 6.9055000000 0.4716000000
2.2569000000 1.1425000000 0.7876000000
2.2567000000 3.6746000000 2.5065000000
2.2563000000 4.6116000000 2.0404000000
2.2560000000 5.5360000000 1.4022000000
2.2558000000 1.4480000000 0.9943000000
2.2556000000 3.7975000000 2.5009000000
2.2553000000 0.6787000000 0.4748000000
2.2552000000 3.6762000000 2.5049000000
2.2550000000 0.6630000000 0.4598000000
2.2548000000 7.5173000000 0.0524000000
2.2546000000 2.7128000000 1.8620000000
2.2544000000 6.5981000000 0.6817000000
2.2543000000 4.7701000000 1.9274000000
2.2542000000 4.4440000000 2.1562000000
2.2541000000 4.1030000000 2.3873000000
2.2540000000 1.5302000000 1.0475000000
2.2537000000 6.5123000000 0.7386000000
2.2535000000 3.5494000000 2.4403000000
2.2534000000 1.3703000000 0.9463000000
2.2532000000 1.5882000000 1.0916000000
2.2530000000 7.5049000000 0.0629000000
2.2528000000 6.8989000000 0.4758000000
2.2525000000 2.3494000000 1.6142000000
2.2525000000 2.4577000000 1.6840000000
2.2523000000 3.3822000000 2.3167000000
2.2522000000 7.3639000000 0.1601000000
2.2521000000 6.8080000000 0.5436000000
2.2518000000 5.7425000000 1.2667000000
2.2515000000 0.0277000000 0.0235000000
2.2512000000 5.4053000000 1.4992000000
2.2511000000 4.9354000000 1.8152000000
2.2505000000 1.8883000000 1.2963000000
2.2502000000 3.5536000000 2.4295000000
2.2501000000 4.1233000000 2.3704000000
2.2499000000 5.7967000000 1.2264000000
2.2496000000 2.0056000000 1.3775000000
2.2494000000 2.6129000000 1.7908000000
2.2488000000 0.3562000000 0.2502000000
2.2485000000 5.1605000000 1.6639000000
2.2483000000 2.5235000000 1.7306000000
2.2477000000 0.3784000000 0.2693000000
2.2473000000 5.7622000000 1.2503000000
2.2453000000 5.1188000000 1.6916000000
2.2420000000 2.0495000000 1.4104000000
2.0105000000 2.9597000000 2.0274000000
2.0100000000 3.7589000000 2.4676000000
2.0095000000 3.6994000000 2.4602000000
2.0092000000 7.4274000000 0.1181000000
2.0091000000 6.3204000000 0.8676000000
2.0087000000 1.1779000000 0.8145000000
2.0086000000 6.0621000000 1.0494000000
2.0080000000 3.2335000000 2.2173000000
2.0079000000 4.9835000000 1.7880000000
2.0075000000 4.8799000000 1.8516000000
2.0074000000 3.4127000000 2.3366000000
2.0072000000 1.9773000000 1.3539000000
2.0069000000 0.7959000000 0.5549000000
2.0067000000 3.9400000000 2.4373000000
2.0065000000 2.6428000000 1.8148000000
2.0063000000 0.6449000000 0.4506000000
2.0060000000 6.1311000000 0.9975000000
2.0058000000 5.8273000000 1.2100000000
2.0056000000 4.2498000000 2.2833000000
2.0054000000 4.6583000000 2.0073000000
2.0052000000 5.7346000000 1.2726000000
2.0053000000 6.1930000000 0.9561000000
2.0049000000 0.4386000000 0.3072000000
2.0048000000 4.5064000000 2.1116000000
2.0046000000 1.8676000000 1.2838000000
2.0044000000 4.2615000000 2.2738000000
2.0040000000 1.3740000000 0.9464000000
2.0040000000 0.8451000000 0.5820000000
2.0038000000 5.1075000000 1.6991000000
2.0037000000 2.2767000000 1.5626000000
2.0035000000 0.7920000000 0.5518000000
2.0032000000 2.8428000000 1.9516000000
2.0034000000 1.6147000000 1.1092000000
2.0029000000 3.8542000000 2.4714000000
2.0029000000 1.1147000000 0.7645000000
2.0025000000 3.2243000000 2.2142000000
2.0024000000 3.1764000000 2.1796000000
2.0021000000 2.9687000000 2.0347000000
2.0018000000 3.4929000000 2.3744000000
2.0014000000 2.5544000000 1.7540000000
2.0010000000 4.4832000000 2.1314000000
2.0008000000 1.3640000000 0.9367000000
2.0004000000 5.1624000000 1.6611000000
2.0003000000 2.5845000000 1.7696000000
2.0000000000 0.5638000000 0.3956000000
2.0000000000 6.7944000000 0.5444000000
1.9997000000 2.5816000000 1.7751000000
1.9990000000 1.1652000000 0.7974000000
1.9986000000 6.5917000000 0.6792000000
1.9972000000 1.7372000000 1.1943000000
1.7644000000 5.0694000000 1.7287000000
1.7622000000 4.3428000000 2.1571000000
1.7613000000 6.9164000000 0.4602000000
1.7595000000 5.7086000000 1.2883000000
1.7589000000 3.9778000000 2.2816000000
1.7586000000 2.1628000000 1.4840000000
1.7580000000 5.6712000000 1.3154000000
1.7575000000 0.8788000000 0.6096000000
1.7574000000 3.7913000000 2.3330000000
1.7572000000 5.4296000000 1.4807000000
1.7569000000 3.6674000000 2.2988000000
1.7566000000 3.0617000000 2.0843000000
1.7565000000 2.0415000000 1.4012000000
1.7563000000 0.6659000000 0.4669000000
1.7560000000 2.2709000000 1.5599000000
1.7559000000 7.3856000000 0.1406000000
1.7556000000 3.0262000000 2.0660000000
1.7553000000 3.9243000000 2.2985000000
1.7551000000 6.8666000000 0.5011000000
1.7550000000 0.5260000000 0.3675000000
1.7548000000 2.6656000000 1.8323000000
1.7545000000 3.3349000000 2.1857000000
1.7543000000 3.8007000000 2.3324000000
1.7541000000 3.2117000000 2.1388000000
1.7539000000 1.4786000000 1.0192000000
1.7535000000 2.0950000000 1.4376000000
1.7533000000 4.5488000000 2.0706000000
1.7532000000 5.4733000000 1.4520000000
1.7530000000 4.0847000000 2.2435000000
1.7528000000 1.5847000000 1.0892000000
1.7524000000 5.7343000000 1.2718000000
1.7522000000 6.5948000000 0.6802000000
1.7518000000 3.0231000000 2.0610000000
1.7517000000 5.1771000000 1.6510000000
1.7515000000 1.1398000000 0.7851000000
1.7513000000 0.5282000000 0.3687000000
1.7512000000 0.9906000000 0.6864000000
1.7510000000 0.2360000000 0.1727000000
1.7508000000 3.1827000000 2.1359000000
1.7506000000 3.3359000000 2.1827000000
1.7504000000 4.2200000000 2.1939000000
1.7498000000 1.2273000000 0.8463000000
1.7495000000 4.6310000000 2.0161000000
1.7492000000 2.1728000000 1.4926000000
1.7485000000 4.6255000000 2.0170000000
1.7482000000 0.7371000000 0.5094000000
1.7472000000 7.5156000000 0.0561000000
1.7454000000 2.0438000000 1.4108000000
1.5160000000 6.1822000000 0.9661000000
1.5128000000 6.9596000000 0.4371000000
1.5109000000 2.2566000000 1.5496000000
1.5097000000 2.5150000000 1.7245000000
1.5089000000 4.6736000000 1.8922000000
1.5083000000 1.7337000000 1.1934000000
1.5080000000 2.9334000000 1.9076000000
1.5073000000 1.4492000000 0.9941000000
1.5071000000 6.1378000000 0.9897000000
1.5068000000 6.9505000000 0.4370000000
1.5064000000 2.0952000000 1.4424000000
1.5063000000 5.7586000000 1.2539000000
1.5060000000 5.2683000000 1.5940000000
1.5058000000 6.8629000000 0.5000000000
1.5053000000 4.9260000000 1.7940000000
1.5051000000 4.0980000000 2.0931000000
1.5050000000 2.9552000000 1.9102000000
1.5049000000 7.0291000000 0.3868000000
1.5045000000 5.8876000000 1.1681000000
1.5044000000 5.0337000000 1.7334000000
1.5043000000 3.3486000000 2.0398000000
1.5041000000 0.3893000000 0.2782000000
1.5040000000 3.0574000000 1.9396000000
1.5037000000 1.7400000000 1.1933000000
1.5036000000 2.8636000000 1.8772000000
1.5035000000 5.0177000000 1.7514000000
1.5033000000 5.6029000000 1.3622000000
1.5030000000 4.0929000000 2.0912000000
1.5027000000 1.9910000000 1.3680000000
1.5025000000 2.2894000000 1.5731000000
1.5021000000 5.3396000000 1.5383000000
1.5020000000 0.6290000000 0.4359000000
1.5018000000 6.2856000000 0.8961000000
1.5017000000 4.3664000000 1.9963000000
1.5015000000 1.9374000000 1.3345000000
1.5013000000 0.7619000000 0.5342000000
1.5012000000 1.8604000000 1.2738000000
1.5007000000 0.5186000000 0.3614000000
1.5005000000 0.4544000000 0.3171000000
1.5005000000 2.0131000000 1.3825000000
1.5003000000 1.0794000000 0.7398000000
1.5000000000 2.8999000000 1.8819000000
1.4995000000 0.2401000000 0.1638000000
1.4991000000 4.1296000000 2.0824000000
1.4987000000 2.1720000000 1.4892000000
1.4983000000 2.6551000000 1.7858000000
1.4980000000 0.3088000000 0.2203000000
1.4969000000 4.1053000000 2.0851000000
1.4961000000 0.2386000000 0.1750000000
1.4941000000 2.7930000000 1.8469000000
1.2644000000 5.8207000000 1.2106000000
1.2629000000 4.9438000000 1.6572000000
1.2619000000 7.0412000000 0.3797000000
1.2606000000 2.7275000000 1.6860000000
1.2603000000 6.6791000000 0.6324000000
1.2594000000 2.5975000000 1.6409000000
1.2593000000 5.8980000000 1.1680000000
1.2590000000 4.6501000000 1.7646000000
1.2588000000 7.4669000000 0.0861000000
1.2578000000 6.3162000000 0.8741000000
1.2577000000 6.1250000000 1.0025000000
1.2573000000 4.1615000000 1.9236000000
1.2571000000 6.2096000000 0.9451000000
1.2569000000 2.7721000000 1.6966000000
1.2568000000 5.4764000000 1.4315000000
1.2565000000 1.3978000000 0.9677000000
1.2562000000 6.9048000000 0.4741000000
1.2560000000 6.3717000000 0.8315000000
1.2558000000 7.6042000000 0.0717000000
1.2557000000 5.8323000000 1.1994000000
1.2555000000 3.0537000000 1.7891000000
1.2554000000 0.4968000000 0.3510000000
1.2553000000 1.5588000000 1.0813000000
1.2552000000 4.4534000000 1.8171000000
1.2548000000 1.8743000000 1.2938000000
1.2547000000 3.7988000000 2.0304000000
1.2546000000 4.3449000000 1.8547000000
1.2545000000 4.1910000000 1.9082000000
1.2543000000 4.3326000000 1.8662000000
1.2541000000 5.7163000000 1.2842000000
1.2540000000 5.9101000000 1.1505000000
1.2538000000 3.3923000000 1.9097000000
1.2536000000 0.5618000000 0.3919000000
1.2535000000 3.9830000000 1.9822000000
1.2534000000 2.7909000000 1.7077000000
1.2533000000 0.1962000000 0.1446000000
1.2532000000 3.0487000000 1.7858000000
1.2529000000 6.1023000000 1.0164000000
1.2529000000 4.5104000000 1.8025000000
1.2526000000 1.8460000000 1.2681000000
1.2524000000 4.0502000000 1.9577000000
1.2521000000 3.7658000000 2.0258000000
1.2520000000 2.7480000000 1.6928000000
1.2518000000 1.0140000000 0.6983000000
1.2510000000 2.4940000000 1.6063000000
1.2508000000 6.8545000000 0.5105000000
1.2505000000 1.0462000000 0.7178000000
1.2501000000 3.2830000000 1.8702000000
1.2499000000 3.6068000000 1.9782000000
1.2497000000 1.1876000000 0.8211000000
1.2493000000 0.8798000000 0.6149000000
1.2492000000 1.5765000000 1.0844000000
1.2490000000 7.2434000000 0.2383000000
1.2489000000 3.8322000000 2.0182000000
1.2487000000 2.7115000000 1.6702000000
1.2482000000 0.4556000000 0.3131000000
1.2473000000 1.4470000000 0.9942000000
1.2465000000 3.8957000000 2.0050000000
1.2463000000 3.3280000000 1.8807000000
1.0110000000 4.4159000000 1.6909000000
1.0099000000 4.5562000000 1.6387000000
1.0095000000 6.4418000000 0.7833000000
1.0091000000 7.3338000000 0.1717000000
1.0085000000 2.1109000000 1.3262000000
1.0082000000 6.1612000000 0.9804000000
1.0081000000 1.4695000000 1.0122000000
1.0080000000 4.8150000000 1.5466000000
1.0076000000 7.3482000000 0.1696000000
1.0073000000 1.4470000000 0.9986000000
1.0072000000 1.2687000000 0.8697000000
1.0068000000 3.4469000000 1.7793000000
1.0065000000 1.8891000000 1.2508000000
1.0064000000 6.1882000000 0.9620000000
1.0063000000 1.8251000000 1.2120000000
1.0062000000 7.3638000000 0.1564000000
1.0060000000 3.0559000000 1.6482000000
1.0057000000 6.0045000000 1.0890000000
1.0056000000 2.2934000000 1.3877000000
1.0054000000 7.2461000000 0.2390000000
1.0053000000 1.8035000000 1.2105000000
1.0052000000 4.5904000000 1.6257000000
1.0051000000 1.6078000000 1.1066000000
1.0048000000 7.4977000000 0.0604000000
1.0046000000 4.4352000000 1.6824000000
1.0044000000 2.7210000000 1.5344000000
1.0042000000 6.3724000000 0.8350000000
1.0041000000 7.1410000000 0.3175000000
1.0040000000 5.3119000000 1.3781000000
1.0039000000 3.9860000000 1.8295000000
1.0037000000 5.5291000000 1.3054000000
1.0036000000 1.5711000000 1.0800000000
1.0034000000 4.1356000000 1.7813000000
1.0032000000 7.2131000000 0.2628000000
1.0028000000 4.8379000000 1.5334000000
1.0026000000 2.0230000000 1.2878000000
1.0025000000 2.7670000000 1.5479000000
1.0024000000 6.0645000000 1.0445000000
1.0021000000 2.3152000000 1.3900000000
1.0019000000 4.3311000000 1.7088000000
1.0016000000 4.2821000000 1.7280000000
1.0015000000 0.5450000000 0.3784000000
1.0011000000 2.9118000000 1.5986000000
1.0011000000 0.7445000000 0.5187000000
1.0009000000 5.6238000000 1.2688000000
1.0007000000 6.4209000000 0.8062000000
1.0003000000 5.1209000000 1.4440000000
0.9998000000 0.9415000000 0.6541000000
0.9997000000 0.9208000000 0.6286000000
0.9996000000 1.3466000000 0.9300000000
0.9993000000 2.3918000000 1.4135000000
0.9988000000 2.8004000000 1.5556000000
0.9983000000 2.5687000000 1.4754000000
0.9980000000 4.5113000000 1.6500000000
0.9975000000 5.5425000000 1.2982000000
0.9970000000 0.6145000000 0.4238000000
0.7615000000 7.3463000000 0.1695000000
0.7608000000 3.1784000000 1.5401000000
0.7601000000 1.4430000000 0.9480000000
0.7595000000 0.9624000000 0.6632000000
0.7588000000 7.0288000000 0.3853000000
0.7586000000 4.8845000000 1.3732000000
0.7583000000 2.1205000000 1.1809000000
0.7582000000 1.3419000000 0.9096000000
0.7580000000 7.4346000000 0.1046000000
0.7578000000 2.3159000000 1.2421000000
0.7577000000 5.9845000000 0.9988000000
0.7573000000 5.5993000000 1.1342000000
0.7569000000 6.8379000000 0.5156000000
0.7567000000 6.8483000000 0.5146000000
0.7563000000 1.8753000000 1.0947000000
0.7560000000 1.1204000000 0.7759000000
0.7557000000 0.5312000000 0.3707000000
0.7556000000 1.9502000000 1.1176000000
0.7555000000 2.2452000000 1.2215000000
0.7553000000 3.4170000000 1.6222000000
0.7550000000 3.8225000000 1.7210000000
0.7549000000 4.7085000000 1.4303000000
0.7546000000 1.9554000000 1.1218000000
0.7545000000 2.1586000000 1.1900000000
0.7543000000 3.8934000000 1.7108000000
0.7542000000 1.7737000000 1.0589000000
0.7541000000 4.5456000000 1.4958000000
0.7539000000 3.5768000000 1.6797000000
0.7538000000 5.7868000000 1.0699000000
0.7537000000 3.9110000000 1.7094000000
0.7535000000 7.4050000000 0.1285000000
0.7534000000 2.1906000000 1.2023000000
0.7532000000 4.3931000000 1.5486000000
0.7530000000 1.2372000000 0.8441000000
0.7528000000 2.0088000000 1.1378000000
0.7527000000 1.9476000000 1.1154000000
0.7526000000 5.2574000000 1.2502000000
0.7524000000 0.0724000000 0.0600000000
0.7523000000 2.1193000000 1.1733000000
0.7521000000 1.6457000000 1.0081000000
0.7519000000 4.5609000000 1.4827000000
0.7516000000 3.2925000000 1.5770000000
0.7514000000 5.8419000000 1.0454000000
0.7513000000 7.2205000000 0.2583000000
0.7512000000 0.2227000000 0.1633000000
0.7509000000 1.8654000000 1.0898000000
0.7508000000 0.9772000000 0.6782000000
0.7505000000 2.4362000000 1.2882000000
0.7503000000 3.5642000000 1.6728000000
0.7501000000 2.6160000000 1.3489000000
0.7500000000 7.1282000000 0.3160000000
0.7498000000 1.6726000000 1.0254000000
0.7496000000 7.2539000000 0.2354000000
0.7492000000 0.1309000000 0.1041000000
0.7490000000 5.2334000000 1.2538000000
0.7488000000 0.7683000000 0.5331000000
0.7476000000 1.5887000000 0.9871000000
0.5112000000 0.5469000000 0.3826000000
0.5104000000 4.7407000000 1.2804000000
0.5100000000 3.7301000000 1.5859000000
0.5093000000 5.3823000000 1.0628000000
0.5086000000 7.0572000000 0.3690000000
0.5081000000 7.1933000000 0.2727000000
0.5078000000 0.4954000000 0.3495000000
0.5071000000 7.1191000000 0.3260000000
0.5066000000 7.5609000000 0.0225000000
0.5062000000 4.8569000000 1.2363000000
0.5060000000 2.4174000000 1.1348000000
0.5056000000 1.9016000000 0.9574000000
0.5055000000 6.8049000000 0.5334000000
0.5053000000 2.5118000000 1.1611000000
0.5053000000 6.5392000000 0.6621000000
0.5051000000 4.3218000000 1.4192000000
0.5050000000 6.6001000000 0.6373000000
0.5048000000 7.5204000000 0.0489000000
0.5047000000 6.8292000000 0.5196000000
0.5045000000 4.9968000000 1.1901000000
0.5045000000 5.1374000000 1.1412000000
0.5042000000 7.4885000000 0.0733000000
0.5040000000 5.2438000000 1.1071000000
0.5038000000 4.7738000000 1.2651000000
0.5037000000 3.2473000000 1.4134000000
0.5035000000 1.0793000000 0.6718000000
0.5033000000 2.5607000000 1.1802000000
0.5033000000 3.0565000000 1.3527000000
0.5030000000 1.4331000000 0.7935000000
0.5028000000 0.6819000000 0.4684000000
0.5027000000 2.8879000000 1.2912000000
0.5024000000 2.9622000000 1.3164000000
0.5023000000 6.0423000000 0.8343000000
0.5022000000 1.8584000000 0.9404000000
0.5019000000 2.1000000000 1.0185000000
0.5017000000 5.5388000000 1.0033000000
0.5015000000 1.7166000000 0.8912000000
0.5012000000 0.3890000000 0.2749000000
0.5011000000 1.1034000000 0.6785000000
0.5010000000 0.4500000000 0.3137000000
0.5009000000 2.7575000000 1.2456000000
0.5004000000 2.6422000000 1.2051000000
0.5004000000 2.6495000000 1.2091000000
0.5000000000 1.4210000000 0.7898000000
0.4995000000 2.3370000000 1.0988000000
0.4993000000 0.4646000000 0.3237000000
0.4990000000 6.5581000000 0.6524000000
0.4983000000 0.6861000000 0.4765000000
0.4974000000 0.9209000000 0.6029000000
0.4955000000 6.5924000000 0.6390000000
0.2618000000 6.7537000000 0.4441000000
0.2613000000 4.1588000000 1.3343000000
0.2604000000 1.1406000000 0.5515000000
0.2599000000 6.7454000000 0.4476000000
0.2589000000 0.7476000000 0.4181000000
0.2584000000 5.5874000000 0.8469000000
0.2579000000 5.9673000000 0.7139000000
0.2577000000 5.9794000000 0.7062000000
0.2575000000 0.6043000000 0.3631000000
0.2567000000 3.7791000000 1.4371000000
0.2566000000 4.7312000000 1.1322000000
0.2563000000 4.2987000000 1.2835000000
0.2561000000 5.0513000000 1.0218000000
0.2559000000 5.1321000000 0.9989000000
0.2556000000 3.6057000000 1.3896000000
0.2555000000 1.0113000000 0.5078000000
0.2553000000 2.4192000000 0.9858000000
0.2552000000 6.7652000000 0.4377000000
0.2549000000 4.8274000000 1.0970000000
0.2548000000 3.7121000000 1.4294000000
0.2547000000 0.5387000000 0.3328000000
0.2546000000 5.4756000000 0.8813000000
0.2544000000 7.5750000000 0.0170000000
0.2543000000 4.0460000000 1.3644000000
0.2540000000 7.1399000000 0.3002000000
0.2540000000 7.3840000000 0.1452000000
0.2538000000 2.3236000000 0.9491000000
0.2538000000 2.3491000000 0.9639000000
0.2536000000 3.6231000000 1.3922000000
0.2535000000 7.1118000000 0.3087000000
0.2534000000 0.9172000000 0.4734000000
0.2533000000 6.2867000000 0.5950000000
0.2531000000 1.7886000000 0.7693000000
0.2529000000 4.2172000000 1.3094000000
0.2528000000 1.3017000000 0.6042000000
0.2527000000 0.8595000000 0.4532000000
0.2522000000 3.9198000000 1.4069000000
0.2521000000 2.8547000000 1.1319000000
0.2520000000 6.2826000000 0.5997000000
0.2517000000 0.4220000000 0.2840000000
0.2516000000 0.6439000000 0.3788000000
0.2515000000 3.0216000000 1.1898000000
0.2513000000 0.0762000000 0.0628000000
0.2508000000 6.8200000000 0.4132000000
0.2503000000 3.5847000000 1.3837000000
0.2501000000 0.0362000000 0.0300000000
0.2500000000 1.5171000000 0.6762000000
0.2496000000 1.3788000000 0.6246000000
0.2490000000 2.1841000000 0.9044000000
0.2488000000 3.9838000000 1.3807000000
0.2478000000 1.6184000000 0.7013000000
0.2470000000 3.4187000000 1.3191000000
0.2467000000 1.1236000000 0.5379000000
0.2451000000 1.5315000000 0.6790000000
0.0198000000 7.0639000000 0.1976000000
0.0116000000 6.9032000000 0.2495000000
0.0100000000 3.6349000000 1.2549000000
0.0093000000 5.9264000000 0.5761000000
0.0084000000 7.5327000000 0.0212000000
0.0082000000 2.9010000000 1.0049000000
0.0078000000 5.3473000000 0.7766000000
0.0072000000 3.7097000000 1.2812000000
0.0070000000 1.2834000000 0.4501000000
0.0067000000 4.6998000000 0.9988000000
0.0065000000 1.1326000000 0.3922000000
0.0063000000 4.4110000000 1.0899000000
0.0060000000 2.2137000000 0.7645000000
0.0058000000 0.3068000000 0.1194000000
0.0056000000 6.1730000000 0.4914000000
0.0055000000 7.4737000000 0.0394000000
0.0054000000 4.6682000000 1.0060000000
0.0053000000 4.2022000000 1.1689000000
0.0052000000 0.5359000000 0.1950000000
0.0051000000 7.1483000000 0.1645000000
0.0049000000 5.2151000000 0.8206000000
0.0046000000 0.4842000000 0.1770000000
0.0045000000 5.7994000000 0.6208000000
0.0043000000 6.6118000000 0.3421000000
0.0042000000 6.4297000000 0.3982000000
0.0041000000 2.3385000000 0.8089000000
0.0038000000 4.6220000000 1.0175000000
0.0037000000 3.1647000000 1.0884000000
0.0035000000 6.5345000000 0.3613000000
0.0033000000 3.6413000000 1.2537000000
0.0032000000 2.2007000000 0.7664000000
0.0031000000 4.5433000000 1.0490000000
0.0029000000 4.8585000000 0.9422000000
0.0028000000 3.0023000000 1.0316000000
0.0026000000 5.8609000000 0.6009000000
0.0025000000 2.9064000000 1.0028000000
0.0022000000 2.3045000000 0.7975000000
0.0018000000 2.5171000000 0.8706000000
0.0016000000 4.6503000000 1.0114000000
0.0016000000 0.3140000000 0.1168000000
0.0015000000 5.4251000000 0.7446000000
0.0013000000 3.9530000000 1.2473000000
0.0012000000 6.6937000000 0.3088000000
0.0011000000 2.0517000000 0.7083000000
0.0010000000 2.1779000000 0.7564000000
0.0007000000 2.9622000000 1.0197000000
0.0006000000 2.9057000000 0.9979000000
0.0003000000 2.8694000000 0.9847000000
0.0000000000 0.4026000000 0.1414000000
-0.0002000000 6.7749000000 0.2800000000
-0.0011000000 2.9285000000 1.0034000000
-0.0014000000 0.5787000000 0.2045000000
-0.0026000000 2.9895000000 1.0245000000
-0.0030000000 1.0051000000 0.3504000000
-0.0032000000 1.1481000000 0.3974000000
-0.2389000000 5.4624000000 0.5900000000
-0.2393000000 2.7303000000 0.7966000000
-0.2398000000 3.1427000000 0.9418000000
-0.2409000000 6.0058000000 0.4033000000
-0.2410000000 5.6482000000 0.5234000000
-0.2416000000 5.7923000000 0.4711000000
-0.2422000000 6.8207000000 0.1248000000
-0.2423000000 5.1701000000 0.6817000000
-0.2426000000 3.3050000000 0.9953000000
-0.2427000000 4.4270000000 0.9465000000
-0.2430000000 4.0328000000 1.0741000000
-0.2432000000 3.2009000000 0.9574000000
-0.2433000000 5.0251000000 0.7372000000
-0.2437000000 6.8583000000 0.1100000000
-0.2435000000 3.0015000000 0.8862000000
-0.2439000000 2.7669000000 0.8087000000
-0.2442000000 4.7217000000 0.8435000000
-0.2444000000 7.1647000000 0.0794000000
-0.2446000000 6.8420000000 0.1165000000
-0.2447000000 6.6071000000 0.2025000000
-0.2448000000 6.5494000000 0.2148000000
-0.2449000000 3.5018000000 1.0563000000
-0.2452000000 5.1499000000 0.6956000000
-0.2453000000 3.2388000000 0.9639000000
-0.2455000000 6.4483000000 0.2558000000
-0.2456000000 2.8116000000 0.8216000000
-0.2458000000 4.6135000000 0.8740000000
-0.2462000000 1.5391000000 0.3884000000
-0.2464000000 1.3021000000 0.3156000000
-0.2465000000 2.1675000000 0.6046000000
-0.2467000000 5.4426000000 0.5943000000
-0.2470000000 6.1521000000 0.3493000000
-0.2472000000 1.7333000000 0.4578000000
-0.2475000000 2.0859000000 0.5675000000
-0.2476000000 5.8758000000 0.4437000000
-0.2479000000 4.6095000000 0.8786000000
-0.2481000000 0.9431000000 0.1780000000
-0.2482000000 5.9782000000 0.4087000000
-0.2484000000 3.7295000000 1.1306000000
-0.2485000000 5.8122000000 0.4637000000
-0.2489000000 4.1053000000 1.0498000000
-0.2490000000 6.8011000000 0.1289000000
-0.2496000000 3.4331000000 1.0301000000
-0.2500000000 0.3239000000 0.0482000000
-0.2502000000 5.4255000000 0.6022000000
-0.2508000000 3.9406000000 1.1027000000
-0.2527000000 6.0904000000 0.3660000000
-0.4884000000 5.0728000000 0.5792000000
-0.4892000000 5.8459000000 0.3140000000
-0.4895000000 2.1092000000 0.4348000000
-0.4900000000 3.4524000000 0.8943000000
-0.4905000000 6.2398000000 0.1731000000
-0.4910000000 6.9158000000 0.0215000000
-0.4912000000 5.9593000000 0.2712000000
-0.4917000000 3.0192000000 0.7432000000
-0.4923000000 4.2384000000 0.8558000000
-0.4927000000 6.5774000000 0.0586000000
-0.4928000000 4.3775000000 0.8159000000
-0.4931000000 5.8290000000 0.3157000000
-0.4938000000 5.5295000000 0.4150000000
-0.4939000000 0.7167000000 0.0365000000
-0.4941000000 0.7249000000 0.0359000000
-0.4943000000 1.4654000000 0.2146000000
-0.4950000000 6.6035000000 0.0501000000
-0.4951000000 1.5087000000 0.2304000000
-0.4954000000 1.0249000000 0.0658000000
-0.4957000000 1.6916000000 0.2915000000
-0.4959000000 2.7244000000 0.6444000000
-0.4960000000 4.6207000000 0.7195000000
-0.4962000000 6.1647000000 0.1982000000
-0.4965000000 6.3591000000 0.1330000000
-0.4966000000 5.8101000000 0.3206000000
-0.4967000000 2.5464000000 0.5813000000
-0.4972000000 4.3556000000 0.8175000000
-0.4974000000 4.9932000000 0.6021000000
-0.4975000000 3.9628000000 0.9513000000
-0.4976000000 4.4913000000 0.7719000000
-0.4977000000 4.3942000000 0.7987000000
-0.4978000000 3.8259000000 0.9795000000
-0.4983000000 3.5497000000 0.9207000000
-0.4987000000 2.3573000000 0.5156000000
-0.4992000000 4.0738000000 0.9064000000
-0.4997000000 2.0912000000 0.4264000000
-0.5001000000 1.2625000000 0.1434000000
-0.5003000000 3.1486000000 0.7897000000
-0.5006000000 5.6262000000 0.3764000000
-0.5009000000 4.6969000000 0.6984000000
-0.5013000000 2.3005000000 0.4984000000
-0.5015000000 1.1634000000 0.1026000000
-0.5016000000 2.2095000000 0.4647000000
-0.5022000000 0.8608000000 0.0751000000
-0.5024000000 1.2493000000 0.1404000000
-0.5035000000 3.2856000000 0.8326000000
-0.7409000000 6.4370000000 0.0308000000
-0.7413000000 6.2436000000 0.0277000000
-0.7417000000 5.6298000000 0.2431000000
-0.7420000000 4.5435000000 0.6079000000
-0.7427000000 2.2344000000 0.3280000000
-0.7434000000 2.5097000000 0.4273000000
-0.7437000000 2.7326000000 0.5021000000
-0.7439000000 2.3166000000 0.3599000000
-0.7444000000 1.9468000000 0.2296000000
-0.7445000000 5.1697000000 0.3869000000
-0.7448000000 6.2435000000 0.0202000000
-0.7452000000 4.2732000000 0.7035000000
-0.7454000000 1.9215000000 0.2185000000
-0.7460000000 3.3379000000 0.7040000000
-0.7458000000 1.8682000000 0.2091000000
-0.7460000000 1.7635000000 0.1694000000
-0.7465000000 5.7505000000 0.1917000000
-0.7467000000 6.3693000000 0.0581000000
-0.7472000000 3.0569000000 0.6106000000
-0.7477000000 1.0675000000 0.0054000000
-0.7478000000 5.7050000000 0.2068000000
-0.7479000000 2.6611000000 0.4722000000
-0.7481000000 4.2529000000 0.7053000000
-0.7482000000 6.1091000000 0.0688000000
-0.7490000000 4.7718000000 0.5265000000
-0.7492000000 1.9587000000 0.2341000000
-0.7493000000 2.8774000000 0.5498000000
-0.7495000000 5.9075000000 0.1340000000
