5.0019000000 3.2422000000 0.0234000000
4.9993000000 2.5634000000 0.0365000000
4.9972000000 3.0535000000 0.1113000000
4.9960000000 2.8934000000 0.1236000000
4.7612000000 2.3816000000 0.0730000000
4.7588000000 3.4190000000 0.1351000000
4.7582000000 3.1039000000 0.2144000000
4.7576000000 3.2986000000 0.1277000000
4.7573000000 2.5918000000 0.1043000000
4.7573000000 3.6162000000 0.0500000000
4.7568000000 3.1601000000 0.1874000000
4.7567000000 2.8139000000 0.2056000000
4.7565000000 2.1381000000 0.0382000000
4.7555000000 3.7310000000 0.0658000000
4.7553000000 3.1889000000 0.1781000000
4.7551000000 2.3723000000 0.0712000000
4.7549000000 3.3319000000 0.1153000000
4.7548000000 3.5998000000 0.0568000000
4.7544000000 3.2212000000 0.1663000000
4.7543000000 3.3584000000 0.0946000000
4.7541000000 2.9740000000 0.2627000000
4.7535000000 2.5009000000 0.1366000000
4.7533000000 2.3083000000 0.0431000000
4.7528000000 2.8987000000 0.2550000000
4.7517000000 3.2709000000 0.1389000000
4.7510000000 3.3249000000 0.1185000000
4.7509000000 3.4725000000 0.1189000000
4.7508000000 2.4346000000 0.1113000000
4.7507000000 2.3638000000 0.0707000000
4.7489000000 3.0997000000 0.2272000000
4.7478000000 2.6663000000 0.1484000000
4.7465000000 3.1354000000 0.2062000000
4.5110000000 3.4157000000 0.2715000000
4.5108000000 2.4043000000 0.2128000000
4.5105000000 3.3122000000 0.3201000000
4.5093000000 2.9036000000 0.4606000000
4.5084000000 2.0139000000 0.1055000000
4.5083000000 2.0721000000 0.1294000000
4.5082000000 4.0691000000 0.0357000000
4.5075000000 4.0588000000 0.0363000000
4.5073000000 3.0380000000 0.4526000000
4.5070000000 2.6453000000 0.3270000000
4.5070000000 1.8680000000 0.0409000000
4.5066000000 2.7973000000 0.4071000000
4.5064000000 1.8334000000 0.0248000000
4.5063000000 2.6757000000 0.3509000000
4.5063000000 2.5984000000 0.3119000000
4.5063000000 2.3818000000 0.2075000000
4.5061000000 2.7468000000 0.3860000000
4.5060000000 3.6500000000 0.1664000000
4.5058000000 2.5792000000 0.3067000000
4.5055000000 3.4371000000 0.2667000000
4.5050000000 4.2752000000 0.0185000000
4.5049000000 2.5141000000 0.2732000000
4.5046000000 1.7254000000 0.0496000000
4.5045000000 1.8405000000 0.0227000000
4.5041000000 3.2699000000 0.3473000000
4.5040000000 4.2641000000 0.0198000000
4.5034000000 2.1184000000 0.0889000000
4.5032000000 2.3184000000 0.1793000000
4.5029000000 2.2263000000 0.1372000000
4.5029000000 3.8587000000 0.1465000000
4.5028000000 1.9228000000 0.0673000000
4.5026000000 3.2369000000 0.3652000000
4.5025000000 2.1861000000 0.1202000000
4.5024000000 2.5743000000 0.3063000000
4.5023000000 4.1236000000 0.0155000000
4.5020000000 2.7619000000 0.3980000000
4.5011000000 2.9959000000 0.4682000000
4.5006000000 2.0127000000 0.1080000000
4.5005000000 1.9818000000 0.0980000000
4.4998000000 1.8110000000 0.0130000000
4.4995000000 3.9502000000 0.1003000000
4.4935000000 2.1314000000 0.0951000000
4.2620000000 2.9264000000 0.6557000000
4.2615000000 3.0291000000 0.6653000000
4.2606000000 4.2466000000 0.1512000000
4.2592000000 2.5183000000 0.4766000000
4.2588000000 1.5158000000 0.0815000000
4.2585000000 3.7116000000 0.3362000000
4.2582000000 2.8830000000 0.6515000000
4.2575000000 3.1762000000 0.5978000000
4.2575000000 2.4102000000 0.4338000000
4.2574000000 4.5407000000 0.0187000000
4.2570000000 3.3820000000 0.5046000000
4.2563000000 2.4923000000 0.4751000000
4.2562000000 2.6062000000 0.5192000000
4.2559000000 3.9993000000 0.2072000000
4.2558000000 3.0313000000 0.6682000000
4.2553000000 3.1308000000 0.6218000000
4.2553000000 2.9824000000 0.6729000000
4.2549000000 2.9406000000 0.6711000000
4.2548000000 4.2010000000 0.1107000000
4.2546000000 4.6873000000 0.0244000000
4.2547000000 2.5708000000 0.5080000000
4.2543000000 4.5915000000 0.0775000000
4.2543000000 4.3889000000 0.0952000000
4.2541000000 4.0002000000 0.2078000000
4.2538000000 2.6461000000 0.5436000000
4.2538000000 1.6972000000 0.0889000000
4.2537000000 1.3932000000 0.0163000000
4.2534000000 4.2895000000 0.1384000000
4.2532000000 4.4639000000 0.0542000000
4.2532000000 4.5516000000 0.0119000000
4.2531000000 1.6196000000 0.1276000000
4.2530000000 3.5829000000 0.4089000000
4.2530000000 1.7666000000 0.1253000000
4.2526000000 2.5019000000 0.4789000000
4.2525000000 1.9609000000 0.2138000000
4.2522000000 1.3567000000 0.0784000000
4.2520000000 3.7484000000 0.3263000000
4.2516000000 4.5260000000 0.0283000000
4.2508000000 3.4664000000 0.4597000000
4.2493000000 2.9891000000 0.6738000000
4.2493000000 2.5472000000 0.5023000000
4.2488000000 2.6281000000 0.5402000000
4.2485000000 4.1411000000 0.1424000000
4.2474000000 2.2438000000 0.3563000000
4.2473000000 2.4458000000 0.4554000000
4.2464000000 3.3883000000 0.5045000000
4.0148000000 2.3750000000 0.6180000000
4.0112000000 5.0567000000 0.0503000000
4.0110000000 2.2760000000 0.5667000000
4.0107000000 2.8141000000 0.8259000000
4.0104000000 1.9494000000 0.4132000000
4.0092000000 3.8857000000 0.4642000000
4.0090000000 4.3676000000 0.2317000000
4.0087000000 3.2331000000 0.7803000000
4.0083000000 2.4938000000 0.6759000000
4.0083000000 0.9321000000 0.0817000000
4.0078000000 3.0511000000 0.8645000000
4.0079000000 1.5318000000 0.2177000000
4.0070000000 2.1036000000 0.4918000000
4.0068000000 1.8733000000 0.3840000000
4.0063000000 4.6140000000 0.1194000000
4.0063000000 4.3723000000 0.2378000000
4.0060000000 2.8338000000 0.8398000000
4.0057000000 4.3552000000 0.2400000000
4.0057000000 3.1099000000 0.8386000000
4.0056000000 2.9229000000 0.8652000000
4.0056000000 2.4380000000 0.6546000000
4.0055000000 5.1388000000 0.0152000000
4.0054000000 2.8930000000 0.8717000000
4.0054000000 1.0518000000 0.0623000000
4.0049000000 4.7942000000 0.1058000000
4.0048000000 3.5765000000 0.6161000000
4.0048000000 3.6544000000 0.5775000000
4.0047000000 3.3106000000 0.7449000000
4.0046000000 1.4695000000 0.1840000000
4.0045000000 2.1916000000 0.5345000000
4.0045000000 4.6779000000 0.0897000000
4.0044000000 1.8877000000 0.3864000000
4.0043000000 4.8466000000 0.0778000000
4.0042000000 2.4485000000 0.6602000000
4.0038000000 2.1785000000 0.5273000000
4.0037000000 2.6031000000 0.7323000000
4.0034000000 4.4717000000 0.1848000000
4.0033000000 1.6851000000 0.2888000000
4.0029000000 1.1768000000 0.1242000000
4.0028000000 2.8867000000 0.8672000000
4.0027000000 3.4387000000 0.6823000000
4.0026000000 1.0424000000 0.0657000000
4.0025000000 3.6317000000 0.5886000000
4.0020000000 0.7775000000 0.0081000000
4.0019000000 1.4606000000 0.1849000000
4.0017000000 4.7363000000 0.1389000000
4.0013000000 2.6727000000 0.7683000000
4.0013000000 3.1726000000 0.8099000000
4.0010000000 2.3721000000 0.6285000000
4.0009000000 4.0490000000 0.3932000000
4.0009000000 1.8955000000 0.3970000000
4.0008000000 4.3191000000 0.2613000000
4.0005000000 1.4649000000 0.1879000000
4.0003000000 4.7809000000 0.1189000000
4.0000000000 2.4146000000 0.6437000000
3.9992000000 3.7167000000 0.5547000000
3.9989000000 2.8100000000 0.8349000000
3.9985000000 1.1110000000 0.0961000000
3.9984000000 3.0387000000 0.8766000000
3.9979000000 2.4896000000 0.6833000000
3.7633000000 4.0850000000 0.5708000000
3.7620000000 4.4707000000 0.3863000000
3.7607000000 2.0233000000 0.6547000000
3.7603000000 2.0659000000 0.6793000000
3.7599000000 5.5313000000 0.0270000000
3.7598000000 3.1447000000 1.0283000000
3.7597000000 2.7997000000 1.0304000000
3.7592000000 3.7108000000 0.7528000000
3.7591000000 4.1924000000 0.5262000000
3.7583000000 1.2585000000 0.2896000000
3.7575000000 4.7824000000 0.2480000000
3.7568000000 3.5101000000 0.8494000000
3.7568000000 3.3700000000 0.9186000000
3.7566000000 4.0740000000 0.5781000000
3.7565000000 1.5852000000 0.4526000000
3.7564000000 4.5620000000 0.3468000000
3.7563000000 1.0548000000 0.1920000000
3.7562000000 2.4141000000 0.8504000000
3.7561000000 4.7982000000 0.2352000000
3.7560000000 1.9053000000 0.5991000000
3.7558000000 5.2746000000 0.0828000000
3.7558000000 4.1958000000 0.5283000000
3.7558000000 5.4610000000 0.0671000000
3.7550000000 2.0643000000 0.6866000000
3.7549000000 2.7757000000 1.0264000000
3.7549000000 4.5398000000 0.3609000000
3.7548000000 2.6092000000 0.9452000000
3.7548000000 2.9228000000 1.0794000000
3.7548000000 3.5066000000 0.8515000000
3.7542000000 0.7100000000 0.1117000000
3.7540000000 4.3241000000 0.4677000000
3.7539000000 0.4166000000 0.0404000000
3.7538000000 1.2592000000 0.3002000000
3.7537000000 1.6786000000 0.4964000000
3.7537000000 2.0545000000 0.6750000000
3.7535000000 3.1599000000 1.0231000000
3.7535000000 4.0890000000 0.5812000000
3.7534000000 2.8750000000 1.0713000000
3.7534000000 4.4086000000 0.4289000000
3.7533000000 4.0539000000 0.5968000000
3.7533000000 4.7893000000 0.2422000000
3.7533000000 3.1541000000 1.0292000000
3.7530000000 0.6021000000 0.0556000000
3.7530000000 2.0522000000 0.6798000000
3.7528000000 3.8210000000 0.7082000000
3.7527000000 1.2169000000 0.2761000000
3.7528000000 5.0439000000 0.1200000000
3.7526000000 4.4172000000 0.4237000000
3.7525000000 0.8346000000 0.0912000000
3.7525000000 5.5825000000 0.0081000000
3.7523000000 4.4843000000 0.3937000000
3.7522000000 4.4860000000 0.3898000000
3.7517000000 4.3702000000 0.4402000000
3.7516000000 1.6122000000 0.4654000000
3.7515000000 5.0448000000 0.1209000000
3.7511000000 2.9938000000 1.0835000000
3.7510000000 1.6771000000 0.4994000000
3.7510000000 4.9175000000 0.1831000000
3.7509000000 2.3129000000 0.8027000000
3.7508000000 3.6696000000 0.7768000000
3.7505000000 3.5140000000 0.8563000000
3.7504000000 1.3039000000 0.3163000000
3.7503000000 4.9992000000 0.1460000000
3.7500000000 2.6747000000 0.9749000000
3.7496000000 4.3826000000 0.4384000000
3.7495000000 0.7155000000 0.1170000000
3.7494000000 1.8919000000 0.5987000000
3.7491000000 4.4120000000 0.4231000000
3.7490000000 4.1250000000 0.5703000000
3.7490000000 3.5225000000 0.8489000000
3.7489000000 1.2451000000 0.2868000000
3.7488000000 1.6059000000 0.4637000000
3.7483000000 1.0661000000 0.2085000000
3.7481000000 3.0519000000 1.0753000000
3.7483000000 1.2888000000 0.3218000000
3.7475000000 1.9115000000 0.6143000000
3.7469000000 3.4814000000 0.8714000000
3.5111000000 4.6197000000 0.5252000000
3.5111000000 5.4911000000 0.1045000000
3.5110000000 2.0757000000 0.8939000000
3.5109000000 2.3561000000 1.0256000000
3.5103000000 4.9184000000 0.3862000000
3.5092000000 0.4665000000 0.1171000000
3.5090000000 1.3636000000 0.5518000000
3.5088000000 1.3723000000 0.5512000000
3.5087000000 0.1682000000 0.0485000000
3.5086000000 2.4476000000 1.0659000000
3.5085000000 3.4989000000 1.0618000000
3.5082000000 4.6195000000 0.5291000000
3.5081000000 5.8834000000 0.0725000000
3.5076000000 0.2527000000 0.1000000000
3.5076000000 5.8011000000 0.0387000000
3.5075000000 4.8983000000 0.3933000000
3.5069000000 2.8903000000 1.2822000000
3.5068000000 5.6856000000 0.0910000000
3.5067000000 3.7609000000 0.9410000000
3.5064000000 2.3568000000 1.0246000000
3.5062000000 4.5971000000 0.5429000000
3.5062000000 2.5486000000 1.1174000000
3.5060000000 4.3034000000 0.6783000000
3.5060000000 3.6602000000 0.9879000000
3.5059000000 3.9121000000 0.8680000000
3.5058000000 1.3151000000 0.5234000000
3.5056000000 2.9844000000 1.2955000000
3.5054000000 4.0040000000 0.8206000000
3.5054000000 1.9715000000 0.8389000000
3.5053000000 5.2816000000 0.2153000000
3.5053000000 1.9805000000 0.8526000000
3.5052000000 0.2227000000 0.0802000000
3.5052000000 0.8548000000 0.3081000000
3.5050000000 1.0154000000 0.3866000000
3.5050000000 3.4798000000 1.0774000000
3.5048000000 0.6941000000 0.2315000000
3.5046000000 3.7428000000 0.9502000000
3.5044000000 0.3133000000 0.1198000000
3.5043000000 1.2472000000 0.4991000000
3.5042000000 0.8863000000 0.3258000000
3.5041000000 3.9957000000 0.8295000000
3.5040000000 5.5802000000 0.1444000000
3.5038000000 4.0933000000 0.7813000000
3.5037000000 4.9788000000 0.3581000000
3.5036000000 2.7875000000 1.2337000000
3.5035000000 5.7053000000 0.0822000000
3.5034000000 1.1404000000 0.4489000000
3.5033000000 1.4867000000 0.6161000000
3.5032000000 2.1519000000 0.9379000000
3.5030000000 1.1343000000 0.4417000000
3.5028000000 2.0925000000 0.9054000000
3.5027000000 2.7979000000 1.2396000000
3.5025000000 5.2127000000 0.2511000000
3.5024000000 2.3093000000 1.0078000000
3.5024000000 1.3025000000 0.5303000000
3.5023000000 5.5536000000 0.0875000000
3.5022000000 2.3659000000 1.0369000000
3.5020000000 4.7115000000 0.4902000000
3.5020000000 3.4314000000 1.0968000000
3.5018000000 4.8705000000 0.4081000000
3.5016000000 3.3805000000 1.1266000000
3.5016000000 2.6880000000 1.1909000000
3.5015000000 1.2837000000 0.5209000000
3.5015000000 0.6283000000 0.2052000000
3.5014000000 1.2108000000 0.4801000000
3.5013000000 0.2845000000 0.1093000000
3.5010000000 3.9248000000 0.8709000000
3.5007000000 3.9413000000 0.8630000000
3.5009000000 3.5635000000 1.0425000000
3.5005000000 2.7920000000 1.2396000000
3.5005000000 1.7469000000 0.7399000000
3.5003000000 0.1616000000 0.0564000000
3.5002000000 4.5664000000 0.5606000000
3.5002000000 2.6825000000 1.1867000000
3.5001000000 4.0511000000 0.8103000000
3.4997000000 1.1767000000 0.4673000000
3.4995000000 1.4932000000 0.6147000000
3.4994000000 0.5547000000 0.1701000000
3.4989000000 0.9609000000 0.3609000000
3.4982000000 5.6272000000 0.1272000000
3.4981000000 0.6708000000 0.2224000000
3.4980000000 3.2025000000 1.2183000000
3.4975000000 1.7589000000 0.7468000000
3.4973000000 1.4045000000 0.5825000000
3.4973000000 1.9566000000 0.8417000000
3.4971000000 4.3192000000 0.6805000000
3.4965000000 5.9090000000 0.0677000000
3.4953000000 0.2822000000 0.1153000000
3.4926000000 1.8618000000 0.7993000000
3.2646000000 1.6815000000 0.9041000000
3.2614000000 1.2016000000 0.6739000000
3.2611000000 3.6634000000 1.1867000000
3.2602000000 4.5543000000 0.7654000000
3.2600000000 0.4186000000 0.3038000000
3.2596000000 5.5102000000 0.3125000000
3.2588000000 0.4205000000 0.3061000000
3.2580000000 2.9581000000 1.5080000000
3.2579000000 2.0329000000 1.0807000000
3.2577000000 5.8517000000 0.1182000000
3.2575000000 3.5910000000 1.2342000000
3.2575000000 2.3109000000 1.2176000000
3.2573000000 0.7991000000 0.4855000000
3.2571000000 1.3711000000 0.7646000000
3.2570000000 4.4849000000 0.8032000000
3.2568000000 4.9574000000 0.5758000000
3.2565000000 5.2500000000 0.4364000000
3.2563000000 0.5966000000 0.3935000000
3.2563000000 1.1666000000 0.6672000000
3.2562000000 3.8543000000 1.1013000000
3.2561000000 4.8666000000 0.6219000000
3.2560000000 5.2643000000 0.4308000000
3.2559000000 0.7478000000 0.4602000000
3.2559000000 5.7184000000 0.1555000000
3.2558000000 1.9427000000 1.0307000000
3.2557000000 2.3643000000 1.2346000000
3.2556000000 2.1498000000 1.1384000000
3.2555000000 5.1650000000 0.4779000000
3.2552000000 2.0985000000 1.1098000000
3.2551000000 2.6380000000 1.3730000000
3.2551000000 4.8119000000 0.6466000000
3.2550000000 3.9233000000 1.0650000000
3.2549000000 5.2334000000 0.4431000000
3.2548000000 0.8985000000 0.5399000000
3.2547000000 1.4420000000 0.7934000000
3.2546000000 5.1768000000 0.4687000000
3.2541000000 0.5912000000 0.3876000000
3.2536000000 4.7113000000 0.6890000000
3.2536000000 1.3438000000 0.7517000000
3.2535000000 3.9505000000 1.0574000000
3.2533000000 3.8619000000 1.1012000000
3.2531000000 2.3225000000 1.2219000000
3.2530000000 1.3153000000 0.7359000000
3.2530000000 3.4643000000 1.2953000000
3.2527000000 4.0914000000 1.0019000000
3.2525000000 1.2097000000 0.6895000000
3.2524000000 2.4688000000 1.2906000000
3.2523000000 4.2460000000 0.9199000000
3.2522000000 2.2623000000 1.1929000000
3.2520000000 3.3010000000 1.3660000000
3.2518000000 1.7437000000 0.9454000000
3.2515000000 0.1926000000 0.1384000000
3.2513000000 1.2343000000 0.6997000000
3.2513000000 5.2795000000 0.4248000000
3.2512000000 5.6070000000 0.2557000000
3.2509000000 2.8404000000 1.4694000000
3.2506000000 1.2074000000 0.6878000000
3.2503000000 4.2915000000 0.8976000000
3.2502000000 0.1776000000 0.1411000000
3.2498000000 3.5197000000 1.2669000000
3.2495000000 0.1486000000 0.1068000000
3.2494000000 2.7629000000 1.4321000000
3.2493000000 2.2891000000 1.2096000000
3.2493000000 3.2556000000 1.3938000000
3.2491000000 4.7244000000 0.6946000000
3.2490000000 2.1908000000 1.1605000000
3.2489000000 1.7789000000 0.9622000000
3.2487000000 1.1778000000 0.6770000000
3.2485000000 4.1968000000 0.9413000000
3.2480000000 1.5980000000 0.8801000000
3.2472000000 2.9946000000 1.5075000000
3.2462000000 1.9295000000 1.0405000000
3.2456000000 2.5922000000 1.3528000000
3.0142000000 4.3677000000 1.0647000000
3.0140000000 5.8209000000 0.1535000000
3.0120000000 0.2734000000 0.2260000000
3.0111000000 4.5060000000 0.9964000000
3.0104000000 4.7489000000 0.8754000000
3.0098000000 2.3377000000 1.4289000000
3.0096000000 4.8641000000 0.8224000000
3.0095000000 5.8502000000 0.1231000000
3.0091000000 3.0627000000 1.6812000000
3.0089000000 4.7778000000 0.8667000000
3.0086000000 2.0285000000 1.2766000000
3.0086000000 5.8437000000 0.1264000000
3.0082000000 4.9916000000 0.7613000000
3.0080000000 5.8718000000 0.1045000000
3.0079000000 1.9912000000 1.2659000000
3.0077000000 1.0844000000 0.8296000000
3.0075000000 5.7919000000 0.1032000000
3.0074000000 5.0638000000 0.7315000000
3.0073000000 5.8452000000 0.1256000000
3.0070000000 5.1005000000 0.7016000000
3.0070000000 3.2072000000 1.6157000000
3.0069000000 0.9493000000 0.7661000000
3.0069000000 5.7885000000 0.1081000000
3.0068000000 5.1655000000 0.6715000000
3.0068000000 2.1587000000 1.3458000000
3.0066000000 3.9580000000 1.2651000000
3.0064000000 1.5540000000 1.0605000000
3.0062000000 2.5595000000 1.5429000000
3.0059000000 3.7087000000 1.3793000000
3.0058000000 4.7857000000 0.8664000000
3.0055000000 2.2299000000 1.3841000000
3.0055000000 5.2124000000 0.6408000000
3.0054000000 4.5796000000 0.9594000000
3.0051000000 2.5697000000 1.5451000000
3.0051000000 2.6289000000 1.5787000000
3.0050000000 3.4787000000 1.4922000000
3.0050000000 2.7246000000 1.6163000000
3.0047000000 0.5061000000 0.4505000000
3.0044000000 0.0550000000 0.0889000000
3.0042000000 2.4997000000 1.5122000000
3.0041000000 4.0089000000 1.2349000000
3.0040000000 1.8020000000 1.1759000000
3.0039000000 1.6761000000 1.1163000000
3.0038000000 2.4736000000 1.5005000000
3.0038000000 2.3896000000 1.4546000000
3.0037000000 1.8732000000 1.2136000000
3.0035000000 1.0903000000 0.8404000000
3.0035000000 5.7318000000 0.1602000000
3.0033000000 5.3017000000 0.5652000000
3.0030000000 3.7770000000 1.3500000000
3.0029000000 0.5404000000 0.4821000000
3.0028000000 0.7635000000 0.6690000000
3.0027000000 0.1561000000 0.1143000000
3.0026000000 0.8940000000 0.7452000000
3.0025000000 1.7001000000 1.1309000000
3.0025000000 0.0782000000 0.1154000000
3.0024000000 4.1735000000 1.1612000000
3.0022000000 0.9956000000 0.7949000000
3.0021000000 3.9356000000 1.2721000000
3.0018000000 3.1200000000 1.6659000000
3.0017000000 2.3800000000 1.4560000000
3.0016000000 5.8137000000 0.1626000000
3.0015000000 2.8980000000 1.7016000000
3.0013000000 2.1417000000 1.3440000000
3.0013000000 0.2949000000 0.2457000000
3.0013000000 5.4993000000 0.3763000000
3.0011000000 3.0410000000 1.7065000000
3.0009000000 2.5002000000 1.5154000000
3.0005000000 1.4058000000 0.9912000000
3.0004000000 3.5344000000 1.4678000000
3.0002000000 5.6425000000 0.2470000000
2.9999000000 1.2114000000 0.9001000000
2.9995000000 0.5061000000 0.4496000000
2.9991000000 1.4041000000 0.9925000000
2.9980000000 5.7192000000 0.1746000000
2.9978000000 0.0687000000 0.1052000000
2.9976000000 2.8732000000 1.6984000000
2.9972000000 2.2026000000 1.3780000000
2.9969000000 3.2535000000 1.6067000000
2.9953000000 0.4938000000 0.4405000000
2.9944000000 0.4487000000 0.3981000000
2.9937000000 1.5780000000 1.0805000000
2.7619000000 3.3940000000 1.7333000000
2.7616000000 3.4473000000 1.7081000000
2.7603000000 2.7078000000 1.8121000000
2.7595000000 5.9100000000 0.0643000000
2.7593000000 5.5556000000 0.3281000000
2.7590000000 4.2117000000 1.3391000000
2.7584000000 5.3491000000 0.5303000000
2.7583000000 5.6023000000 0.2811000000
2.7583000000 1.3794000000 1.1791000000
2.7582000000 4.9720000000 0.8862000000
2.7580000000 0.3213000000 0.2704000000
2.7580000000 3.0343000000 1.9050000000
2.7578000000 3.5910000000 1.6449000000
2.7573000000 3.0992000000 1.8823000000
2.7573000000 4.4963000000 1.2078000000
2.7572000000 2.5547000000 1.7428000000
2.7571000000 2.4362000000 1.6877000000
2.7570000000 4.4709000000 1.2214000000
2.7570000000 0.6727000000 0.6129000000
2.7568000000 1.2396000000 1.0951000000
2.7564000000 2.2005000000 1.5736000000
2.7563000000 1.0149000000 0.9397000000
2.7561000000 0.8403000000 0.7667000000
2.7560000000 5.0760000000 0.7901000000
2.7557000000 1.8119000000 1.3924000000
2.7556000000 5.2165000000 0.6538000000
2.7555000000 1.0294000000 0.9535000000
2.7555000000 0.1883000000 0.1441000000
2.7554000000 2.0834000000 1.5182000000
2.7551000000 2.9886000000 1.9161000000
2.7551000000 1.0572000000 0.9654000000
2.7550000000 3.4555000000 1.7123000000
2.7549000000 4.0952000000 1.4020000000
2.7548000000 4.8625000000 0.9786000000
2.7547000000 5.2966000000 0.5746000000
2.7546000000 4.5918000000 1.1699000000
2.7545000000 1.5711000000 1.2751000000
2.7543000000 2.8615000000 1.8897000000
2.7540000000 5.4576000000 0.4236000000
2.7541000000 0.3356000000 0.2827000000
2.7539000000 4.1582000000 1.3746000000
2.7540000000 0.1092000000 0.1423000000
2.7535000000 1.8821000000 1.4210000000
2.7535000000 3.0452000000 1.9097000000
2.7534000000 4.9249000000 0.9272000000
2.7533000000 5.6059000000 0.2788000000
2.7531000000 1.2410000000 1.1044000000
2.7530000000 1.3456000000 1.1685000000
2.7528000000 1.5503000000 1.2668000000
2.7527000000 1.8881000000 1.4238000000
2.7523000000 1.9676000000 1.4651000000
2.7523000000 1.2773000000 1.1354000000
2.7523000000 3.2715000000 1.8010000000
2.7521000000 4.5657000000 1.1800000000
2.7517000000 0.4691000000 0.4146000000
2.7515000000 3.3883000000 1.7469000000
2.7512000000 0.3318000000 0.2800000000
2.7512000000 2.6809000000 1.8109000000
2.7510000000 1.2422000000 1.0993000000
2.7511000000 3.7628000000 1.5693000000
2.7510000000 1.5064000000 1.2433000000
2.7510000000 1.6454000000 1.3102000000
2.7507000000 5.6968000000 0.1967000000
2.7507000000 1.0561000000 0.9723000000
2.7505000000 1.2502000000 1.1111000000
2.7504000000 4.3683000000 1.2736000000
2.7503000000 1.6421000000 1.3117000000
2.7502000000 5.2625000000 0.6102000000
2.7500000000 5.8805000000 0.0956000000
2.7498000000 3.6106000000 1.6401000000
2.7498000000 2.1451000000 1.5505000000
2.7495000000 4.4052000000 1.2591000000
2.7489000000 1.7862000000 1.3822000000
2.7488000000 4.3982000000 1.2643000000
2.7486000000 2.5572000000 1.7541000000
2.7485000000 2.0281000000 1.5003000000
2.7484000000 1.2593000000 1.1183000000
2.7480000000 1.8202000000 1.3970000000
2.7479000000 1.4125000000 1.2062000000
2.7468000000 3.2600000000 1.8094000000
2.7461000000 0.8445000000 0.7778000000
2.7461000000 1.3811000000 1.1916000000
2.7429000000 0.7308000000 0.6628000000
2.5128000000 5.8029000000 0.0933000000
2.5111000000 2.5730000000 1.9561000000
2.5108000000 5.7937000000 0.1029000000
2.5102000000 1.4004000000 1.3040000000
2.5102000000 0.4059000000 0.3534000000
2.5100000000 5.4773000000 0.4019000000
2.5097000000 3.4505000000 1.9112000000
2.5096000000 1.1230000000 1.0402000000
2.5090000000 2.2911000000 1.8192000000
2.5083000000 5.7897000000 0.1118000000
2.5084000000 1.2673000000 1.1720000000
2.5081000000 5.1458000000 0.7217000000
2.5081000000 1.6128000000 1.4813000000
2.5079000000 5.8628000000 0.1107000000
2.5078000000 5.7492000000 0.1436000000
2.5076000000 3.0410000000 2.1161000000
2.5075000000 3.8561000000 1.7289000000
2.5074000000 5.3267000000 0.5467000000
2.5073000000 2.6097000000 1.9725000000
2.5072000000 5.6555000000 0.2329000000
2.5070000000 3.8710000000 1.7190000000
2.5070000000 5.4642000000 0.4165000000
2.5069000000 5.6958000000 0.1927000000
2.5068000000 2.3852000000 1.8656000000
2.5067000000 1.5235000000 1.4066000000
2.5066000000 5.5646000000 0.3234000000
2.5065000000 3.8211000000 1.7413000000
2.5066000000 5.0144000000 0.8442000000
2.5064000000 0.1356000000 0.0957000000
2.5063000000 1.2880000000 1.1971000000
2.5062000000 3.3291000000 1.9835000000
2.5060000000 5.9474000000 0.0303000000
2.5060000000 5.2353000000 0.6372000000
2.5058000000 1.9004000000 1.6441000000
2.5056000000 1.4638000000 1.3666000000
2.5053000000 1.7236000000 1.5562000000
2.5053000000 2.5818000000 1.9629000000
2.5052000000 1.3238000000 1.2300000000
2.5051000000 3.7749000000 1.7682000000
2.5050000000 0.4720000000 0.4197000000
2.5050000000 5.8258000000 0.1418000000
2.5048000000 4.1016000000 1.6010000000
2.5047000000 0.6804000000 0.6136000000
2.5046000000 2.5923000000 1.9692000000
2.5046000000 5.5010000000 0.3854000000
2.5044000000 3.0313000000 2.1256000000
2.5043000000 5.6833000000 0.2061000000
2.5043000000 1.8570000000 1.6186000000
2.5043000000 0.5252000000 0.4724000000
2.5042000000 4.4348000000 1.3899000000
2.5042000000 2.2345000000 1.8049000000
2.5041000000 1.8867000000 1.6302000000
2.5040000000 4.1635000000 1.5790000000
2.5039000000 1.6089000000 1.4834000000
2.5038000000 0.3249000000 0.2723000000
2.5038000000 2.7849000000 2.0651000000
2.5036000000 5.1958000000 0.6766000000
2.5035000000 3.4624000000 1.9125000000
2.5034000000 2.8123000000 2.0846000000
2.5033000000 0.8789000000 0.8097000000
2.5034000000 1.5199000000 1.4051000000
2.5032000000 5.0649000000 0.8035000000
2.5031000000 1.1632000000 1.0826000000
2.5031000000 0.1396000000 0.1005000000
2.5030000000 3.0675000000 2.0967000000
2.5029000000 4.6202000000 1.2235000000
2.5028000000 0.4910000000 0.4393000000
2.5028000000 2.5758000000 1.9654000000
2.5025000000 3.6405000000 1.8269000000
2.5024000000 3.5415000000 1.8760000000
2.5024000000 5.6539000000 0.2411000000
2.5023000000 1.4108000000 1.3156000000
2.5021000000 5.2946000000 0.5821000000
2.5021000000 4.4069000000 1.4106000000
2.5020000000 4.8043000000 1.0472000000
2.5018000000 3.4842000000 1.9056000000
2.5017000000 0.5375000000 0.4777000000
2.5015000000 0.3505000000 0.2973000000
2.5010000000 2.6441000000 1.9992000000
2.5006000000 0.3180000000 0.2674000000
2.5005000000 1.1663000000 1.0785000000
2.5003000000 2.1337000000 1.7531000000
2.5003000000 4.6309000000 1.2159000000
2.5003000000 0.4523000000 0.3986000000
2.5002000000 3.5405000000 1.8827000000
2.5000000000 4.0926000000 1.6104000000
2.4998000000 4.8853000000 0.9758000000
2.4996000000 3.1030000000 2.0913000000
2.4993000000 0.5673000000 0.5152000000
2.4985000000 0.2283000000 0.1834000000
2.4983000000 0.3320000000 0.2818000000
2.4981000000 3.8220000000 1.7488000000
2.4981000000 3.7804000000 1.7667000000
2.4979000000 3.4396000000 1.9323000000
2.4970000000 2.7985000000 2.0813000000
2.4959000000 2.9305000000 2.1270000000
2.2644000000 2.1336000000 1.9479000000
2.2621000000 2.3687000000 2.0620000000
2.2612000000 5.5763000000 0.3084000000
2.2608000000 5.4275000000 0.4517000000
2.2595000000 4.0292000000 1.7819000000
2.2594000000 5.0137000000 0.8423000000
2.2593000000 2.3807000000 2.0803000000
2.2592000000 4.1942000000 1.6307000000
2.2588000000 4.8791000000 0.9752000000
2.2586000000 5.7652000000 0.1267000000
2.2584000000 3.5041000000 2.0982000000
2.2584000000 4.2167000000 1.6114000000
2.2583000000 4.6277000000 1.2175000000
2.2579000000 3.9504000000 1.8526000000
2.2575000000 2.8124000000 2.2797000000
2.2573000000 0.4936000000 0.4393000000
2.2569000000 4.0765000000 1.7448000000
2.2569000000 4.1609000000 1.6635000000
2.2568000000 2.4218000000 2.0958000000
2.2568000000 3.6561000000 2.0270000000
2.2566000000 4.1303000000 1.6894000000
2.2563000000 5.3582000000 0.5172000000
2.2565000000 4.2890000000 1.5446000000
2.2562000000 5.9371000000 0.0376000000
2.2561000000 3.4500000000 2.1265000000
2.2560000000 4.5242000000 1.3136000000
2.2560000000 4.5192000000 1.3232000000
2.2558000000 2.7980000000 2.2795000000
2.2558000000 1.5387000000 1.4376000000
2.2556000000 3.5428000000 2.0825000000
2.2552000000 0.6160000000 0.5572000000
2.2552000000 3.9139000000 1.8923000000
2.2551000000 0.3704000000 0.3187000000
2.2551000000 4.7424000000 1.1048000000
2.2550000000 0.7226000000 0.6560000000
2.2545000000 4.9685000000 0.8910000000
2.2545000000 0.4128000000 0.3569000000
2.2543000000 5.7832000000 0.1149000000
2.2542000000 3.6717000000 2.0220000000
2.2540000000 0.4411000000 0.3886000000
2.2540000000 4.6214000000 1.2228000000
2.2539000000 3.1829000000 2.2554000000
2.2535000000 1.6093000000 1.5073000000
2.2535000000 0.6482000000 0.5825000000
2.2533000000 0.6888000000 0.6287000000
2.2532000000 0.0764000000 0.1179000000
2.2532000000 4.1937000000 1.6357000000
2.2531000000 2.8555000000 2.3016000000
2.2531000000 4.5723000000 1.2722000000
2.2530000000 5.5712000000 0.3168000000
2.2529000000 5.5215000000 0.3657000000
2.2528000000 1.9713000000 1.8385000000
2.2527000000 4.8447000000 1.0104000000
2.2526000000 3.2016000000 2.2481000000
2.2526000000 2.2217000000 1.9989000000
2.2525000000 5.0510000000 0.8142000000
2.2524000000 0.1105000000 0.1454000000
2.2523000000 4.8302000000 1.0224000000
2.2523000000 0.7064000000 0.6408000000
2.2522000000 3.9816000000 1.8240000000
2.2521000000 4.3630000000 1.4713000000
2.2519000000 3.2120000000 2.2433000000
2.2518000000 2.8059000000 2.2836000000
2.2518000000 3.6470000000 2.0382000000
2.2517000000 2.7275000000 2.2445000000
2.2517000000 3.1297000000 2.2832000000
2.2516000000 3.5943000000 2.0690000000
2.2515000000 0.2205000000 0.1763000000
2.2514000000 1.3107000000 1.2192000000
2.2515000000 1.2141000000 1.1289000000
2.2513000000 2.2504000000 2.0261000000
2.2512000000 0.6694000000 0.6146000000
2.2509000000 0.8570000000 0.7871000000
2.2507000000 5.1236000000 0.7477000000
2.2506000000 2.0612000000 1.9134000000
2.2500000000 3.4786000000 2.1130000000
2.2500000000 3.1451000000 2.2777000000
2.2499000000 1.7934000000 1.6844000000
2.2496000000 4.8997000000 0.9656000000
2.2493000000 0.6840000000 0.6211000000
2.2491000000 2.2849000000 2.0351000000
2.2490000000 4.0252000000 1.7958000000
2.2487000000 1.9227000000 1.8018000000
2.2486000000 0.4072000000 0.3580000000
2.2485000000 0.1867000000 0.1458000000
2.2485000000 3.2562000000 2.2251000000
2.2477000000 1.5342000000 1.4350000000
2.2475000000 0.3311000000 0.2793000000
2.2474000000 2.1223000000 1.9464000000
2.2471000000 2.2776000000 2.0342000000
2.2470000000 2.1823000000 1.9883000000
2.2468000000 5.2068000000 0.6617000000
2.2462000000 2.1974000000 1.9949000000
2.2415000000 3.9589000000 1.8407000000
2.0177000000 2.7797000000 2.4673000000
2.0132000000 4.9467000000 0.9164000000
2.0111000000 4.6091000000 1.2316000000
2.0111000000 0.7552000000 0.6909000000
2.0108000000 3.2759000000 2.4125000000
2.0108000000 4.4782000000 1.3651000000
2.0107000000 5.4192000000 0.4531000000
2.0100000000 5.0528000000 0.8103000000
2.0098000000 2.6931000000 2.4259000000
2.0091000000 3.1147000000 2.4905000000
2.0088000000 5.3356000000 0.5353000000
2.0083000000 4.0437000000 1.7772000000
2.0083000000 4.4030000000 1.4333000000
2.0081000000 1.5995000000 1.4935000000
2.0080000000 2.3702000000 2.2160000000
2.0079000000 3.6000000000 2.2036000000
2.0078000000 2.7560000000 2.4603000000
2.0078000000 1.9871000000 1.8728000000
2.0075000000 3.6269000000 2.1748000000
2.0070000000 4.2033000000 1.6281000000
2.0069000000 1.9723000000 1.8553000000
2.0068000000 2.3005000000 2.1674000000
2.0067000000 3.6585000000 2.1470000000
2.0064000000 1.7478000000 1.6366000000
2.0060000000 3.6303000000 2.1774000000
2.0060000000 2.6987000000 2.4345000000
2.0058000000 0.6472000000 0.5840000000
2.0055000000 2.8894000000 2.5255000000
2.0053000000 3.7508000000 2.0547000000
2.0051000000 4.0058000000 1.8204000000
2.0052000000 5.1972000000 0.6744000000
2.0050000000 2.9863000000 2.5400000000
2.0049000000 2.7848000000 2.4771000000
2.0045000000 3.0425000000 2.5325000000
2.0044000000 4.3261000000 1.5043000000
2.0043000000 0.7652000000 0.6987000000
2.0041000000 3.6565000000 2.1546000000
2.0042000000 3.8687000000 1.9439000000
2.0042000000 5.9301000000 0.0382000000
2.0040000000 5.4487000000 0.4333000000
2.0039000000 1.2896000000 1.1977000000
2.0039000000 2.5426000000 2.3483000000
2.0038000000 5.7662000000 0.1253000000
2.0038000000 2.3764000000 2.2237000000
2.0035000000 4.4037000000 1.4363000000
2.0034000000 1.8482000000 1.7277000000
2.0033000000 2.5969000000 2.3857000000
2.0029000000 1.1228000000 1.0396000000
2.0028000000 1.0554000000 0.9694000000
2.0028000000 3.0786000000 2.5132000000
2.0027000000 2.3534000000 2.2115000000
2.0026000000 4.0226000000 1.8018000000
2.0025000000 4.0863000000 1.7319000000
2.0025000000 1.3031000000 1.2096000000
2.0024000000 3.4570000000 2.3137000000
2.0023000000 4.3406000000 1.4942000000
2.0023000000 0.2116000000 0.1700000000
2.0022000000 0.6888000000 0.6233000000
2.0021000000 0.7219000000 0.6571000000
2.0020000000 1.3143000000 1.2173000000
2.0019000000 1.2014000000 1.1175000000
2.0015000000 2.3628000000 2.2248000000
2.0010000000 1.1793000000 1.0938000000
2.0009000000 0.7588000000 0.6893000000
2.0008000000 0.7940000000 0.7214000000
2.0008000000 4.6512000000 1.1923000000
2.0007000000 2.1623000000 2.0399000000
2.0004000000 4.1875000000 1.6345000000
2.0000000000 1.9111000000 1.7918000000
1.9996000000 1.2958000000 1.2067000000
1.9995000000 1.6536000000 1.5449000000
1.9993000000 0.4777000000 0.4263000000
1.9993000000 5.7745000000 0.1173000000
1.9990000000 0.7339000000 0.6676000000
1.9988000000 2.3036000000 2.1730000000
1.9988000000 1.4201000000 1.3244000000
1.9987000000 2.7041000000 2.4426000000
1.9980000000 2.3443000000 2.2079000000
1.9977000000 0.3469000000 0.2972000000
1.9975000000 1.4767000000 1.3770000000
1.9973000000 0.3553000000 0.3080000000
1.9971000000 4.4445000000 1.3903000000
1.9970000000 0.7729000000 0.7021000000
1.9965000000 3.8337000000 1.9782000000
1.7644000000 1.1145000000 1.0320000000
1.7614000000 2.8100000000 2.6418000000
1.7609000000 4.5338000000 1.3107000000
1.7590000000 1.4774000000 1.3795000000
1.7588000000 1.3928000000 1.3032000000
1.7587000000 2.2027000000 2.0777000000
1.7585000000 3.7102000000 2.0967000000
1.7579000000 3.0899000000 2.6711000000
1.7578000000 3.3985000000 2.3954000000
1.7576000000 1.9200000000 1.8012000000
1.7574000000 5.0667000000 0.7932000000
1.7573000000 2.8580000000 2.7463000000
1.7572000000 0.2814000000 0.2336000000
1.7571000000 2.8742000000 2.7561000000
1.7570000000 4.6620000000 1.1819000000
1.7568000000 4.0728000000 1.7482000000
1.7563000000 3.8862000000 1.9301000000
1.7562000000 4.6528000000 1.1906000000
1.7560000000 4.7086000000 1.1423000000
1.7559000000 2.3966000000 2.2622000000
1.7559000000 0.5095000000 0.4567000000
1.7558000000 2.6926000000 2.5436000000
1.7556000000 4.4758000000 1.3654000000
1.7555000000 0.1684000000 0.1229000000
1.7554000000 3.2299000000 2.5601000000
1.7553000000 2.3927000000 2.2585000000
1.7553000000 2.3104000000 2.1800000000
1.7549000000 5.9333000000 0.0412000000
1.7550000000 2.8327000000 2.6667000000
1.7548000000 0.9292000000 0.8513000000
1.7547000000 2.8422000000 2.6666000000
1.7545000000 4.1836000000 1.6452000000
1.7545000000 2.4598000000 2.3203000000
1.7544000000 0.3735000000 0.3194000000
1.7541000000 3.0657000000 2.7480000000
1.7540000000 0.1169000000 0.1475000000
1.7539000000 1.3424000000 1.2585000000
1.7538000000 1.7438000000 1.6382000000
1.7536000000 5.8594000000 0.1138000000
1.7535000000 4.1677000000 1.6589000000
1.7534000000 3.7997000000 2.0095000000
1.7533000000 2.0609000000 1.9414000000
1.7533000000 2.8908000000 2.7390000000
1.7532000000 3.6328000000 2.1735000000
1.7531000000 4.7636000000 1.0910000000
1.7530000000 3.3941000000 2.4021000000
1.7530000000 1.2929000000 1.1987000000
1.7529000000 1.2008000000 1.1135000000
1.7528000000 2.6216000000 2.4734000000
1.7525000000 0.1079000000 0.1408000000
1.7526000000 0.1461000000 0.1040000000
1.7525000000 2.5139000000 2.3695000000
1.7523000000 3.2922000000 2.4986000000
1.7515000000 0.8766000000 0.7974000000
1.7513000000 0.4902000000 0.4294000000
1.7510000000 0.5870000000 0.5308000000
1.7510000000 1.5799000000 1.4788000000
1.7509000000 4.1609000000 1.6647000000
1.7509000000 1.6303000000 1.5236000000
1.7508000000 3.4311000000 2.3665000000
1.7507000000 1.0715000000 0.9903000000
1.7506000000 1.5295000000 1.4309000000
1.7505000000 1.4531000000 1.3614000000
1.7505000000 3.9497000000 1.8681000000
1.7503000000 5.3775000000 0.5032000000
1.7503000000 1.5621000000 1.4608000000
1.7498000000 1.0690000000 0.9915000000
1.7498000000 4.6151000000 1.2319000000
1.7491000000 3.0976000000 2.6666000000
1.7490000000 2.2814000000 2.1504000000
1.7489000000 4.4930000000 1.3463000000
1.7487000000 1.0801000000 1.0052000000
1.7485000000 0.8874000000 0.8102000000
1.7484000000 4.1179000000 1.7032000000
1.7478000000 0.2131000000 0.1656000000
1.7475000000 4.8780000000 0.9798000000
1.7474000000 0.2337000000 0.1864000000
1.7471000000 3.1251000000 2.6463000000
1.7469000000 0.0178000000 0.0587000000
1.7460000000 5.6700000000 0.2234000000
1.7451000000 2.9946000000 2.7476000000
1.7447000000 1.8872000000 1.7697000000
1.7439000000 4.5870000000 1.2529000000
1.5151000000 3.8959000000 1.9232000000
1.5116000000 4.8711000000 0.9838000000
1.5115000000 5.8831000000 0.0897000000
1.5114000000 2.3799000000 2.2492000000
1.5099000000 4.8980000000 0.9601000000
1.5097000000 4.9852000000 0.8785000000
1.5096000000 5.4339000000 0.4458000000
1.5095000000 4.7903000000 1.0659000000
1.5088000000 5.8662000000 0.1044000000
1.5080000000 5.9086000000 0.0630000000
1.5080000000 2.8330000000 2.5742000000
1.5079000000 3.4516000000 2.3439000000
1.5079000000 4.3742000000 1.4615000000
1.5078000000 2.1298000000 2.0010000000
1.5077000000 4.9914000000 0.8697000000
1.5073000000 0.0563000000 0.0942000000
1.5071000000 4.8315000000 1.0242000000
1.5070000000 4.9978000000 0.8666000000
1.5069000000 3.6856000000 2.1175000000
1.5069000000 0.9014000000 0.8317000000
1.5067000000 4.5792000000 1.2686000000
1.5066000000 5.6502000000 0.2446000000
1.5063000000 3.6080000000 2.1965000000
1.5063000000 3.2848000000 2.4674000000
1.5063000000 2.4067000000 2.2689000000
1.5061000000 1.4177000000 1.3278000000
1.5060000000 3.1760000000 2.5347000000
1.5059000000 0.4034000000 0.3574000000
1.5058000000 3.2114000000 2.5185000000
1.5057000000 0.7127000000 0.6513000000
1.5055000000 1.4390000000 1.3404000000
1.5054000000 4.8725000000 0.9847000000
1.5055000000 4.3408000000 1.4900000000
1.5053000000 4.6188000000 1.2255000000
1.5053000000 5.5788000000 0.3039000000
1.5052000000 4.8312000000 1.0264000000
1.5050000000 2.7482000000 2.5294000000
1.5049000000 1.3777000000 1.2841000000
1.5048000000 2.8937000000 2.5998000000
1.5048000000 1.2653000000 1.1786000000
1.5047000000 0.9868000000 0.9116000000
1.5047000000 3.4442000000 2.3465000000
1.5045000000 4.4743000000 1.3673000000
1.5044000000 1.8142000000 1.7036000000
1.5044000000 1.8766000000 1.7600000000
1.5043000000 1.0986000000 1.0162000000
1.5042000000 4.8461000000 1.0128000000
1.5038000000 5.9411000000 0.0356000000
1.5038000000 4.5227000000 1.3192000000
1.5036000000 2.6610000000 2.4694000000
1.5035000000 0.2209000000 0.1753000000
1.5035000000 4.5237000000 1.3182000000
1.5033000000 2.3893000000 2.2520000000
1.5031000000 2.3263000000 2.1942000000
1.5030000000 5.6246000000 0.2665000000
1.5030000000 4.7498000000 1.1039000000
1.5028000000 0.5808000000 0.5195000000
1.5025000000 3.4721000000 2.3275000000
1.5024000000 0.5963000000 0.5342000000
1.5023000000 4.3470000000 1.4863000000
1.5025000000 2.1052000000 1.9832000000
1.5019000000 1.5226000000 1.4202000000
1.5019000000 2.1833000000 2.0503000000
1.5018000000 1.8674000000 1.7551000000
1.5016000000 3.6899000000 2.1107000000
1.5015000000 5.0715000000 0.7904000000
1.5015000000 4.9668000000 0.8889000000
1.5013000000 0.3740000000 0.3223000000
1.5013000000 5.7100000000 0.1807000000
1.5012000000 0.9656000000 0.8877000000
1.5011000000 2.2025000000 2.0738000000
1.5009000000 0.5546000000 0.5012000000
1.5005000000 1.4540000000 1.3582000000
1.5004000000 5.8024000000 0.0964000000
1.5000000000 2.8950000000 2.6001000000
1.4997000000 4.6012000000 1.2420000000
1.4996000000 1.6606000000 1.5544000000
1.4995000000 4.3508000000 1.4858000000
1.4994000000 4.4189000000 1.4183000000
1.4993000000 2.2498000000 2.1198000000
1.4993000000 2.8355000000 2.5726000000
1.4992000000 1.2019000000 1.1142000000
1.4988000000 3.7620000000 2.0453000000
1.4986000000 5.3280000000 0.5463000000
1.4985000000 0.0149000000 0.0533000000
1.4983000000 1.1656000000 1.0759000000
1.4969000000 4.9276000000 0.9302000000
1.4956000000 3.2101000000 2.5106000000
1.2633000000 5.5742000000 0.3144000000
1.2631000000 3.7454000000 2.0477000000
1.2629000000 5.2912000000 0.5819000000
1.2618000000 1.8728000000 1.7597000000
1.2610000000 3.7645000000 2.0294000000
1.2605000000 3.8225000000 1.9762000000
1.2603000000 5.2453000000 0.6259000000
1.2602000000 5.4647000000 0.4137000000
1.2599000000 4.8943000000 0.9635000000
1.2596000000 4.5249000000 1.3091000000
1.2595000000 2.2183000000 2.0559000000
1.2586000000 5.7750000000 0.1175000000
1.2582000000 3.9832000000 1.8265000000
1.2581000000 5.1720000000 0.7020000000
1.2575000000 4.7391000000 1.1088000000
1.2575000000 5.5558000000 0.3265000000
1.2574000000 4.3704000000 1.4646000000
1.2573000000 3.5257000000 2.1616000000
1.2572000000 4.8386000000 1.0194000000
1.2571000000 4.4777000000 1.3563000000
1.2569000000 3.2137000000 2.3107000000
1.2568000000 3.2657000000 2.2857000000
1.2564000000 2.6300000000 2.2686000000
1.2563000000 1.1054000000 1.0264000000
1.2562000000 5.4949000000 0.3884000000
1.2561000000 2.1481000000 2.0082000000
1.2559000000 3.6618000000 2.0925000000
1.2559000000 0.1634000000 0.1207000000
1.2556000000 3.1080000000 2.3663000000
1.2556000000 0.2264000000 0.1812000000
1.2555000000 5.6592000000 0.2333000000
1.2554000000 2.7535000000 2.3276000000
1.2553000000 1.8562000000 1.7410000000
1.2553000000 2.9852000000 2.4036000000
1.2553000000 0.2681000000 0.2269000000
1.2551000000 5.0970000000 0.7647000000
1.2550000000 4.9820000000 0.8791000000
1.2549000000 4.7160000000 1.1385000000
1.2548000000 1.8528000000 1.7373000000
1.2548000000 0.1768000000 0.1352000000
1.2547000000 2.3666000000 2.1364000000
1.2546000000 3.3219000000 2.2532000000
1.2545000000 1.8089000000 1.6982000000
1.2544000000 2.8214000000 2.3606000000
1.2543000000 3.2788000000 2.2782000000
1.2542000000 5.6425000000 0.2455000000
1.2542000000 1.1487000000 1.0605000000
1.2541000000 3.9857000000 1.8329000000
1.2540000000 1.6294000000 1.5292000000
1.2538000000 5.3459000000 0.5320000000
1.2537000000 4.8858000000 0.9760000000
1.2536000000 0.7871000000 0.7154000000
1.2536000000 0.7298000000 0.6672000000
1.2534000000 3.3175000000 2.2572000000
1.2533000000 4.4788000000 1.3580000000
1.2531000000 4.9752000000 0.8825000000
1.2531000000 4.8426000000 1.0119000000
1.2529000000 4.1841000000 1.6416000000
1.2526000000 0.7928000000 0.7219000000
1.2526000000 3.7318000000 2.0422000000
1.2525000000 5.9085000000 0.0693000000
1.2525000000 1.4780000000 1.3731000000
1.2525000000 0.9250000000 0.8524000000
1.2523000000 4.5261000000 1.3164000000
1.2522000000 3.6068000000 2.1212000000
1.2520000000 2.6026000000 2.2509000000
1.2520000000 0.0842000000 0.1227000000
1.2519000000 2.0212000000 1.9015000000
1.2518000000 1.7426000000 1.6378000000
1.2518000000 2.8847000000 2.3870000000
1.2516000000 3.2199000000 2.3024000000
1.2515000000 5.8086000000 0.0851000000
1.2514000000 1.6050000000 1.5012000000
1.2513000000 2.4500000000 2.1764000000
1.2513000000 4.2717000000 1.5579000000
1.2513000000 2.9798000000 2.4041000000
1.2512000000 1.1854000000 1.0963000000
1.2510000000 2.6929000000 2.2943000000
1.2511000000 0.9440000000 0.8676000000
1.2510000000 0.7806000000 0.7119000000
1.2508000000 5.6041000000 0.2847000000
1.2506000000 4.4947000000 1.3480000000
1.2505000000 0.9710000000 0.8994000000
1.2500000000 5.5906000000 0.2942000000
1.2499000000 0.6629000000 0.6013000000
1.2498000000 1.1904000000 1.1056000000
1.2495000000 1.3018000000 1.2138000000
1.2492000000 4.4495000000 1.3871000000
1.2491000000 3.5817000000 2.1266000000
1.2486000000 0.8403000000 0.7715000000
1.2485000000 5.2062000000 0.6626000000
1.2482000000 1.2028000000 1.1137000000
1.2478000000 3.5770000000 2.1259000000
1.2474000000 5.5503000000 0.3330000000
1.2471000000 0.8734000000 0.7993000000
1.2470000000 5.2264000000 0.6442000000
1.2442000000 0.7802000000 0.7106000000
1.2436000000 1.2008000000 1.1215000000
1.2433000000 0.7539000000 0.6887000000
1.0123000000 4.0973000000 1.6686000000
1.0122000000 4.8368000000 1.0196000000
1.0096000000 5.7283000000 0.1635000000
1.0091000000 2.9681000000 2.2081000000
1.0089000000 5.4211000000 0.4589000000
1.0085000000 4.3530000000 1.4810000000
1.0085000000 0.1996000000 0.1607000000
1.0084000000 1.1502000000 1.0684000000
1.0082000000 1.1093000000 1.0282000000
1.0076000000 4.4666000000 1.3722000000
1.0076000000 4.3599000000 1.4760000000
1.0073000000 5.3269000000 0.5519000000
1.0070000000 4.3160000000 1.5171000000
1.0068000000 4.0026000000 1.7257000000
1.0066000000 2.2527000000 1.8754000000
1.0065000000 4.4365000000 1.3964000000
1.0064000000 5.3177000000 0.5513000000
1.0063000000 1.9542000000 1.7355000000
1.0062000000 3.0445000000 2.1872000000
1.0061000000 5.6388000000 0.2471000000
1.0060000000 4.4690000000 1.3694000000
1.0058000000 5.5363000000 0.3486000000
1.0058000000 0.8417000000 0.7760000000
1.0058000000 5.1124000000 0.7580000000
1.0054000000 1.3403000000 1.2511000000
1.0051000000 0.2607000000 0.2164000000
1.0050000000 5.7555000000 0.1363000000
1.0049000000 4.8432000000 1.0107000000
1.0048000000 1.3355000000 1.2414000000
1.0045000000 2.6292000000 2.0591000000
1.0043000000 1.9273000000 1.7202000000
1.0042000000 4.4888000000 1.3460000000
1.0038000000 5.9475000000 0.0268000000
1.0039000000 0.9490000000 0.8821000000
1.0037000000 2.2532000000 1.8802000000
1.0036000000 2.0758000000 1.7885000000
1.0035000000 3.0870000000 2.1633000000
1.0034000000 1.6463000000 1.5287000000
1.0034000000 0.7014000000 0.6383000000
1.0032000000 2.9241000000 2.1818000000
1.0031000000 2.7132000000 2.0980000000
1.0028000000 0.5634000000 0.5073000000
1.0028000000 3.7717000000 1.8335000000
1.0025000000 0.4557000000 0.4056000000
1.0025000000 1.6398000000 1.5311000000
1.0024000000 1.1096000000 1.0280000000
1.0022000000 0.2356000000 0.1912000000
1.0020000000 0.5727000000 0.5124000000
1.0019000000 0.7441000000 0.6770000000
1.0018000000 1.1472000000 1.0607000000
1.0018000000 1.8334000000 1.6587000000
1.0017000000 2.4474000000 1.9783000000
1.0017000000 0.5900000000 0.5289000000
1.0014000000 1.6216000000 1.5097000000
1.0013000000 0.8160000000 0.7528000000
1.0013000000 0.5434000000 0.4874000000
1.0010000000 3.0997000000 2.1529000000
1.0009000000 0.4277000000 0.3710000000
1.0004000000 0.3860000000 0.3340000000
1.0003000000 0.2582000000 0.2109000000
1.0000000000 3.3436000000 2.0353000000
1.0001000000 1.1687000000 1.0838000000
1.0000000000 0.0963000000 0.1394000000
0.9999000000 1.5197000000 1.4202000000
0.9995000000 0.7623000000 0.6947000000
0.9995000000 0.9978000000 0.9263000000
0.9994000000 0.0708000000 0.1049000000
0.9993000000 1.8277000000 1.6566000000
0.9990000000 4.9525000000 0.9085000000
0.9987000000 1.7603000000 1.6167000000
0.9987000000 1.8607000000 1.6815000000
0.9986000000 5.0339000000 0.8307000000
0.9982000000 1.0313000000 0.9540000000
0.9980000000 1.1343000000 1.0556000000
0.9977000000 2.8642000000 2.1627000000
0.9976000000 3.6278000000 1.8969000000
0.7624000000 0.1633000000 0.1235000000
0.7600000000 4.1990000000 1.4297000000
0.7591000000 3.3882000000 1.8120000000
0.7590000000 5.1611000000 0.7104000000
0.7588000000 3.8954000000 1.5741000000
0.7583000000 2.5748000000 1.8288000000
0.7580000000 5.3606000000 0.5186000000
0.7579000000 3.8347000000 1.5999000000
0.7577000000 4.7581000000 1.0923000000
0.7577000000 4.8712000000 0.9822000000
0.7572000000 2.1578000000 1.6267000000
0.7569000000 4.5872000000 1.2233000000
0.7567000000 5.6627000000 0.2231000000
0.7567000000 1.9320000000 1.5194000000
0.7566000000 0.7753000000 0.7017000000
0.7565000000 4.6300000000 1.2032000000
0.7565000000 3.5685000000 1.7295000000
0.7565000000 4.9408000000 0.9172000000
0.7563000000 5.6648000000 0.2245000000
0.7561000000 5.3655000000 0.5132000000
0.7560000000 4.7964000000 1.0563000000
0.7558000000 1.7968000000 1.4525000000
0.7555000000 1.1297000000 1.0522000000
0.7552000000 1.6510000000 1.3858000000
0.7549000000 0.7830000000 0.7152000000
0.7548000000 1.2720000000 1.1644000000
