5.5080000000 3.0431000000 0.0481000000
5.5060000000 2.9718000000 0.0237000000
5.5019000000 3.0208000000 0.0466000000
5.5017000000 3.4866000000 0.0134000000
5.4974000000 3.1628000000 0.0877000000
5.2605000000 3.0993000000 0.1399000000
5.2582000000 3.5716000000 0.0473000000
5.2563000000 2.6455000000 0.0615000000
5.2559000000 2.9382000000 0.0899000000
5.2553000000 2.7580000000 0.0301000000
5.2548000000 3.5801000000 0.0543000000
5.2543000000 3.4676000000 0.0865000000
5.2532000000 3.3660000000 0.1268000000
5.2523000000 3.6351000000 0.0314000000
5.2515000000 3.6746000000 0.0134000000
5.2500000000 3.4169000000 0.1095000000
5.2458000000 2.9523000000 0.1073000000
5.0095000000 2.1539000000 0.0436000000
5.0077000000 3.5205000000 0.2155000000
5.0073000000 3.0001000000 0.2575000000
5.0067000000 2.0462000000 0.0091000000
5.0062000000 2.2758000000 0.0112000000
5.0060000000 3.8725000000 0.0983000000
5.0053000000 2.2344000000 0.0703000000
5.0044000000 4.0461000000 0.0398000000
5.0040000000 2.5833000000 0.1199000000
5.0038000000 2.4289000000 0.0605000000
5.0030000000 4.2948000000 0.0303000000
5.0026000000 2.3191000000 0.0280000000
5.0019000000 3.6498000000 0.1784000000
5.0017000000 2.2080000000 0.0631000000
5.0002000000 3.8298000000 0.1158000000
4.7626000000 3.9718000000 0.2066000000
4.7607000000 3.7367000000 0.2861000000
4.7603000000 4.6762000000 0.0419000000
4.7597000000 4.2415000000 0.1173000000
4.7586000000 2.3994000000 0.1915000000
4.7583000000 3.4592000000 0.3880000000
4.7578000000 2.5310000000 0.2456000000
4.7572000000 4.1495000000 0.1486000000
4.7569000000 1.6761000000 0.0262000000
4.7560000000 2.3906000000 0.1971000000
4.7555000000 2.4484000000 0.2193000000
4.7549000000 2.9071000000 0.3783000000
4.7546000000 4.6580000000 0.0472000000
4.7543000000 3.6194000000 0.3349000000
4.7538000000 2.7868000000 0.3309000000
4.7534000000 1.8883000000 0.0251000000
4.7532000000 2.8918000000 0.3671000000
4.7524000000 1.6613000000 0.0243000000
4.7516000000 2.9046000000 0.3738000000
4.7507000000 2.4510000000 0.2159000000
4.7505000000 2.0182000000 0.0736000000
4.7484000000 3.0388000000 0.4218000000
4.7468000000 2.8795000000 0.3671000000
4.5132000000 4.4982000000 0.1732000000
4.5090000000 5.0200000000 0.0708000000
4.5075000000 3.1553000000 0.5949000000
4.5068000000 5.1235000000 0.0450000000
4.5060000000 4.9828000000 0.0144000000
4.5054000000 3.3872000000 0.5547000000
4.5052000000 1.7793000000 0.1323000000
4.5049000000 2.0879000000 0.2435000000
4.5043000000 1.4602000000 0.0278000000
4.5043000000 3.7097000000 0.4549000000
4.5035000000 4.7008000000 0.1127000000
4.5032000000 2.3169000000 0.3206000000
4.5029000000 4.9152000000 0.0337000000
4.5028000000 1.5341000000 0.0532000000
4.5028000000 3.9698000000 0.3587000000
4.5026000000 2.9177000000 0.5248000000
4.5024000000 3.6887000000 0.4602000000
4.5023000000 2.6420000000 0.4335000000
4.5020000000 4.2280000000 0.2759000000
4.5016000000 2.5971000000 0.4166000000
4.5010000000 2.2531000000 0.3000000000
4.4991000000 3.9229000000 0.3796000000
4.4986000000 3.7933000000 0.4286000000
4.4975000000 2.5982000000 0.4249000000
4.2638000000 2.0648000000 0.3788000000
4.2620000000 3.9775000000 0.4996000000
4.2616000000 5.0222000000 0.1490000000
4.2614000000 3.9262000000 0.5162000000
4.2613000000 1.1031000000 0.0498000000
4.2603000000 4.7317000000 0.2406000000
4.2584000000 4.8312000000 0.2101000000
4.2582000000 3.9555000000 0.5098000000
4.2576000000 3.7001000000 0.5985000000
4.2567000000 1.1132000000 0.0585000000
4.2563000000 2.1649000000 0.4145000000
4.2561000000 1.0899000000 0.0498000000
4.2558000000 3.8614000000 0.5405000000
4.2555000000 4.4523000000 0.3447000000
4.2548000000 2.4083000000 0.5015000000
4.2546000000 2.8054000000 0.6391000000
4.2544000000 1.0735000000 0.0405000000
4.2543000000 4.9325000000 0.1828000000
4.2538000000 1.7228000000 0.2628000000
4.2538000000 3.4044000000 0.7013000000
4.2537000000 2.4449000000 0.5144000000
4.2535000000 1.9207000000 0.3347000000
4.2530000000 2.0956000000 0.3970000000
4.2524000000 3.1406000000 0.7548000000
4.2520000000 1.3812000000 0.1499000000
4.2519000000 1.9393000000 0.3413000000
4.2518000000 4.1350000000 0.4488000000
4.2512000000 2.9448000000 0.6853000000
4.2506000000 3.9193000000 0.5252000000
4.2507000000 1.1166000000 0.0606000000
4.2485000000 0.7958000000 0.0273000000
4.2481000000 4.8147000000 0.2211000000
4.2472000000 0.8510000000 0.0439000000
4.2465000000 1.0097000000 0.0262000000
4.2452000000 1.0238000000 0.0323000000
4.0115000000 5.5383000000 0.1150000000
4.0099000000 2.4138000000 0.6480000000
4.0097000000 5.9382000000 0.0540000000
4.0088000000 4.3215000000 0.5348000000
4.0085000000 0.5956000000 0.0278000000
4.0082000000 2.0018000000 0.5097000000
4.0081000000 2.9902000000 0.8452000000
4.0078000000 5.9843000000 0.0406000000
4.0071000000 2.5518000000 0.6995000000
4.0066000000 5.6496000000 0.0827000000
4.0064000000 0.9233000000 0.1357000000
4.0062000000 0.3548000000 0.0200000000
4.0060000000 3.7399000000 0.7364000000
4.0058000000 4.8954000000 0.3395000000
4.0057000000 4.5659000000 0.4526000000
4.0056000000 4.3324000000 0.5366000000
4.0050000000 3.7371000000 0.7343000000
4.0048000000 4.1228000000 0.6050000000
4.0045000000 3.5243000000 0.8150000000
4.0043000000 5.4158000000 0.1579000000
4.0038000000 2.3132000000 0.6224000000
4.0038000000 5.0309000000 0.2970000000
4.0035000000 5.0582000000 0.2827000000
4.0031000000 6.0404000000 0.0233000000
4.0030000000 5.3205000000 0.1932000000
4.0030000000 5.3803000000 0.1704000000
4.0023000000 4.6032000000 0.4394000000
4.0021000000 1.7520000000 0.4277000000
4.0020000000 1.6537000000 0.3911000000
4.0019000000 3.0284000000 0.8606000000
4.0016000000 3.6733000000 0.7594000000
4.0014000000 2.6010000000 0.7131000000
4.0013000000 2.1911000000 0.5787000000
4.0010000000 0.3098000000 0.0055000000
4.0006000000 0.6700000000 0.0561000000
4.0004000000 3.1081000000 0.8924000000
3.9996000000 2.2612000000 0.5998000000
3.9987000000 3.4281000000 0.8504000000
3.9980000000 1.7815000000 0.4365000000
3.9974000000 1.5184000000 0.3432000000
3.9960000000 3.9672000000 0.6628000000
3.7610000000 1.2716000000 0.4036000000
3.7599000000 5.6228000000 0.2373000000
3.7597000000 2.7529000000 0.9135000000
3.7595000000 3.7574000000 0.8834000000
3.7592000000 0.2345000000 0.0489000000
3.7587000000 0.1371000000 0.0190000000
3.7581000000 5.6103000000 0.2401000000
3.7579000000 4.0758000000 0.7734000000
3.7578000000 3.0069000000 0.9927000000
3.7576000000 1.9791000000 0.6496000000
3.7575000000 4.1799000000 0.7341000000
3.7571000000 1.5922000000 0.5191000000
3.7569000000 0.4493000000 0.1262000000
3.7568000000 1.7613000000 0.5696000000
3.7566000000 2.8801000000 0.9609000000
3.7565000000 4.8550000000 0.5050000000
3.7564000000 2.2536000000 0.7407000000
3.7560000000 3.6805000000 0.9048000000
3.7562000000 0.4341000000 0.1225000000
3.7559000000 2.3251000000 0.7675000000
3.7556000000 3.1651000000 1.0496000000
3.7556000000 2.7122000000 0.8919000000
3.7555000000 2.8666000000 0.9533000000
3.7554000000 3.7646000000 0.8748000000
3.7552000000 2.1554000000 0.7108000000
3.7550000000 6.0081000000 0.1082000000
3.7549000000 0.6339000000 0.1862000000
3.7547000000 6.0484000000 0.0929000000
3.7544000000 4.8790000000 0.4971000000
3.7543000000 6.0640000000 0.0861000000
3.7540000000 4.6170000000 0.5868000000
3.7539000000 2.8837000000 0.9605000000
3.7538000000 3.1706000000 1.0519000000
3.7535000000 4.3965000000 0.6573000000
3.7534000000 0.0234000000 0.0554000000
3.7533000000 0.8133000000 0.2507000000
3.7529000000 1.5058000000 0.4880000000
3.7526000000 5.9190000000 0.1363000000
3.7525000000 4.5200000000 0.6174000000
3.7524000000 2.2030000000 0.7303000000
3.7523000000 6.1746000000 0.0501000000
3.7520000000 4.7419000000 0.5476000000
3.7517000000 2.0035000000 0.6573000000
3.7514000000 1.9509000000 0.6394000000
3.7512000000 1.4919000000 0.4879000000
3.7510000000 2.9603000000 0.9943000000
3.7509000000 2.2408000000 0.7449000000
3.7507000000 0.7520000000 0.2311000000
3.7502000000 3.4802000000 0.9818000000
3.7497000000 1.1103000000 0.3561000000
3.7493000000 1.3086000000 0.4258000000
3.7488000000 1.1563000000 0.3694000000
3.7470000000 2.7115000000 0.9093000000
3.7455000000 0.9248000000 0.2954000000
3.5108000000 5.2572000000 0.5036000000
3.5100000000 5.2182000000 0.5211000000
3.5095000000 4.4566000000 0.7880000000
3.5093000000 2.0188000000 0.8171000000
3.5092000000 1.4428000000 0.6161000000
3.5081000000 4.7418000000 0.6892000000
3.5073000000 1.8617000000 0.7599000000
3.5066000000 1.8456000000 0.7532000000
3.5063000000 4.8749000000 0.6405000000
3.5060000000 3.7556000000 1.0272000000
3.5058000000 5.9701000000 0.2646000000
3.5057000000 6.3730000000 0.0276000000
3.5055000000 1.1397000000 0.5077000000
3.5053000000 3.8001000000 1.0104000000
3.5052000000 3.7553000000 1.0307000000
3.5048000000 0.6128000000 0.3341000000
3.5045000000 4.9316000000 0.6189000000
3.5043000000 2.8934000000 1.1101000000
3.5043000000 3.5099000000 1.1195000000
3.5041000000 4.2141000000 0.8755000000
3.5039000000 0.9177000000 0.4338000000
3.5038000000 1.8497000000 0.7511000000
3.5033000000 5.9929000000 0.2545000000
3.5032000000 2.7306000000 1.0564000000
3.5031000000 0.0495000000 0.0407000000
3.5030000000 4.2705000000 0.8504000000
3.5026000000 5.3089000000 0.4996000000
3.5025000000 2.3054000000 0.9100000000
3.5020000000 0.2693000000 0.1852000000
3.5014000000 3.7329000000 1.0354000000
3.5010000000 2.3595000000 0.9352000000
3.5008000000 4.9008000000 0.6343000000
3.5005000000 0.5457000000 0.3120000000
3.5004000000 2.2485000000 0.8914000000
3.5003000000 3.2219000000 1.2009000000
3.5000000000 0.1164000000 0.0830000000
3.4997000000 4.7300000000 0.6904000000
3.4983000000 1.9755000000 0.7987000000
3.4979000000 0.4302000000 0.2602000000
3.4974000000 3.1641000000 1.2002000000
3.4961000000 1.8089000000 0.7408000000
3.2665000000 6.2541000000 0.1096000000
3.2601000000 0.7767000000 0.5214000000
3.2595000000 6.3807000000 0.0248000000
3.2595000000 3.8144000000 1.1511000000
3.2591000000 4.1735000000 1.0304000000
3.2587000000 5.5640000000 0.5436000000
3.2585000000 4.8369000000 0.7954000000
3.2582000000 5.4413000000 0.5976000000
3.2578000000 2.3619000000 1.0792000000
3.2575000000 4.5501000000 0.9007000000
3.2573000000 0.7076000000 0.4831000000
3.2571000000 5.7049000000 0.4713000000
3.2570000000 2.7689000000 1.2130000000
3.2567000000 6.4008000000 0.0860000000
3.2558000000 3.6568000000 1.2073000000
3.2557000000 1.0902000000 0.6420000000
3.2553000000 3.5707000000 1.2460000000
3.2551000000 0.4284000000 0.2964000000
3.2550000000 5.6561000000 0.5140000000
3.2549000000 0.9724000000 0.6036000000
3.2548000000 1.6604000000 0.8375000000
3.2546000000 2.5528000000 1.1398000000
3.2543000000 3.2286000000 1.3425000000
3.2540000000 2.9972000000 1.2946000000
3.2539000000 4.5198000000 0.9180000000
3.2535000000 5.8857000000 0.3671000000
3.2533000000 5.1260000000 0.6997000000
3.2528000000 1.6377000000 0.8280000000
3.2527000000 1.8882000000 0.9182000000
3.2525000000 4.4478000000 0.9350000000
3.2520000000 2.0750000000 0.9868000000
3.2519000000 1.9426000000 0.9364000000
3.2517000000 5.7245000000 0.4693000000
3.2515000000 6.0543000000 0.2454000000
3.2514000000 4.4905000000 0.9269000000
3.2510000000 1.4009000000 0.7495000000
3.2505000000 3.8856000000 1.1370000000
3.2503000000 0.4319000000 0.3016000000
3.2500000000 5.0701000000 0.7255000000
3.2494000000 3.3926000000 1.3065000000
3.2493000000 2.2256000000 1.0297000000
3.2489000000 3.9602000000 1.1078000000
3.0120000000 6.3693000000 0.0265000000
3.0113000000 6.3917000000 0.0156000000
3.0104000000 6.3374000000 0.0486000000
3.0102000000 6.3688000000 0.0277000000
3.0098000000 5.6018000000 0.5566000000
3.0094000000 5.7875000000 0.4237000000
3.0091000000 5.4586000000 0.6510000000
3.0086000000 4.0708000000 1.2168000000
3.0083000000 4.5423000000 1.0510000000
3.0080000000 3.6886000000 1.3515000000
3.0079000000 1.9534000000 1.0877000000
3.0077000000 3.9268000000 1.2629000000
3.0075000000 4.2403000000 1.1614000000
3.0073000000 5.7798000000 0.4347000000
3.0070000000 5.6988000000 0.4895000000
3.0068000000 2.1797000000 1.1658000000
3.0066000000 1.6089000000 0.9710000000
3.0065000000 4.3809000000 1.1105000000
3.0063000000 3.2285000000 1.4921000000
3.0062000000 5.8618000000 0.3835000000
3.0058000000 3.9564000000 1.2597000000
3.0056000000 3.7487000000 1.3222000000
3.0053000000 0.7450000000 0.5191000000
3.0051000000 5.7383000000 0.4659000000
3.0050000000 0.6832000000 0.4756000000
3.0046000000 4.2482000000 1.1558000000
3.0044000000 5.0526000000 0.8851000000
3.0043000000 1.3653000000 0.8871000000
3.0043000000 2.0430000000 1.1149000000
3.0039000000 0.2881000000 0.2018000000
3.0038000000 4.6939000000 1.0030000000
3.0037000000 1.2437000000 0.8318000000
3.0034000000 3.7459000000 1.3282000000
3.0033000000 2.8396000000 1.3880000000
3.0030000000 6.2520000000 0.1149000000
3.0029000000 5.7102000000 0.4897000000
3.0028000000 2.1011000000 1.1366000000
3.0027000000 2.3745000000 1.2339000000
3.0026000000 3.6450000000 1.3633000000
3.0023000000 1.4466000000 0.9137000000
3.0020000000 0.9247000000 0.6400000000
3.0019000000 6.2772000000 0.0896000000
3.0016000000 1.3165000000 0.8685000000
3.0012000000 2.0406000000 1.1188000000
3.0010000000 0.5245000000 0.3711000000
3.0005000000 2.4567000000 1.2626000000
3.0003000000 4.2490000000 1.1558000000
3.0000000000 1.0948000000 0.7567000000
2.9998000000 2.3949000000 1.2374000000
2.9995000000 0.4581000000 0.3209000000
2.9989000000 0.8451000000 0.5840000000
2.9985000000 4.9872000000 0.9045000000
2.9981000000 2.7505000000 1.3599000000
2.9973000000 2.4599000000 1.2652000000
2.9970000000 3.2356000000 1.4941000000
2.9947000000 2.4559000000 1.2687000000
2.7612000000 5.0115000000 0.9629000000
2.7606000000 2.6948000000 1.4861000000
2.7600000000 5.2391000000 0.8029000000
2.7594000000 6.2661000000 0.1022000000
2.7592000000 4.8095000000 1.0895000000
2.7591000000 3.3466000000 1.6091000000
2.7588000000 4.5767000000 1.1950000000
2.7584000000 2.4728000000 1.4104000000
2.7582000000 6.1578000000 0.1744000000
2.7575000000 2.2657000000 1.3449000000
2.7571000000 2.0875000000 1.2806000000
2.7569000000 4.3525000000 1.2711000000
2.7559000000 4.8278000000 1.0750000000
2.7558000000 1.1000000000 0.7602000000
2.7557000000 1.3614000000 0.9406000000
2.7553000000 0.1597000000 0.1169000000
2.7553000000 5.3867000000 0.7080000000
2.7551000000 3.5357000000 1.5457000000
2.7548000000 1.7299000000 1.1512000000
2.7545000000 2.6524000000 1.4749000000
2.7544000000 2.4491000000 1.4058000000
2.7542000000 1.1477000000 0.7908000000
2.7541000000 0.6069000000 0.4247000000
2.7538000000 0.5589000000 0.3956000000
2.7535000000 4.9478000000 1.0023000000
2.7534000000 0.9489000000 0.6670000000
2.7533000000 5.3431000000 0.7276000000
2.7532000000 3.0021000000 1.5961000000
2.7529000000 4.2177000000 1.3169000000
2.7526000000 5.0825000000 0.9094000000
2.7525000000 3.5654000000 1.5330000000
2.7522000000 0.6127000000 0.4299000000
2.7520000000 0.6907000000 0.4808000000
2.7518000000 4.1289000000 1.3440000000
2.7515000000 0.4559000000 0.3206000000
2.7513000000 3.1736000000 1.6457000000
2.7506000000 2.9793000000 1.5887000000
2.7501000000 2.3929000000 1.3833000000
2.7498000000 5.3134000000 0.7557000000
2.7494000000 5.7327000000 0.4751000000
2.7490000000 1.3809000000 0.9515000000
2.7483000000 0.0136000000 0.0180000000
2.7478000000 4.2936000000 1.2965000000
2.7477000000 3.2515000000 1.6439000000
2.5117000000 3.1164000000 1.7816000000
2.5100000000 5.9109000000 0.3438000000
2.5095000000 1.1918000000 0.8212000000
2.5094000000 4.8509000000 1.0712000000
2.5090000000 4.5521000000 1.2783000000
2.5088000000 4.7165000000 1.1620000000
2.5086000000 3.0590000000 1.7616000000
2.5084000000 2.9485000000 1.7274000000
2.5082000000 4.9780000000 0.9837000000
2.5078000000 3.1473000000 1.7882000000
2.5074000000 3.6357000000 1.6623000000
2.5072000000 3.2621000000 1.7867000000
2.5069000000 5.9507000000 0.3203000000
2.5067000000 1.4364000000 0.9945000000
2.5065000000 4.3826000000 1.3820000000
2.5061000000 0.1644000000 0.1133000000
2.5060000000 5.2447000000 0.7993000000
2.5055000000 1.7685000000 1.2185000000
2.5055000000 5.6924000000 0.5007000000
2.5053000000 5.4136000000 0.6883000000
2.5052000000 1.2556000000 0.8676000000
2.5049000000 4.5886000000 1.2516000000
2.5046000000 6.0409000000 0.2531000000
2.5043000000 3.3278000000 1.7704000000
2.5041000000 2.5960000000 1.6126000000
2.5038000000 3.3535000000 1.7566000000
2.5037000000 0.8898000000 0.6176000000
2.5036000000 2.7153000000 1.6444000000
2.5035000000 3.9430000000 1.5580000000
2.5033000000 1.2291000000 0.8541000000
2.5030000000 5.6858000000 0.4986000000
2.5025000000 2.5083000000 1.5733000000
2.5022000000 5.5566000000 0.5855000000
2.5020000000 3.3221000000 1.7745000000
2.5017000000 6.0485000000 0.2515000000
2.5014000000 0.7799000000 0.5448000000
2.5010000000 4.3448000000 1.4087000000
2.5008000000 1.2594000000 0.8710000000
2.5006000000 0.0144000000 0.0246000000
2.5002000000 0.5915000000 0.4133000000
2.5000000000 0.4191000000 0.2960000000
2.4998000000 0.8807000000 0.6087000000
2.4993000000 6.0722000000 0.2386000000
2.4975000000 4.8882000000 1.0412000000
2.4974000000 5.5867000000 0.5657000000
2.4965000000 3.6349000000 1.6685000000
2.2647000000 4.4908000000 1.3151000000
2.2598000000 1.1179000000 0.7741000000
2.2593000000 4.6065000000 1.2374000000
2.2583000000 2.1818000000 1.5031000000
2.2582000000 1.1346000000 0.7846000000
2.2573000000 4.9621000000 0.9966000000
2.2572000000 4.7102000000 1.1660000000
2.2570000000 3.6513000000 1.8034000000
2.2569000000 4.0445000000 1.6250000000
2.2568000000 4.1342000000 1.5606000000
2.2566000000 0.3023000000 0.2109000000
2.2565000000 3.5466000000 1.8403000000
2.2564000000 5.2010000000 0.8345000000
2.2562000000 4.6620000000 1.1976000000
2.2560000000 5.6475000000 0.5307000000
2.2558000000 5.5769000000 0.5729000000
2.2556000000 4.0525000000 1.6201000000
2.2554000000 3.5295000000 1.8519000000
2.2553000000 3.1446000000 1.9406000000
2.2552000000 1.2023000000 0.8313000000
2.2551000000 0.6470000000 0.4467000000
2.2550000000 2.2626000000 1.5575000000
2.2549000000 3.8627000000 1.7233000000
2.2547000000 0.1756000000 0.1288000000
2.2545000000 3.0585000000 1.9122000000
2.2544000000 1.6897000000 1.1646000000
2.2543000000 0.2257000000 0.1593000000
2.2540000000 4.6653000000 1.1953000000
2.2538000000 1.0816000000 0.7511000000
2.2536000000 2.4950000000 1.7058000000
2.2535000000 5.7968000000 0.4230000000
2.2533000000 5.6798000000 0.4985000000
2.2530000000 3.2442000000 1.9346000000
2.2528000000 4.3722000000 1.3957000000
2.2527000000 3.1670000000 1.9361000000
2.2524000000 3.8155000000 1.7383000000
2.2521000000 1.5813000000 1.0909000000
2.2518000000 2.8729000000 1.8475000000
2.2515000000 5.5558000000 0.5875000000
2.2513000000 1.8552000000 1.2801000000
2.2511000000 2.9950000000 1.8916000000
2.2507000000 1.3106000000 0.9054000000
2.2505000000 0.8899000000 0.6210000000
2.2500000000 3.2599000000 1.9516000000
2.2498000000 3.5676000000 1.8398000000
2.2494000000 0.1654000000 0.1200000000
2.2490000000 5.3661000000 0.7189000000
2.2484000000 2.0146000000 1.3886000000
2.2464000000 2.5687000000 1.7369000000
2.0105000000 3.8724000000 1.7395000000
2.0100000000 6.3375000000 0.0588000000
2.0092000000 1.5221000000 1.0521000000
2.0086000000 2.0065000000 1.3829000000
2.0082000000 4.7584000000 1.1339000000
2.0078000000 3.1670000000 2.0864000000
2.0076000000 0.5170000000 0.3586000000
2.0073000000 5.8107000000 0.4159000000
2.0071000000 5.1503000000 0.8658000000
2.0068000000 2.1047000000 1.4486000000
2.0066000000 5.4956000000 0.6252000000
2.0063000000 3.4308000000 2.0226000000
2.0062000000 1.0345000000 0.7140000000
2.0057000000 3.0941000000 2.0745000000
2.0054000000 3.4040000000 2.0296000000
2.0051000000 5.7726000000 0.4409000000
2.0049000000 1.6128000000 1.1104000000
2.0045000000 3.1672000000 2.0876000000
2.0044000000 5.7605000000 0.4524000000
2.0041000000 4.6846000000 1.1862000000
2.0040000000 2.5989000000 1.7919000000
2.0039000000 5.1973000000 0.8346000000
2.0036000000 0.1459000000 0.1091000000
2.0034000000 2.0822000000 1.4336000000
2.0032000000 5.0716000000 0.9212000000
2.0029000000 3.7881000000 1.7996000000
2.0027000000 4.3871000000 1.3911000000
2.0024000000 4.5370000000 1.2848000000
2.0021000000 1.1321000000 0.7842000000
2.0019000000 4.6760000000 1.1928000000
2.0016000000 4.5354000000 1.2898000000
2.0013000000 3.2035000000 2.1016000000
2.0011000000 0.9097000000 0.6336000000
2.0010000000 3.2140000000 2.1000000000
2.0004000000 0.7846000000 0.5465000000
2.0000000000 3.2441000000 2.0920000000
1.9998000000 1.7741000000 1.2264000000
1.9993000000 1.5960000000 1.1024000000
1.9988000000 1.3441000000 0.9336000000
1.9985000000 0.1741000000 0.1303000000
1.9977000000 4.1474000000 1.5526000000
1.9976000000 0.0554000000 0.0467000000
1.9950000000 0.1047000000 0.0746000000
1.7619000000 6.3929000000 0.0112000000
1.7607000000 3.7018000000 1.8629000000
1.7593000000 4.8014000000 1.1032000000
1.7588000000 5.0540000000 0.9352000000
1.7583000000 2.7077000000 1.8584000000
1.7579000000 3.1793000000 2.0965000000
1.7575000000 3.3673000000 2.0756000000
1.7571000000 0.1564000000 0.1167000000
1.7567000000 0.3662000000 0.2575000000
1.7565000000 3.9075000000 1.7228000000
1.7561000000 4.8970000000 1.0379000000
1.7557000000 5.9099000000 0.3441000000
1.7555000000 4.2376000000 1.4891000000
1.7552000000 1.0839000000 0.7544000000
1.7550000000 2.4951000000 1.7168000000
1.7548000000 0.7206000000 0.5032000000
1.7546000000 3.0258000000 2.0689000000
1.7545000000 5.3260000000 0.7452000000
1.7543000000 1.7715000000 1.2232000000
1.7541000000 3.9259000000 1.7089000000
1.7538000000 1.3278000000 0.9171000000
1.7534000000 5.0783000000 0.9136000000
1.7533000000 0.7042000000 0.4865000000
1.7532000000 1.3309000000 0.9220000000
1.7530000000 3.5066000000 1.9940000000
1.7529000000 5.7164000000 0.4739000000
1.7527000000 0.2241000000 0.1576000000
1.7525000000 0.5943000000 0.4140000000
1.7522000000 1.4429000000 0.9943000000
1.7520000000 1.6595000000 1.1453000000
1.7518000000 3.7962000000 1.7891000000
1.7513000000 4.9358000000 1.0158000000
1.7513000000 0.6378000000 0.4430000000
1.7511000000 4.3452000000 1.4177000000
1.7504000000 4.4262000000 1.3586000000
1.7503000000 6.4137000000 0.0757000000
1.7501000000 4.3560000000 1.4126000000
1.7500000000 0.5448000000 0.3857000000
1.7498000000 2.4294000000 1.6708000000
1.7495000000 0.4466000000 0.3148000000
1.7490000000 4.8126000000 1.0993000000
1.7484000000 1.1625000000 0.8039000000
1.7455000000 0.1032000000 0.0765000000
1.5115000000 0.3532000000 0.2513000000
1.5107000000 0.6380000000 0.4423000000
1.5098000000 6.0534000000 0.2490000000
1.5093000000 5.3821000000 0.7023000000
1.5087000000 3.6149000000 1.8593000000
1.5085000000 3.1704000000 1.9801000000
1.5085000000 4.7442000000 1.1453000000
1.5084000000 1.9860000000 1.3684000000
1.5075000000 3.0139000000 1.9317000000
1.5071000000 0.1112000000 0.0812000000
1.5067000000 5.9860000000 0.2974000000
1.5065000000 3.7086000000 1.8148000000
1.5063000000 4.1268000000 1.5677000000
1.5061000000 3.0395000000 1.9456000000
1.5059000000 0.1687000000 0.1225000000
1.5056000000 0.3919000000 0.2751000000
1.5054000000 0.2592000000 0.1817000000
1.5051000000 1.0366000000 0.7213000000
1.5050000000 3.3968000000 1.9364000000
1.5046000000 3.8119000000 1.7787000000
1.5044000000 5.3025000000 0.7623000000
1.5043000000 0.8925000000 0.6210000000
1.5042000000 5.2493000000 0.7927000000
1.5041000000 3.6852000000 1.8301000000
1.5040000000 3.0425000000 1.9462000000
1.5038000000 3.9728000000 1.6774000000
1.5037000000 4.0930000000 1.5889000000
1.5034000000 0.3502000000 0.2513000000
1.5031000000 5.4879000000 0.6325000000
1.5029000000 1.5482000000 1.0662000000
1.5025000000 5.8803000000 0.3648000000
1.5024000000 0.8888000000 0.6208000000
1.5022000000 4.7759000000 1.1209000000
1.5021000000 3.3272000000 1.9533000000
1.5015000000 5.3662000000 0.7172000000
1.5014000000 1.5630000000 1.0816000000
1.5012000000 5.3610000000 0.7261000000
1.5010000000 2.3322000000 1.6103000000
1.5009000000 2.0154000000 1.3922000000
1.5006000000 0.9949000000 0.6895000000
1.5005000000 2.6921000000 1.8120000000
1.5004000000 5.6230000000 0.5389000000
1.4999000000 3.4429000000 1.9060000000
1.4997000000 2.5510000000 1.7471000000
1.4994000000 0.6685000000 0.4682000000
1.4990000000 1.3984000000 0.9675000000
1.4968000000 3.8661000000 1.7388000000
1.4962000000 3.0911000000 1.9559000000
1.2625000000 5.4317000000 0.6753000000
1.2618000000 5.4818000000 0.6382000000
1.2605000000 4.5039000000 1.3134000000
1.2592000000 3.8319000000 1.6367000000
1.2584000000 5.1250000000 0.8814000000
1.2583000000 5.3405000000 0.7366000000
1.2579000000 5.5946000000 0.5578000000
1.2573000000 6.2645000000 0.0995000000
1.2565000000 6.0729000000 0.2342000000
1.2564000000 3.8723000000 1.6194000000
1.2563000000 6.1692000000 0.1681000000
1.2557000000 3.0111000000 1.7861000000
1.2554000000 1.5701000000 1.0892000000
1.2551000000 2.1472000000 1.4693000000
1.2550000000 1.1001000000 0.7579000000
1.2549000000 5.4944000000 0.6314000000
1.2548000000 3.0406000000 1.7988000000
1.2545000000 5.1719000000 0.8505000000
1.2542000000 3.4050000000 1.7839000000
1.2540000000 2.3713000000 1.5618000000
1.2535000000 6.0099000000 0.2782000000
1.2530000000 3.3011000000 1.8125000000
1.2530000000 3.9723000000 1.5861000000
1.2528000000 3.4229000000 1.7793000000
1.2526000000 5.5005000000 0.6276000000
1.2523000000 2.0853000000 1.4233000000
1.2518000000 5.3995000000 0.6938000000
1.2515000000 1.8359000000 1.2650000000
1.2513000000 4.9781000000 0.9908000000
1.2511000000 1.1250000000 0.7761000000
1.2509000000 2.4551000000 1.5917000000
1.2507000000 1.8571000000 1.2769000000
1.2503000000 5.3012000000 0.7568000000
1.2502000000 0.5918000000 0.4135000000
1.2500000000 0.7728000000 0.5369000000
1.2497000000 1.0157000000 0.7085000000
1.2493000000 4.1928000000 1.4958000000
1.2491000000 0.1159000000 0.0865000000
1.2487000000 0.7028000000 0.4929000000
1.2485000000 4.1079000000 1.5409000000
1.2475000000 0.0707000000 0.0567000000
1.2466000000 0.8872000000 0.6187000000
1.2463000000 5.2062000000 0.8237000000
1.0118000000 6.0907000000 0.2225000000
1.0100000000 5.6628000000 0.5125000000
1.0095000000 4.0989000000 1.3980000000
1.0083000000 2.6678000000 1.5230000000
1.0081000000 6.2777000000 0.0901000000
1.0070000000 1.8505000000 1.2413000000
1.0067000000 2.5778000000 1.4826000000
1.0064000000 5.3383000000 0.7354000000
1.0063000000 2.6768000000 1.5232000000
1.0062000000 5.1810000000 0.8501000000
1.0060000000 6.4133000000 0.0720000000
1.0058000000 2.9559000000 1.6124000000
1.0055000000 2.2187000000 1.3702000000
1.0053000000 3.7839000000 1.5046000000
1.0052000000 4.7169000000 1.1547000000
1.0050000000 1.3562000000 0.9373000000
1.0048000000 4.7435000000 1.1351000000
1.0047000000 3.7593000000 1.5067000000
1.0045000000 6.3789000000 0.0249000000
1.0044000000 5.8104000000 0.4151000000
1.0043000000 6.1129000000 0.2018000000
1.0041000000 2.1687000000 1.3459000000
1.0040000000 0.0626000000 0.0511000000
1.0037000000 1.6556000000 1.1307000000
1.0034000000 5.4837000000 0.6392000000
1.0031000000 5.9787000000 0.2976000000
1.0026000000 1.0123000000 0.7011000000
1.0025000000 1.5787000000 1.0892000000
1.0024000000 1.1407000000 0.7830000000
1.0021000000 5.5441000000 0.5984000000
1.0020000000 1.9605000000 1.2742000000
1.0018000000 4.7258000000 1.1430000000
1.0014000000 3.9789000000 1.4353000000
1.0013000000 4.0430000000 1.4085000000
1.0010000000 0.1670000000 0.1187000000
1.0000000000 4.7878000000 1.1162000000
0.9991000000 4.0025000000 1.4186000000
0.9983000000 3.1345000000 1.6791000000
0.9978000000 3.5507000000 1.5774000000
0.9976000000 2.3005000000 1.3906000000
0.9969000000 4.5160000000 1.2497000000
0.9953000000 0.2759000000 0.2003000000
0.7608000000 4.3074000000 1.1735000000
0.7605000000 2.7610000000 1.4099000000
0.7596000000 0.4937000000 0.3424000000
0.7588000000 4.5210000000 1.1012000000
0.7584000000 5.0658000000 0.9046000000
0.7578000000 6.3035000000 0.0778000000
0.7568000000 0.0180000000 0.0194000000
0.7568000000 3.8910000000 1.3159000000
0.7566000000 1.3671000000 0.9204000000
0.7560000000 4.7189000000 1.0410000000
0.7558000000 0.8886000000 0.6170000000
0.7556000000 3.8121000000 1.3480000000
0.7555000000 5.8145000000 0.4114000000
0.7553000000 4.5547000000 1.0863000000
0.7552000000 5.6540000000 0.5245000000
0.7548000000 3.0049000000 1.4855000000
0.7546000000 6.3514000000 0.0457000000
0.7546000000 1.2603000000 0.8582000000
0.7544000000 1.1503000000 0.7938000000
0.7543000000 2.8275000000 1.4279000000
0.7540000000 3.8024000000 1.3427000000
0.7538000000 4.7223000000 1.0305000000
0.7536000000 3.8873000000 1.3203000000
0.7535000000 0.3643000000 0.2535000000
0.7533000000 0.1005000000 0.0790000000
0.7531000000 1.5276000000 0.9772000000
0.7527000000 5.5565000000 0.5925000000
0.7525000000 1.6786000000 1.0320000000
0.7525000000 5.6906000000 0.4961000000
0.7522000000 5.7761000000 0.4431000000
0.7521000000 5.6155000000 0.5504000000
0.7518000000 4.6422000000 1.0625000000
0.7517000000 6.2087000000 0.1399000000
0.7516000000 5.9151000000 0.3421000000
0.7513000000 0.3543000000 0.2514000000
0.7508000000 2.0593000000 1.1599000000
0.7501000000 2.8364000000 1.4209000000
0.7497000000 3.0598000000 1.5021000000
0.7491000000 1.3043000000 0.8872000000
0.7490000000 0.9074000000 0.6303000000
0.7483000000 0.2733000000 0.1911000000
0.7479000000 2.1984000000 1.2031000000
0.7472000000 4.8652000000 0.9763000000
0.7452000000 0.0701000000 0.0553000000
0.5114000000 3.5510000000 1.2870000000
0.5107000000 0.4874000000 0.3399000000
0.5093000000 4.9190000000 0.8196000000
0.5090000000 3.8533000000 1.1816000000
0.5089000000 1.8065000000 0.9328000000
0.5086000000 5.9252000000 0.3361000000
0.5078000000 5.0220000000 0.7798000000
0.5076000000 5.2813000000 0.6913000000
0.5073000000 2.9383000000 1.3098000000
0.5068000000 6.4204000000 0.0698000000
0.5064000000 2.0076000000 0.9966000000
0.5063000000 4.3876000000 0.9972000000
0.5060000000 1.6047000000 0.8583000000
0.5057000000 1.1419000000 0.7009000000
0.5056000000 5.1407000000 0.7410000000
0.5050000000 5.9635000000 0.3132000000
0.5048000000 3.2036000000 1.3920000000
0.5045000000 4.3510000000 1.0065000000
0.5043000000 4.5622000000 0.9339000000
0.5040000000 2.9025000000 1.3016000000
0.5040000000 4.4706000000 0.9751000000
0.5038000000 0.5953000000 0.4137000000
0.5036000000 3.2543000000 1.3784000000
0.5034000000 5.2016000000 0.7183000000
0.5033000000 4.1360000000 1.0828000000
0.5032000000 4.6665000000 0.9004000000
0.5029000000 5.0715000000 0.7621000000
0.5028000000 6.1373000000 0.1887000000
0.5028000000 5.4455000000 0.6282000000
0.5023000000 0.8146000000 0.5566000000
0.5023000000 1.2226000000 0.7242000000
0.5021000000 0.2466000000 0.1780000000
0.5018000000 4.0903000000 1.0979000000
0.5017000000 3.4300000000 1.3297000000
0.5013000000 5.6749000000 0.5107000000
0.5011000000 4.2843000000 1.0321000000
0.5008000000 0.3280000000 0.2258000000
0.5006000000 1.9795000000 0.9781000000
0.5001000000 0.7141000000 0.4924000000
0.4995000000 3.6087000000 1.2605000000
0.4993000000 2.5495000000 1.1783000000
0.4991000000 3.6221000000 1.2631000000
0.4985000000 3.9338000000 1.1519000000
0.4977000000 1.3807000000 0.7720000000
0.4971000000 1.6632000000 0.8736000000
0.2633000000 4.4851000000 0.8170000000
0.2630000000 3.2207000000 1.2427000000
0.2603000000 3.9518000000 1.0022000000
0.2595000000 4.4071000000 0.8477000000
0.2592000000 2.1729000000 0.9096000000
0.2576000000 3.5975000000 1.1192000000
0.2579000000 1.6878000000 0.7428000000
0.2574000000 3.5431000000 1.1439000000
0.2571000000 5.8075000000 0.3629000000
0.2570000000 5.3160000000 0.5334000000
0.2561000000 3.2860000000 1.2250000000
0.2559000000 5.6692000000 0.4115000000
0.2558000000 0.8137000000 0.4387000000
0.2556000000 1.4101000000 0.6408000000
0.2555000000 5.4673000000 0.4818000000
0.2548000000 1.4554000000 0.6581000000
0.2546000000 6.4192000000 0.0729000000
0.2543000000 5.7875000000 0.3738000000
0.2542000000 1.3558000000 0.6230000000
0.2540000000 0.0223000000 0.0211000000
0.2538000000 1.8108000000 0.7804000000
0.2536000000 0.0635000000 0.0534000000
0.2535000000 5.1280000000 0.5993000000
0.2535000000 1.1260000000 0.5444000000
0.2533000000 3.7701000000 1.0563000000
0.2530000000 0.4148000000 0.2828000000
0.2528000000 0.4208000000 0.2819000000
0.2527000000 0.7521000000 0.4166000000
0.2524000000 5.9600000000 0.3015000000
0.2522000000 1.4582000000 0.6610000000
0.2520000000 4.9911000000 0.6432000000
0.2518000000 2.7096000000 1.0846000000
0.2516000000 6.2237000000 0.1394000000
0.2515000000 2.2781000000 0.9347000000
0.2514000000 1.9106000000 0.8097000000
0.2512000000 3.8301000000 1.0399000000
0.2510000000 3.5338000000 1.1412000000
0.2509000000 3.2326000000 1.2307000000
0.2508000000 3.8781000000 1.0229000000
0.2506000000 1.4044000000 0.6388000000
0.2504000000 4.7002000000 0.7371000000
0.2501000000 3.2516000000 1.2298000000
0.2500000000 4.4445000000 0.8338000000
0.2498000000 2.7542000000 1.0986000000
0.2494000000 1.9733000000 0.8324000000
0.2493000000 6.3249000000 0.0572000000
0.2490000000 0.0937000000 0.0738000000
0.2483000000 3.4173000000 1.1787000000
0.2479000000 1.7357000000 0.7501000000
0.2455000000 1.2571000000 0.5873000000
0.2438000000 2.8245000000 1.1251000000
0.0126000000 5.6809000000 0.2688000000
0.0117000000 3.4147000000 1.0365000000
0.0096000000 2.1207000000 0.7346000000
0.0093000000 4.1903000000 0.7708000000
0.0091000000 4.1177000000 0.8001000000
0.0084000000 6.2229000000 0.0785000000
0.0083000000 0.6943000000 0.2538000000
0.0078000000 2.1174000000 0.7350000000
0.0077000000 6.2754000000 0.0518000000
0.0073000000 1.9355000000 0.6754000000
0.0071000000 5.9175000000 0.1767000000
0.0068000000 4.6771000000 0.6024000000
0.0068000000 2.0288000000 0.7019000000
0.0066000000 4.6237000000 0.6196000000
0.0061000000 2.2576000000 0.7866000000
0.0056000000 2.1372000000 0.7408000000
0.0052000000 4.1563000000 0.7802000000
0.0050000000 5.8235000000 0.2080000000
0.0048000000 4.6149000000 0.6240000000
0.0048000000 5.4667000000 0.3285000000
0.0045000000 5.0713000000 0.4651000000
0.0041000000 2.9624000000 1.0250000000
0.0040000000 2.5615000000 0.8892000000
0.0038000000 1.2186000000 0.4250000000
0.0038000000 5.4495000000 0.3335000000
0.0036000000 3.9873000000 0.8393000000
0.0034000000 6.0203000000 0.1435000000
0.0031000000 0.4827000000 0.1774000000
0.0029000000 0.2820000000 0.1032000000
0.0025000000 1.9172000000 0.6666000000
0.0023000000 0.0152000000 0.0785000000
0.0022000000 4.6868000000 0.5961000000
0.0021000000 6.1669000000 0.0907000000
0.0020000000 0.6642000000 0.2372000000
0.0018000000 1.2873000000 0.4526000000
0.0015000000 0.3152000000 0.1149000000
0.0012000000 2.4110000000 0.8323000000
0.0011000000 4.5577000000 0.6395000000
0.0009000000 2.5605000000 0.8831000000
0.0007000000 1.4429000000 0.5063000000
0.0003000000 5.6705000000 0.2597000000
0.0001000000 6.1168000000 0.1124000000
-0.0002000000 4.7814000000 0.5691000000
-0.0004000000 3.1323000000 1.0823000000
-0.0006000000 3.3557000000 1.0483000000
-0.0010000000 2.8516000000 0.9865000000
-0.0018000000 5.3004000000 0.3813000000
-0.0029000000 2.9238000000 1.0070000000
-0.0053000000 1.9003000000 0.6569000000
-0.2389000000 6.2019000000 0.0086000000
-0.2393000000 4.3136000000 0.5807000000
-0.2412000000 1.5560000000 0.4020000000
-0.2423000000 2.2983000000 0.6494000000
-0.2426000000 5.5107000000 0.1678000000
-0.2427000000 4.5466000000 0.4976000000
-0.2430000000 5.2990000000 0.2404000000
-0.2435000000 0.5188000000 0.0429000000
-0.2441000000 0.7379000000 0.1133000000
-0.2442000000 5.0567000000 0.3218000000
-0.2444000000 0.8015000000 0.1349000000
-0.2446000000 2.2415000000 0.6333000000
-0.2449000000 5.9022000000 0.0372000000
-0.2450000000 0.6561000000 0.0910000000
-0.2451000000 6.1319000000 0.0270000000
-0.2453000000 5.5103000000 0.1673000000
-0.2456000000 1.8459000000 0.4935000000
-0.2461000000 2.1914000000 0.6132000000
-0.2467000000 1.2175000000 0.2823000000
-0.2469000000 0.4838000000 0.0271000000
-0.2471000000 4.5733000000 0.4852000000
-0.2473000000 4.2397000000 0.6003000000
-0.2477000000 5.1733000000 0.2771000000
-0.2479000000 5.4266000000 0.1974000000
-0.2481000000 4.9287000000 0.3642000000
-0.2483000000 5.2097000000 0.2651000000
-0.2484000000 1.0430000000 0.2112000000
-0.2486000000 0.8572000000 0.1530000000
-0.2488000000 0.3748000000 0.0625000000
-0.2491000000 2.6706000000 0.7788000000
-0.2494000000 5.2056000000 0.2659000000
-0.2496000000 5.1782000000 0.2773000000
-0.2497000000 0.6717000000 0.0873000000
-0.2500000000 4.6693000000 0.4484000000
-0.2502000000 1.3699000000 0.3284000000
-0.2503000000 3.6463000000 0.8047000000
-0.2506000000 4.3137000000 0.5857000000
-0.2508000000 1.8232000000 0.4860000000
-0.2510000000 1.1300000000 0.2491000000
-0.2512000000 2.6064000000 0.7501000000
-0.2517000000 0.7559000000 0.1175000000
-0.2525000000 2.2642000000 0.6361000000
-0.2532000000 1.6167000000 0.4141000000
-0.2535000000 1.8936000000 0.5044000000
-0.2557000000 2.3931000000 0.6779000000
-0.4830000000 2.3392000000 0.5236000000
-0.4915000000 1.7923000000 0.3308000000
-0.4920000000 4.5849000000 0.3349000000
-0.4923000000 2.8288000000 0.6855000000
-0.4925000000 2.9977000000 0.7383000000
-0.4927000000 5.6440000000 0.0491000000
-0.4932000000 4.2809000000 0.4468000000
-0.4936000000 1.7962000000 0.3287000000
-0.4939000000 5.7214000000 0.0176000000
-0.4945000000 3.6634000000 0.6578000000
-0.4945000000 5.0339000000 0.1844000000
-0.4947000000 5.2609000000 0.1056000000
-0.4951000000 2.0089000000 0.4020000000
-0.4956000000 3.9777000000 0.5486000000
-0.4957000000 5.6335000000 0.0510000000
-0.4960000000 2.3788000000 0.5323000000
-0.4963000000 4.7390000000 0.2785000000
-0.4967000000 4.1152000000 0.4954000000
-0.4968000000 4.5320000000 0.3484000000
-0.4972000000 2.2841000000 0.4974000000
-0.4973000000 2.3366000000 0.5135000000
-0.4974000000 3.4071000000 0.7358000000
-0.4975000000 3.0231000000 0.7484000000
-0.4977000000 4.3944000000 0.4020000000
-0.4980000000 5.4067000000 0.0489000000
-0.4981000000 5.0005000000 0.1965000000
-0.4982000000 2.3544000000 0.5165000000
-0.4986000000 2.6087000000 0.6037000000
-0.4987000000 2.7715000000 0.6657000000
-0.4990000000 3.6281000000 0.6632000000
-0.4997000000 2.6456000000 0.6165000000
-0.4998000000 0.6664000000 0.0129000000
-0.5007000000 1.2376000000 0.1351000000
-0.5010000000 3.6532000000 0.6527000000
-0.5013000000 2.1406000000 0.4417000000
-0.5019000000 4.2816000000 0.4448000000
-0.5027000000 0.6553000000 0.0085000000
-0.5027000000 1.9151000000 0.3687000000
-0.5037000000 1.0702000000 0.0728000000
-0.7364000000 3.4098000000 0.5910000000
-0.7420000000 3.0607000000 0.6200000000
-0.7425000000 3.2319000000 0.6468000000
-0.7432000000 4.9186000000 0.0766000000
-0.7435000000 3.2710000000 0.6357000000
-0.7437000000 3.0154000000 0.6008000000
-0.7449000000 1.2499000000 0.0750000000
-0.7454000000 3.6937000000 0.4931000000
-0.7460000000 4.5724000000 0.1915000000
-0.7462000000 1.5579000000 0.0958000000
-0.7463000000 2.1959000000 0.3194000000
-0.7468000000 1.0647000000 0.0069000000
-0.7473000000 2.7990000000 0.5215000000
-0.7476000000 3.2506000000 0.6399000000
-0.7478000000 3.0764000000 0.6232000000
-0.7480000000 2.4828000000 0.4161000000
-0.7486000000 3.0463000000 0.6051000000
-0.7491000000 2.2619000000 0.3352000000
-0.7490000000 1.3481000000 0.0236000000
-0.7493000000 2.1448000000 0.2940000000
-0.7500000000 3.6430000000 0.5051000000
-0.7505000000 1.5151000000 0.0812000000
-0.7509000000 4.5260000000 0.2068000000
-0.7529000000 2.1989000000 0.3161000000
-0.7539000000 4.8856000000 0.0746000000
-0.9908000000 4.7835000000 0.0464000000
-0.9923000000 2.5189000000 0.2823000000
-0.9932000000 4.6831000000 0.0807000000
-0.9938000000 3.0453000000 0.4570000000
-0.9940000000 2.0262000000 0.1077000000
-0.9943000000 2.0383000000 0.1125000000
-0.9953000000 4.2312000000 0.1593000000
-0.9954000000 4.6561000000 0.0109000000
-0.9957000000 2.8357000000 0.3897000000
-0.9959000000 4.8815000000 0.0169000000
-0.9965000000 4.7495000000 0.0585000000
-0.9973000000 3.8782000000 0.2805000000
-0.9977000000 3.4010000000 0.4440000000
-0.9981000000 1.5643000000 0.0267000000
-0.9984000000 4.1212000000 0.1955000000
-0.9993000000 1.6314000000 0.0527000000
-0.9994000000 2.7802000000 0.3651000000
-0.9996000000 2.2714000000 0.1890000000
-1.0002000000 4.9058000000 0.0012000000
-1.0020000000 1.5007000000 -0.0043000000
-1.2397000000 2.3182000000 0.0715000000
-1.2419000000 2.6986000000 0.1950000000
-1.2437000000 3.6621000000 0.2100000000
-1.2446000000 3.3464000000 0.3158000000
-1.2447000000 4.2539000000 0.0804000000
-1.2450000000 4.3877000000 0.0331000000
-1.2458000000 4.3381000000 0.0519000000
-1.2463000000 3.1346000000 0.3400000000
-1.2469000000 2.1790000000 0.0087000000
-1.2475000000 4.1319000000 0.0456000000
-1.2480000000 2.4556000000 0.1033000000
-1.2487000000 4.0047000000 0.0903000000
-1.2490000000 3.0293000000 0.3036000000
-1.2494000000 2.1743000000 0.0104000000
-1.2510000000 4.2332000000 0.0125000000
-1.2520000000 2.6792000000 0.1827000000
-1.4881000000 2.9978000000 0.1506000000
-1.4908000000 2.7897000000 0.0780000000
-1.4921000000 2.4911000000 0.0511000000
-1.4935000000 3.8552000000 0.0696000000
-1.4945000000 3.5032000000 0.1167000000
-1.4955000000 2.7542000000 0.0662000000
-1.4973000000 3.9082000000 0.0546000000
-1.4979000000 3.0818000000 0.1727000000
-1.4982000000 2.9038000000 0.1127000000
-1.4992000000 2.6039000000 0.0068000000
-1.5010000000 2.7606000000 0.0624000000
-1.7450000000 3.2287000000 0.0472000000
-1.7464000000 3.3451000000 0.0212000000
-1.7480000000 3.3453000000 0.0195000000
-1.7486000000 3.2812000000 0.0390000000
-1.7506000000 2.9003000000 0.0400000000
-1.7524000000 3.3541000000 0.0091000000
