5.2516000000 4.0451000000 0.5986000000
5.2505000000 1.8356000000 0.0379000000
5.2501000000 3.1842000000 0.5835000000
5.2500000000 2.1259000000 0.0986000000
5.2493000000 2.2669000000 0.1638000000
5.2485000000 3.6840000000 0.7496000000
5.2480000000 5.1628000000 0.0932000000
5.0102000000 4.5612000000 0.5548000000
5.0099000000 3.5991000000 1.0172000000
5.0090000000 2.0571000000 0.2581000000
5.0083000000 3.1119000000 0.7393000000
5.0073000000 3.2549000000 0.8054000000
5.0069000000 2.0387000000 0.2462000000
5.0060000000 5.9632000000 0.0668000000
5.0059000000 2.5975000000 0.5065000000
5.0058000000 3.4255000000 0.8772000000
5.0054000000 5.2801000000 0.2291000000
5.0048000000 3.8485000000 0.8835000000
5.0045000000 1.8176000000 0.1527000000
5.0043000000 5.0517000000 0.3359000000
5.0043000000 5.8548000000 0.0508000000
5.0039000000 3.9032000000 0.8568000000
5.0038000000 5.2857000000 0.2277000000
5.0036000000 5.1781000000 0.2793000000
5.0033000000 1.8600000000 0.1686000000
5.0031000000 1.5107000000 0.0899000000
5.0024000000 4.6089000000 0.5354000000
5.0023000000 4.3296000000 0.6690000000
5.0020000000 5.5234000000 0.1208000000
5.0014000000 3.9833000000 0.8226000000
5.0005000000 1.9180000000 0.1991000000
5.0001000000 3.4536000000 0.8962000000
4.9996000000 1.6856000000 0.1000000000
4.9993000000 3.5956000000 1.0276000000
4.9989000000 4.2395000000 0.7062000000
4.7645000000 3.7125000000 1.1326000000
4.7601000000 5.4604000000 0.3413000000
4.7596000000 1.2090000000 0.1439000000
4.7588000000 3.4994000000 1.1084000000
4.7586000000 5.9526000000 0.1221000000
4.7575000000 4.6810000000 0.6987000000
4.7573000000 3.1488000000 0.9532000000
4.7572000000 2.4603000000 0.6385000000
4.7569000000 0.9563000000 0.0336000000
4.7567000000 3.7786000000 1.1070000000
4.7566000000 2.1394000000 0.4900000000
4.7561000000 3.6450000000 1.2261000000
4.7559000000 6.5474000000 0.0038000000
4.7557000000 4.4812000000 0.7923000000
4.7556000000 5.0339000000 0.5422000000
4.7555000000 2.6812000000 0.7361000000
4.7551000000 5.2055000000 0.4605000000
4.7548000000 1.2696000000 0.1037000000
4.7546000000 6.2008000000 0.0854000000
4.7545000000 2.5605000000 0.6848000000
4.7543000000 4.3180000000 0.8671000000
4.7542000000 2.3770000000 0.6049000000
4.7539000000 5.3991000000 0.3781000000
4.7537000000 3.7825000000 1.1080000000
4.7535000000 4.1261000000 0.9577000000
4.7534000000 4.0473000000 0.9890000000
4.7533000000 4.7623000000 0.6627000000
4.7530000000 1.7952000000 0.3366000000
4.7528000000 1.6552000000 0.2756000000
4.7523000000 2.7783000000 0.7899000000
4.7520000000 3.4407000000 1.0846000000
4.7520000000 5.7803000000 0.2097000000
4.7518000000 5.2960000000 0.4242000000
4.7514000000 1.1844000000 0.1434000000
4.7512000000 6.2962000000 0.0442000000
4.7508000000 1.8095000000 0.3450000000
4.7506000000 2.2309000000 0.5372000000
4.7503000000 3.0001000000 0.8871000000
4.7495000000 2.8093000000 0.8048000000
4.7493000000 2.9576000000 0.8715000000
4.7480000000 1.7339000000 0.3196000000
4.7477000000 2.7574000000 0.7759000000
4.7477000000 0.7969000000 0.0408000000
4.7468000000 4.6808000000 0.7092000000
4.7460000000 1.2238000000 0.0818000000
4.7455000000 1.3592000000 0.1456000000
4.5124000000 6.7071000000 0.0481000000
4.5117000000 4.6846000000 0.8882000000
4.5111000000 3.1208000000 1.1241000000
4.5105000000 2.5008000000 0.8524000000
4.5097000000 5.6191000000 0.4686000000
4.5092000000 5.6973000000 0.4380000000
4.5089000000 5.0152000000 0.7430000000
4.5083000000 2.3893000000 0.8002000000
4.5082000000 5.1928000000 0.6644000000
4.5076000000 1.6076000000 0.4529000000
4.5074000000 4.1332000000 1.1458000000
4.5072000000 5.2865000000 0.6222000000
4.5070000000 6.5272000000 0.1271000000
4.5067000000 6.9192000000 0.0283000000
4.5063000000 4.8761000000 0.8035000000
4.5062000000 5.0670000000 0.7209000000
4.5061000000 4.4105000000 1.0223000000
4.5059000000 4.8713000000 0.8095000000
4.5057000000 0.6160000000 0.0721000000
4.5053000000 1.7504000000 0.5144000000
4.5053000000 5.2239000000 0.6556000000
4.5050000000 2.9991000000 1.0817000000
4.5048000000 3.4921000000 1.3019000000
4.5046000000 4.7161000000 0.8852000000
4.5045000000 4.9566000000 0.7760000000
4.5044000000 3.0336000000 1.0985000000
4.5042000000 3.1517000000 1.1561000000
4.5040000000 4.5155000000 0.9724000000
4.5038000000 5.0230000000 0.7463000000
4.5034000000 1.2920000000 0.3059000000
4.5031000000 2.0535000000 0.6520000000
4.5028000000 4.4988000000 0.9849000000
4.5027000000 3.7415000000 1.3275000000
4.5023000000 4.8834000000 0.8119000000
4.5022000000 2.3483000000 0.7891000000
4.5016000000 3.7186000000 1.3396000000
4.5015000000 1.7702000000 0.5258000000
4.5008000000 0.4948000000 0.0202000000
4.5002000000 6.0915000000 0.2595000000
4.5000000000 1.5386000000 0.4184000000
4.4991000000 1.1839000000 0.2661000000
4.4987000000 3.1889000000 1.1707000000
4.4985000000 3.8744000000 1.2743000000
4.2640000000 6.1536000000 0.4183000000
4.2618000000 3.3156000000 1.4195000000
4.2615000000 6.4888000000 0.2651000000
4.2610000000 5.6806000000 0.6342000000
4.2606000000 5.2030000000 0.8532000000
4.2599000000 3.4914000000 1.4990000000
4.2596000000 4.0667000000 1.3719000000
4.2593000000 2.8957000000 1.2314000000
4.2590000000 1.8973000000 0.7707000000
4.2587000000 4.8971000000 0.9952000000
4.2582000000 2.1709000000 0.8969000000
4.2576000000 4.5299000000 1.1608000000
4.2574000000 6.7085000000 0.1718000000
4.2573000000 3.2497000000 1.3901000000
4.2570000000 6.8075000000 0.1242000000
4.2567000000 6.8939000000 0.0857000000
4.2565000000 1.1825000000 0.4543000000
4.2563000000 6.1403000000 0.4298000000
4.2562000000 7.0603000000 0.0900000000
4.2559000000 1.8303000000 0.7534000000
4.2557000000 2.9256000000 1.2471000000
4.2555000000 0.3613000000 0.0800000000
4.2555000000 6.9810000000 0.1208000000
4.2554000000 5.0247000000 0.9428000000
4.2553000000 6.3504000000 0.3417000000
4.2551000000 5.5193000000 0.7133000000
4.2549000000 2.7317000000 1.1600000000
4.2548000000 1.3788000000 0.5422000000
4.2548000000 3.7216000000 1.5354000000
4.2546000000 5.9321000000 0.5242000000
4.2545000000 6.3692000000 0.3244000000
4.2543000000 4.5656000000 1.1450000000
4.2542000000 1.9112000000 0.7881000000
4.2541000000 1.9021000000 0.7803000000
4.2539000000 1.9662000000 0.8142000000
4.2539000000 1.5820000000 0.6367000000
4.2537000000 5.2516000000 0.8349000000
4.2535000000 0.8378000000 0.2952000000
4.2535000000 2.7483000000 1.1673000000
4.2533000000 3.6968000000 1.5423000000
4.2532000000 5.5665000000 0.6928000000
4.2531000000 3.3487000000 1.4378000000
4.2530000000 0.5646000000 0.1761000000
4.2528000000 0.0805000000 0.0320000000
4.2527000000 2.4579000000 1.0348000000
4.2526000000 1.2523000000 0.4852000000
4.2523000000 0.7516000000 0.2610000000
4.2522000000 1.2675000000 0.4932000000
4.2519000000 2.5360000000 1.0670000000
4.2516000000 6.0545000000 0.4725000000
4.2512000000 0.4003000000 0.1042000000
4.2509000000 2.1098000000 0.8789000000
4.2507000000 6.3520000000 0.3380000000
4.2501000000 1.4645000000 0.5827000000
4.2493000000 6.8700000000 0.1053000000
4.2484000000 3.1894000000 1.3674000000
4.2476000000 0.5527000000 0.1719000000
4.2444000000 0.2112000000 0.0914000000
4.0107000000 7.2698000000 0.0398000000
4.0097000000 4.6615000000 1.3009000000
4.0093000000 6.5783000000 0.4240000000
4.0090000000 3.5157000000 1.7075000000
4.0085000000 1.4921000000 0.7909000000
4.0083000000 7.2647000000 0.0455000000
4.0081000000 1.6310000000 0.8451000000
4.0078000000 5.7181000000 0.8146000000
4.0074000000 6.4609000000 0.4765000000
4.0073000000 5.6900000000 0.8297000000
4.0067000000 6.2980000000 0.5567000000
4.0065000000 6.1266000000 0.6356000000
4.0064000000 4.0215000000 1.5883000000
4.0063000000 4.7677000000 1.2514000000
4.0060000000 3.7731000000 1.7085000000
4.0059000000 6.1220000000 0.6395000000
4.0058000000 2.2426000000 1.1297000000
4.0055000000 1.3762000000 0.7397000000
4.0053000000 0.2281000000 0.1652000000
4.0051000000 1.3749000000 0.7343000000
4.0048000000 2.9787000000 1.4652000000
4.0047000000 4.5032000000 1.3757000000
4.0044000000 2.2161000000 1.1241000000
4.0042000000 2.9109000000 1.4366000000
4.0040000000 3.9476000000 1.6280000000
4.0039000000 3.0959000000 1.5225000000
4.0038000000 5.7685000000 0.8035000000
4.0036000000 3.0573000000 1.5023000000
4.0034000000 0.0218000000 0.0539000000
4.0033000000 4.8837000000 1.2038000000
4.0030000000 4.1085000000 1.5566000000
4.0028000000 5.8930000000 0.7446000000
4.0027000000 1.8160000000 0.9333000000
4.0021000000 3.3982000000 1.6569000000
4.0020000000 3.2339000000 1.5805000000
4.0018000000 4.9568000000 1.1648000000
4.0015000000 4.3534000000 1.4449000000
4.0013000000 6.4547000000 0.4896000000
4.0012000000 3.8237000000 1.6882000000
4.0008000000 4.8339000000 1.2233000000
4.0007000000 2.8051000000 1.3941000000
4.0006000000 4.5822000000 1.3366000000
4.0001000000 0.4032000000 0.3570000000
3.9995000000 5.9574000000 0.7143000000
3.9993000000 5.3545000000 0.9891000000
3.9990000000 6.0677000000 0.6722000000
3.9987000000 3.4250000000 1.6775000000
3.9981000000 0.7357000000 0.4516000000
3.9953000000 3.5550000000 1.7359000000
3.7619000000 5.8613000000 0.9483000000
3.7607000000 2.1556000000 1.2872000000
3.7602000000 4.4529000000 1.5883000000
3.7598000000 3.9391000000 1.8196000000
3.7595000000 6.7003000000 0.4869000000
3.7591000000 6.9770000000 0.2260000000
3.7586000000 1.1109000000 0.8120000000
3.7583000000 4.8792000000 1.3936000000
3.7581000000 3.4914000000 1.8952000000
3.7579000000 6.7410000000 0.4473000000
3.7578000000 6.9826000000 0.2157000000
3.7577000000 5.8870000000 0.9425000000
3.7571000000 3.2314000000 1.7743000000
3.7567000000 2.9570000000 1.6460000000
3.7564000000 0.4934000000 0.4023000000
3.7561000000 1.1495000000 0.8283000000
3.7559000000 5.2829000000 1.2163000000
3.7560000000 2.7516000000 1.5540000000
3.7558000000 1.5969000000 1.0322000000
3.7553000000 4.6749000000 1.4870000000
3.7551000000 4.7469000000 1.4604000000
3.7549000000 5.5113000000 1.1124000000
3.7545000000 1.1337000000 0.8283000000
3.7545000000 3.8052000000 1.8883000000
3.7543000000 0.8098000000 0.7376000000
3.7542000000 2.0840000000 1.2556000000
3.7541000000 6.0412000000 0.8694000000
3.7540000000 2.0511000000 1.2423000000
3.7539000000 1.9786000000 1.2055000000
3.7538000000 5.8502000000 0.9553000000
3.7536000000 0.5240000000 0.4321000000
3.7533000000 2.5939000000 1.4961000000
3.7530000000 5.0527000000 1.3310000000
3.7528000000 3.8817000000 1.8570000000
3.7526000000 1.3302000000 0.9089000000
3.7525000000 0.0850000000 0.1134000000
3.7524000000 1.8235000000 1.1409000000
3.7520000000 0.4571000000 0.3720000000
3.7519000000 2.7048000000 1.5320000000
3.7515000000 3.8186000000 1.8818000000
3.7512000000 4.4946000000 1.5765000000
3.7508000000 0.1778000000 0.1220000000
3.7506000000 0.1144000000 0.1430000000
3.7501000000 0.0193000000 0.0502000000
3.7499000000 2.6975000000 1.5392000000
3.7494000000 3.8774000000 1.8558000000
3.7494000000 0.6496000000 0.5508000000
3.7488000000 2.7996000000 1.5852000000
3.7482000000 0.0350000000 0.0675000000
3.7475000000 0.7103000000 0.6646000000
3.7468000000 0.8591000000 0.7674000000
3.5106000000 6.6500000000 0.5349000000
3.5101000000 6.2297000000 0.9102000000
3.5092000000 6.2283000000 0.9089000000
3.5086000000 2.9266000000 1.8362000000
3.5083000000 5.8581000000 1.1517000000
3.5080000000 4.5039000000 1.7633000000
3.5079000000 6.3933000000 0.7614000000
3.5077000000 3.0990000000 1.9109000000
3.5072000000 0.7160000000 0.6135000000
3.5070000000 7.1518000000 0.1464000000
3.5068000000 6.0718000000 1.0400000000
3.5065000000 6.7512000000 0.4417000000
3.5063000000 6.7097000000 0.4749000000
3.5063000000 4.3425000000 1.8363000000
3.5061000000 3.0663000000 1.8955000000
3.5059000000 4.5147000000 1.7630000000
3.5058000000 6.1888000000 0.9514000000
3.5056000000 4.2067000000 1.9030000000
3.5054000000 5.3230000000 1.3934000000
3.5053000000 6.3758000000 0.7784000000
3.5049000000 1.8304000000 1.3408000000
3.5048000000 5.8276000000 1.1643000000
3.5047000000 3.6179000000 2.2106000000
3.5045000000 5.1890000000 1.4579000000
3.5042000000 6.1544000000 0.9653000000
3.5039000000 1.1958000000 1.1088000000
3.5036000000 3.2793000000 1.9947000000
3.5034000000 5.9064000000 1.1299000000
3.5029000000 6.3193000000 0.8299000000
3.5028000000 6.6158000000 0.5574000000
3.5026000000 2.8069000000 1.7789000000
3.5024000000 3.2207000000 1.9750000000
3.5021000000 0.2738000000 0.2073000000
3.5020000000 2.1344000000 1.4780000000
3.5019000000 5.7811000000 1.1924000000
3.5017000000 4.1157000000 1.9451000000
3.5015000000 2.6874000000 1.7290000000
3.5014000000 5.2598000000 1.4279000000
3.5012000000 4.2187000000 1.8981000000
3.5009000000 2.9790000000 1.8649000000
3.5008000000 2.6747000000 1.7204000000
3.5003000000 6.8859000000 0.3100000000
3.4995000000 4.8361000000 1.6215000000
3.4990000000 5.3401000000 1.3897000000
3.4986000000 2.3929000000 1.6027000000
3.4981000000 1.0234000000 0.8905000000
3.4964000000 2.8523000000 1.8048000000
3.2613000000 4.4266000000 1.9972000000
3.2601000000 6.4087000000 0.7481000000
3.2595000000 2.1952000000 1.6980000000
3.2590000000 7.1222000000 0.0969000000
3.2585000000 4.7825000000 1.8345000000
3.2584000000 3.5672000000 2.3181000000
3.2582000000 5.8710000000 1.2395000000
3.2580000000 5.1201000000 1.6766000000
3.2578000000 6.2400000000 0.9057000000
3.2575000000 6.2103000000 0.9298000000
3.2572000000 4.2122000000 2.0888000000
3.2568000000 6.3549000000 0.8012000000
3.2568000000 7.0196000000 0.1933000000
3.2566000000 5.2770000000 1.6086000000
3.2563000000 4.2473000000 2.0764000000
3.2562000000 4.1167000000 2.1410000000
3.2560000000 3.2864000000 2.1979000000
3.2559000000 6.2220000000 0.9203000000
3.2558000000 4.8996000000 1.7866000000
3.2557000000 6.8512000000 0.3460000000
3.2554000000 5.0054000000 1.7321000000
3.2552000000 3.9402000000 2.2193000000
3.2550000000 2.6287000000 1.8921000000
3.2548000000 5.3275000000 1.5884000000
3.2545000000 0.5362000000 0.4433000000
3.2542000000 6.2109000000 0.9244000000
3.2541000000 5.7097000000 1.3696000000
3.2540000000 1.6953000000 1.5382000000
3.2538000000 2.5649000000 1.8726000000
3.2533000000 0.9494000000 0.8211000000
3.2532000000 3.5856000000 2.3266000000
3.2530000000 0.8112000000 0.6933000000
3.2529000000 4.4313000000 1.9970000000
3.2528000000 4.6690000000 1.8921000000
3.2526000000 4.9252000000 1.7701000000
3.2525000000 3.3736000000 2.2433000000
3.2524000000 6.4507000000 0.7083000000
3.2523000000 2.2961000000 1.7505000000
3.2522000000 3.6885000000 2.3255000000
3.2519000000 1.4484000000 1.2811000000
3.2515000000 0.3089000000 0.2436000000
3.2515000000 1.3075000000 1.1500000000
3.2512000000 4.0930000000 2.1568000000
3.2511000000 2.0831000000 1.6599000000
3.2510000000 5.1272000000 1.6804000000
3.2508000000 0.4367000000 0.3622000000
3.2505000000 5.4141000000 1.5539000000
3.2498000000 1.6876000000 1.5331000000
3.2495000000 0.3228000000 0.2475000000
3.2492000000 3.3848000000 2.2466000000
3.2489000000 1.9585000000 1.6025000000
3.2486000000 2.7506000000 1.9698000000
3.2483000000 3.3384000000 2.2216000000
3.2478000000 0.9178000000 0.7952000000
3.2473000000 2.7302000000 1.9500000000
3.0145000000 4.3746000000 2.2117000000
3.0131000000 5.4428000000 1.6270000000
3.0126000000 6.5430000000 0.6248000000
3.0122000000 6.2554000000 0.8869000000
3.0118000000 2.4587000000 2.0061000000
3.0106000000 5.1899000000 1.8340000000
3.0100000000 5.6872000000 1.4014000000
3.0092000000 4.6130000000 2.1077000000
3.0088000000 6.8757000000 0.3227000000
3.0084000000 6.3605000000 0.7913000000
3.0081000000 5.9490000000 1.1666000000
3.0079000000 5.6647000000 1.4236000000
3.0078000000 7.0643000000 0.1562000000
3.0074000000 3.7127000000 2.5210000000
3.0073000000 1.7934000000 1.5873000000
3.0070000000 1.3468000000 1.1811000000
3.0069000000 6.8630000000 0.3336000000
3.0066000000 3.8374000000 2.4651000000
3.0065000000 2.8850000000 2.2134000000
3.0063000000 2.2603000000 1.9258000000
3.0062000000 4.7910000000 2.0289000000
3.0060000000 0.7241000000 0.6156000000
3.0057000000 3.6082000000 2.5996000000
3.0054000000 0.9379000000 0.8114000000
3.0051000000 3.3289000000 2.4142000000
3.0050000000 1.1546000000 1.0065000000
3.0048000000 2.2487000000 1.9261000000
3.0048000000 2.9608000000 2.2424000000
3.0046000000 3.8979000000 2.4379000000
3.0045000000 0.6880000000 0.5852000000
3.0040000000 3.1019000000 2.3071000000
3.0039000000 3.5519000000 2.5149000000
3.0037000000 5.9631000000 1.1533000000
3.0034000000 6.8350000000 0.3619000000
3.0032000000 0.2496000000 0.1865000000
3.0028000000 2.8205000000 2.1884000000
3.0025000000 5.2069000000 1.8271000000
3.0021000000 3.9040000000 2.4333000000
3.0018000000 2.6176000000 2.0921000000
3.0017000000 1.2984000000 1.1392000000
3.0014000000 3.4150000000 2.4549000000
3.0011000000 1.1608000000 1.0220000000
3.0010000000 7.0779000000 0.1388000000
3.0007000000 1.5391000000 1.3536000000
3.0004000000 1.2481000000 1.0945000000
3.0002000000 1.9579000000 1.7318000000
2.9999000000 1.2652000000 1.1069000000
2.9996000000 4.1672000000 2.3160000000
2.9993000000 1.3481000000 1.1825000000
2.9990000000 1.6622000000 1.4709000000
2.9985000000 4.8551000000 2.0032000000
2.9984000000 2.6661000000 2.1127000000
2.9976000000 1.1422000000 0.9979000000
2.9968000000 3.0419000000 2.2949000000
2.9945000000 5.2247000000 1.8080000000
2.7645000000 6.4609000000 0.6993000000
2.7602000000 6.8998000000 0.2979000000
2.7597000000 4.7371000000 2.2388000000
2.7588000000 5.3999000000 1.6649000000
2.7586000000 4.4233000000 2.3925000000
2.7583000000 7.0006000000 0.2157000000
2.7580000000 3.7805000000 2.6858000000
2.7577000000 7.2874000000 0.0227000000
2.7575000000 5.9442000000 1.1672000000
2.7572000000 6.3710000000 0.7840000000
2.7569000000 2.9883000000 2.4541000000
2.7566000000 0.0038000000 0.0322000000
2.7565000000 4.0832000000 2.5451000000
2.7563000000 2.0419000000 1.8157000000
2.7562000000 3.1155000000 2.5147000000
2.7561000000 2.3682000000 2.1111000000
2.7560000000 2.7993000000 2.3657000000
2.7558000000 6.8936000000 0.3088000000
2.7555000000 1.2675000000 1.1065000000
2.7551000000 0.8114000000 0.6998000000
2.7549000000 5.5851000000 1.4961000000
2.7548000000 4.5974000000 2.3132000000
2.7547000000 6.1278000000 1.0067000000
2.7544000000 2.1061000000 1.8785000000
2.7543000000 0.0857000000 0.1149000000
2.7541000000 0.1432000000 0.0910000000
2.7540000000 0.6261000000 0.5322000000
2.7537000000 6.1850000000 0.9506000000
2.7535000000 0.5675000000 0.4765000000
2.7533000000 0.8407000000 0.7263000000
2.7532000000 3.6660000000 2.7949000000
2.7530000000 4.0513000000 2.5649000000
2.7528000000 2.2691000000 2.0210000000
2.7526000000 5.8754000000 1.2345000000
2.7525000000 2.4589000000 2.2539000000
2.7524000000 4.4241000000 2.3966000000
2.7523000000 4.9427000000 2.0838000000
2.7522000000 6.3153000000 0.8330000000
2.7519000000 2.5864000000 2.3323000000
2.7518000000 2.5612000000 2.3279000000
2.7517000000 0.0255000000 0.0610000000
2.7513000000 2.1155000000 1.8800000000
2.7510000000 0.9655000000 0.8343000000
2.7503000000 0.7597000000 0.6451000000
2.7496000000 1.8755000000 1.6625000000
2.7493000000 5.0860000000 1.9502000000
2.7487000000 2.0570000000 1.8273000000
2.7485000000 2.2311000000 1.9892000000
2.7480000000 0.4607000000 0.3768000000
2.7456000000 7.1739000000 0.1281000000
2.7445000000 1.7429000000 1.5439000000
2.5097000000 3.1169000000 2.7106000000
2.5090000000 2.8070000000 2.5070000000
2.5087000000 6.0555000000 1.0671000000
2.5080000000 1.3423000000 1.1784000000
2.5078000000 4.8616000000 2.1592000000
2.5075000000 3.4356000000 2.8515000000
2.5073000000 5.7955000000 1.3058000000
2.5073000000 2.5232000000 2.2555000000
2.5071000000 3.9979000000 2.7809000000
2.5070000000 3.5558000000 2.9123000000
2.5067000000 7.1783000000 0.1227000000
2.5065000000 5.2030000000 1.8505000000
2.5063000000 1.0490000000 0.9157000000
2.5062000000 1.7969000000 1.5927000000
2.5060000000 5.8623000000 1.2448000000
2.5058000000 4.1977000000 2.6974000000
2.5053000000 3.6366000000 3.0086000000
2.5051000000 5.1478000000 1.8949000000
2.5049000000 5.8868000000 1.2190000000
2.5048000000 4.1766000000 2.7039000000
2.5046000000 0.9452000000 0.8174000000
2.5045000000 0.6793000000 0.5810000000
2.5042000000 1.0702000000 0.9288000000
2.5041000000 3.5448000000 2.9099000000
2.5040000000 5.8350000000 1.2793000000
2.5039000000 1.7182000000 1.5239000000
2.5038000000 5.6803000000 1.4113000000
2.5037000000 3.4695000000 2.8654000000
2.5035000000 4.8440000000 2.1699000000
2.5033000000 2.2949000000 2.0451000000
2.5029000000 0.7713000000 0.6633000000
2.5027000000 5.1615000000 1.8768000000
2.5026000000 2.6303000000 2.3512000000
2.5024000000 4.3807000000 2.5732000000
2.5018000000 5.6390000000 1.4518000000
2.5014000000 5.5272000000 1.5515000000
2.5013000000 1.3008000000 1.1394000000
2.5012000000 5.3583000000 1.7022000000
2.5009000000 2.6067000000 2.3358000000
2.5008000000 5.5121000000 1.5573000000
2.5003000000 0.5504000000 0.4582000000
2.4998000000 6.2417000000 0.9020000000
2.4996000000 1.7427000000 1.5424000000
2.4987000000 3.7608000000 2.8926000000
2.4967000000 0.0326000000 0.0606000000
2.2648000000 6.4677000000 0.6941000000
2.2613000000 5.5682000000 1.5142000000
2.2610000000 6.4678000000 0.6952000000
2.2597000000 4.3736000000 2.5979000000
2.2592000000 4.1871000000 2.7687000000
2.2590000000 5.6756000000 1.4137000000
2.2587000000 3.6197000000 3.1983000000
2.2584000000 5.4749000000 1.6031000000
2.2578000000 4.8626000000 2.1539000000
2.2577000000 4.3977000000 2.5780000000
2.2575000000 5.6566000000 1.4334000000
2.2571000000 2.0926000000 1.8667000000
2.2570000000 6.8152000000 0.3770000000
2.2568000000 6.3323000000 0.8169000000
2.2561000000 3.5366000000 3.0943000000
2.2560000000 1.6729000000 1.4819000000
2.2558000000 2.4691000000 2.1991000000
2.2557000000 2.1767000000 1.9374000000
2.2556000000 0.3323000000 0.2620000000
2.2555000000 6.8390000000 0.3594000000
2.2554000000 0.9483000000 0.8196000000
2.2553000000 2.1627000000 1.9247000000
2.2551000000 3.3557000000 3.0741000000
2.2550000000 0.6496000000 0.5506000000
2.2549000000 3.0158000000 2.7023000000
2.2548000000 5.4630000000 1.6040000000
2.2544000000 4.3017000000 2.6661000000
2.2542000000 1.2118000000 1.0637000000
2.2540000000 5.3107000000 1.7475000000
2.2538000000 0.3479000000 0.2768000000
2.2536000000 0.7794000000 0.6625000000
2.2533000000 6.1867000000 0.9483000000
2.2530000000 3.2146000000 2.8836000000
2.2529000000 4.4622000000 2.5174000000
2.2527000000 5.8681000000 1.2422000000
2.2526000000 2.1432000000 1.9057000000
2.2525000000 5.3103000000 1.7448000000
2.2524000000 2.8270000000 2.5315000000
2.2523000000 3.7446000000 3.0972000000
2.2519000000 5.0175000000 2.0073000000
2.2516000000 4.0472000000 2.8903000000
2.2512000000 6.6417000000 0.5384000000
2.2506000000 1.0013000000 0.8736000000
2.2505000000 4.0765000000 2.8729000000
2.2501000000 3.5080000000 3.0875000000
2.2500000000 3.3816000000 3.0961000000
2.2492000000 2.7745000000 2.4795000000
2.2488000000 0.4384000000 0.3550000000
2.2482000000 3.3254000000 3.0465000000
2.2479000000 0.2991000000 0.2274000000
2.2475000000 0.6209000000 0.5256000000
2.2470000000 6.0334000000 1.0929000000
2.2453000000 0.1922000000 0.1321000000
2.2427000000 2.7592000000 2.4626000000
2.0130000000 6.2810000000 0.8615000000
2.0116000000 5.6182000000 1.4651000000
2.0106000000 6.6897000000 0.4940000000
2.0093000000 0.0693000000 0.1023000000
2.0091000000 0.4094000000 0.3298000000
2.0090000000 1.9802000000 1.7607000000
2.0088000000 0.8933000000 0.7735000000
2.0084000000 5.6106000000 1.4755000000
2.0079000000 6.3601000000 0.7940000000
2.0077000000 6.3571000000 0.7947000000
2.0073000000 5.7246000000 1.3707000000
2.0072000000 7.0169000000 0.1915000000
2.0070000000 0.2625000000 0.1956000000
2.0068000000 4.9807000000 2.0486000000
2.0066000000 6.0888000000 1.0395000000
2.0064000000 6.5844000000 0.5889000000
2.0063000000 6.7242000000 0.4648000000
2.0061000000 2.2671000000 2.0205000000
2.0059000000 3.0606000000 2.7408000000
2.0058000000 1.5560000000 1.3697000000
2.0056000000 3.9838000000 2.9545000000
2.0055000000 2.4968000000 2.2326000000
2.0056000000 7.1566000000 0.1453000000
2.0052000000 2.0694000000 1.8497000000
2.0048000000 3.8701000000 3.0414000000
2.0043000000 3.5034000000 3.1948000000
2.0039000000 5.9988000000 1.1197000000
2.0038000000 4.5481000000 2.4422000000
2.0034000000 3.0064000000 2.6917000000
2.0033000000 6.0942000000 1.0390000000
2.0031000000 2.0181000000 1.7972000000
2.0030000000 2.9164000000 2.6103000000
2.0027000000 1.0341000000 0.9001000000
2.0026000000 1.7219000000 1.5264000000
2.0025000000 1.2883000000 1.1288000000
2.0023000000 5.8746000000 1.2387000000
2.0022000000 1.1409000000 0.9987000000
2.0021000000 7.1621000000 0.1390000000
2.0018000000 5.7775000000 1.3197000000
2.0015000000 7.2405000000 0.0670000000
2.0014000000 3.4929000000 3.1855000000
2.0010000000 6.5383000000 0.6270000000
2.0008000000 2.9236000000 2.6178000000
2.0005000000 1.8581000000 1.6493000000
2.0000000000 1.4094000000 1.2424000000
1.9990000000 5.1413000000 1.9006000000
1.9990000000 6.3742000000 0.7822000000
1.9983000000 4.3179000000 2.6501000000
1.9979000000 4.1480000000 2.7978000000
1.9966000000 2.5428000000 2.2709000000
1.9963000000 2.4367000000 2.1706000000
1.9915000000 0.5845000000 0.4890000000
1.7605000000 7.0360000000 0.1725000000
1.7598000000 6.3499000000 0.8040000000
1.7594000000 2.4699000000 2.2068000000
1.7589000000 5.6486000000 1.4367000000
1.7586000000 6.9174000000 0.2875000000
1.7583000000 2.1638000000 1.9241000000
1.7582000000 6.7534000000 0.4344000000
1.7579000000 7.2227000000 0.0845000000
1.7573000000 3.8879000000 2.8808000000
1.7570000000 4.9419000000 2.0781000000
1.7570000000 3.1784000000 2.7777000000
1.7569000000 6.3743000000 0.7844000000
1.7561000000 5.4205000000 1.6485000000
1.7557000000 5.8892000000 1.2234000000
1.7555000000 5.5794000000 1.5077000000
1.7554000000 5.0138000000 2.0176000000
1.7551000000 5.2804000000 1.7726000000
1.7548000000 4.7279000000 2.2783000000
1.7547000000 2.1177000000 1.8844000000
1.7544000000 3.2138000000 2.8005000000
1.7543000000 0.9395000000 0.8096000000
1.7540000000 4.9138000000 2.1077000000
1.7540000000 3.3743000000 2.8680000000
1.7538000000 2.7702000000 2.4838000000
1.7534000000 5.1069000000 1.9387000000
1.7533000000 3.7009000000 2.9662000000
1.7531000000 4.9940000000 2.0374000000
1.7529000000 5.4850000000 1.5837000000
1.7526000000 7.1006000000 0.1201000000
1.7525000000 3.2127000000 2.7990000000
1.7523000000 2.4461000000 2.1830000000
1.7521000000 4.0312000000 2.8185000000
1.7520000000 6.5401000000 0.6320000000
1.7518000000 1.8945000000 1.6855000000
1.7517000000 4.1892000000 2.7318000000
1.7515000000 7.1042000000 0.1144000000
1.7514000000 1.2758000000 1.1163000000
1.7513000000 1.5114000000 1.3372000000
1.7507000000 6.4749000000 0.6888000000
1.7503000000 4.9848000000 2.0487000000
1.7499000000 1.5789000000 1.3928000000
1.7498000000 5.7291000000 1.3665000000
1.7496000000 3.6332000000 3.0522000000
1.7491000000 3.6001000000 3.0329000000
1.7489000000 2.5967000000 2.3279000000
1.7484000000 3.8096000000 2.9091000000
1.7481000000 0.4240000000 0.3446000000
1.7476000000 3.6918000000 2.9593000000
1.7465000000 0.6985000000 0.5920000000
1.7456000000 3.7900000000 2.9197000000
1.5119000000 6.8657000000 0.3334000000
1.5114000000 4.9736000000 2.0496000000
1.5110000000 6.5833000000 0.5879000000
1.5105000000 7.0735000000 0.1380000000
1.5101000000 3.7059000000 2.7768000000
1.5097000000 2.1818000000 1.9435000000
1.5095000000 5.3068000000 1.7539000000
1.5093000000 6.9473000000 0.2605000000
1.5086000000 2.7163000000 2.3712000000
1.5081000000 7.1285000000 0.0913000000
1.5079000000 4.8239000000 2.1912000000
1.5076000000 6.0730000000 1.0526000000
1.5075000000 4.3174000000 2.4978000000
1.5074000000 6.7877000000 0.4072000000
1.5069000000 3.3825000000 2.6866000000
1.5065000000 3.5253000000 2.7466000000
1.5063000000 2.1907000000 1.9523000000
1.5062000000 4.7965000000 2.2082000000
1.5062000000 4.5285000000 2.3928000000
1.5056000000 1.3451000000 1.1824000000
1.5055000000 2.6259000000 2.3988000000
1.5051000000 5.1625000000 1.8801000000
1.5048000000 0.8955000000 0.7767000000
1.5048000000 4.8065000000 2.2011000000
1.5047000000 6.4984000000 0.6727000000
1.5045000000 1.4139000000 1.2380000000
1.5041000000 3.6284000000 2.8534000000
1.5037000000 4.9878000000 2.0426000000
1.5037000000 4.7595000000 2.2345000000
1.5035000000 5.1091000000 1.9253000000
1.5032000000 0.2859000000 0.2212000000
1.5029000000 3.8162000000 2.7163000000
1.5028000000 4.8773000000 2.1392000000
1.5026000000 5.7945000000 1.3064000000
1.5023000000 4.0099000000 2.6303000000
1.5021000000 4.1456000000 2.5648000000
1.5020000000 4.9286000000 2.1018000000
1.5019000000 2.6625000000 2.4121000000
1.5016000000 4.0332000000 2.6169000000
1.5013000000 0.0440000000 0.0738000000
1.5012000000 0.7131000000 0.6041000000
1.5009000000 3.9685000000 2.6414000000
1.5004000000 0.2812000000 0.2191000000
1.5001000000 2.2397000000 1.9980000000
1.4998000000 2.2451000000 1.9965000000
1.4996000000 1.4639000000 1.2883000000
1.4994000000 7.1131000000 0.1073000000
1.4993000000 1.5211000000 1.3396000000
1.4990000000 1.7337000000 1.5373000000
1.4988000000 0.6610000000 0.5610000000
1.4986000000 2.7160000000 2.3727000000
1.4982000000 0.0175000000 0.0496000000
1.4977000000 4.6836000000 2.3064000000
1.4967000000 1.6086000000 1.4182000000
1.4955000000 6.4114000000 0.7443000000
1.4936000000 1.4388000000 1.2672000000
1.2614000000 3.0454000000 2.3382000000
1.2609000000 5.5778000000 1.5046000000
1.2605000000 6.8937000000 0.3091000000
1.2599000000 6.4220000000 0.7387000000
1.2590000000 5.9142000000 1.2029000000
1.2589000000 3.8977000000 2.4833000000
1.2587000000 6.1884000000 0.9516000000
1.2584000000 7.2318000000 0.0726000000
1.2575000000 6.3644000000 0.7892000000
1.2573000000 7.2197000000 0.0868000000
1.2569000000 2.0658000000 1.8363000000
1.2568000000 4.5777000000 2.1798000000
1.2563000000 3.1920000000 2.4033000000
1.2561000000 4.6313000000 2.1528000000
1.2559000000 0.5952000000 0.4995000000
1.2558000000 6.3194000000 0.8263000000
1.2555000000 2.2125000000 2.0184000000
1.2554000000 7.2844000000 0.0235000000
1.2551000000 5.8012000000 1.3015000000
1.2550000000 7.2096000000 0.0939000000
1.2548000000 3.1047000000 2.3605000000
1.2547000000 0.1402000000 0.0873000000
1.2545000000 1.7970000000 1.5900000000
1.2543000000 0.7156000000 0.6085000000
1.2541000000 1.4203000000 1.2457000000
1.2540000000 2.5522000000 2.1074000000
1.2538000000 1.8560000000 1.6496000000
1.2536000000 6.4804000000 0.6886000000
1.2534000000 4.5414000000 2.1945000000
1.2533000000 5.6319000000 1.4574000000
1.2530000000 2.2877000000 1.9794000000
1.2528000000 4.3356000000 2.2801000000
1.2528000000 4.6935000000 2.1188000000
1.2526000000 1.7554000000 1.5580000000
1.2524000000 5.6995000000 1.3938000000
1.2521000000 1.1013000000 0.9612000000
1.2519000000 7.2485000000 0.0647000000
1.2518000000 0.5813000000 0.4846000000
1.2515000000 2.8559000000 2.2408000000
1.2513000000 1.0876000000 0.9464000000
1.2512000000 6.2661000000 0.8775000000
1.2511000000 5.7934000000 1.3080000000
1.2508000000 1.9706000000 1.7549000000
1.2501000000 5.0080000000 1.9681000000
1.2493000000 5.7160000000 1.3813000000
1.2486000000 1.8617000000 1.6514000000
1.2479000000 3.5405000000 2.5546000000
1.2475000000 1.3935000000 1.2254000000
1.2460000000 0.6677000000 0.5693000000
1.2449000000 0.7224000000 0.6147000000
1.0137000000 5.7655000000 1.3352000000
1.0111000000 5.6546000000 1.4331000000
1.0105000000 6.9515000000 0.2508000000
1.0099000000 7.1896000000 0.1111000000
1.0090000000 6.3612000000 0.7930000000
1.0088000000 5.3451000000 1.6318000000
1.0085000000 7.0427000000 0.1722000000
1.0083000000 5.6613000000 1.4279000000
1.0081000000 6.5474000000 0.6212000000
1.0079000000 4.6814000000 1.9350000000
1.0078000000 0.9896000000 0.8566000000
1.0071000000 3.7029000000 2.3847000000
1.0070000000 3.4033000000 2.2986000000
1.0068000000 6.8816000000 0.3198000000
1.0067000000 5.3839000000 1.6107000000
1.0063000000 0.7344000000 0.6236000000
1.0060000000 3.3692000000 2.2908000000
1.0059000000 5.9371000000 1.1770000000
1.0058000000 4.4184000000 2.0522000000
1.0055000000 6.9774000000 0.2329000000
1.0051000000 4.7015000000 1.9208000000
1.0050000000 6.7520000000 0.4372000000
1.0049000000 3.7774000000 2.3401000000
1.0045000000 1.0181000000 0.8833000000
1.0044000000 1.1966000000 1.0447000000
1.0043000000 4.2086000000 2.1419000000
1.0041000000 3.8086000000 2.3262000000
1.0039000000 2.0181000000 1.6632000000
1.0038000000 6.3401000000 0.8098000000
1.0037000000 1.4532000000 1.2816000000
1.0035000000 3.7119000000 2.3718000000
1.0032000000 1.2519000000 1.0966000000
1.0031000000 4.2130000000 2.1404000000
1.0030000000 3.4879000000 2.3325000000
1.0029000000 4.6398000000 1.9537000000
1.0028000000 4.2711000000 2.1168000000
1.0026000000 1.4545000000 1.2825000000
1.0023000000 2.5673000000 1.9130000000
1.0019000000 5.1009000000 1.7380000000
1.0015000000 1.0367000000 0.8956000000
1.0015000000 6.7370000000 0.4474000000
1.0011000000 1.8980000000 1.6094000000
1.0010000000 1.0323000000 0.8990000000
1.0008000000 3.0332000000 2.1208000000
1.0007000000 3.5014000000 2.3365000000
1.0004000000 0.2531000000 0.1921000000
1.0001000000 1.5426000000 1.3579000000
0.9998000000 1.2770000000 1.1228000000
0.9990000000 5.5413000000 1.5130000000
0.9984000000 0.8166000000 0.7041000000
0.9983000000 1.1778000000 1.0346000000
0.9982000000 0.2214000000 0.1551000000
0.9981000000 6.6062000000 0.5680000000
0.9973000000 1.9495000000 1.6319000000
0.9956000000 0.8574000000 0.7384000000
0.9942000000 3.5043000000 2.3409000000
0.7615000000 4.7049000000 1.7315000000
0.7608000000 6.5978000000 0.5761000000
0.7602000000 6.6920000000 0.4902000000
0.7598000000 3.0712000000 1.9510000000
0.7594000000 6.2040000000 0.9345000000
0.7590000000 6.6845000000 0.4931000000
0.7584000000 6.6656000000 0.5172000000
0.7577000000 7.2785000000 0.0297000000
0.7576000000 3.1999000000 2.0118000000
0.7573000000 1.5447000000 1.2605000000
0.7571000000 5.8063000000 1.2253000000
0.7568000000 6.1555000000 0.9801000000
0.7567000000 3.6911000000 2.1797000000
0.7565000000 3.1058000000 1.9657000000
0.7563000000 1.0706000000 0.9262000000
0.7562000000 4.9380000000 1.6205000000
0.7560000000 1.8970000000 1.4132000000
0.7557000000 3.3678000000 2.0849000000
0.7555000000 2.1094000000 1.5123000000
0.7550000000 6.6447000000 0.5342000000
0.7549000000 7.0233000000 0.1906000000
0.7547000000 6.5599000000 0.6044000000
0.7546000000 6.0173000000 1.0915000000
0.7545000000 6.0900000000 1.0404000000
0.7544000000 6.2685000000 0.8805000000
0.7542000000 0.9328000000 0.8088000000
0.7541000000 4.6678000000 1.7409000000
0.7539000000 3.0280000000 1.9264000000
0.7536000000 3.9297000000 2.0789000000
0.7534000000 0.1849000000 0.1291000000
0.7531000000 4.6965000000 1.7261000000
0.7530000000 6.8244000000 0.3689000000
0.7528000000 5.7157000000 1.2598000000
0.7526000000 5.4222000000 1.3947000000
0.7524000000 2.2171000000 1.5632000000
0.7522000000 4.5949000000 1.7698000000
0.7518000000 3.3620000000 2.0832000000
0.7517000000 0.0363000000 0.0617000000
0.7515000000 2.8217000000 1.8320000000
0.7511000000 2.0629000000 1.4894000000
0.7508000000 6.7899000000 0.4036000000
0.7505000000 2.8593000000 1.8476000000
0.7502000000 2.7465000000 1.7981000000
0.7500000000 1.7560000000 1.3472000000
0.7498000000 2.4091000000 1.6492000000
0.7495000000 0.9002000000 0.7801000000
0.7492000000 5.8678000000 1.1954000000
0.7491000000 0.0739000000 0.1030000000
0.7485000000 2.9197000000 1.8795000000
0.7473000000 3.5183000000 2.1504000000
0.7469000000 0.8995000000 0.7742000000
0.5140000000 2.8719000000 1.6751000000
0.5127000000 7.1492000000 0.0734000000
0.5105000000 3.8589000000 1.9142000000
0.5098000000 3.0246000000 1.7395000000
0.5087000000 0.9754000000 0.7855000000
0.5085000000 6.7255000000 0.4608000000
0.5082000000 1.9082000000 1.2251000000
0.5080000000 0.7719000000 0.6487000000
0.5078000000 5.4856000000 1.1743000000
0.5075000000 6.6802000000 0.4977000000
0.5074000000 7.0811000000 0.1353000000
0.5072000000 4.6673000000 1.5429000000
0.5068000000 7.0121000000 0.2036000000
0.5067000000 6.8824000000 0.3183000000
0.5066000000 2.9739000000 1.7137000000
0.5064000000 4.5180000000 1.6106000000
0.5058000000 1.7089000000 1.1335000000
0.5055000000 2.1223000000 1.3195000000
0.5053000000 0.5317000000 0.4446000000
0.5053000000 3.9330000000 1.8750000000
0.5052000000 4.3047000000 1.7098000000
0.5050000000 0.9191000000 0.8328000000
0.5049000000 3.4127000000 1.9060000000
0.5047000000 6.6683000000 0.5168000000
0.5045000000 6.4905000000 0.6620000000
0.5043000000 0.0185000000 0.0468000000
0.5042000000 2.3734000000 1.4325000000
0.5040000000 0.6616000000 0.5614000000
0.5038000000 4.8230000000 1.4723000000
0.5037000000 2.6965000000 1.5843000000
0.5035000000 2.2641000000 1.3823000000
0.5034000000 4.6119000000 1.5642000000
0.5031000000 4.0947000000 1.7982000000
0.5030000000 4.5770000000 1.5867000000
0.5029000000 6.9645000000 0.2374000000
0.5024000000 3.5168000000 1.9557000000
0.5021000000 5.9203000000 0.9750000000
0.5020000000 4.8111000000 1.4768000000
0.5018000000 1.3536000000 0.9723000000
0.5016000000 4.7753000000 1.4936000000
0.5013000000 3.1570000000 1.7897000000
0.5011000000 3.5598000000 1.9749000000
0.5008000000 2.7129000000 1.5860000000
0.5003000000 4.5192000000 1.6100000000
0.5000000000 3.1967000000 1.8075000000
0.4999000000 2.8384000000 1.6437000000
0.4994000000 1.6091000000 1.0852000000
0.4989000000 2.2775000000 1.3854000000
0.4987000000 1.4221000000 1.0001000000
0.4983000000 3.1525000000 1.7796000000
0.4972000000 1.6048000000 1.0772000000
0.4947000000 0.4074000000 0.3333000000
0.2663000000 5.9489000000 0.7718000000
0.2615000000 2.5934000000 1.3453000000
0.2605000000 6.6607000000 0.4439000000
0.2597000000 1.4265000000 0.8113000000
0.2594000000 0.7159000000 0.4918000000
0.2594000000 5.0052000000 1.1949000000
0.2586000000 4.5655000000 1.3950000000
0.2580000000 5.9281000000 0.7726000000
0.2578000000 1.6623000000 0.9150000000
0.2577000000 6.6130000000 0.4605000000
0.2571000000 7.2828000000 0.0302000000
0.2570000000 3.1303000000 1.5839000000
0.2566000000 5.7672000000 0.8480000000
0.2565000000 5.8309000000 0.8199000000
0.2563000000 4.4944000000 1.4239000000
0.2561000000 4.3207000000 1.5040000000
0.2555000000 2.3954000000 1.2464000000
0.2554000000 3.4784000000 1.7427000000
0.2549000000 2.6687000000 1.3724000000
0.2548000000 3.6905000000 1.7788000000
0.2544000000 5.2365000000 1.0864000000
0.2542000000 0.6243000000 0.4396000000
0.2538000000 0.3030000000 0.2354000000
0.2536000000 1.7566000000 0.9618000000
0.2534000000 3.1358000000 1.5835000000
0.2531000000 0.9212000000 0.5766000000
0.2530000000 1.9430000000 1.0430000000
0.2529000000 3.3852000000 1.7036000000
0.2528000000 4.4500000000 1.4425000000
0.2525000000 5.6835000000 0.8889000000
0.2523000000 5.4237000000 1.0040000000
0.2520000000 6.5173000000 0.5014000000
0.2520000000 4.3450000000 1.4902000000
0.2518000000 6.8343000000 0.3476000000
0.2516000000 3.9574000000 1.6676000000
0.2512000000 0.3292000000 0.2538000000
0.2511000000 3.7297000000 1.7774000000
0.2510000000 1.4682000000 0.8221000000
0.2508000000 1.1077000000 0.6606000000
0.2504000000 0.1287000000 0.0773000000
0.2503000000 0.6293000000 0.4415000000
0.2499000000 1.3734000000 0.7761000000
0.2493000000 4.7734000000 1.2929000000
0.2481000000 0.3791000000 0.3614000000
0.2458000000 1.5101000000 0.8426000000
0.0161000000 5.9800000000 0.5575000000
0.0130000000 7.2268000000 0.0511000000
0.0116000000 4.9855000000 1.0106000000
0.0109000000 6.6927000000 0.2330000000
0.0106000000 5.6331000000 0.7054000000
0.0103000000 4.4234000000 1.2612000000
0.0097000000 3.5116000000 1.5569000000
0.0093000000 3.4086000000 1.5199000000
0.0091000000 6.4437000000 0.3414000000
0.0085000000 3.7449000000 1.5718000000
0.0083000000 1.8940000000 0.8264000000
0.0080000000 0.1070000000 0.0746000000
0.0079000000 3.2094000000 1.4225000000
0.0079000000 4.6841000000 1.1429000000
0.0072000000 1.7410000000 0.7566000000
0.0070000000 3.5739000000 1.5886000000
0.0065000000 3.9773000000 1.4622000000
0.0063000000 2.3151000000 1.0180000000
0.0063000000 5.6999000000 0.6805000000
0.0059000000 6.7753000000 0.1905000000
0.0058000000 2.4647000000 1.0833000000
0.0056000000 0.7927000000 0.3225000000
0.0055000000 3.9401000000 1.4829000000
0.0053000000 0.7242000000 0.2924000000
0.0051000000 2.8810000000 1.2748000000
0.0049000000 4.8047000000 1.0883000000
0.0046000000 0.6466000000 0.2528000000
0.0044000000 0.5000000000 0.1920000000
0.0043000000 7.1138000000 0.1140000000
0.0041000000 4.4223000000 1.2604000000
0.0039000000 2.2820000000 1.0046000000
0.0035000000 6.4175000000 0.3519000000
0.0034000000 4.3476000000 1.2958000000
0.0032000000 6.2981000000 0.4060000000
0.0031000000 6.4980000000 0.3154000000
0.0029000000 0.5752000000 0.2211000000
0.0027000000 4.0321000000 1.4354000000
0.0026000000 2.2906000000 1.0070000000
0.0025000000 0.8264000000 0.3388000000
0.0023000000 3.5024000000 1.5518000000
0.0020000000 0.5017000000 0.1912000000
0.0016000000 6.5282000000 0.2981000000
0.0013000000 5.8347000000 0.6176000000
0.0010000000 4.9343000000 1.0224000000
0.0008000000 5.3677000000 0.8273000000
0.0005000000 2.7928000000 1.2339000000
0.0003000000 2.6459000000 1.1606000000
-0.0004000000 1.3593000000 0.5785000000
-0.0009000000 2.6702000000 1.1717000000
-0.0011000000 1.2307000000 0.5182000000
-0.0013000000 0.5680000000 0.2152000000
-0.0015000000 1.5582000000 0.6671000000
-0.0017000000 3.3359000000 1.4742000000
-0.0028000000 0.3648000000 0.1175000000
-0.0040000000 1.1280000000 0.4664000000
-0.2360000000 5.7108000000 0.4927000000
-0.2391000000 6.7528000000 0.0863000000
-0.2398000000 4.8849000000 0.8618000000
-0.2407000000 5.2134000000 0.7107000000
-0.2417000000 7.0057000000 0.0393000000
-0.2420000000 1.8455000000 0.6092000000
-0.2427000000 6.7245000000 0.0928000000
-0.2428000000 5.0403000000 0.7824000000
-0.2431000000 1.3819000000 0.3968000000
-0.2433000000 2.7298000000 1.0040000000
-0.2437000000 6.7603000000 0.0764000000
-0.2438000000 1.3596000000 0.3914000000
-0.2444000000 6.1793000000 0.2648000000
-0.2447000000 5.9181000000 0.3826000000
-0.2448000000 6.5160000000 0.1119000000
-0.2451000000 4.6388000000 0.9656000000
-0.2454000000 1.9594000000 0.6525000000
-0.2455000000 0.6385000000 0.1330000000
-0.2457000000 4.2551000000 1.1350000000
-0.2459000000 4.9847000000 0.8093000000
-0.2460000000 5.2434000000 0.6934000000
-0.2462000000 1.5761000000 0.4806000000
-0.2463000000 2.8925000000 1.0762000000
-0.2465000000 2.3109000000 0.8111000000
-0.2467000000 2.8021000000 1.0408000000
-0.2469000000 6.5759000000 0.0853000000
-0.2472000000 4.0952000000 1.2129000000
-0.2474000000 2.2590000000 0.7900000000
-0.2477000000 2.3303000000 0.8254000000
-0.2478000000 2.4394000000 0.8765000000
-0.2481000000 6.0978000000 0.2965000000
-0.2485000000 6.3107000000 0.2033000000
-0.2485000000 0.9801000000 0.2095000000
-0.2487000000 3.3160000000 1.2735000000
-0.2493000000 2.0786000000 0.7101000000
-0.2494000000 0.7742000000 0.1169000000
-0.2495000000 3.3700000000 1.2942000000
-0.2499000000 1.7610000000 0.5662000000
-0.2501000000 0.5700000000 0.1014000000
-0.2505000000 3.0468000000 1.1480000000
-0.2507000000 5.3987000000 0.6214000000
-0.2512000000 4.5601000000 0.9965000000
-0.2519000000 0.5788000000 0.1001000000
-0.2528000000 3.0116000000 1.1344000000
-0.2532000000 4.0498000000 1.2227000000
-0.2547000000 0.5507000000 0.0825000000
-0.2582000000 3.7683000000 1.3479000000
-0.4881000000 4.4940000000 0.8404000000
-0.4889000000 4.8631000000 0.6705000000
-0.4895000000 6.3614000000 0.0636000000
-0.4898000000 6.0233000000 0.1387000000
-0.4908000000 4.9050000000 0.6483000000
-0.4914000000 5.9445000000 0.1815000000
-0.4918000000 5.7197000000 0.2779000000
-0.4922000000 4.8651000000 0.6734000000
-0.4924000000 3.3703000000 1.0989000000
-0.4925000000 1.8537000000 0.4133000000
-0.4933000000 6.5187000000 0.0663000000
-0.4934000000 1.3277000000 0.1662000000
-0.4935000000 6.6260000000 0.0155000000
-0.4938000000 6.1092000000 0.1008000000
-0.4942000000 3.1474000000 1.0038000000
-0.4944000000 6.2495000000 0.1078000000
-0.4946000000 3.8360000000 1.1346000000
-0.4949000000 2.2135000000 0.5730000000
-0.4950000000 5.3131000000 0.4595000000
-0.4952000000 1.1305000000 0.0858000000
-0.4952000000 3.1661000000 1.0087000000
-0.4956000000 0.6877000000 0.0358000000
-0.4962000000 4.2437000000 0.9453000000
-0.4962000000 0.7940000000 0.0771000000
-0.4965000000 4.3052000000 0.9174000000
-0.4967000000 6.2219000000 0.1291000000
-0.4969000000 3.7180000000 1.1863000000
-0.4970000000 4.7923000000 0.6982000000
-0.4973000000 4.3913000000 0.8776000000
-0.4975000000 2.8964000000 0.8816000000
-0.4979000000 0.9739000000 0.0841000000
-0.4982000000 2.7788000000 0.8318000000
-0.4986000000 5.5405000000 0.3510000000
-0.4990000000 1.3726000000 0.1846000000
-0.4994000000 2.0134000000 0.4810000000
-0.4995000000 6.1893000000 0.1331000000
-0.5000000000 4.5244000000 0.8127000000
-0.5005000000 2.7825000000 0.8296000000
-0.5006000000 4.5632000000 0.8001000000
-0.5007000000 1.8183000000 0.3941000000
-0.5013000000 5.5420000000 0.3482000000
-0.5017000000 6.6354000000 -0.0015000000
-0.5024000000 3.7128000000 1.1863000000
-0.5026000000 3.6849000000 1.1858000000
-0.5028000000 1.8992000000 0.4252000000
-0.5038000000 3.6059000000 1.2632000000
-0.7368000000 5.3805000000 0.2447000000
-0.7393000000 5.0118000000 0.4034000000
-0.7410000000 5.3248000000 0.2626000000
-0.7423000000 5.8522000000 0.0968000000
-0.7424000000 3.0960000000 0.7832000000
-0.7427000000 3.7838000000 0.9604000000
-0.7431000000 2.2602000000 0.3999000000
-0.7432000000 2.5874000000 0.5534000000
-0.7442000000 5.2355000000 0.3027000000
-0.7447000000 4.8457000000 0.4769000000
-0.7450000000 3.7452000000 0.9767000000
-0.7452000000 3.7833000000 0.9640000000
-0.7454000000 1.2570000000 0.0160000000
-0.7457000000 5.9633000000 0.0391000000
-0.7459000000 2.7953000000 0.6427000000
-0.7460000000 2.6069000000 0.5616000000
-0.7462000000 5.3839000000 0.2290000000
-0.7465000000 5.2679000000 0.2846000000
-0.7477000000 4.0510000000 0.8397000000
-0.7479000000 5.5086000000 0.1729000000
-0.7481000000 3.8686000000 0.9125000000
-0.7482000000 3.5681000000 0.9883000000
-0.7486000000 2.1730000000 0.3560000000
-0.7488000000 5.2474000000 0.2848000000
-0.7489000000 1.7700000000 0.1712000000
-0.7493000000 2.0137000000 0.2890000000
-0.7494000000 3.0486000000 0.7559000000
-0.7495000000 2.2418000000 0.3866000000
-0.7499000000 4.1856000000 0.7704000000
-0.7499000000 2.1606000000 0.3476000000
-0.7502000000 4.8350000000 0.4780000000
-0.7513000000 1.1574000000 0.0424000000
-0.7515000000 4.2241000000 0.7537000000
-0.7541000000 2.0732000000 0.3052000000
-0.9859000000 3.5299000000 0.7892000000
-0.9893000000 5.1054000000 0.1695000000
-0.9902000000 5.6594000000 0.0666000000
-0.9906000000 3.1528000000 0.6114000000
-0.9914000000 5.1206000000 0.1633000000
-0.9925000000 3.6705000000 0.8020000000
-0.9927000000 5.3127000000 0.0700000000
-0.9930000000 4.1459000000 0.6010000000
-0.9937000000 1.7762000000 0.0605000000
-0.9939000000 2.3527000000 0.2420000000
-0.9949000000 2.0241000000 0.0947000000
-0.9950000000 4.6038000000 0.3928000000
-0.9954000000 2.5545000000 0.3337000000
-0.9959000000 4.4268000000 0.4709000000
-0.9962000000 3.4850000000 0.7649000000
-0.9964000000 3.6176000000 0.8798000000
-0.9967000000 5.0691000000 0.1759000000
-0.9968000000 5.1270000000 0.1545000000
-0.9970000000 5.5727000000 0.0210000000
-0.9972000000 3.3328000000 0.6933000000
-0.9973000000 5.1891000000 0.1234000000
-0.9975000000 3.0416000000 0.5601000000
-0.9978000000 4.4963000000 0.4357000000
-0.9982000000 4.7515000000 0.3201000000
-0.9983000000 2.4775000000 0.2968000000
-0.9987000000 3.9579000000 0.6882000000
-0.9989000000 5.4875000000 0.0641000000
-0.9994000000 5.4973000000 0.0518000000
-0.9996000000 5.6626000000 0.0540000000
-1.0000000000 2.7809000000 0.4341000000
-1.0007000000 2.4739000000 0.2946000000
-1.0017000000 5.0227000000 0.1959000000
-1.0027000000 5.1698000000 0.1266000000
-1.0035000000 4.9396000000 0.2304000000
-1.2383000000 4.2994000000 0.3411000000
-1.2390000000 2.6947000000 0.2141000000
-1.2408000000 4.5570000000 0.2170000000
-1.2416000000 4.1861000000 0.3854000000
-1.2420000000 4.0150000000 0.4637000000
-1.2424000000 4.8382000000 0.0937000000
-1.2435000000 2.8416000000 0.2692000000
-1.2443000000 3.1812000000 0.4223000000
-1.2445000000 3.4566000000 0.5545000000
