3.7466000000 0.3993000000 0.0325000000
3.7456000000 4.0043000000 0.5219000000
3.5114000000 3.1682000000 0.9804000000
3.5112000000 2.8577000000 1.0084000000
3.5110000000 2.4285000000 0.8535000000
3.5109000000 2.6022000000 0.9143000000
3.5102000000 5.6835000000 0.0542000000
3.5101000000 3.3676000000 0.9096000000
3.5099000000 4.4303000000 0.5125000000
3.5097000000 5.7865000000 0.0232000000
3.5095000000 5.6058000000 0.0843000000
3.5090000000 4.2922000000 0.5706000000
3.5090000000 1.2835000000 0.4302000000
3.5089000000 5.8116000000 0.0879000000
3.5088000000 2.1753000000 0.7582000000
3.5087000000 3.2242000000 0.9588000000
3.5084000000 4.5398000000 0.4776000000
3.5083000000 4.1881000000 0.6026000000
3.5079000000 2.0450000000 0.7118000000
3.5078000000 5.4551000000 0.1382000000
3.5078000000 2.2126000000 0.7777000000
3.5077000000 2.5775000000 0.9082000000
3.5073000000 4.1160000000 0.6325000000
3.5070000000 4.3435000000 0.5527000000
3.5067000000 4.8296000000 0.3717000000
3.5067000000 3.1294000000 0.9948000000
3.5066000000 0.6791000000 0.2129000000
3.5064000000 3.7186000000 0.7747000000
3.5063000000 5.4679000000 0.1365000000
3.5061000000 5.1587000000 0.2499000000
3.5060000000 1.6088000000 0.5553000000
3.5059000000 2.1884000000 0.7670000000
3.5059000000 0.2294000000 0.0508000000
3.5058000000 3.4525000000 0.8801000000
3.5058000000 5.5752000000 0.0977000000
3.5057000000 0.2543000000 0.0592000000
3.5055000000 3.3511000000 0.9183000000
3.5054000000 3.8006000000 0.7511000000
3.5052000000 5.1122000000 0.2669000000
3.5051000000 1.4973000000 0.5177000000
3.5050000000 1.1326000000 0.3810000000
3.5049000000 5.4463000000 0.1523000000
3.5048000000 0.0350000000 0.0551000000
3.5048000000 5.6002000000 0.0847000000
3.5047000000 2.8740000000 1.0214000000
3.5046000000 0.7442000000 0.2413000000
3.5045000000 1.2063000000 0.4111000000
3.5044000000 4.8639000000 0.3620000000
3.5043000000 4.6007000000 0.4546000000
3.5040000000 3.5988000000 0.8229000000
3.5039000000 0.1135000000 0.0882000000
3.5038000000 3.2803000000 0.9457000000
3.5036000000 3.7561000000 0.7698000000
3.5035000000 3.1671000000 0.9817000000
3.5033000000 3.7412000000 0.7700000000
3.5032000000 1.5237000000 0.5229000000
3.5032000000 0.4188000000 0.1210000000
3.5031000000 4.6115000000 0.4522000000
3.5031000000 5.1742000000 0.2498000000
3.5030000000 3.8028000000 0.7459000000
3.5029000000 4.9902000000 0.3192000000
3.5028000000 1.6993000000 0.5905000000
3.5027000000 1.0799000000 0.3609000000
3.5026000000 3.3158000000 0.9337000000
3.5025000000 0.1988000000 0.0414000000
3.5024000000 4.2583000000 0.5856000000
3.5023000000 2.8741000000 1.0212000000
3.5022000000 3.7078000000 0.7869000000
3.5018000000 5.1341000000 0.2661000000
3.5016000000 3.9613000000 0.6997000000
3.5013000000 0.3290000000 0.0861000000
3.5012000000 3.6214000000 0.8178000000
3.5011000000 0.0935000000 0.0746000000
3.5010000000 4.1081000000 0.6417000000
3.5009000000 1.6012000000 0.5543000000
3.5008000000 5.7930000000 0.0221000000
3.5004000000 1.5486000000 0.5393000000
3.5002000000 2.8178000000 1.0037000000
3.5002000000 3.1823000000 0.9788000000
3.5001000000 3.7974000000 0.7564000000
3.5001000000 0.7056000000 0.2374000000
3.4998000000 0.9294000000 0.3094000000
3.4997000000 5.4154000000 0.1651000000
3.4988000000 0.1722000000 0.0338000000
3.4980000000 1.4718000000 0.5098000000
3.4979000000 4.5936000000 0.4689000000
3.4976000000 2.1926000000 0.7697000000
3.4975000000 2.2996000000 0.8174000000
3.4967000000 2.7388000000 0.9750000000
3.4960000000 0.9146000000 0.3021000000
3.4922000000 1.8721000000 0.6549000000
3.2634000000 5.4182000000 0.3085000000
3.2624000000 4.4006000000 0.6806000000
3.2620000000 4.2317000000 0.7489000000
3.2613000000 2.4270000000 1.0050000000
3.2603000000 5.2857000000 0.3650000000
3.2597000000 2.8542000000 1.1716000000
3.2595000000 4.9960000000 0.4694000000
3.2594000000 3.8519000000 0.8867000000
3.2594000000 2.0203000000 0.8636000000
3.2584000000 5.8872000000 0.0529000000
3.2580000000 2.8618000000 1.1723000000
3.2579000000 5.7722000000 0.1380000000
3.2575000000 4.9132000000 0.4990000000
3.2575000000 0.3204000000 0.2247000000
3.2574000000 2.9739000000 1.1945000000
3.2573000000 0.0563000000 0.0540000000
3.2568000000 3.5133000000 1.0161000000
3.2566000000 4.4762000000 0.6590000000
3.2565000000 3.9156000000 0.8673000000
3.2564000000 0.7784000000 0.4077000000
3.2563000000 0.9808000000 0.4839000000
3.2563000000 5.4482000000 0.3018000000
3.2563000000 4.5742000000 0.6240000000
3.2562000000 5.3001000000 0.3588000000
3.2561000000 4.2836000000 0.7278000000
3.2560000000 5.1859000000 0.4012000000
3.2558000000 2.7670000000 1.1413000000
3.2558000000 4.8745000000 0.5183000000
3.2556000000 0.2461000000 0.1800000000
3.2555000000 0.1020000000 0.0878000000
3.2553000000 2.8364000000 1.1690000000
3.2553000000 0.3140000000 0.2267000000
3.2551000000 3.6555000000 0.9614000000
3.2550000000 2.6787000000 1.1076000000
3.2550000000 3.1071000000 1.1561000000
3.2548000000 4.6199000000 0.6141000000
3.2547000000 1.5400000000 0.6861000000
3.2545000000 4.3798000000 0.6971000000
3.2545000000 0.7403000000 0.3951000000
3.2544000000 3.8428000000 0.8942000000
3.2543000000 4.4092000000 0.6809000000
3.2542000000 2.9621000000 1.1982000000
3.2541000000 4.1468000000 0.7801000000
3.2540000000 2.9584000000 1.1984000000
3.2538000000 4.0957000000 0.8023000000
3.2537000000 1.4941000000 0.6707000000
3.2536000000 5.0595000000 0.4524000000
3.2536000000 5.6333000000 0.2240000000
3.2535000000 4.5437000000 0.6384000000
3.2535000000 1.6332000000 0.7219000000
3.2534000000 3.3698000000 1.0684000000
3.2532000000 0.3704000000 0.2459000000
3.2532000000 1.7607000000 0.7717000000
3.2530000000 2.5371000000 1.0511000000
3.2530000000 2.1788000000 0.9255000000
3.2529000000 4.2823000000 0.7318000000
3.2528000000 1.4447000000 0.6563000000
3.2528000000 2.4001000000 1.0096000000
3.2527000000 5.4705000000 0.2969000000
3.2526000000 2.9947000000 1.1941000000
3.2526000000 5.0547000000 0.4562000000
3.2525000000 4.7379000000 0.5684000000
3.2523000000 0.5009000000 0.3092000000
3.2522000000 3.0353000000 1.1940000000
3.2520000000 4.2390000000 0.7520000000
3.2519000000 3.7670000000 0.9172000000
3.2519000000 2.2125000000 0.9383000000
3.2518000000 0.3034000000 0.2267000000
3.2518000000 4.9794000000 0.4792000000
3.2515000000 4.0443000000 0.8184000000
3.2515000000 0.0814000000 0.0736000000
3.2512000000 2.5314000000 1.0525000000
3.2510000000 1.8032000000 0.7952000000
3.2505000000 3.4073000000 1.0568000000
3.2503000000 2.9554000000 1.2018000000
3.2500000000 1.1275000000 0.5466000000
3.2497000000 4.7820000000 0.5522000000
3.2496000000 1.7480000000 0.7668000000
3.2492000000 3.7413000000 0.9394000000
3.2490000000 0.5410000000 0.3273000000
3.2490000000 4.9774000000 0.4854000000
3.2485000000 1.3351000000 0.6241000000
3.2482000000 3.1207000000 1.1624000000
3.2480000000 0.6637000000 0.3733000000
3.2479000000 0.9178000000 0.4633000000
3.2478000000 1.9019000000 0.8256000000
3.2475000000 0.7403000000 0.4012000000
3.2466000000 1.2074000000 0.5697000000
3.2459000000 1.3211000000 0.6146000000
3.0146000000 2.2770000000 1.1171000000
3.0122000000 5.4397000000 0.3879000000
3.0113000000 2.8472000000 1.3279000000
3.0110000000 3.2733000000 1.2587000000
3.0106000000 4.0341000000 0.9799000000
3.0104000000 5.7085000000 0.1820000000
3.0103000000 3.7401000000 1.0913000000
3.0090000000 2.5932000000 1.2309000000
3.0092000000 5.0889000000 0.5960000000
3.0086000000 4.1621000000 0.9292000000
3.0085000000 2.4615000000 1.1849000000
3.0083000000 5.0290000000 0.6149000000
3.0076000000 2.3225000000 1.1305000000
3.0074000000 3.1022000000 1.3237000000
3.0071000000 5.5149000000 0.3257000000
3.0070000000 0.7558000000 0.5447000000
3.0069000000 0.7472000000 0.5432000000
3.0068000000 2.6055000000 1.2330000000
3.0068000000 4.7520000000 0.7154000000
3.0067000000 2.5243000000 1.2102000000
3.0067000000 3.5188000000 1.1704000000
3.0065000000 4.5327000000 0.7961000000
3.0063000000 2.6852000000 1.2606000000
3.0062000000 3.0318000000 1.3467000000
3.0062000000 2.2087000000 1.0938000000
3.0061000000 4.1104000000 0.9554000000
3.0055000000 5.0005000000 0.6254000000
3.0054000000 3.5759000000 1.1485000000
3.0052000000 2.7660000000 1.2926000000
3.0051000000 2.2685000000 1.1151000000
3.0051000000 3.0571000000 1.3407000000
3.0050000000 4.8320000000 0.6844000000
3.0047000000 5.6316000000 0.2363000000
3.0046000000 0.4478000000 0.3455000000
3.0045000000 4.6469000000 0.7591000000
3.0044000000 3.9820000000 1.0021000000
3.0043000000 5.5586000000 0.2919000000
3.0042000000 1.3299000000 0.7708000000
3.0042000000 4.9079000000 0.6635000000
3.0041000000 3.8064000000 1.0697000000
3.0041000000 4.0720000000 0.9696000000
3.0040000000 1.7468000000 0.9276000000
3.0040000000 5.1068000000 0.5803000000
3.0037000000 3.9215000000 1.0241000000
3.0036000000 2.7158000000 1.2833000000
3.0036000000 4.6186000000 0.7688000000
3.0035000000 3.5840000000 1.1490000000
3.0035000000 2.1045000000 1.0578000000
3.0033000000 0.6987000000 0.5176000000
3.0033000000 2.4771000000 1.1951000000
3.0033000000 0.8476000000 0.5965000000
3.0032000000 0.5081000000 0.3845000000
3.0032000000 0.1502000000 0.1263000000
3.0031000000 1.6732000000 0.9018000000
3.0029000000 5.8096000000 0.1070000000
3.0030000000 5.7231000000 0.1748000000
3.0028000000 2.2283000000 1.1046000000
3.0026000000 2.2798000000 1.1204000000
3.0026000000 3.9781000000 1.0041000000
3.0025000000 2.0269000000 1.0278000000
3.0024000000 5.4272000000 0.3927000000
3.0021000000 4.2788000000 0.8946000000
3.0020000000 3.3241000000 1.2480000000
3.0019000000 1.9109000000 0.9825000000
3.0018000000 4.0102000000 0.9951000000
3.0017000000 2.9385000000 1.3590000000
3.0016000000 3.4715000000 1.1954000000
3.0016000000 4.4379000000 0.8331000000
3.0015000000 3.7650000000 1.0831000000
3.0014000000 3.4401000000 1.2004000000
3.0010000000 0.4206000000 0.3235000000
3.0009000000 1.1741000000 0.7167000000
3.0007000000 1.9337000000 0.9966000000
3.0006000000 4.4973000000 0.8146000000
3.0005000000 5.0913000000 0.5936000000
3.0005000000 1.8343000000 0.9606000000
3.0004000000 0.6137000000 0.4619000000
3.0003000000 3.3112000000 1.2530000000
2.9995000000 0.9966000000 0.6574000000
2.9993000000 1.3463000000 0.7790000000
2.9993000000 1.2687000000 0.7543000000
2.9991000000 4.3898000000 0.8585000000
2.9990000000 4.6970000000 0.7365000000
2.9989000000 0.7701000000 0.5533000000
2.9986000000 4.0208000000 0.9928000000
2.9980000000 0.2740000000 0.2163000000
2.9978000000 5.2700000000 0.4935000000
2.9968000000 1.1657000000 0.7183000000
2.9965000000 0.3155000000 0.2442000000
2.9951000000 1.0400000000 0.6688000000
2.7626000000 3.5571000000 1.3147000000
2.7619000000 5.8946000000 0.0469000000
2.7611000000 5.6104000000 0.2554000000
2.7595000000 0.4076000000 0.3145000000
2.7594000000 3.3493000000 1.3905000000
2.7593000000 5.8284000000 0.0990000000
2.7593000000 3.8430000000 1.2129000000
2.7591000000 2.2451000000 1.2615000000
2.7589000000 5.4770000000 0.3585000000
2.7586000000 5.5986000000 0.2633000000
2.7585000000 3.4193000000 1.3676000000
2.7583000000 2.8179000000 1.4706000000
2.7580000000 5.1538000000 0.5914000000
2.7579000000 3.3848000000 1.3772000000
2.7578000000 4.7567000000 0.8648000000
2.7577000000 4.6948000000 0.8825000000
2.7576000000 4.4131000000 1.0009000000
2.7575000000 5.7834000000 0.1281000000
2.7573000000 4.9896000000 0.7159000000
2.7571000000 2.2114000000 1.2548000000
2.7570000000 4.8158000000 0.8273000000
2.7568000000 4.5898000000 0.9385000000
2.7568000000 4.7387000000 0.8753000000
2.7566000000 3.0168000000 1.5021000000
2.7566000000 4.8719000000 0.7906000000
2.7564000000 2.4958000000 1.3632000000
2.7562000000 1.6330000000 1.0417000000
2.7561000000 4.1429000000 1.0979000000
2.7561000000 5.9390000000 0.0941000000
2.7558000000 2.1270000000 1.2241000000
2.7557000000 2.0981000000 1.2144000000
2.7555000000 3.8413000000 1.2096000000
2.7552000000 0.8503000000 0.6379000000
2.7551000000 5.7325000000 0.1663000000
2.7548000000 4.2013000000 1.0814000000
2.7544000000 1.4526000000 0.9757000000
2.7544000000 0.5963000000 0.4518000000
2.7543000000 1.1826000000 0.8601000000
2.7542000000 1.0134000000 0.7577000000
2.7540000000 3.3404000000 1.3948000000
2.7538000000 5.6490000000 0.2303000000
2.7537000000 1.9768000000 1.1708000000
2.7538000000 3.1798000000 1.4505000000
2.7537000000 0.8608000000 0.6491000000
2.7536000000 1.7296000000 1.0772000000
2.7535000000 0.1553000000 0.1290000000
2.7534000000 1.8120000000 1.1077000000
2.7534000000 4.3328000000 1.0368000000
2.7533000000 3.0837000000 1.4887000000
2.7531000000 2.3445000000 1.2975000000
2.7529000000 2.4410000000 1.3431000000
2.7528000000 3.5855000000 1.3075000000
2.7527000000 5.7485000000 0.1542000000
2.7527000000 5.2538000000 0.5231000000
2.7526000000 1.5561000000 1.0103000000
2.7525000000 4.2253000000 1.0746000000
2.7525000000 5.9281000000 0.0218000000
2.7521000000 1.4293000000 0.9705000000
2.7521000000 0.9625000000 0.7178000000
2.7520000000 3.6333000000 1.2874000000
2.7519000000 5.5869000000 0.2751000000
2.7514000000 2.6458000000 1.4156000000
2.7513000000 0.5567000000 0.4179000000
2.7513000000 5.7487000000 0.1542000000
2.7510000000 4.1397000000 1.1032000000
2.7510000000 4.3991000000 1.0091000000
2.7509000000 3.8793000000 1.2001000000
2.7509000000 3.9896000000 1.1580000000
2.7507000000 0.1621000000 0.1316000000
2.7505000000 0.0290000000 0.0388000000
2.7505000000 1.1815000000 0.8656000000
2.7504000000 0.4118000000 0.3148000000
2.7502000000 1.5233000000 1.0042000000
2.7500000000 4.3296000000 1.0369000000
2.7499000000 4.5985000000 0.9423000000
2.7496000000 5.6016000000 0.2591000000
2.7495000000 1.0125000000 0.7563000000
2.7493000000 5.0342000000 0.6763000000
2.7485000000 1.3813000000 0.9541000000
2.7479000000 0.3512000000 0.2713000000
2.7475000000 0.7696000000 0.5781000000
2.7473000000 3.3244000000 1.4082000000
2.7462000000 5.5534000000 0.2973000000
2.5140000000 4.7829000000 0.8639000000
2.5113000000 3.8099000000 1.3785000000
2.5108000000 3.3159000000 1.5652000000
2.5103000000 0.2172000000 0.1713000000
2.5101000000 4.8680000000 0.7942000000
2.5097000000 4.8482000000 0.8099000000
2.5096000000 3.6322000000 1.4453000000
2.5095000000 5.3625000000 0.4403000000
2.5089000000 5.6873000000 0.2044000000
2.5089000000 1.7173000000 1.2299000000
2.5085000000 3.9675000000 1.3246000000
2.5085000000 3.7324000000 1.4096000000
2.5084000000 5.2468000000 0.5235000000
2.5072000000 1.0665000000 0.7976000000
2.5073000000 4.5866000000 1.0086000000
2.5071000000 0.3999000000 0.3035000000
2.5070000000 1.6820000000 1.2013000000
2.5067000000 5.3245000000 0.4626000000
2.5067000000 5.0673000000 0.6545000000
2.5066000000 0.9186000000 0.6873000000
2.5064000000 5.5559000000 0.2984000000
2.5064000000 1.9808000000 1.3255000000
2.5063000000 2.4338000000 1.4946000000
2.5060000000 0.0652000000 0.0564000000
2.5058000000 1.9662000000 1.3265000000
2.5057000000 1.5105000000 1.1107000000
2.5057000000 3.5168000000 1.4859000000
2.5056000000 1.2892000000 0.9613000000
2.5056000000 3.5008000000 1.5007000000
2.5053000000 0.7362000000 0.5515000000
2.5052000000 1.8861000000 1.2921000000
2.5050000000 1.7557000000 1.2491000000
2.5049000000 4.0789000000 1.2828000000
2.5046000000 2.1592000000 1.3946000000
2.5046000000 4.7759000000 0.8687000000
2.5045000000 0.9198000000 0.6878000000
2.5045000000 4.7884000000 0.8577000000
2.5044000000 0.3997000000 0.3095000000
2.5043000000 1.9470000000 1.3164000000
2.5041000000 5.2930000000 0.4896000000
2.5040000000 5.1853000000 0.5664000000
2.5042000000 3.9247000000 1.3463000000
2.5040000000 2.1878000000 1.4050000000
2.5038000000 2.9087000000 1.6730000000
2.5037000000 1.4617000000 1.0867000000
2.5036000000 3.1958000000 1.6017000000
2.5034000000 3.2996000000 1.5743000000
2.5035000000 1.3687000000 1.0169000000
2.5033000000 3.0087000000 1.6712000000
2.5032000000 0.7505000000 0.5635000000
2.5031000000 2.3774000000 1.4754000000
2.5031000000 5.8085000000 0.1091000000
2.5030000000 1.6386000000 1.1961000000
2.5030000000 0.1030000000 0.0871000000
2.5029000000 0.6310000000 0.4754000000
2.5027000000 4.4449000000 1.1054000000
2.5026000000 1.8249000000 1.2758000000
2.5025000000 0.0698000000 0.0651000000
2.5023000000 1.3418000000 0.9962000000
2.5023000000 3.7704000000 1.3995000000
2.5022000000 2.9473000000 1.6722000000
2.5021000000 3.1831000000 1.6141000000
2.5020000000 2.9179000000 1.6657000000
2.5017000000 4.8297000000 0.8245000000
2.5017000000 1.6198000000 1.1876000000
2.5016000000 4.2374000000 1.2201000000
2.5014000000 4.9638000000 0.7310000000
2.5014000000 1.7561000000 1.2532000000
2.5013000000 3.7457000000 1.4087000000
2.5013000000 3.2850000000 1.5772000000
2.5011000000 1.4535000000 1.0777000000
2.5010000000 4.7898000000 0.8615000000
2.5009000000 0.4710000000 0.3502000000
2.5008000000 3.7818000000 1.3995000000
2.5007000000 0.6944000000 0.5173000000
2.5007000000 0.8432000000 0.6373000000
2.5006000000 0.3070000000 0.2358000000
2.5004000000 4.3692000000 1.1512000000
2.5003000000 4.8001000000 0.8489000000
2.5002000000 1.0802000000 0.7993000000
2.5002000000 4.8649000000 0.8070000000
2.4998000000 2.6948000000 1.5862000000
2.4998000000 2.5977000000 1.5556000000
2.4984000000 4.7257000000 0.9000000000
2.4980000000 5.5668000000 0.2877000000
2.4979000000 1.3636000000 1.0159000000
2.4977000000 0.7974000000 0.5985000000
2.4975000000 0.7826000000 0.5885000000
2.4968000000 2.4149000000 1.4918000000
2.4959000000 0.5592000000 0.4213000000
2.2634000000 5.5403000000 0.3084000000
2.2628000000 3.9084000000 1.4860000000
2.2628000000 5.0717000000 0.6540000000
2.2598000000 5.6891000000 0.1986000000
2.2593000000 2.0388000000 1.4933000000
2.2590000000 5.2673000000 0.5111000000
2.2589000000 1.8121000000 1.3472000000
2.2586000000 5.0402000000 0.6757000000
2.2583000000 5.2211000000 0.5471000000
2.2583000000 3.8663000000 1.5061000000
2.2580000000 3.8961000000 1.4938000000
2.2579000000 2.6845000000 1.7409000000
2.2578000000 3.1989000000 1.7585000000
2.2576000000 1.4787000000 1.0959000000
2.2575000000 4.2156000000 1.2757000000
2.2575000000 1.3907000000 1.0385000000
2.2575000000 0.1925000000 0.1564000000
2.2564000000 2.5253000000 1.6839000000
2.2563000000 5.8433000000 0.0818000000
2.2561000000 5.0053000000 0.7017000000
2.2560000000 5.6639000000 0.2155000000
2.2559000000 5.3033000000 0.4800000000
2.2557000000 4.6104000000 0.9913000000
2.2556000000 5.2246000000 0.5410000000
2.2556000000 2.2888000000 1.5995000000
2.2554000000 1.1862000000 0.8825000000
2.2553000000 3.8411000000 1.5199000000
2.2550000000 3.7352000000 1.5691000000
2.2549000000 5.1063000000 0.6233000000
2.2548000000 4.6654000000 0.9516000000
2.2548000000 3.6738000000 1.5916000000
2.2547000000 4.5495000000 1.0310000000
2.2547000000 4.2110000000 1.2839000000
2.2545000000 3.3526000000 1.7093000000
2.2545000000 1.2388000000 0.9193000000
2.2544000000 4.6972000000 0.9248000000
2.2544000000 4.3644000000 1.1694000000
2.2543000000 2.3952000000 1.6418000000
2.2540000000 5.4253000000 0.3882000000
2.2538000000 1.9536000000 1.4353000000
2.2536000000 2.1549000000 1.5518000000
2.2535000000 3.8605000000 1.5101000000
2.2534000000 3.9621000000 1.4550000000
2.2534000000 1.6309000000 1.2120000000
2.2533000000 4.1153000000 1.3531000000
2.2529000000 0.8144000000 0.6060000000
2.2528000000 5.3129000000 0.4769000000
2.2528000000 0.8483000000 0.6397000000
2.2527000000 3.5141000000 1.6529000000
2.2525000000 4.2263000000 1.2704000000
2.2524000000 0.0491000000 0.0492000000
2.2523000000 5.1236000000 0.6127000000
2.2522000000 0.9197000000 0.6873000000
2.2521000000 3.4019000000 1.6912000000
2.2520000000 1.5197000000 1.1311000000
2.2518000000 5.3648000000 0.4402000000
2.2516000000 0.3613000000 0.2753000000
2.2516000000 5.0175000000 0.6939000000
2.2515000000 4.0920000000 1.3702000000
2.2515000000 0.9712000000 0.7261000000
2.2514000000 3.2243000000 1.7551000000
2.2513000000 1.9321000000 1.4234000000
2.2513000000 1.4584000000 1.0779000000
2.2512000000 3.4920000000 1.6559000000
2.2512000000 1.0399000000 0.7745000000
2.2510000000 2.5403000000 1.6928000000
2.2509000000 4.4286000000 1.1218000000
2.2508000000 0.3510000000 0.2723000000
2.2507000000 0.8797000000 0.6549000000
2.2502000000 3.7252000000 1.5768000000
2.2500000000 2.0912000000 1.5171000000
2.2499000000 1.3823000000 1.0288000000
2.2495000000 0.4967000000 0.3764000000
2.2494000000 5.5938000000 0.2697000000
2.2492000000 1.1565000000 0.8597000000
2.2489000000 4.8332000000 0.8295000000
2.2488000000 4.9140000000 0.7684000000
2.2485000000 2.8522000000 1.8093000000
2.2484000000 0.5819000000 0.4378000000
2.2481000000 4.1835000000 1.3036000000
2.2473000000 4.2383000000 1.2608000000
2.2472000000 0.8335000000 0.6251000000
2.2463000000 3.7296000000 1.5803000000
2.2460000000 4.7746000000 0.8660000000
2.2458000000 5.0662000000 0.6567000000
2.2455000000 1.6812000000 1.2482000000
2.2435000000 0.1037000000 0.0865000000
2.2433000000 0.9043000000 0.6725000000
2.2430000000 3.9458000000 1.4707000000
2.0138000000 0.4019000000 0.3103000000
2.0120000000 2.8696000000 1.9682000000
2.0118000000 3.6220000000 1.7181000000
2.0103000000 5.5177000000 0.3242000000
2.0102000000 5.8763000000 0.0542000000
2.0100000000 4.8304000000 0.8272000000
2.0096000000 4.6844000000 0.9250000000
2.0095000000 4.9654000000 0.7320000000
2.0094000000 4.4047000000 1.1414000000
2.0090000000 5.6355000000 0.2421000000
2.0088000000 3.3118000000 1.8817000000
2.0084000000 1.2801000000 0.9571000000
2.0083000000 3.0295000000 1.9850000000
2.0081000000 5.1889000000 0.5704000000
2.0080000000 4.9860000000 0.7185000000
2.0079000000 5.2829000000 0.4968000000
2.0078000000 1.8366000000 1.3618000000
2.0075000000 5.5671000000 0.2911000000
2.0065000000 3.9999000000 1.4326000000
2.0063000000 2.5824000000 1.8643000000
2.0060000000 0.5576000000 0.4215000000
2.0058000000 4.2650000000 1.2469000000
2.0058000000 2.6621000000 1.8896000000
2.0057000000 1.3130000000 0.9793000000
2.0055000000 5.1160000000 0.6202000000
2.0055000000 4.5728000000 1.0171000000
2.0053000000 2.4867000000 1.8199000000
2.0051000000 5.8612000000 0.0711000000
2.0050000000 2.6474000000 1.8883000000
2.0049000000 4.1617000000 1.3146000000
2.0050000000 2.8674000000 1.9704000000
2.0049000000 2.8405000000 1.9604000000
2.0048000000 1.1480000000 0.8576000000
2.0047000000 0.1973000000 0.1568000000
2.0045000000 5.4364000000 0.3836000000
2.0044000000 1.8652000000 1.3840000000
2.0041000000 5.9532000000 0.0757000000
2.0042000000 0.6020000000 0.4517000000
2.0040000000 4.9583000000 0.7378000000
2.0037000000 0.2618000000 0.2038000000
2.0036000000 2.9050000000 1.9852000000
2.0035000000 2.1945000000 1.6254000000
2.0035000000 3.1415000000 1.9480000000
2.0035000000 5.9066000000 0.0375000000
2.0033000000 4.3009000000 1.2195000000
2.0032000000 5.3407000000 0.4508000000
2.0033000000 3.3364000000 1.8726000000
2.0031000000 4.9525000000 0.7379000000
2.0030000000 4.3954000000 1.1508000000
2.0028000000 4.1867000000 1.3021000000
2.0026000000 0.4922000000 0.3711000000
2.0026000000 4.5010000000 1.0742000000
2.0024000000 0.1312000000 0.1079000000
2.0023000000 0.7648000000 0.5764000000
2.0021000000 5.7301000000 0.1647000000
2.0017000000 5.5479000000 0.3048000000
2.0017000000 0.3389000000 0.2593000000
2.0016000000 4.3921000000 1.1510000000
2.0013000000 4.4439000000 1.1096000000
2.0008000000 1.3708000000 1.0187000000
2.0006000000 4.0759000000 1.3846000000
2.0004000000 1.1227000000 0.8368000000
2.0004000000 1.8766000000 1.3873000000
2.0003000000 2.7457000000 1.9279000000
1.9998000000 1.8513000000 1.3699000000
1.9996000000 3.5484000000 1.7560000000
1.9995000000 3.6589000000 1.6881000000
1.9993000000 0.1328000000 0.1114000000
1.9990000000 1.1267000000 0.8403000000
1.9988000000 1.3431000000 1.0003000000
1.9988000000 1.2392000000 0.9197000000
1.9986000000 1.2614000000 0.9406000000
1.9983000000 4.1839000000 1.3027000000
1.9983000000 3.1994000000 1.9280000000
1.9974000000 3.0074000000 1.9896000000
1.9971000000 2.2635000000 1.6765000000
1.9966000000 3.6793000000 1.6734000000
1.9949000000 0.1568000000 0.1317000000
1.7634000000 5.8020000000 0.1171000000
1.7605000000 2.7249000000 2.0111000000
1.7600000000 1.2632000000 0.9446000000
1.7599000000 0.8795000000 0.6625000000
1.7595000000 2.1845000000 1.6186000000
1.7591000000 3.8349000000 1.5585000000
1.7576000000 0.1902000000 0.1499000000
1.7577000000 2.4442000000 1.8083000000
1.7575000000 3.6805000000 1.6739000000
1.7573000000 3.5570000000 1.7612000000
1.7573000000 3.9772000000 1.4536000000
1.7571000000 2.9789000000 2.0897000000
1.7569000000 4.6693000000 0.9434000000
1.7570000000 1.0233000000 0.7590000000
1.7568000000 5.3193000000 0.4701000000
1.7567000000 5.4690000000 0.3592000000
1.7564000000 3.9619000000 1.4683000000
1.7563000000 4.7082000000 0.9152000000
1.7562000000 1.7441000000 1.3003000000
1.7560000000 4.3243000000 1.1982000000
1.7560000000 2.0005000000 1.4817000000
1.7558000000 0.9688000000 0.7269000000
1.7559000000 5.2494000000 0.5237000000
1.7558000000 5.6510000000 0.2252000000
1.7558000000 5.2354000000 0.5345000000
1.7557000000 2.8657000000 2.0902000000
1.7559000000 2.1613000000 1.6032000000
1.7556000000 4.2074000000 1.2870000000
1.7556000000 5.7953000000 0.1224000000
1.7555000000 3.5174000000 1.7917000000
1.7551000000 0.5485000000 0.4119000000
1.7550000000 3.7793000000 1.6035000000
1.7548000000 1.5196000000 1.1342000000
1.7548000000 4.8810000000 0.7905000000
1.7546000000 3.3161000000 1.9404000000
1.7545000000 1.7112000000 1.2740000000
1.7544000000 1.8437000000 1.3676000000
1.7543000000 4.5550000000 1.0304000000
1.7540000000 5.2676000000 0.5076000000
1.7540000000 5.5212000000 0.3237000000
1.7540000000 5.7902000000 0.1208000000
1.7539000000 5.3531000000 0.4442000000
1.7539000000 4.5585000000 1.0266000000
1.7538000000 5.6288000000 0.2460000000
1.7537000000 0.2075000000 0.1638000000
1.7535000000 0.6624000000 0.5055000000
1.7531000000 1.6182000000 1.1962000000
1.7531000000 4.1560000000 1.3219000000
1.7530000000 2.0723000000 1.5298000000
1.7529000000 0.3665000000 0.2769000000
1.7528000000 1.3409000000 0.9962000000
1.7527000000 0.0941000000 0.0838000000
1.7526000000 5.1461000000 0.5944000000
1.7525000000 4.4732000000 1.0927000000
1.7523000000 5.0318000000 0.6784000000
1.7522000000 0.1475000000 0.1218000000
1.7518000000 1.1048000000 0.8292000000
1.7517000000 1.0074000000 0.7518000000
1.7514000000 2.6874000000 1.9824000000
1.7511000000 1.2464000000 0.9374000000
1.7508000000 2.8680000000 2.0951000000
1.7507000000 2.0192000000 1.4973000000
1.7505000000 3.2138000000 2.0174000000
1.7504000000 3.9736000000 1.4592000000
1.7500000000 2.8326000000 2.0836000000
1.7501000000 5.4008000000 0.4129000000
1.7496000000 1.2241000000 0.9093000000
1.7493000000 3.0897000000 2.0870000000
1.7492000000 1.7638000000 1.3042000000
1.7491000000 0.1370000000 0.1146000000
1.7488000000 2.0452000000 1.5147000000
1.7485000000 2.1599000000 1.6001000000
1.7481000000 3.1067000000 2.0834000000
1.7478000000 3.0817000000 2.0884000000
1.7478000000 1.0760000000 0.8011000000
1.7476000000 0.5375000000 0.4067000000
1.7475000000 1.2551000000 0.9375000000
1.7467000000 3.0051000000 2.0910000000
1.5118000000 3.4607000000 1.8387000000
1.5118000000 5.5633000000 0.2954000000
1.5110000000 3.1261000000 2.0084000000
1.5107000000 3.5838000000 1.7433000000
1.5106000000 4.1901000000 1.2954000000
1.5098000000 5.8213000000 0.0987000000
1.5096000000 3.1661000000 1.9907000000
1.5093000000 5.7995000000 0.1168000000
1.5092000000 3.9583000000 1.4679000000
1.5088000000 5.5197000000 0.3260000000
1.5085000000 3.6530000000 1.6951000000
1.5084000000 5.1966000000 0.5623000000
1.5075000000 2.7007000000 1.9484000000
1.5075000000 2.4132000000 1.7855000000
1.5075000000 4.4048000000 1.1418000000
1.5074000000 2.1015000000 1.5570000000
1.5067000000 3.2216000000 1.9639000000
1.5066000000 4.7566000000 0.8832000000
1.5066000000 5.7023000000 0.1881000000
1.5065000000 5.0175000000 0.6962000000
1.5064000000 4.8755000000 0.8015000000
1.5063000000 0.2383000000 0.1832000000
1.5062000000 5.5340000000 0.3153000000
1.5061000000 4.5385000000 1.0456000000
1.5058000000 3.4459000000 1.8400000000
1.5058000000 3.6495000000 1.6965000000
1.5057000000 3.9541000000 1.4688000000
1.5056000000 1.4106000000 1.0407000000
1.5053000000 3.0470000000 2.0299000000
1.5051000000 0.6745000000 0.5102000000
1.5051000000 1.6157000000 1.1981000000
1.5050000000 1.5218000000 1.1272000000
1.5050000000 1.6593000000 1.2284000000
1.5049000000 2.3449000000 1.7376000000
1.5047000000 0.9435000000 0.7063000000
1.5046000000 4.8482000000 0.8137000000
1.5045000000 2.4792000000 1.8326000000
1.5044000000 3.7077000000 1.6605000000
1.5043000000 3.6757000000 1.6766000000
1.5043000000 2.1811000000 1.6131000000
1.5041000000 2.4446000000 1.8077000000
1.5040000000 4.4622000000 1.1022000000
1.5040000000 1.1095000000 0.8262000000
1.5039000000 1.0488000000 0.7820000000
1.5037000000 5.6496000000 0.2299000000
1.5037000000 1.9057000000 1.4132000000
1.5038000000 4.9217000000 0.7632000000
1.5036000000 1.4323000000 1.0717000000
1.5034000000 0.9186000000 0.6887000000
1.5033000000 0.6140000000 0.4611000000
1.5031000000 3.8446000000 1.5523000000
1.5032000000 4.6687000000 0.9455000000
1.5030000000 0.0489000000 0.0512000000
1.5030000000 0.7198000000 0.5427000000
1.5029000000 0.9954000000 0.7483000000
1.5029000000 5.0927000000 0.6406000000
1.5028000000 4.3683000000 1.1657000000
1.5027000000 0.4191000000 0.3190000000
1.5026000000 2.1894000000 1.6201000000
1.5025000000 3.4660000000 1.8338000000
1.5025000000 3.4812000000 1.8142000000
1.5025000000 4.1397000000 1.3317000000
1.5023000000 4.0188000000 1.4204000000
1.5022000000 1.3926000000 1.0361000000
1.5022000000 3.3105000000 1.9276000000
1.5021000000 4.7167000000 0.9074000000
1.5021000000 1.2952000000 0.9644000000
1.5020000000 5.6388000000 0.2390000000
1.5019000000 2.2112000000 1.6381000000
1.5019000000 0.6795000000 0.5140000000
1.5018000000 3.8297000000 1.5636000000
1.5015000000 1.9763000000 1.4640000000
1.5014000000 4.4500000000 1.1082000000
1.5014000000 5.4846000000 0.3447000000
1.5013000000 5.8596000000 0.0726000000
1.5010000000 3.3390000000 1.9118000000
1.5009000000 0.1895000000 0.1472000000
1.5003000000 0.8587000000 0.6435000000
1.5003000000 1.2483000000 0.9251000000
1.5000000000 1.6430000000 1.2224000000
1.4998000000 3.2133000000 1.9686000000
1.4995000000 2.1967000000 1.6229000000
1.4993000000 3.1661000000 1.9853000000
1.4989000000 2.4639000000 1.8183000000
1.4987000000 2.1337000000 1.5782000000
1.4986000000 2.9255000000 2.0295000000
1.4982000000 1.1456000000 0.8479000000
1.4979000000 0.2058000000 0.1588000000
1.4977000000 0.5047000000 0.3830000000
1.4969000000 1.2022000000 0.8991000000
1.2619000000 3.6732000000 1.6322000000
1.2613000000 3.0156000000 1.8756000000
1.2607000000 5.3659000000 0.4315000000
1.2605000000 4.7500000000 0.8791000000
1.2603000000 1.4922000000 1.1084000000
1.2601000000 2.4646000000 1.7214000000
1.2595000000 4.3123000000 1.2110000000
1.2592000000 2.6816000000 1.8030000000
1.2589000000 4.1885000000 1.3007000000
1.2584000000 2.6721000000 1.7981000000
1.2582000000 3.0037000000 1.8848000000
1.2580000000 4.4721000000 1.0913000000
1.2580000000 3.3620000000 1.7512000000
1.2574000000 1.6823000000 1.2476000000
1.2574000000 0.9671000000 0.7272000000
1.2573000000 3.8992000000 1.5137000000
1.2571000000 5.2799000000 0.5034000000
1.2571000000 4.4485000000 1.1126000000
1.2569000000 4.8383000000 0.8173000000
1.2565000000 4.4070000000 1.1427000000
1.2564000000 4.2291000000 1.2651000000
1.2564000000 0.0573000000 0.0547000000
1.2563000000 2.9113000000 1.8830000000
1.2562000000 5.9040000000 0.0372000000
1.2562000000 0.1040000000 0.0867000000
1.2560000000 5.0752000000 0.6462000000
1.2558000000 2.6307000000 1.7794000000
1.2555000000 5.4967000000 0.3356000000
1.2553000000 0.7543000000 0.5718000000
1.2548000000 3.2676000000 1.7904000000
1.2545000000 5.3725000000 0.4339000000
1.2543000000 0.7838000000 0.5916000000
1.2543000000 0.7279000000 0.5454000000
1.2542000000 1.6276000000 1.2030000000
1.2539000000 4.6996000000 0.9236000000
1.2538000000 5.6539000000 0.2208000000
1.2549000000 3.5963000000 1.6759000000
1.2536000000 3.5979000000 1.6695000000
1.2533000000 2.7220000000 1.8108000000
1.2533000000 3.4174000000 1.7346000000
1.2533000000 1.3803000000 1.0236000000
1.2530000000 3.2477000000 1.7952000000
1.2526000000 1.6663000000 1.2292000000
1.2525000000 4.5186000000 1.0608000000
1.2520000000 2.6399000000 1.7768000000
1.2519000000 5.9153000000 0.0325000000
1.2518000000 0.8887000000 0.6678000000
1.2517000000 5.5342000000 0.3147000000
1.2516000000 3.8805000000 1.5201000000
1.2515000000 0.6265000000 0.4784000000
1.2515000000 0.9064000000 0.6788000000
1.2515000000 2.8742000000 1.8647000000
1.2512000000 0.9150000000 0.6863000000
1.2510000000 1.9168000000 1.4240000000
1.2508000000 2.6687000000 1.7905000000
1.2508000000 3.2410000000 1.7984000000
1.2507000000 0.0520000000 0.0467000000
1.2506000000 3.5139000000 1.6996000000
1.2505000000 0.0038000000 0.0204000000
1.2504000000 3.3390000000 1.7606000000
1.2504000000 1.0879000000 0.8074000000
1.2503000000 0.6243000000 0.4724000000
1.2503000000 0.5907000000 0.4456000000
1.2502000000 0.3831000000 0.2952000000
1.2501000000 2.1389000000 1.5688000000
1.2500000000 5.3476000000 0.4471000000
1.2514000000 4.6195000000 0.9834000000
1.2498000000 2.3650000000 1.6739000000
1.2497000000 0.0556000000 0.0537000000
1.2497000000 1.7486000000 1.2977000000
1.2496000000 0.9687000000 0.7178000000
1.2492000000 4.5225000000 1.0554000000
1.2492000000 1.3807000000 1.0269000000
1.2491000000 0.4778000000 0.3602000000
1.2485000000 1.9913000000 1.4783000000
1.2484000000 1.6821000000 1.2498000000
1.2473000000 3.9767000000 1.4504000000
1.2471000000 2.3290000000 1.6634000000
1.2455000000 1.5943000000 1.1855000000
1.0105000000 5.3873000000 0.4169000000
1.0096000000 5.3828000000 0.4244000000
1.0095000000 0.3621000000 0.2760000000
1.0090000000 4.9717000000 0.7223000000
1.0088000000 5.4901000000 0.3441000000
1.0087000000 5.7996000000 0.1189000000
1.0086000000 3.5428000000 1.5378000000
1.0083000000 3.9758000000 1.3739000000
1.0079000000 5.2118000000 0.5516000000
1.0077000000 4.9754000000 0.7201000000
1.0073000000 4.9420000000 0.7442000000
1.0072000000 4.8631000000 0.8092000000
1.0072000000 3.0096000000 1.7138000000
1.0070000000 4.5598000000 1.0291000000
1.0070000000 3.8096000000 1.4336000000
1.0069000000 3.6088000000 1.5084000000
1.0068000000 2.8805000000 1.7118000000
1.0066000000 3.0893000000 1.7001000000
1.0063000000 5.6030000000 0.2602000000
1.0059000000 2.6143000000 1.6142000000
1.0058000000 5.6146000000 0.2498000000
1.0056000000 3.0479000000 1.7136000000
1.0055000000 3.3122000000 1.6164000000
1.0055000000 2.2758000000 1.4871000000
1.0052000000 3.0620000000 1.7091000000
1.0050000000 3.2696000000 1.6309000000
1.0050000000 2.0439000000 1.4004000000
1.0048000000 2.9123000000 1.7255000000
1.0046000000 2.5350000000 1.5787000000
1.0045000000 4.8004000000 0.8484000000
1.0044000000 4.5143000000 1.0572000000
1.0043000000 2.4895000000 1.5697000000
1.0043000000 5.1520000000 0.6000000000
1.0042000000 1.2880000000 0.9522000000
1.0042000000 2.6827000000 1.6389000000
1.0039000000 3.8380000000 1.4202000000
1.0039000000 4.7082000000 0.9196000000
1.0037000000 4.4706000000 1.0962000000
1.0035000000 4.2576000000 1.2411000000
1.0033000000 2.0142000000 1.3896000000
1.0033000000 0.0476000000 0.0522000000
1.0032000000 4.5587000000 1.0266000000
1.0030000000 5.3422000000 0.4565000000
1.0030000000 3.0582000000 1.7101000000
1.0029000000 3.7781000000 1.4447000000
1.0024000000 3.0656000000 1.7095000000
1.0022000000 3.7391000000 1.4570000000
1.0022000000 1.4862000000 1.0996000000
1.0021000000 0.9766000000 0.7301000000
1.0020000000 2.9564000000 1.7257000000
1.0020000000 0.7148000000 0.5315000000
1.0019000000 4.3045000000 1.2069000000
1.0018000000 3.4108000000 1.5815000000
1.0016000000 5.0925000000 0.6351000000
1.0015000000 0.5185000000 0.3944000000
1.0014000000 2.4191000000 1.5379000000
1.0011000000 2.1043000000 1.4263000000
1.0009000000 3.9489000000 1.3810000000
1.0008000000 1.3025000000 0.9686000000
1.0005000000 0.0608000000 0.0560000000
1.0004000000 1.4207000000 1.0524000000
1.0003000000 2.9266000000 1.7080000000
1.0003000000 5.1648000000 0.5882000000
1.0001000000 3.7604000000 1.4479000000
0.9999000000 2.7024000000 1.6445000000
0.9999000000 1.1764000000 0.8801000000
0.9997000000 5.6661000000 0.2163000000
0.9996000000 5.0300000000 0.6828000000
0.9991000000 3.7913000000 1.4337000000
0.9990000000 1.3034000000 0.9721000000
0.9991000000 2.1580000000 1.4422000000
0.9984000000 0.4123000000 0.3163000000
0.9985000000 3.4861000000 1.5483000000
0.9980000000 4.9295000000 0.7581000000
0.9977000000 2.4773000000 1.5573000000
0.9976000000 0.8637000000 0.6464000000
0.9965000000 4.3835000000 1.1563000000
0.9962000000 4.9662000000 0.7314000000
0.9957000000 2.8041000000 1.6764000000
0.9953000000 1.7438000000 1.2778000000
0.7615000000 4.6741000000 0.9288000000
0.7602000000 2.0042000000 1.2327000000
0.7596000000 4.8479000000 0.8158000000
0.7592000000 3.8048000000 1.2773000000
0.7581000000 2.4017000000 1.3777000000
0.7580000000 5.8756000000 0.0598000000
0.7573000000 2.0811000000 1.2570000000
0.7572000000 0.3604000000 0.2739000000
0.7570000000 4.0128000000 1.1978000000
0.7570000000 0.7113000000 0.5365000000
0.7567000000 3.2972000000 1.4696000000
0.7568000000 4.7728000000 0.8752000000
0.7564000000 2.7480000000 1.5007000000
0.7563000000 2.3574000000 1.3575000000
0.7563000000 3.8392000000 1.2673000000
0.7561000000 3.0027000000 1.5582000000
0.7558000000 1.4746000000 1.0325000000
0.7556000000 4.9088000000 0.7700000000
0.7555000000 4.0149000000 1.2043000000
0.7554000000 4.1546000000 1.1561000000
0.7554000000 4.6386000000 0.9634000000
0.7553000000 1.7559000000 1.1344000000
0.7553000000 2.7435000000 1.4976000000
0.7551000000 2.1419000000 1.2809000000
0.7550000000 3.3146000000 1.4599000000
0.7549000000 4.5316000000 1.0058000000
0.7548000000 5.8986000000 0.0468000000
0.7547000000 3.7946000000 1.2790000000
0.7545000000 3.5903000000 1.3537000000
0.7543000000 0.8022000000 0.6066000000
0.7543000000 5.8710000000 0.0652000000
0.7541000000 5.0842000000 0.6411000000
0.7540000000 0.9896000000 0.7366000000
0.7540000000 0.4754000000 0.3644000000
0.7540000000 3.7227000000 1.3087000000
0.7539000000 2.9948000000 1.5619000000
0.7538000000 0.2395000000 0.1892000000
0.7536000000 0.2354000000 0.1827000000
0.7535000000 3.1553000000 1.5090000000
0.7534000000 5.9362000000 0.0092000000
0.7535000000 4.6946000000 0.9193000000
0.7532000000 3.2083000000 1.4919000000
0.7531000000 1.3523000000 0.9704000000
0.7530000000 2.8214000000 1.5269000000
0.7530000000 0.8631000000 0.6476000000
0.7525000000 3.6563000000 1.3311000000
0.7524000000 1.5328000000 1.0517000000
0.7523000000 2.1856000000 1.2910000000
0.7519000000 3.9151000000 1.2405000000
0.7518000000 1.2895000000 0.9545000000
0.7518000000 2.6379000000 1.4607000000
0.7514000000 4.6778000000 0.9374000000
0.7513000000 5.7111000000 0.1887000000
0.7513000000 2.1214000000 1.2685000000
0.7512000000 3.4818000000 1.3944000000
0.7505000000 0.9461000000 0.7135000000
0.7505000000 0.9438000000 0.7019000000
0.7504000000 2.5483000000 1.4213000000
0.7499000000 3.9030000000 1.2429000000
0.7497000000 4.0502000000 1.1822000000
0.7495000000 3.9690000000 1.2162000000
0.7493000000 0.1624000000 0.1325000000
0.7493000000 3.0322000000 1.5574000000
0.7492000000 0.0232000000 0.0312000000
0.7487000000 2.3767000000 1.3611000000
0.7486000000 0.7678000000 0.5753000000
0.7486000000 0.5328000000 0.4070000000
0.7485000000 0.6974000000 0.5204000000
0.7476000000 5.3273000000 0.4633000000
0.7473000000 4.0836000000 1.1704000000
0.7472000000 4.6336000000 0.9565000000
0.5102000000 4.7315000000 0.7782000000
0.5099000000 2.9259000000 1.4003000000
0.5093000000 3.9442000000 1.0658000000
0.5091000000 4.8515000000 0.7381000000
0.5085000000 4.3962000000 0.9031000000
0.5084000000 4.6843000000 0.7990000000
0.5082000000 2.8936000000 1.3941000000
0.5081000000 5.6707000000 0.2104000000
0.5076000000 2.2903000000 1.1806000000
0.5073000000 2.6660000000 1.3109000000
0.5069000000 0.5641000000 0.4253000000
0.5067000000 5.5556000000 0.3032000000
0.5066000000 5.5393000000 0.3121000000
0.5064000000 5.4904000000 0.3457000000
0.5064000000 2.3413000000 1.1969000000
0.5063000000 0.5950000000 0.4454000000
0.5061000000 4.4431000000 0.8799000000
0.5060000000 5.7361000000 0.1651000000
0.5059000000 1.7291000000 0.9693000000
0.5059000000 2.9595000000 1.4106000000
0.5058000000 3.9298000000 1.0786000000
0.5057000000 3.8369000000 1.1116000000
0.5055000000 1.0773000000 0.7310000000
0.5054000000 4.6881000000 0.7956000000
0.5053000000 2.3530000000 1.2012000000
0.5051000000 2.0357000000 1.0827000000
0.5051000000 5.5662000000 0.2884000000
0.5048000000 4.0612000000 1.0297000000
0.5046000000 4.3904000000 0.9010000000
0.5044000000 0.7207000000 0.5428000000
0.5043000000 5.2305000000 0.5365000000
0.5043000000 4.3586000000 0.9144000000
0.5043000000 4.2078000000 0.9730000000
0.5042000000 0.2600000000 0.2040000000
0.5040000000 0.6902000000 0.5233000000
0.5040000000 0.9021000000 0.6463000000
0.5040000000 1.7572000000 0.9795000000
0.5039000000 4.0859000000 1.0175000000
0.5035000000 5.8316000000 0.0923000000
0.5035000000 4.7294000000 0.7752000000
0.5034000000 5.3745000000 0.4272000000
0.5034000000 4.2150000000 0.9659000000
0.5029000000 0.9442000000 0.6657000000
0.5028000000 1.6679000000 0.9448000000
0.5028000000 4.4056000000 0.8964000000
0.5024000000 4.2729000000 0.9471000000
0.5023000000 0.1074000000 0.0964000000
0.5022000000 3.8447000000 1.1023000000
0.5021000000 0.3375000000 0.2542000000
0.5022000000 1.3304000000 0.8212000000
0.5018000000 0.3409000000 0.2683000000
0.5017000000 3.1451000000 1.3600000000
0.5016000000 0.5259000000 0.4012000000
0.5015000000 4.5065000000 0.8545000000
0.5014000000 2.7027000000 1.3304000000
0.5013000000 4.3958000000 0.9013000000
0.5012000000 0.5327000000 0.4001000000
0.5012000000 0.8665000000 0.6380000000
0.5011000000 0.1053000000 0.0922000000
0.5010000000 0.4084000000 0.3126000000
0.5008000000 3.6981000000 1.1487000000
0.5008000000 1.9710000000 1.0559000000
0.5007000000 4.5507000000 0.8438000000
0.5005000000 1.4101000000 0.8468000000
0.5004000000 2.0685000000 1.0945000000
0.5001000000 5.7048000000 0.1893000000
0.5000000000 4.2350000000 0.9538000000
0.4998000000 2.8892000000 1.3927000000
0.4997000000 5.7471000000 0.1544000000
0.4993000000 1.3586000000 0.8324000000
0.4982000000 4.3817000000 0.9040000000
0.4979000000 2.2484000000 1.1541000000
0.4975000000 0.3254000000 0.2536000000
0.4975000000 3.1814000000 1.3397000000
0.4973000000 1.2860000000 0.8063000000
0.4971000000 2.1825000000 1.1283000000
0.4971000000 1.7138000000 0.9556000000
0.4969000000 2.1646000000 1.1257000000
0.4964000000 0.2113000000 0.1695000000
0.4962000000 0.7745000000 0.5748000000
0.4961000000 2.2048000000 1.1416000000
0.4955000000 0.5512000000 0.4176000000
0.4953000000 0.8377000000 0.6111000000
0.4952000000 1.0183000000 0.6984000000
0.4946000000 3.0714000000 1.3800000000
0.2654000000 2.7533000000 1.1955000000
0.2633000000 2.5035000000 1.1027000000
0.2615000000 0.8184000000 0.4839000000
0.2600000000 4.1773000000 0.8212000000
0.2593000000 1.9686000000 0.9022000000
0.2590000000 5.8003000000 0.1180000000
0.2589000000 5.5656000000 0.2790000000
0.2585000000 5.2189000000 0.4445000000
0.2584000000 3.3764000000 1.1173000000
0.2583000000 0.4000000000 0.2936000000
0.2576000000 5.2646000000 0.4268000000
0.2573000000 1.9844000000 0.9058000000
0.2572000000 3.7017000000 0.9972000000
0.2571000000 1.7920000000 0.8300000000
0.2568000000 1.6690000000 0.7869000000
0.2565000000 1.8223000000 0.8454000000
0.2564000000 5.1034000000 0.4872000000
0.2563000000 5.3914000000 0.3746000000
0.2560000000 2.3290000000 1.0263000000
0.2559000000 3.0524000000 1.2369000000
0.2556000000 2.2699000000 1.0129000000
0.2556000000 3.2784000000 1.1530000000
0.2555000000 0.2709000000 0.2131000000
0.2554000000 4.0021000000 0.8867000000
0.2553000000 0.5953000000 0.3951000000
0.2553000000 0.1362000000 0.1186000000
0.2550000000 5.8441000000 0.0835000000
0.2549000000 1.6209000000 0.7611000000
0.2548000000 2.4177000000 1.0643000000
0.2546000000 1.0827000000 0.5729000000
0.2544000000 3.2885000000 1.1486000000
0.2543000000 2.7211000000 1.1757000000
0.2542000000 0.0235000000 0.0249000000
0.2543000000 1.4338000000 0.7002000000
0.2542000000 0.3837000000 0.2791000000
0.2540000000 4.3986000000 0.7430000000
0.2540000000 3.4088000000 1.0969000000
0.2539000000 1.4943000000 0.7184000000
0.2539000000 4.7640000000 0.6026000000
0.2538000000 0.2064000000 0.1614000000
0.2538000000 3.2481000000 1.1666000000
0.2537000000 2.3799000000 1.0450000000
0.2535000000 2.1167000000 0.9561000000
0.2534000000 0.5662000000 0.3770000000
0.2533000000 4.3044000000 0.7747000000
0.2530000000 3.7838000000 0.9680000000
0.2529000000 2.9101000000 1.2419000000
0.2528000000 4.9935000000 0.5234000000
0.2527000000 1.4331000000 0.7062000000
0.2526000000 3.0754000000 1.2214000000
0.2523000000 5.3619000000 0.3868000000
0.2523000000 2.5078000000 1.1011000000
0.2522000000 3.2858000000 1.1451000000
0.2521000000 1.1944000000 0.6113000000
0.2521000000 3.6164000000 1.0259000000
0.2520000000 1.5525000000 0.7393000000
0.2519000000 2.4003000000 1.0494000000
0.2519000000 1.8481000000 0.8541000000
0.2517000000 4.9482000000 0.5366000000
0.2515000000 3.7545000000 0.9771000000
0.2515000000 5.5861000000 0.2685000000
0.2514000000 0.1732000000 0.1400000000
0.2510000000 0.2726000000 0.2132000000
0.2510000000 5.3403000000 0.3961000000
0.2505000000 2.8767000000 1.2303000000
0.2503000000 0.8614000000 0.4896000000
0.2502000000 0.4858000000 0.3412000000
0.2500000000 1.1476000000 0.5924000000
0.2496000000 1.7851000000 0.8271000000
0.2495000000 4.8932000000 0.5538000000
0.2489000000 2.4279000000 1.0723000000
0.2488000000 2.8701000000 1.2277000000
0.2487000000 1.8859000000 0.8696000000
0.2485000000 0.0766000000 0.0676000000
0.2485000000 2.2232000000 0.9863000000
0.2483000000 0.1219000000 0.1048000000
0.2479000000 1.4558000000 0.7042000000
0.2477000000 3.4619000000 1.0808000000
0.2472000000 5.2593000000 0.4183000000
0.2468000000 1.1022000000 0.5693000000
0.2467000000 0.0854000000 0.0768000000
0.2465000000 3.7033000000 0.9889000000
0.2465000000 0.5310000000 0.3555000000
0.2464000000 2.9439000000 1.2368000000
0.2455000000 1.4017000000 0.6891000000
0.2454000000 1.3314000000 0.6553000000
0.2453000000 1.2288000000 0.6206000000
0.0209000000 5.1159000000 0.3265000000
0.0102000000 5.6883000000 0.1128000000
0.0100000000 3.3725000000 0.9684000000
0.0100000000 5.1615000000 0.3067000000
0.0094000000 5.8616000000 0.0371000000
0.0093000000 4.7393000000 0.4603000000
0.0092000000 4.1928000000 0.6630000000
0.0087000000 4.6736000000 0.4868000000
0.0086000000 4.7474000000 0.4536000000
0.0086000000 4.8076000000 0.4367000000
0.0081000000 4.9186000000 0.3939000000
0.0080000000 3.4200000000 0.9399000000
0.0076000000 5.9571000000 0.0628000000
0.0074000000 3.1259000000 1.0481000000
0.0073000000 4.2015000000 0.6542000000
0.0072000000 3.9827000000 0.7314000000
0.0069000000 4.1809000000 0.6652000000
0.0068000000 3.6741000000 0.8519000000
0.0068000000 1.8292000000 0.6934000000
0.0068000000 2.3306000000 0.8721000000
0.0067000000 3.8137000000 0.7989000000
0.0065000000 3.8144000000 0.7978000000
0.0065000000 4.5853000000 0.5164000000
0.0063000000 3.1423000000 1.0422000000
0.0062000000 3.1140000000 1.0547000000
0.0061000000 3.3760000000 0.9659000000
0.0060000000 2.0536000000 0.7776000000
0.0056000000 2.1857000000 0.8192000000
0.0056000000 4.9258000000 0.3889000000
0.0054000000 4.3158000000 0.6089000000
0.0052000000 3.9482000000 0.7474000000
0.0051000000 2.7258000000 1.0184000000
0.0050000000 4.2759000000 0.6265000000
0.0050000000 5.4947000000 0.1767000000
0.0049000000 0.6819000000 0.2700000000
0.0048000000 4.1089000000 0.6868000000
0.0047000000 1.4711000000 0.5587000000
0.0047000000 4.1648000000 0.6642000000
0.0045000000 4.6463000000 0.4923000000
0.0045000000 1.2981000000 0.4917000000
0.0044000000 3.4582000000 0.9270000000
0.0043000000 2.1942000000 0.8240000000
0.0039000000 1.2079000000 0.4544000000
0.0038000000 1.1897000000 0.4582000000
0.0038000000 5.8528000000 0.0366000000
0.0037000000 2.4736000000 0.9215000000
0.0035000000 5.6127000000 0.1374000000
0.0035000000 3.9131000000 0.7605000000
0.0034000000 2.1979000000 0.8205000000
0.0034000000 3.3127000000 0.9843000000
