5.0107000000 3.3825000000 0.7615000000
5.0093000000 3.2475000000 0.7072000000
5.0083000000 3.5167000000 0.8910000000
5.0080000000 3.2565000000 0.7103000000
5.0076000000 1.7391000000 0.1131000000
5.0074000000 5.3999000000 0.0983000000
5.0068000000 3.3939000000 0.7690000000
5.0062000000 2.8327000000 0.5240000000
5.0058000000 2.7002000000 0.4645000000
5.0057000000 3.6416000000 0.8090000000
5.0055000000 4.1037000000 0.6021000000
5.0053000000 3.1391000000 0.6626000000
5.0052000000 1.7703000000 0.1268000000
5.0049000000 1.9033000000 0.1093000000
5.0045000000 1.3546000000 0.0191000000
5.0042000000 1.7373000000 0.1108000000
5.0039000000 2.7592000000 0.4907000000
5.0036000000 2.4458000000 0.3543000000
5.0033000000 2.2561000000 0.2658000000
5.0032000000 5.5140000000 0.0499000000
5.0028000000 2.7835000000 0.5039000000
5.0026000000 2.7669000000 0.5007000000
5.0023000000 4.3943000000 0.4738000000
5.0022000000 5.3956000000 0.1091000000
5.0015000000 2.5564000000 0.4098000000
5.0005000000 3.7349000000 0.7734000000
5.0003000000 2.9478000000 0.5834000000
5.0001000000 5.3299000000 0.1337000000
4.9999000000 5.2071000000 0.1193000000
4.9991000000 1.8126000000 0.0751000000
4.9978000000 2.0821000000 0.1924000000
4.9949000000 1.4749000000 0.0856000000
4.7633000000 3.4412000000 0.9765000000
4.7611000000 5.9539000000 0.0484000000
4.7596000000 3.9257000000 0.8732000000
4.7590000000 2.8990000000 0.7383000000
4.7583000000 2.3057000000 0.4817000000
4.7580000000 4.4857000000 0.6246000000
4.7576000000 2.6449000000 0.6309000000
4.7575000000 1.4246000000 0.0896000000
4.7572000000 5.0133000000 0.3915000000
4.7566000000 4.1794000000 0.7596000000
4.7568000000 4.9729000000 0.4133000000
4.7561000000 0.9493000000 0.0301000000
4.7560000000 3.2382000000 0.8981000000
4.7558000000 4.4205000000 0.6501000000
4.7553000000 3.1477000000 0.8562000000
4.7552000000 6.1717000000 0.0282000000
4.7549000000 4.9619000000 0.4173000000
4.7547000000 4.6288000000 0.5642000000
4.7544000000 5.2288000000 0.3041000000
4.7543000000 4.7341000000 0.5190000000
4.7541000000 1.9429000000 0.3150000000
4.7538000000 2.6052000000 0.6175000000
4.7532000000 3.4948000000 1.0142000000
4.7531000000 3.6124000000 1.0170000000
4.7526000000 4.2550000000 0.7328000000
4.7523000000 3.6280000000 1.0081000000
4.7519000000 2.1096000000 0.3983000000
4.7517000000 2.6349000000 0.6245000000
4.7516000000 1.8054000000 0.2648000000
4.7507000000 1.5267000000 0.1432000000
4.7503000000 3.0516000000 0.8202000000
4.7500000000 3.5557000000 1.1030000000
4.7486000000 5.1368000000 0.3469000000
4.7485000000 1.0063000000 0.0556000000
4.7475000000 3.4311000000 0.9865000000
4.7473000000 1.6862000000 0.2130000000
4.7459000000 4.2278000000 0.7433000000
4.5119000000 4.4446000000 0.8297000000
4.5115000000 4.1573000000 0.9581000000
4.5101000000 2.8068000000 0.8956000000
4.5097000000 4.1989000000 0.9438000000
4.5094000000 5.6949000000 0.2805000000
4.5085000000 3.0421000000 0.9961000000
4.5081000000 2.4779000000 0.7545000000
4.5078000000 4.6032000000 0.7674000000
4.5075000000 5.0518000000 0.5684000000
4.5074000000 1.5518000000 0.3380000000
4.5073000000 4.9374000000 0.6117000000
4.5067000000 5.3438000000 0.4342000000
4.5066000000 3.0249000000 0.9955000000
4.5064000000 0.9461000000 0.0721000000
4.5060000000 3.9491000000 1.0562000000
4.5059000000 5.7636000000 0.2494000000
4.5055000000 5.6188000000 0.3162000000
4.5051000000 5.2196000000 0.4849000000
4.5050000000 1.5109000000 0.3175000000
4.5048000000 3.9067000000 1.0798000000
4.5047000000 2.9186000000 0.9463000000
4.5045000000 3.0139000000 0.9918000000
4.5042000000 6.1122000000 0.0998000000
4.5040000000 4.7038000000 0.7244000000
4.5038000000 1.0635000000 0.1211000000
4.5034000000 2.2415000000 0.6478000000
4.5033000000 6.1513000000 0.0830000000
4.5031000000 0.4778000000 0.0122000000
4.5028000000 2.6384000000 0.8284000000
4.5027000000 1.0406000000 0.1162000000
4.5026000000 2.9625000000 0.9689000000
4.5021000000 4.4044000000 0.8590000000
4.5020000000 2.5480000000 0.7831000000
4.5020000000 3.9342000000 1.0649000000
4.5018000000 0.8113000000 0.0926000000
4.5016000000 4.9233000000 0.6260000000
4.5014000000 2.8494000000 0.9190000000
4.5010000000 4.7628000000 0.6948000000
4.5006000000 2.3440000000 0.6997000000
4.5004000000 3.3672000000 1.1524000000
4.5001000000 2.9457000000 0.9667000000
4.4997000000 6.3737000000 0.0604000000
4.4992000000 4.5742000000 0.7813000000
4.4972000000 0.4956000000 0.0274000000
4.4963000000 1.6328000000 0.3810000000
4.2600000000 3.6565000000 1.3761000000
4.2598000000 6.3330000000 0.1863000000
4.2597000000 6.5003000000 0.1172000000
4.2589000000 5.5128000000 0.5540000000
4.2586000000 6.9775000000 0.0504000000
4.2582000000 3.8758000000 1.2827000000
4.2578000000 2.6258000000 1.0072000000
4.2571000000 4.4997000000 1.0023000000
4.2569000000 1.3090000000 0.4231000000
4.2568000000 5.1061000000 0.7324000000
4.2567000000 4.7333000000 0.8993000000
4.2565000000 4.5584000000 0.9748000000
4.2563000000 5.3414000000 0.6298000000
4.2563000000 7.0630000000 0.0146000000
4.2561000000 2.5700000000 0.9844000000
4.2560000000 6.6973000000 0.1011000000
4.2557000000 6.1154000000 0.2903000000
4.2555000000 4.3066000000 1.0923000000
4.2550000000 5.6484000000 0.4945000000
4.2548000000 3.0043000000 1.1787000000
4.2547000000 1.4445000000 0.4872000000
4.2544000000 3.6772000000 1.3657000000
4.2543000000 3.0345000000 1.1982000000
4.2541000000 2.0987000000 0.7754000000
4.2540000000 2.5983000000 0.9970000000
4.2538000000 4.4120000000 1.0453000000
4.2537000000 5.3309000000 0.6352000000
4.2535000000 7.0718000000 0.0138000000
4.2533000000 4.5321000000 0.9931000000
4.2530000000 4.0274000000 1.2172000000
4.2527000000 4.5308000000 0.9957000000
4.2523000000 2.4725000000 0.9468000000
4.2522000000 1.1840000000 0.3740000000
4.2520000000 6.9893000000 0.0528000000
4.2518000000 2.2583000000 0.8511000000
4.2515000000 3.2555000000 1.2917000000
4.2511000000 1.0148000000 0.2980000000
4.2504000000 1.8871000000 0.6857000000
4.2495000000 1.9204000000 0.7030000000
4.2486000000 0.7413000000 0.1707000000
4.2451000000 2.5650000000 0.9860000000
4.0134000000 5.3152000000 0.8293000000
4.0114000000 5.0384000000 0.9566000000
4.0109000000 6.2335000000 0.4218000000
4.0104000000 3.5256000000 1.6627000000
4.0094000000 5.1431000000 0.9074000000
4.0090000000 4.9442000000 0.9928000000
4.0083000000 5.3617000000 0.8135000000
4.0081000000 2.4664000000 1.1293000000
4.0077000000 6.4804000000 0.3199000000
4.0073000000 0.2949000000 0.1611000000
4.0071000000 2.4311000000 1.1186000000
4.0069000000 2.9174000000 1.3352000000
4.0066000000 2.7416000000 1.2530000000
4.0064000000 2.2733000000 1.0458000000
4.0061000000 4.8813000000 1.0296000000
4.0060000000 4.3063000000 1.2841000000
4.0057000000 4.1836000000 1.3371000000
4.0056000000 5.7389000000 0.6438000000
4.0055000000 6.4088000000 0.3492000000
4.0054000000 4.8030000000 1.0618000000
4.0053000000 3.4714000000 1.5769000000
4.0050000000 2.0243000000 0.9415000000
4.0049000000 4.0912000000 1.3808000000
4.0047000000 6.7395000000 0.2025000000
4.0045000000 3.8115000000 1.5023000000
4.0044000000 3.5583000000 1.6731000000
4.0042000000 2.3707000000 1.0881000000
4.0041000000 3.0780000000 1.4115000000
4.0040000000 2.3534000000 1.0854000000
4.0036000000 5.1372000000 0.9148000000
4.0035000000 4.3481000000 1.2633000000
4.0034000000 0.7274000000 0.3615000000
4.0032000000 6.2882000000 0.4081000000
4.0031000000 5.1249000000 0.9200000000
4.0029000000 4.0855000000 1.3809000000
4.0026000000 0.8293000000 0.4036000000
4.0025000000 1.8949000000 0.8792000000
4.0023000000 1.7439000000 0.8136000000
4.0020000000 6.5451000000 0.2919000000
4.0019000000 1.0260000000 0.4949000000
4.0018000000 3.3536000000 1.5248000000
4.0016000000 0.7490000000 0.3724000000
4.0015000000 5.2882000000 0.8517000000
4.0010000000 3.8909000000 1.4766000000
4.0008000000 3.5423000000 1.6735000000
4.0005000000 1.7830000000 0.8257000000
4.0003000000 2.3373000000 1.0757000000
4.0000000000 3.4135000000 1.5496000000
3.9995000000 1.7125000000 0.7995000000
3.9994000000 3.5358000000 1.6685000000
3.9988000000 5.4930000000 0.7644000000
3.9985000000 4.6804000000 1.1254000000
3.9971000000 1.8572000000 0.8682000000
3.9960000000 6.1917000000 0.4592000000
3.7624000000 5.0433000000 1.1438000000
3.7614000000 6.2760000000 0.5937000000
3.7612000000 6.9822000000 0.0763000000
3.7604000000 5.4587000000 0.9615000000
3.7600000000 4.0268000000 1.5975000000
3.7595000000 5.9052000000 0.7633000000
3.7589000000 5.2059000000 1.0779000000
3.7582000000 3.8791000000 1.6642000000
3.7580000000 2.0139000000 1.1229000000
3.7578000000 2.7498000000 1.4497000000
3.7577000000 5.2100000000 1.0734000000
3.7575000000 5.2793000000 1.0378000000
3.7571000000 6.2243000000 0.6186000000
3.7567000000 5.8897000000 0.7746000000
3.7564000000 2.1775000000 1.1915000000
3.7563000000 5.6394000000 0.8801000000
3.7561000000 4.7800000000 1.2635000000
3.7559000000 1.0788000000 0.7048000000
3.7558000000 6.6618000000 0.3655000000
3.7556000000 6.3737000000 0.5571000000
3.7554000000 2.9182000000 1.5229000000
3.7553000000 5.9654000000 0.7343000000
3.7551000000 2.5680000000 1.3689000000
3.7548000000 2.3712000000 1.2842000000
3.7547000000 6.2122000000 0.6298000000
3.7545000000 5.2628000000 1.0527000000
3.7543000000 7.0418000000 0.0955000000
3.7539000000 6.4870000000 0.5686000000
3.7535000000 1.3890000000 0.8450000000
3.7534000000 0.1942000000 0.1306000000
3.7533000000 5.9260000000 0.7586000000
3.7531000000 2.9086000000 1.5179000000
3.7530000000 3.7765000000 1.7121000000
3.7528000000 0.7634000000 0.5678000000
3.7525000000 2.7424000000 1.4535000000
3.7523000000 0.1972000000 0.1334000000
3.7521000000 4.6747000000 1.3110000000
3.7520000000 4.0762000000 1.5804000000
3.7518000000 4.4237000000 1.4242000000
3.7516000000 4.5975000000 1.3492000000
3.7512000000 7.1069000000 0.0435000000
3.7507000000 3.5632000000 1.8698000000
3.7504000000 1.1287000000 0.7285000000
3.7503000000 2.4048000000 1.3020000000
3.7494000000 5.9709000000 0.7354000000
3.7490000000 4.9137000000 1.2125000000
3.7488000000 2.1061000000 1.1649000000
3.7486000000 2.2078000000 1.2105000000
3.7482000000 1.0055000000 0.6773000000
3.7475000000 5.1476000000 1.1055000000
3.7470000000 4.7340000000 1.2907000000
3.7448000000 1.6054000000 0.9457000000
3.5117000000 5.0147000000 1.3537000000
3.5113000000 5.3168000000 1.2139000000
3.5106000000 3.5226000000 2.0455000000
3.5100000000 2.8606000000 1.6891000000
3.5094000000 0.7739000000 0.6452000000
3.5090000000 5.1216000000 1.3011000000
3.5088000000 3.0317000000 1.7656000000
3.5084000000 0.3582000000 0.2746000000
3.5081000000 6.7228000000 0.3083000000
3.5079000000 6.5714000000 0.4460000000
3.5078000000 1.9117000000 1.2688000000
3.5075000000 1.0366000000 0.9339000000
3.5074000000 2.1330000000 1.3654000000
3.5073000000 0.2868000000 0.2082000000
3.5069000000 4.1553000000 1.7330000000
3.5068000000 2.8028000000 1.6680000000
3.5066000000 3.5931000000 2.0435000000
3.5064000000 0.3706000000 0.2860000000
3.5062000000 1.9714000000 1.2939000000
3.5061000000 6.2860000000 0.6945000000
3.5060000000 1.1790000000 0.9431000000
3.5059000000 4.4167000000 1.6183000000
3.5057000000 3.6628000000 1.9497000000
3.5054000000 2.1251000000 1.3601000000
3.5053000000 2.4828000000 1.5190000000
3.5050000000 2.8339000000 1.6779000000
3.5047000000 0.6325000000 0.5223000000
3.5045000000 5.0561000000 1.3356000000
3.5044000000 6.8266000000 0.2181000000
3.5041000000 6.2933000000 0.6872000000
3.5040000000 5.1242000000 1.3078000000
3.5037000000 0.2444000000 0.1764000000
3.5035000000 0.1916000000 0.1306000000
3.5032000000 1.3842000000 1.0324000000
3.5031000000 4.0469000000 1.7918000000
3.5029000000 1.2995000000 0.9991000000
3.5027000000 5.0033000000 1.3609000000
3.5025000000 4.7023000000 1.4893000000
3.5023000000 2.0511000000 1.3258000000
3.5021000000 0.0549000000 0.0796000000
3.5020000000 5.0275000000 1.3487000000
3.5018000000 6.6044000000 0.4117000000
3.5016000000 4.8538000000 1.4256000000
3.5014000000 3.8933000000 1.8558000000
3.5013000000 4.4225000000 1.6201000000
3.5010000000 1.1703000000 0.9460000000
3.5002000000 0.5482000000 0.4413000000
3.5000000000 0.4780000000 0.3840000000
3.4994000000 3.8663000000 1.8657000000
3.4993000000 7.1323000000 0.0162000000
3.4990000000 0.4981000000 0.4023000000
3.4987000000 3.0715000000 1.7938000000
3.4965000000 0.0493000000 0.0732000000
3.2648000000 5.7296000000 1.2495000000
3.2625000000 6.5259000000 0.4812000000
3.2605000000 6.4150000000 0.5822000000
3.2603000000 6.8713000000 0.1799000000
3.2599000000 3.8954000000 2.0382000000
3.2596000000 6.1290000000 0.8322000000
3.2593000000 5.8923000000 1.0428000000
3.2592000000 3.1321000000 2.0023000000
3.2586000000 3.0962000000 1.9863000000
3.2582000000 4.4124000000 1.8159000000
3.2578000000 2.2804000000 1.6168000000
3.2576000000 3.6209000000 2.1675000000
3.2575000000 7.1334000000 0.0187000000
3.2573000000 3.6985000000 2.1288000000
3.2572000000 3.9481000000 2.0201000000
3.2570000000 0.5534000000 0.4500000000
3.2567000000 5.2072000000 1.4637000000
3.2565000000 6.7441000000 0.2851000000
3.2564000000 4.9498000000 1.5750000000
3.2562000000 6.0314000000 0.9187000000
3.2561000000 1.8709000000 1.4443000000
3.2558000000 4.6413000000 1.7104000000
3.2555000000 3.1443000000 2.0092000000
3.2553000000 3.2634000000 2.0601000000
3.2550000000 3.5837000000 2.2458000000
3.2547000000 2.2415000000 1.6120000000
3.2545000000 5.4139000000 1.3726000000
3.2544000000 4.6602000000 1.7095000000
3.2542000000 4.9559000000 1.5731000000
3.2539000000 1.2954000000 1.1079000000
3.2535000000 3.8341000000 2.0724000000
3.2534000000 4.8408000000 1.6195000000
3.2533000000 0.9427000000 0.7940000000
3.2531000000 4.9124000000 1.6005000000
3.2530000000 2.5395000000 1.7467000000
3.2529000000 6.4598000000 0.5411000000
3.2527000000 2.2854000000 1.6299000000
3.2524000000 0.7049000000 0.5849000000
3.2522000000 1.8509000000 1.4347000000
3.2520000000 2.1029000000 1.5456000000
3.2520000000 3.4916000000 2.1615000000
3.2518000000 1.1629000000 0.9906000000
3.2515000000 2.8625000000 1.8865000000
3.2513000000 1.8443000000 1.4338000000
3.2511000000 0.6043000000 0.4976000000
3.2507000000 0.2094000000 0.1427000000
3.2505000000 4.4462000000 1.8050000000
3.2502000000 5.0561000000 1.5293000000
3.2494000000 0.0730000000 0.0996000000
3.2487000000 0.2884000000 0.2117000000
3.2476000000 1.9463000000 1.4814000000
3.2468000000 0.8830000000 0.7416000000
3.2467000000 1.0945000000 0.9294000000
3.2460000000 6.2390000000 0.7344000000
3.0135000000 3.0825000000 2.1662000000
3.0112000000 6.2982000000 0.6831000000
3.0105000000 5.8178000000 1.1135000000
3.0094000000 5.8876000000 1.0504000000
3.0090000000 2.3118000000 1.8228000000
3.0088000000 3.8349000000 2.2595000000
3.0083000000 3.6504000000 2.3417000000
3.0082000000 3.8019000000 2.2738000000
3.0078000000 4.1177000000 2.1371000000
3.0076000000 2.9912000000 2.1329000000
3.0072000000 5.9968000000 0.9496000000
3.0069000000 4.6428000000 1.9062000000
3.0067000000 6.3480000000 0.6413000000
3.0064000000 1.8208000000 1.6318000000
3.0063000000 2.6381000000 1.9754000000
3.0060000000 3.6783000000 2.3371000000
3.0058000000 5.9801000000 0.9677000000
3.0054000000 6.9253000000 0.1244000000
3.0051000000 6.5654000000 0.4461000000
3.0049000000 5.5817000000 1.3226000000
3.0047000000 6.9760000000 0.0838000000
3.0047000000 0.5600000000 0.4531000000
3.0045000000 4.0195000000 2.1828000000
3.0045000000 6.9381000000 0.1134000000
3.0043000000 6.1030000000 0.8577000000
3.0041000000 2.9437000000 2.1088000000
3.0040000000 1.4628000000 1.2627000000
3.0037000000 6.8889000000 0.1630000000
3.0033000000 3.2735000000 2.2590000000
3.0032000000 4.4133000000 2.0039000000
3.0030000000 5.4416000000 1.4468000000
3.0028000000 3.7649000000 2.2947000000
3.0026000000 0.9055000000 0.7580000000
3.0024000000 1.0474000000 0.8859000000
3.0021000000 5.4572000000 1.4356000000
3.0017000000 3.0981000000 2.1855000000
3.0016000000 2.3854000000 1.8654000000
3.0014000000 0.7885000000 0.6584000000
3.0011000000 0.5779000000 0.4684000000
3.0010000000 1.2778000000 1.0956000000
3.0007000000 0.9905000000 0.8327000000
3.0005000000 4.2039000000 2.0951000000
3.0003000000 1.2263000000 1.0470000000
2.9999000000 5.1434000000 1.7467000000
2.9997000000 2.1300000000 1.7579000000
2.9996000000 6.7669000000 0.2670000000
2.9993000000 2.2338000000 1.8062000000
2.9989000000 5.7853000000 1.1406000000
2.9988000000 2.9938000000 2.1395000000
2.9983000000 1.0461000000 0.8877000000
2.9980000000 5.2230000000 1.7006000000
2.9965000000 0.5456000000 0.4443000000
2.9950000000 0.1861000000 0.1295000000
2.7626000000 6.9255000000 0.1239000000
2.7599000000 3.3242000000 2.4674000000
2.7597000000 5.0313000000 1.8031000000
2.7594000000 1.4116000000 1.2076000000
2.7590000000 4.2585000000 2.2591000000
2.7585000000 3.4316000000 2.5217000000
2.7583000000 6.4324000000 0.5632000000
2.7578000000 0.1984000000 0.1360000000
2.7575000000 4.8787000000 1.9388000000
2.7571000000 5.8585000000 1.0719000000
2.7570000000 0.2992000000 0.2238000000
2.7568000000 4.7746000000 2.0991000000
2.7565000000 3.6628000000 2.5312000000
2.7563000000 4.5149000000 2.1479000000
2.7562000000 4.9085000000 1.9200000000
2.7560000000 7.0309000000 0.1061000000
2.7558000000 6.8169000000 0.2257000000
2.7556000000 6.3065000000 0.6759000000
2.7554000000 1.1537000000 0.9809000000
2.7552000000 0.0828000000 0.1056000000
2.7550000000 2.4977000000 2.1014000000
2.7547000000 1.3286000000 1.1371000000
2.7543000000 2.7617000000 2.2275000000
2.7542000000 6.9718000000 0.0858000000
2.7541000000 1.1306000000 0.9619000000
2.7538000000 2.7368000000 2.2117000000
2.7536000000 2.9865000000 2.3221000000
2.7534000000 2.4757000000 2.0996000000
2.7532000000 3.6436000000 2.5376000000
2.7530000000 2.3527000000 2.1033000000
2.7528000000 0.6003000000 0.4925000000
2.7527000000 1.8782000000 1.6287000000
2.7525000000 6.7977000000 0.2386000000
2.7523000000 6.5441000000 0.4635000000
2.7518000000 1.9252000000 1.6690000000
2.7516000000 0.5533000000 0.4442000000
2.7514000000 1.5478000000 1.3322000000
2.7514000000 3.8783000000 2.4368000000
2.7508000000 2.9356000000 2.2992000000
2.7508000000 0.5252000000 0.4221000000
2.7505000000 0.8092000000 0.6808000000
2.7503000000 2.4235000000 2.1395000000
2.7496000000 5.3691000000 1.5038000000
2.7493000000 5.1123000000 1.7353000000
2.7490000000 2.9162000000 2.2975000000
2.7485000000 3.1081000000 2.3868000000
2.7480000000 0.6759000000 0.5537000000
2.7478000000 1.2971000000 1.1122000000
2.7472000000 2.7777000000 2.2335000000
2.7469000000 2.8947000000 2.2912000000
2.5136000000 5.8432000000 1.0892000000
2.5128000000 5.4523000000 1.4370000000
2.5116000000 2.0858000000 1.8075000000
2.5106000000 3.6458000000 2.7274000000
2.5105000000 6.1417000000 0.8211000000
2.5088000000 3.2421000000 2.6263000000
2.5082000000 3.9110000000 2.6076000000
2.5078000000 3.5561000000 2.8285000000
2.5075000000 4.5945000000 2.1993000000
2.5071000000 5.9098000000 1.0272000000
2.5070000000 3.7300000000 2.6971000000
2.5067000000 0.6950000000 0.5722000000
2.5066000000 6.5195000000 0.4907000000
2.5064000000 3.3936000000 2.6968000000
2.5063000000 5.5334000000 1.3618000000
2.5059000000 1.6060000000 1.3841000000
2.5058000000 1.8802000000 1.6273000000
2.5057000000 4.9298000000 1.9022000000
2.5054000000 0.6188000000 0.5013000000
2.5053000000 3.7296000000 2.6977000000
2.5051000000 3.8753000000 2.6244000000
2.5049000000 3.6194000000 2.7417000000
2.5048000000 3.1905000000 2.6016000000
2.5047000000 0.8372000000 0.7006000000
2.5045000000 3.2269000000 2.6221000000
2.5044000000 0.1788000000 0.1128000000
2.5042000000 0.4343000000 0.3390000000
2.5040000000 6.2935000000 0.6932000000
2.5038000000 5.0926000000 1.7574000000
2.5038000000 2.0730000000 1.7956000000
2.5037000000 2.9748000000 2.5075000000
2.5034000000 0.7827000000 0.6541000000
2.5031000000 3.3664000000 2.6910000000
2.5029000000 3.1159000000 2.5733000000
2.5028000000 1.1292000000 0.9607000000
2.5026000000 3.3942000000 2.6982000000
2.5024000000 5.6987000000 1.2192000000
2.5023000000 1.1813000000 1.0053000000
2.5021000000 0.9938000000 0.8392000000
2.5020000000 6.3765000000 0.6205000000
2.5016000000 0.6626000000 0.5469000000
2.5013000000 6.9674000000 0.0928000000
2.5012000000 0.4609000000 0.3624000000
2.5011000000 3.6308000000 2.7499000000
2.5008000000 0.5035000000 0.4044000000
2.5005000000 2.1813000000 1.8949000000
2.4990000000 2.8097000000 2.5059000000
2.4986000000 3.6433000000 2.7356000000
2.4976000000 2.2027000000 1.9122000000
2.4960000000 1.3936000000 1.2001000000
2.4932000000 1.7100000000 1.4792000000
2.2629000000 6.6166000000 0.3993000000
2.2604000000 6.4758000000 0.5271000000
2.2591000000 6.9980000000 0.1406000000
2.2583000000 4.0289000000 2.7014000000
2.2580000000 6.5724000000 0.4425000000
2.2575000000 3.6778000000 2.9065000000
2.2573000000 5.9784000000 0.9687000000
2.2571000000 6.8609000000 0.1835000000
2.2568000000 1.8824000000 1.6278000000
2.2567000000 5.1993000000 1.6605000000
2.2565000000 4.9660000000 1.8685000000
2.2560000000 0.1811000000 0.1174000000
2.2559000000 0.8671000000 0.7244000000
2.2557000000 6.9705000000 0.0841000000
2.2555000000 6.5929000000 0.4218000000
2.2554000000 6.9803000000 0.0761000000
2.2553000000 3.2769000000 2.9000000000
2.2550000000 6.2715000000 0.7108000000
2.2548000000 7.1003000000 0.0464000000
2.2545000000 1.2187000000 1.0400000000
2.2542000000 1.5128000000 1.3019000000
2.2540000000 2.8682000000 2.5093000000
2.2539000000 3.9899000000 2.7891000000
2.2538000000 3.3517000000 2.8723000000
2.2535000000 7.0300000000 0.1093000000
2.2535000000 2.1297000000 1.8450000000
2.2534000000 4.2889000000 2.4623000000
2.2533000000 2.8431000000 2.4823000000
2.2532000000 4.1652000000 2.5790000000
2.2530000000 3.9190000000 2.8548000000
2.2527000000 5.5299000000 1.3632000000
2.2524000000 1.3620000000 1.1654000000
2.2523000000 1.6649000000 1.4355000000
2.2522000000 6.7423000000 0.2890000000
2.2521000000 2.2187000000 1.9355000000
2.2518000000 5.8102000000 1.1238000000
2.2516000000 3.3279000000 2.8612000000
2.2514000000 5.3090000000 1.5568000000
2.2512000000 5.8203000000 1.1060000000
2.2507000000 2.7285000000 2.3818000000
2.2505000000 4.5459000000 2.2440000000
2.2501000000 2.0602000000 1.7834000000
2.2570000000 2.8388000000 2.4857000000
2.2493000000 5.3532000000 1.5242000000
2.2484000000 5.4236000000 1.4627000000
2.2482000000 2.7854000000 2.4322000000
2.2479000000 2.1790000000 1.8912000000
2.2455000000 6.2790000000 0.7016000000
2.0137000000 6.2699000000 0.7135000000
2.0116000000 4.4410000000 2.3316000000
2.0106000000 7.0065000000 0.1279000000
2.0100000000 5.9338000000 1.0073000000
2.0093000000 1.2688000000 1.0834000000
2.0083000000 6.5729000000 0.4419000000
2.0080000000 3.0609000000 2.6769000000
2.0076000000 6.1587000000 0.8093000000
2.0074000000 3.0561000000 2.6732000000
2.0069000000 5.9829000000 0.9669000000
2.0068000000 4.0310000000 2.7046000000
2.0067000000 4.2096000000 2.5416000000
2.0065000000 6.3830000000 0.6073000000
2.0062000000 6.4321000000 0.5631000000
2.0060000000 0.7879000000 0.6515000000
2.0058000000 3.8318000000 2.8760000000
2.0053000000 6.3287000000 0.6577000000
2.0051000000 5.5950000000 1.3091000000
2.0050000000 2.1780000000 1.8925000000
2.0049000000 4.6168000000 2.1761000000
2.0047000000 4.3104000000 2.4522000000
2.0045000000 4.3700000000 2.3992000000
2.0043000000 2.1398000000 1.8606000000
2.0040000000 5.4086000000 1.4723000000
2.0040000000 1.0559000000 0.8946000000
2.0037000000 0.6590000000 0.5443000000
2.0035000000 2.1678000000 1.8832000000
2.0030000000 2.5614000000 2.2379000000
2.0029000000 2.7060000000 2.3640000000
2.0028000000 6.5844000000 0.4300000000
2.0027000000 3.8180000000 2.8853000000
2.0025000000 1.0248000000 0.8752000000
2.0023000000 1.4877000000 1.2772000000
2.0020000000 1.8990000000 1.6442000000
2.0017000000 4.3295000000 2.4281000000
2.0014000000 5.9016000000 1.0362000000
2.0013000000 4.4985000000 2.2843000000
2.0010000000 1.1736000000 1.0042000000
2.0008000000 0.8004000000 0.6616000000
2.0008000000 4.5146000000 2.2671000000
2.0004000000 5.3784000000 1.5021000000
2.0003000000 1.9382000000 1.6740000000
2.0001000000 0.2108000000 0.1508000000
1.9999000000 5.1110000000 1.7376000000
1.9999000000 2.5787000000 2.2462000000
1.9995000000 3.6271000000 3.0612000000
1.9993000000 0.0740000000 0.0940000000
1.9989000000 3.7552000000 3.0039000000
1.9982000000 6.4503000000 0.5569000000
1.9981000000 3.1679000000 2.7745000000
1.9978000000 3.2039000000 2.8016000000
1.9963000000 6.0832000000 0.8738000000
1.9954000000 0.2628000000 0.1919000000
1.9951000000 1.3014000000 1.1113000000
1.7631000000 5.0809000000 1.7620000000
1.7623000000 3.9799000000 2.7711000000
1.7611000000 3.9114000000 2.7382000000
1.7608000000 1.8579000000 1.6133000000
1.7603000000 6.1495000000 0.8102000000
1.7596000000 6.9049000000 0.1418000000
1.7593000000 4.3786000000 2.3881000000
1.7590000000 5.6286000000 1.2786000000
1.7588000000 5.7021000000 1.2128000000
1.7586000000 5.9830000000 0.9666000000
1.7584000000 3.3350000000 2.7877000000
1.7583000000 2.1676000000 1.8847000000
1.7578000000 6.2708000000 0.7044000000
1.7576000000 6.4732000000 0.5272000000
1.7572000000 6.7970000000 0.2430000000
1.7568000000 2.2766000000 1.9751000000
1.7565000000 4.4250000000 2.3482000000
1.7563000000 6.9104000000 0.1373000000
1.7560000000 7.0179000000 0.1190000000
1.7558000000 6.5136000000 0.4919000000
1.7556000000 5.1702000000 1.6791000000
1.7555000000 6.3583000000 0.6289000000
1.7553000000 3.7805000000 2.7856000000
1.7550000000 4.9875000000 1.8481000000
1.7549000000 3.0647000000 2.7275000000
1.7547000000 0.7135000000 0.5895000000
1.7546000000 4.9391000000 1.8897000000
1.7545000000 4.1312000000 2.6705000000
1.7542000000 5.9657000000 0.9802000000
1.7542000000 4.1191000000 2.6807000000
1.7538000000 0.3115000000 0.2341000000
1.7536000000 6.1026000000 0.8603000000
1.7535000000 2.7703000000 2.4152000000
1.7533000000 1.8796000000 1.6257000000
1.7531000000 4.7804000000 2.0369000000
1.7526000000 4.4139000000 2.3581000000
1.7525000000 2.4740000000 2.1541000000
1.7523000000 5.2460000000 1.6189000000
1.7520000000 4.8096000000 2.0113000000
1.7519000000 0.4555000000 0.3618000000
1.7518000000 3.0302000000 2.7116000000
1.7516000000 5.6587000000 1.2472000000
1.7515000000 5.4646000000 1.4248000000
1.7512000000 2.6936000000 2.3502000000
1.7510000000 3.3604000000 2.7967000000
1.7508000000 2.5251000000 2.1988000000
1.7505000000 2.5650000000 2.2286000000
1.7500000000 5.9294000000 1.0118000000
1.7499000000 0.3616000000 0.2761000000
1.7490000000 7.0720000000 0.0687000000
1.7485000000 3.5118000000 2.9222000000
1.7470000000 0.7694000000 0.6405000000
1.7451000000 3.4473000000 2.8299000000
1.5126000000 6.8004000000 0.2342000000
1.5110000000 5.9380000000 1.0003000000
1.5106000000 6.8058000000 0.2342000000
1.5101000000 5.8531000000 1.0806000000
1.5097000000 2.5362000000 2.2691000000
1.5095000000 6.5293000000 0.4824000000
1.5093000000 4.1354000000 2.4457000000
1.5085000000 6.1744000000 0.7944000000
1.5078000000 6.7082000000 0.3192000000
1.5076000000 2.0748000000 1.7965000000
1.5075000000 4.6979000000 2.1045000000
1.5074000000 6.1430000000 0.8178000000
1.5070000000 1.5993000000 1.3784000000
1.5069000000 4.3443000000 2.3480000000
1.5068000000 6.0668000000 0.8885000000
1.5063000000 3.1986000000 2.5343000000
1.5060000000 5.2205000000 1.6390000000
1.5058000000 5.0917000000 1.7552000000
1.5057000000 0.3191000000 0.2371000000
1.5056000000 4.2592000000 2.3825000000
1.5051000000 1.7387000000 1.5016000000
1.5050000000 0.4559000000 0.3616000000
1.5049000000 5.0583000000 1.7843000000
1.5045000000 0.1841000000 0.1242000000
1.5042000000 5.4674000000 1.4190000000
1.5039000000 0.3580000000 0.2690000000
1.5038000000 1.6703000000 1.4382000000
1.5037000000 3.6494000000 2.6567000000
1.5034000000 5.5249000000 1.3708000000
1.5033000000 4.1456000000 2.4273000000
1.5030000000 0.1763000000 0.1107000000
1.5029000000 5.4999000000 1.3894000000
1.5026000000 1.3954000000 1.1903000000
1.5025000000 4.5740000000 2.2763000000
1.5023000000 0.5509000000 0.4456000000
1.5022000000 5.1041000000 1.7430000000
1.5021000000 2.1340000000 1.8518000000
1.5016000000 4.2581000000 2.3789000000
1.5015000000 2.3841000000 2.0749000000
1.5012000000 5.6091000000 1.2912000000
1.5009000000 3.0577000000 2.4693000000
1.5006000000 2.7459000000 2.3287000000
1.5005000000 1.2855000000 1.0965000000
1.4997000000 0.5054000000 0.4086000000
1.4992000000 0.4880000000 0.3880000000
1.4991000000 6.9726000000 0.0860000000
1.4984000000 2.3708000000 2.0661000000
1.4961000000 1.6502000000 1.4172000000
1.2656000000 4.3393000000 2.1595000000
1.2630000000 6.6281000000 0.3907000000
1.2604000000 4.9325000000 1.9537000000
1.2595000000 6.9285000000 0.1277000000
1.2588000000 6.2297000000 0.7477000000
1.2575000000 0.1547000000 0.0899000000
1.2571000000 3.9014000000 2.3512000000
1.2569000000 3.2818000000 2.3844000000
1.2564000000 2.7907000000 2.1612000000
1.2560000000 4.1036000000 2.2597000000
1.2559000000 4.3469000000 2.1502000000
1.2558000000 6.5081000000 0.4957000000
1.2555000000 4.2368000000 2.2028000000
1.2553000000 2.6307000000 2.0919000000
1.2548000000 5.8136000000 1.1145000000
1.2542000000 6.5832000000 0.4317000000
1.2540000000 6.2975000000 0.6883000000
1.2540000000 2.8384000000 2.1813000000
1.2537000000 5.4551000000 1.4318000000
1.2535000000 6.0609000000 0.8993000000
1.2532000000 6.8704000000 0.1704000000
1.2531000000 5.0996000000 1.7451000000
1.2528000000 5.2673000000 1.5915000000
1.2527000000 1.7933000000 1.5492000000
1.2526000000 6.2932000000 0.6936000000
1.2525000000 0.8957000000 0.7472000000
1.2524000000 6.1384000000 0.8303000000
1.2523000000 3.4628000000 2.4552000000
1.2521000000 1.8329000000 1.5804000000
1.2519000000 3.7084000000 2.4373000000
1.2518000000 2.0475000000 1.7782000000
1.2515000000 0.5448000000 0.4406000000
1.2511000000 2.6295000000 2.0878000000
1.2508000000 3.3743000000 2.4223000000
1.2504000000 5.9320000000 1.0095000000
1.2501000000 5.3959000000 1.4821000000
1.2498000000 6.0125000000 0.9333000000
1.2496000000 6.1232000000 0.8384000000
1.2483000000 6.4559000000 0.5440000000
1.2476000000 6.0035000000 0.9463000000
1.2458000000 1.1542000000 0.9867000000
1.0132000000 5.5287000000 1.3660000000
1.0115000000 4.9839000000 1.6825000000
1.0094000000 2.2122000000 1.7160000000
1.0090000000 6.8203000000 0.2176000000
1.0088000000 0.3785000000 0.2945000000
1.0086000000 5.9588000000 0.9880000000
1.0081000000 4.2647000000 1.9969000000
1.0080000000 0.0874000000 0.1072000000
1.0079000000 3.9592000000 2.1372000000
1.0077000000 2.5070000000 1.8498000000
1.0073000000 4.3641000000 1.9591000000
1.0072000000 5.9345000000 1.0033000000
1.0070000000 3.3803000000 2.2365000000
1.0067000000 3.0293000000 2.0739000000
1.0065000000 3.9306000000 2.1424000000
1.0061000000 6.6562000000 0.3646000000
1.0061000000 3.2352000000 2.1658000000
1.0060000000 5.7729000000 1.1427000000
1.0057000000 5.2691000000 1.5443000000
1.0055000000 6.5433000000 0.4652000000
1.0054000000 6.4117000000 0.5822000000
1.0053000000 0.1471000000 0.0829000000
1.0052000000 5.7772000000 1.1481000000
1.0050000000 6.2349000000 0.7381000000
1.0048000000 2.1770000000 1.6940000000
1.0047000000 4.5948000000 1.8503000000
1.0044000000 3.6866000000 2.2545000000
1.0044000000 1.8651000000 1.5563000000
1.0043000000 4.0654000000 2.0820000000
1.0040000000 4.9069000000 1.7117000000
1.0038000000 2.7662000000 1.9553000000
1.0035000000 0.2960000000 0.2210000000
1.0034000000 5.0881000000 1.6326000000
1.0033000000 1.3113000000 1.1232000000
1.0032000000 0.3870000000 0.2979000000
1.0031000000 0.3978000000 0.3118000000
1.0030000000 1.2854000000 1.0967000000
1.0028000000 3.2555000000 2.1711000000
1.0025000000 2.6919000000 1.9192000000
1.0023000000 4.5555000000 1.8676000000
1.0021000000 2.5236000000 1.8493000000
1.0019000000 5.3566000000 1.5699000000
1.0018000000 0.1170000000 0.1349000000
1.0016000000 0.8506000000 0.7147000000
1.0015000000 5.0798000000 1.6363000000
1.0011000000 3.1026000000 2.1034000000
1.0012000000 3.2939000000 2.1853000000
1.0008000000 1.2784000000 1.0942000000
1.0006000000 0.7127000000 0.5873000000
1.0003000000 2.7558000000 1.9512000000
1.0002000000 6.9249000000 0.1256000000
1.0000000000 0.1820000000 0.1154000000
0.9996000000 5.1442000000 1.5951000000
0.9995000000 0.5310000000 0.4281000000
0.9985000000 1.8275000000 1.6018000000
0.9980000000 2.2641000000 1.7368000000
0.9980000000 4.6212000000 1.8352000000
0.9970000000 0.4180000000 0.3324000000
0.9968000000 0.0121000000 0.0452000000
0.9944000000 1.7993000000 1.5817000000
0.7645000000 4.5045000000 1.7082000000
0.7618000000 5.7310000000 1.2182000000
0.7600000000 7.0355000000 0.1060000000
0.7593000000 6.4124000000 0.5746000000
0.7590000000 6.4364000000 0.5617000000
0.7586000000 7.0112000000 0.1190000000
0.7583000000 4.6793000000 1.6256000000
0.7581000000 6.5729000000 0.4381000000
0.7578000000 4.0143000000 1.9170000000
0.7578000000 4.3794000000 1.7582000000
0.7577000000 6.1048000000 0.8544000000
0.7575000000 1.4374000000 1.1771000000
0.7574000000 6.4151000000 0.5743000000
0.7571000000 1.2514000000 1.1288000000
0.7570000000 2.2791000000 1.5530000000
0.7568000000 3.6048000000 2.1604000000
0.7566000000 3.2188000000 1.9684000000
0.7564000000 3.6125000000 2.0918000000
0.7563000000 6.2495000000 0.7282000000
0.7560000000 4.7911000000 1.5720000000
0.7556000000 6.7121000000 0.3187000000
0.7555000000 3.5719000000 2.1715000000
0.7554000000 4.0851000000 1.8875000000
0.7553000000 5.3374000000 1.3292000000
0.7551000000 6.5506000000 0.4571000000
0.7550000000 4.9447000000 1.5062000000
0.7548000000 0.9976000000 0.8443000000
0.7545000000 4.2379000000 1.8192000000
0.7543000000 1.7497000000 1.3090000000
0.7542000000 1.3698000000 1.2093000000
0.7538000000 2.0625000000 1.4462000000
0.7537000000 1.9803000000 1.4174000000
0.7535000000 7.1248000000 0.0265000000
0.7532000000 2.4361000000 1.6181000000
0.7530000000 3.3502000000 2.0231000000
0.7528000000 0.8058000000 0.6680000000
0.7526000000 2.4884000000 1.6416000000
0.7524000000 1.0657000000 0.9068000000
0.7523000000 6.6009000000 0.4158000000
0.7521000000 6.7541000000 0.2785000000
0.7519000000 0.2210000000 0.1502000000
0.7518000000 1.6789000000 1.2806000000
0.7515000000 4.3987000000 1.7395000000
0.7513000000 0.8296000000 0.6997000000
0.7510000000 0.7092000000 0.5825000000
0.7508000000 2.0718000000 1.4621000000
0.7505000000 6.2922000000 0.6886000000
0.7504000000 2.0245000000 1.4341000000
0.7501000000 0.2058000000 0.1431000000
0.7497000000 4.2584000000 1.8033000000
0.7496000000 2.7000000000 1.7402000000
0.7492000000 3.4212000000 2.0544000000
0.7489000000 0.5802000000 0.4745000000
0.7481000000 1.5593000000 1.2194000000
0.7478000000 3.7655000000 2.0183000000
0.7475000000 1.2787000000 1.1488000000
0.7468000000 0.9064000000 0.7614000000
0.7452000000 1.1281000000 0.9623000000
0.5109000000 2.2291000000 1.3427000000
0.5087000000 4.8948000000 1.3354000000
0.5083000000 5.8784000000 0.8953000000
0.5080000000 6.0372000000 0.8333000000
0.5073000000 5.2795000000 1.1631000000
0.5070000000 6.4294000000 0.5693000000
0.5068000000 5.3212000000 1.1413000000
0.5065000000 4.6791000000 1.4319000000
0.5063000000 3.2941000000 1.8093000000
0.5058000000 0.7410000000 0.6147000000
0.5057000000 6.6259000000 0.3953000000
0.5055000000 0.8798000000 0.7977000000
0.5055000000 0.5614000000 0.4532000000
0.5052000000 2.8957000000 1.6314000000
0.5050000000 4.0980000000 1.6868000000
0.5049000000 2.6068000000 1.5015000000
0.5048000000 6.6324000000 0.3833000000
0.5045000000 0.6482000000 0.5251000000
0.5042000000 2.0596000000 1.2625000000
0.5040000000 1.1320000000 0.8522000000
0.5038000000 0.5799000000 0.4714000000
0.5034000000 3.8543000000 1.7911000000
0.5033000000 5.6114000000 1.0167000000
0.5031000000 2.5724000000 1.4861000000
0.5029000000 4.3583000000 1.5664000000
0.5028000000 4.5821000000 1.4725000000
0.5027000000 3.5764000000 1.9756000000
0.5023000000 2.1437000000 1.2935000000
0.5022000000 1.8397000000 1.1623000000
0.5020000000 0.2573000000 0.1871000000
0.5016000000 2.2890000000 1.3617000000
0.5010000000 3.7222000000 1.8502000000
0.5006000000 5.8187000000 0.9152000000
0.5002000000 5.4722000000 1.0679000000
0.4998000000 2.6539000000 1.5222000000
0.4993000000 0.1329000000 0.0762000000
0.4990000000 4.2023000000 1.6374000000
0.4988000000 2.6466000000 1.5185000000
0.4982000000 4.6378000000 1.4435000000
0.4978000000 6.9860000000 0.0723000000
0.4955000000 2.1583000000 1.2984000000
0.4940000000 2.3724000000 1.3882000000
0.2598000000 2.7596000000 1.3798000000
0.2595000000 6.1319000000 0.5966000000
0.2590000000 5.3875000000 0.9231000000
0.2587000000 2.9397000000 1.4617000000
0.2584000000 7.1029000000 0.0412000000
0.2583000000 1.2830000000 0.7246000000
0.2580000000 6.3621000000 0.4903000000
0.2579000000 0.4370000000 0.4100000000
0.2575000000 2.4914000000 1.2619000000
0.2573000000 6.1756000000 0.5718000000
0.2569000000 4.4773000000 1.3302000000
0.2566000000 4.4521000000 1.3374000000
0.2563000000 3.5444000000 1.7897000000
0.2560000000 1.7040000000 0.9111000000
0.2559000000 4.9130000000 1.1309000000
0.2555000000 4.1742000000 1.4629000000
0.2554000000 4.6819000000 1.2371000000
0.2553000000 2.4711000000 1.2525000000
0.2550000000 6.1399000000 0.5822000000
0.2548000000 0.8282000000 0.5209000000
0.2547000000 6.3765000000 0.4812000000
0.2543000000 0.1915000000 0.1242000000
0.2541000000 5.1005000000 1.0491000000
0.2539000000 0.8810000000 0.5377000000
0.2539000000 1.1316000000 0.6617000000
0.2537000000 3.3787000000 1.6489000000
0.2534000000 3.9559000000 1.5589000000
0.2533000000 4.9396000000 1.1170000000
0.2531000000 6.0915000000 0.6046000000
0.2529000000 0.2682000000 0.1977000000
0.2527000000 5.6695000000 0.7942000000
0.2524000000 1.0210000000 0.6014000000
0.2522000000 0.1103000000 0.1303000000
0.2521000000 2.5678000000 1.2943000000
0.2517000000 0.8788000000 0.5408000000
0.2514000000 2.2556000000 1.1481000000
0.2510000000 3.9832000000 1.5435000000
0.2505000000 6.6440000000 0.4155000000
0.2500000000 0.4414000000 0.4099000000
0.2497000000 5.6021000000 0.8272000000
0.2494000000 1.1545000000 0.6621000000
0.2488000000 0.0094000000 0.0425000000
0.2487000000 4.1999000000 1.4442000000
0.2476000000 3.2784000000 1.6076000000
0.2470000000 0.9307000000 0.5579000000
0.0148000000 5.2224000000 0.8157000000
0.0119000000 6.6188000000 0.1913000000
0.0114000000 5.3437000000 0.7510000000
0.0108000000 5.0657000000 0.8768000000
0.0098000000 3.6634000000 1.4973000000
0.0095000000 0.4174000000 0.1468000000
0.0093000000 2.0102000000 0.8600000000
0.0088000000 5.3691000000 0.7434000000
0.0084000000 3.5785000000 1.5899000000
0.0079000000 6.1991000000 0.3721000000
0.0075000000 5.3511000000 0.7472000000
0.0070000000 5.8124000000 0.5393000000
0.0068000000 5.3757000000 0.7371000000
0.0065000000 6.4095000000 0.2777000000
0.0062000000 2.5341000000 1.0861000000
0.0061000000 1.7802000000 0.7511000000
0.0059000000 6.2872000000 0.3320000000
0.0057000000 6.3011000000 0.3227000000
0.0054000000 5.0562000000 0.8782000000
0.0053000000 0.9383000000 0.3767000000
0.0052000000 2.6609000000 1.1460000000
0.0049000000 2.8891000000 1.2446000000
0.0046000000 6.4025000000 0.2775000000
0.0043000000 0.3319000000 0.1083000000
0.0042000000 0.3307000000 0.1064000000
0.0040000000 5.0450000000 0.8821000000
0.0039000000 1.8079000000 0.7608000000
0.0038000000 4.7816000000 0.9935000000
0.0035000000 6.0636000000 0.4265000000
0.0034000000 1.6551000000 0.6974000000
0.0031000000 5.5559000000 0.6546000000
0.0027000000 1.2119000000 0.4972000000
0.0026000000 5.2273000000 0.8002000000
0.0025000000 5.6874000000 0.6000000000
0.0023000000 3.8670000000 1.4039000000
0.0022000000 5.3294000000 0.7543000000
0.0021000000 1.6241000000 0.6796000000
0.0020000000 5.7840000000 0.5560000000
0.0020000000 3.1830000000 1.3721000000
0.0016000000 5.2644000000 0.7846000000
0.0015000000 1.1024000000 0.4457000000
0.0014000000 7.0474000000 0.0476000000
0.0010000000 1.3828000000 0.5714000000
0.0008000000 0.6010000000 0.2200000000
0.0005000000 5.7749000000 0.5514000000
0.0003000000 1.2185000000 0.4948000000
-0.0000000000 1.6422000000 0.6898000000
-0.0003000000 0.4378000000 0.1498000000
-0.0007000000 5.0932000000 0.8584000000
-0.0009000000 3.9327000000 1.3669000000
-0.0019000000 5.4666000000 0.6913000000
-0.0029000000 1.2191000000 0.4958000000
-0.0034000000 1.3107000000 0.5331000000
-0.0063000000 4.0689000000 1.3025000000
-0.2365000000 3.2382000000 1.2141000000
-0.2377000000 6.1317000000 0.2134000000
-0.2397000000 4.3754000000 0.9914000000
-0.2406000000 6.5993000000 0.0770000000
-0.2414000000 3.7714000000 1.2568000000
-0.2415000000 5.5870000000 0.4451000000
-0.2418000000 4.2973000000 1.0283000000
-0.2420000000 2.3145000000 0.8004000000
-0.2423000000 5.5803000000 0.4529000000
-0.2428000000 5.2640000000 0.5979000000
-0.2430000000 6.5964000000 0.0727000000
-0.2434000000 6.5133000000 0.1105000000
-0.2437000000 4.8419000000 0.7823000000
-0.2442000000 6.5656000000 0.0874000000
-0.2445000000 1.3593000000 0.3740000000
-0.2446000000 4.9267000000 0.7437000000
-0.2448000000 3.5499000000 1.4070000000
-0.2449000000 2.2804000000 0.7797000000
-0.2453000000 1.3534000000 0.3679000000
-0.2456000000 5.4358000000 0.5122000000
-0.2458000000 0.9871000000 0.2046000000
-0.2460000000 5.3936000000 0.5328000000
-0.2463000000 5.1822000000 0.6278000000
-0.2465000000 4.8671000000 0.7668000000
-0.2466000000 2.6178000000 0.9305000000
-0.2467000000 4.1304000000 1.0967000000
-0.2469000000 4.6543000000 0.8618000000
-0.2470000000 1.3557000000 0.3633000000
-0.2471000000 4.5090000000 0.9249000000
-0.2474000000 0.2131000000 0.0123000000
-0.2474000000 2.7959000000 1.0092000000
-0.2475000000 1.1994000000 0.2993000000
-0.2476000000 1.7219000000 0.5278000000
-0.2479000000 4.4377000000 0.9536000000
-0.2480000000 4.9145000000 0.7477000000
-0.2485000000 3.5409000000 1.3982000000
-0.2488000000 6.4981000000 0.1170000000
-0.2490000000 4.3277000000 1.0071000000
-0.2491000000 6.1321000000 0.2013000000
-0.2492000000 3.9533000000 1.1721000000
-0.2494000000 6.7460000000 0.0771000000
-0.2497000000 1.9923000000 0.6536000000
-0.2497000000 1.7738000000 0.5568000000
-0.2502000000 3.4390000000 1.2936000000
-0.2507000000 2.0521000000 0.6717000000
-0.2516000000 6.1264000000 0.2016000000
-0.2521000000 0.3147000000 0.0534000000
-0.2532000000 0.5450000000 0.0755000000
-0.2556000000 0.4056000000 0.0161000000
-0.4910000000 6.4949000000 0.0023000000
-0.4912000000 5.6406000000 0.2315000000
-0.4916000000 3.8322000000 1.0314000000
-0.4921000000 2.4502000000 0.6637000000
-0.4925000000 5.8592000000 0.1283000000
-0.4927000000 3.9130000000 0.9999000000
-0.4932000000 4.5602000000 0.7133000000
-0.4937000000 6.4756000000 0.0087000000
-0.4940000000 5.1110000000 0.4615000000
-0.4942000000 4.9966000000 0.5193000000
-0.4944000000 3.9022000000 1.0028000000
-0.4946000000 1.6332000000 0.3039000000
-0.4947000000 2.3333000000 0.6083000000
-0.4948000000 3.1192000000 0.9612000000
-0.4950000000 3.4208000000 1.0970000000
-0.4954000000 4.0558000000 0.9386000000
-0.4956000000 6.0895000000 0.1086000000
-0.4958000000 3.0956000000 0.9496000000
-0.4960000000 6.2543000000 0.0357000000
-0.4963000000 1.6478000000 0.3087000000
-0.4965000000 3.3751000000 1.0731000000
-0.4966000000 5.9726000000 0.0827000000
-0.4967000000 2.9800000000 0.9002000000
-0.4968000000 5.1580000000 0.4459000000
-0.4971000000 1.2089000000 0.1091000000
-0.4974000000 4.8716000000 0.5694000000
-0.4975000000 5.2241000000 0.4192000000
-0.4976000000 5.4263000000 0.3259000000
-0.4977000000 2.5718000000 0.7195000000
-0.4981000000 5.9304000000 0.1019000000
-0.4984000000 1.6703000000 0.3185000000
-0.4987000000 3.6695000000 1.1060000000
-0.4989000000 3.3060000000 1.0364000000
-0.4994000000 5.7630000000 0.1755000000
-0.4995000000 4.8320000000 0.5850000000
-0.4998000000 1.6061000000 0.2889000000
-0.5003000000 1.2910000000 0.1452000000
-0.5005000000 3.7087000000 1.0843000000
-0.5010000000 1.1441000000 0.0743000000
-0.5021000000 2.3898000000 0.6293000000
-0.5026000000 2.9190000000 0.8652000000
-0.5045000000 3.7840000000 1.0517000000
-0.7383000000 5.7625000000 0.0662000000
-0.7402000000 1.6682000000 0.1262000000
-0.7410000000 4.0533000000 0.7472000000
-0.7415000000 1.2630000000 0.0216000000
-0.7426000000 2.8097000000 0.6363000000
-0.7428000000 3.9067000000 0.8143000000
-0.7435000000 3.8821000000 0.8183000000
-0.7438000000 2.1595000000 0.3399000000
-0.7441000000 5.9333000000 0.0559000000
-0.7444000000 4.3080000000 0.6325000000
-0.7449000000 4.8477000000 0.3902000000
-0.7455000000 4.4375000000 0.5781000000
-0.7455000000 1.0539000000 -0.0007000000
-0.7457000000 5.6532000000 0.1052000000
-0.7459000000 2.3438000000 0.4232000000
-0.7462000000 5.8548000000 0.0214000000
-0.7465000000 2.9569000000 0.6989000000
-0.7470000000 3.3348000000 0.8658000000
-0.7473000000 2.0460000000 0.2929000000
-0.7475000000 3.9487000000 0.7942000000
-0.7476000000 2.4759000000 0.4814000000
-0.7477000000 1.2822000000 0.0226000000
-0.7488000000 4.7465000000 0.4281000000
-0.7489000000 2.4518000000 0.4684000000
-0.7491000000 5.3281000000 0.1711000000
-0.7494000000 2.8077000000 0.6251000000
-0.7499000000 5.5346000000 0.0779000000
-0.7505000000 3.8083000000 0.8517000000
-0.7509000000 5.7363000000 0.0694000000
-0.7515000000 3.3169000000 0.8550000000
-0.7526000000 3.8146000000 0.8368000000
-0.7543000000 3.5313000000 1.0057000000
-0.7549000000 1.4274000000 0.0837000000
-0.9893000000 5.5872000000 0.0214000000
-0.9899000000 5.1673000000 0.1370000000
-0.9910000000 4.3974000000 0.4016000000
-0.9923000000 4.9022000000 0.1748000000
-0.9925000000 4.6778000000 0.2713000000
-0.9927000000 2.4276000000 0.2720000000
-0.9937000000 4.3034000000 0.4390000000
-0.9941000000 4.3697000000 0.4150000000
-0.9942000000 2.7529000000 0.4207000000
-0.9944000000 5.0401000000 0.1101000000
-0.9946000000 4.7003000000 0.2616000000
-0.9948000000 3.8827000000 0.6307000000
-0.9952000000 1.8348000000 0.0823000000
-0.9958000000 4.6945000000 0.2692000000
-0.9960000000 3.5949000000 0.8185000000
-0.9962000000 5.4413000000 0.0075000000
-0.9966000000 5.0898000000 0.0902000000
-0.9967000000 5.0005000000 0.1316000000
-0.9972000000 5.5422000000 0.0412000000
-0.9976000000 2.4913000000 0.2973000000
-0.9980000000 4.9300000000 0.1594000000
-0.9984000000 4.0798000000 0.5365000000
-0.9985000000 5.6147000000 0.0042000000
-0.9988000000 4.8728000000 0.1852000000
-0.9994000000 4.6328000000 0.2920000000
-1.0002000000 5.5645000000 0.0255000000
-1.0007000000 4.6305000000 0.2924000000
-1.0008000000 3.1216000000 0.5765000000
-1.0063000000 5.3727000000 0.0283000000
-1.2394000000 3.3559000000 0.4938000000
-1.2408000000 4.7436000000 0.1322000000
-1.2412000000 3.6404000000 0.5462000000
-1.2415000000 3.9697000000 0.4007000000
-1.2423000000 3.2428000000 0.4377000000
-1.2430000000 4.8802000000 0.0732000000
-1.2437000000 2.2386000000 0.0731000000
-1.2440000000 4.6896000000 0.0780000000
-1.2443000000 4.9539000000 0.0312000000
-1.2444000000 4.1881000000 0.3055000000
-1.2451000000 2.5097000000 0.1154000000
-1.2456000000 3.4585000000 0.5349000000
-1.2460000000 2.7618000000 0.2302000000
-1.2464000000 3.5407000000 0.6303000000
-1.2467000000 2.8376000000 0.2578000000
-1.2469000000 5.1381000000 0.0218000000
-1.2476000000 2.1131000000 0.0069000000
-1.2480000000 4.5249000000 0.1500000000
-1.2484000000 4.3275000000 0.2328000000
-1.2491000000 3.6679000000 0.5268000000
-1.2495000000 2.4867000000 0.1029000000
-1.2501000000 1.9740000000 0.0225000000
-1.2504000000 2.2447000000 0.0636000000
-1.2534000000 2.6689000000 0.1806000000
-1.2550000000 3.3113000000 0.4622000000
-1.4919000000 2.7171000000 0.0949000000
-1.4953000000 3.8948000000 0.2409000000
-1.4956000000 3.2351000000 0.2436000000
-1.4967000000 3.5855000000 0.4323000000
-1.4968000000 3.9700000000 0.2063000000
-1.4970000000 3.8684000000 0.2473000000
-1.4990000000 2.7599000000 0.1057000000
-1.4992000000 3.1426000000 0.2016000000
-1.4995000000 2.8985000000 0.0887000000
-1.5012000000 2.4796000000 0.0505000000
-1.7375000000 3.5586000000 0.2581000000
-1.7406000000 3.7628000000 0.1085000000
-1.7428000000 3.4347000000 0.1408000000
-1.7437000000 3.2534000000 0.1308000000
-1.7454000000 4.0280000000 0.0540000000
-1.7460000000 3.1385000000 0.0808000000
-1.7472000000 4.2170000000 0.0490000000
-1.7475000000 3.8039000000 0.0851000000
-1.7487000000 3.8879000000 0.1209000000
-1.7508000000 4.1349000000 0.0078000000
-1.9949000000 3.3202000000 0.0483000000
-1.9963000000 3.7362000000 0.0692000000
