5.7610000000 3.1563000000 0.0666000000
5.7598000000 3.3886000000 0.0564000000
5.7568000000 3.6095000000 0.0331000000
5.7557000000 3.5425000000 0.0648000000
5.7522000000 3.0502000000 0.0120000000
5.5079000000 4.0486000000 0.0225000000
5.5057000000 3.1645000000 0.1562000000
5.5054000000 3.2399000000 0.1958000000
5.5042000000 3.1922000000 0.1717000000
5.5039000000 2.8775000000 0.0745000000
5.5034000000 3.7592000000 0.1090000000
5.5028000000 3.4941000000 0.1775000000
5.5019000000 3.7892000000 0.0950000000
5.4988000000 3.2563000000 0.2094000000
5.4976000000 3.8565000000 0.0663000000
5.2620000000 4.0325000000 0.1180000000
5.2587000000 4.4548000000 0.0454000000
5.2578000000 2.7992000000 0.1905000000
5.2569000000 4.0228000000 0.1272000000
5.2566000000 2.9823000000 0.2910000000
5.2562000000 3.9207000000 0.1814000000
5.2559000000 2.5616000000 0.0621000000
5.2556000000 2.5291000000 0.0500000000
5.2550000000 2.7388000000 0.1530000000
5.2548000000 3.8658000000 0.2106000000
5.2548000000 2.4708000000 0.0899000000
5.2545000000 3.9615000000 0.1585000000
5.2540000000 4.4206000000 0.0566000000
5.2535000000 3.8828000000 0.2013000000
5.2533000000 2.6342000000 0.1033000000
5.2530000000 3.3695000000 0.4571000000
5.2524000000 2.4888000000 0.1014000000
5.2520000000 2.9083000000 0.2506000000
5.2517000000 2.8208000000 0.2083000000
5.2502000000 3.9406000000 0.1764000000
5.2495000000 4.2264000000 0.0936000000
5.0120000000 4.6535000000 0.0877000000
5.0113000000 4.8912000000 0.0340000000
5.0089000000 4.2798000000 0.2130000000
5.0086000000 4.2942000000 0.2137000000
5.0078000000 2.6994000000 0.3670000000
5.0069000000 3.3533000000 0.7008000000
5.0063000000 3.0440000000 0.5565000000
5.0060000000 4.7680000000 0.0356000000
5.0057000000 3.1569000000 0.6228000000
5.0053000000 3.2014000000 0.6444000000
5.0048000000 3.7967000000 0.4842000000
5.0043000000 2.7801000000 0.4130000000
5.0038000000 2.6485000000 0.3501000000
5.0035000000 4.8819000000 0.0456000000
5.0031000000 2.3427000000 0.1875000000
5.0028000000 3.5402000000 0.6259000000
5.0023000000 4.9609000000 0.0032000000
5.0021000000 1.7764000000 0.0239000000
5.0013000000 2.4556000000 0.2440000000
5.0011000000 1.8093000000 0.0448000000
5.0008000000 2.4947000000 0.2686000000
5.0007000000 4.1635000000 0.2830000000
4.9996000000 3.6206000000 0.5862000000
4.9977000000 3.4353000000 0.6833000000
4.7609000000 2.9269000000 0.7219000000
4.7596000000 2.7950000000 0.6507000000
4.7586000000 3.2516000000 0.9048000000
4.7583000000 4.7258000000 0.2133000000
4.7575000000 2.7575000000 0.6359000000
4.7573000000 2.3879000000 0.4350000000
4.7569000000 4.8387000000 0.1541000000
4.7562000000 3.3995000000 0.9225000000
4.7557000000 2.8370000000 0.6805000000
4.7552000000 4.3417000000 0.4185000000
4.7550000000 4.4957000000 0.3430000000
4.7540000000 1.9186000000 0.1890000000
4.7536000000 5.1966000000 0.0337000000
4.7532000000 3.0370000000 0.7908000000
4.7528000000 3.3183000000 0.9248000000
4.7523000000 4.2898000000 0.4537000000
4.7519000000 4.6247000000 0.2689000000
4.7516000000 3.7321000000 0.7540000000
4.7514000000 3.8955000000 0.6676000000
4.7512000000 1.4113000000 0.0636000000
4.7507000000 1.3309000000 0.0211000000
4.7505000000 4.8176000000 0.1731000000
4.7504000000 2.5771000000 0.5430000000
4.7499000000 3.6037000000 0.8251000000
4.7489000000 2.8388000000 0.6888000000
4.7487000000 1.8237000000 0.1418000000
4.7472000000 3.7938000000 0.7272000000
4.7455000000 1.3183000000 0.0217000000
4.5104000000 0.9871000000 0.0602000000
4.5097000000 1.3166000000 0.0792000000
4.5095000000 5.2569000000 0.1639000000
4.5093000000 3.3623000000 1.1610000000
4.5087000000 3.7888000000 0.9512000000
4.5081000000 4.9244000000 0.3325000000
4.5075000000 3.6597000000 1.0231000000
4.5072000000 1.7504000000 0.3268000000
4.5063000000 3.1710000000 1.0906000000
4.5058000000 1.1372000000 0.0675000000
4.5054000000 1.0844000000 0.0406000000
4.5053000000 1.4564000000 0.1693000000
4.5050000000 5.0739000000 0.2621000000
4.5049000000 1.6038000000 0.2462000000
4.5044000000 3.9226000000 0.8844000000
4.5043000000 5.4148000000 0.0801000000
4.5040000000 4.4113000000 0.6176000000
4.5038000000 3.1608000000 1.0916000000
4.5035000000 4.3276000000 0.6694000000
4.5034000000 5.7391000000 0.0512000000
4.5033000000 1.2487000000 0.0542000000
4.5031000000 2.0854000000 0.5098000000
4.5029000000 1.2728000000 0.0709000000
4.5026000000 1.6078000000 0.2549000000
4.5025000000 5.4054000000 0.0865000000
4.5021000000 5.6301000000 0.0362000000
4.5018000000 4.8772000000 0.3693000000
4.5011000000 2.4675000000 0.7209000000
4.5010000000 5.3272000000 0.1248000000
4.5001000000 4.4972000000 0.5704000000
4.4990000000 4.2751000000 0.6973000000
4.4987000000 5.6249000000 0.0439000000
4.4961000000 2.5378000000 0.7582000000
4.2622000000 4.8800000000 0.5891000000
4.2607000000 3.7303000000 1.2142000000
4.2604000000 1.8796000000 0.6244000000
4.2600000000 4.1674000000 0.9794000000
4.2595000000 4.5695000000 0.7655000000
4.2593000000 5.6952000000 0.1605000000
4.2590000000 2.6930000000 1.0652000000
4.2589000000 3.6231000000 1.2743000000
4.2585000000 3.1012000000 1.2867000000
4.2580000000 1.6108000000 0.4784000000
4.2580000000 4.6585000000 0.7130000000
4.2575000000 5.7304000000 0.1336000000
4.2573000000 3.0019000000 1.2326000000
4.2571000000 3.1136000000 1.2976000000
4.2569000000 2.2089000000 0.8009000000
4.2568000000 5.5589000000 0.2296000000
4.2566000000 0.7385000000 0.0865000000
4.2563000000 2.4014000000 0.9114000000
4.2560000000 5.4569000000 0.2883000000
4.2558000000 2.6156000000 1.0293000000
4.2557000000 5.9879000000 0.0762000000
4.2556000000 3.7871000000 1.1948000000
4.2555000000 5.9927000000 0.0692000000
4.2550000000 4.0464000000 1.0446000000
4.2547000000 3.8100000000 1.1776000000
4.2545000000 5.3126000000 0.3707000000
4.2543000000 5.7959000000 0.1068000000
4.2543000000 1.8357000000 0.6137000000
4.2542000000 0.7541000000 0.1003000000
4.2540000000 1.9359000000 0.6652000000
4.2538000000 4.8762000000 0.6038000000
4.2536000000 1.4973000000 0.4278000000
4.2535000000 1.5653000000 0.4681000000
4.2531000000 2.3549000000 0.8900000000
4.2530000000 5.3136000000 0.3641000000
4.2528000000 2.1729000000 0.7924000000
4.2524000000 3.0792000000 1.2808000000
4.2519000000 6.0493000000 0.0424000000
4.2516000000 2.4728000000 0.9489000000
4.2513000000 0.5092000000 0.0476000000
4.2512000000 4.9006000000 0.5944000000
4.2509000000 5.9763000000 0.0848000000
4.2505000000 1.9766000000 0.6872000000
4.2501000000 1.0098000000 0.1671000000
4.2499000000 4.0017000000 1.0792000000
4.2497000000 0.7630000000 0.1111000000
4.2495000000 4.9337000000 0.5743000000
4.2493000000 3.1642000000 1.3285000000
4.2482000000 5.2372000000 0.4171000000
4.2468000000 3.4150000000 1.4002000000
4.0121000000 6.5255000000 0.0863000000
4.0108000000 3.5669000000 1.5360000000
4.0099000000 5.6690000000 0.4014000000
4.0097000000 2.2778000000 1.0780000000
4.0086000000 6.5187000000 0.0883000000
4.0080000000 4.4389000000 1.0711000000
4.0079000000 1.2441000000 0.5220000000
4.0078000000 5.0463000000 0.7411000000
4.0074000000 5.7672000000 0.3485000000
4.0070000000 6.1594000000 0.1374000000
4.0069000000 2.8161000000 1.3730000000
4.0064000000 3.3073000000 1.6127000000
4.0062000000 5.8789000000 0.2937000000
4.0060000000 4.6754000000 0.9454000000
4.0059000000 4.4519000000 1.0629000000
4.0057000000 0.8303000000 0.2960000000
4.0056000000 6.1374000000 0.1582000000
4.0054000000 4.6104000000 0.9804000000
4.0053000000 3.1486000000 1.5546000000
4.0051000000 1.0589000000 0.4211000000
4.0072000000 0.9255000000 0.3465000000
4.0049000000 4.6340000000 0.9613000000
4.0048000000 0.4356000000 0.0851000000
4.0045000000 0.1994000000 0.0376000000
4.0044000000 4.9153000000 0.8154000000
4.0043000000 4.7752000000 0.8908000000
4.0040000000 1.6465000000 0.7393000000
4.0040000000 3.1797000000 1.5712000000
4.0039000000 4.1302000000 1.2381000000
4.0038000000 1.0687000000 0.4307000000
4.0035000000 4.3338000000 1.1270000000
4.0034000000 1.7140000000 0.7790000000
4.0032000000 0.2267000000 0.0506000000
4.0029000000 4.8319000000 0.8645000000
4.0025000000 0.1848000000 0.0323000000
4.0023000000 1.9409000000 0.8941000000
4.0022000000 2.4195000000 1.1567000000
4.0021000000 0.5859000000 0.1670000000
4.0018000000 0.1908000000 0.0279000000
4.0015000000 5.0524000000 0.7411000000
4.0013000000 0.0166000000 0.0114000000
4.0009000000 4.3005000000 1.1420000000
4.0006000000 4.7848000000 0.8864000000
4.0001000000 4.3836000000 1.1078000000
3.9999000000 2.8192000000 1.3778000000
3.9995000000 1.5391000000 0.6825000000
3.9992000000 4.4199000000 1.0911000000
3.9990000000 2.7274000000 1.3225000000
3.9987000000 6.6693000000 0.0202000000
3.9982000000 4.7276000000 0.9234000000
3.9940000000 0.3656000000 0.0610000000
3.7594000000 4.3488000000 1.3446000000
3.7591000000 5.3587000000 0.8070000000
3.7584000000 6.4148000000 0.2260000000
3.7583000000 1.9005000000 1.1083000000
3.7580000000 3.4687000000 1.8254000000
3.7577000000 5.8168000000 0.5629000000
3.7575000000 0.8777000000 0.5543000000
3.7572000000 6.5620000000 0.1131000000
3.7567000000 3.5568000000 1.7865000000
3.7566000000 2.8307000000 1.6121000000
3.7561000000 1.4629000000 0.8716000000
3.7560000000 5.7272000000 0.6029000000
3.7558000000 3.6520000000 1.7314000000
3.7554000000 2.5258000000 1.4500000000
3.7553000000 6.6954000000 0.0594000000
3.7550000000 4.4038000000 1.3280000000
3.7547000000 2.3701000000 1.3627000000
3.7543000000 2.3376000000 1.3475000000
3.7541000000 5.8167000000 0.5629000000
3.7539000000 6.1325000000 0.3885000000
3.7537000000 5.8993000000 0.5164000000
3.7532000000 1.8533000000 1.0859000000
3.7527000000 0.3961000000 0.2984000000
3.7525000000 5.0247000000 0.9883000000
3.7524000000 0.1973000000 0.1738000000
3.7522000000 1.1528000000 0.7045000000
3.7521000000 0.0613000000 0.0460000000
3.7520000000 4.5940000000 1.2272000000
3.7518000000 0.5438000000 0.3833000000
3.7516000000 0.3100000000 0.2590000000
3.7514000000 1.8568000000 1.0945000000
3.7513000000 0.5500000000 0.3853000000
3.7511000000 6.1684000000 0.3754000000
3.7509000000 3.1392000000 1.7877000000
3.7507000000 3.7162000000 1.6982000000
3.7503000000 2.8352000000 1.6175000000
3.7502000000 3.1571000000 1.7931000000
3.7498000000 0.7058000000 0.4711000000
3.7494000000 4.0412000000 1.5240000000
3.7492000000 2.5180000000 1.4501000000
3.7485000000 4.9625000000 1.0237000000
3.7475000000 0.1979000000 0.1774000000
3.7471000000 1.0626000000 0.6738000000
3.5130000000 1.0144000000 0.8584000000
3.5112000000 5.2861000000 1.0768000000
3.5106000000 2.0124000000 1.4077000000
3.5104000000 6.0224000000 0.6657000000
3.5102000000 4.5525000000 1.4708000000
3.5084000000 4.1470000000 1.6963000000
3.5083000000 5.4933000000 0.9711000000
3.5078000000 1.6150000000 1.1868000000
3.5077000000 0.1488000000 0.1460000000
3.5075000000 4.3480000000 1.5835000000
3.5073000000 1.4769000000 1.1192000000
3.5069000000 0.1813000000 0.1749000000
3.5067000000 6.6353000000 0.1254000000
3.5066000000 5.6354000000 0.8893000000
3.5065000000 5.5112000000 0.9593000000
3.5063000000 0.9346000000 0.8237000000
3.5061000000 4.8435000000 1.3243000000
3.5059000000 2.5666000000 1.7072000000
3.5056000000 1.1785000000 0.9567000000
3.5054000000 3.9410000000 1.8024000000
3.5052000000 2.7534000000 1.8076000000
3.5051000000 1.6068000000 1.1880000000
3.5049000000 5.8089000000 0.7974000000
3.5048000000 0.0930000000 0.0839000000
3.5046000000 3.2300000000 2.0682000000
3.5044000000 4.4179000000 1.5549000000
3.5041000000 5.6358000000 0.8883000000
3.5040000000 2.5708000000 1.7102000000
3.5036000000 3.2917000000 2.0929000000
3.5032000000 2.2733000000 1.5487000000
3.5030000000 2.4547000000 1.6518000000
3.5028000000 0.5366000000 0.5376000000
3.5026000000 3.8706000000 1.8481000000
3.5024000000 1.6152000000 1.1924000000
3.5022000000 1.5370000000 1.1541000000
3.5019000000 6.3069000000 0.4049000000
3.5013000000 1.7987000000 1.2953000000
3.5013000000 3.7091000000 1.9395000000
3.5010000000 1.9545000000 1.3808000000
3.5008000000 6.4660000000 0.2335000000
3.5004000000 5.3183000000 1.0703000000
3.5001000000 0.2050000000 0.2008000000
3.4995000000 4.3077000000 1.6171000000
3.5004000000 1.3182000000 1.0294000000
3.4988000000 5.4072000000 1.0248000000
3.4977000000 6.7284000000 0.0987000000
3.4973000000 1.4614000000 1.1114000000
3.2624000000 5.8524000000 0.9004000000
3.2615000000 4.8080000000 1.5674000000
3.2610000000 0.9027000000 0.9595000000
3.2603000000 6.5516000000 0.1383000000
3.2595000000 2.8780000000 2.1091000000
3.2590000000 3.8332000000 2.0944000000
3.2589000000 5.6418000000 1.1063000000
3.2585000000 6.5360000000 0.1568000000
3.2577000000 3.9565000000 2.0303000000
3.2575000000 5.1009000000 1.4201000000
3.2572000000 4.8614000000 1.5461000000
3.2568000000 2.4722000000 1.8846000000
3.2565000000 3.6133000000 2.2190000000
3.2563000000 3.5853000000 2.2312000000
3.2560000000 3.2475000000 2.3108000000
3.2558000000 5.1399000000 1.3972000000
3.2554000000 5.6909000000 1.0482000000
3.2553000000 3.8976000000 2.0674000000
3.2551000000 6.2192000000 0.4939000000
3.2549000000 1.4060000000 1.3102000000
3.2545000000 4.5896000000 1.6966000000
3.2542000000 2.4976000000 1.9059000000
3.2541000000 1.8320000000 1.5435000000
3.2538000000 2.2803000000 1.7897000000
3.2533000000 5.7698000000 0.9839000000
3.2530000000 5.9146000000 0.8275000000
3.2529000000 4.8353000000 1.5619000000
3.2527000000 1.7173000000 1.4804000000
3.2525000000 1.0068000000 1.0514000000
3.2521000000 2.7976000000 2.0648000000
3.2519000000 2.3885000000 1.8489000000
3.2518000000 1.7435000000 1.4969000000
3.2517000000 2.7216000000 2.0251000000
3.2516000000 2.1511000000 1.7213000000
3.2513000000 2.9971000000 2.1734000000
3.2510000000 3.1831000000 2.2763000000
3.2504000000 3.0410000000 2.2017000000
3.2500000000 2.5300000000 1.9276000000
3.2495000000 1.8770000000 1.5714000000
3.2488000000 1.3957000000 1.3062000000
3.2480000000 2.2931000000 1.7988000000
3.2479000000 2.4497000000 1.8868000000
3.2470000000 0.6976000000 0.7390000000
3.2468000000 3.2875000000 2.3410000000
3.2466000000 1.0029000000 1.0463000000
3.2435000000 0.8117000000 0.8576000000
3.0133000000 3.7063000000 2.3956000000
3.0128000000 4.3211000000 2.0650000000
3.0123000000 6.4577000000 0.2426000000
3.0100000000 2.3583000000 2.0505000000
3.0096000000 6.1178000000 0.6068000000
3.0093000000 1.6877000000 1.6979000000
3.0088000000 2.4604000000 2.1148000000
3.0085000000 2.5079000000 2.1420000000
3.0084000000 4.9965000000 1.7063000000
3.0083000000 3.0826000000 2.4484000000
3.0078000000 3.1437000000 2.4793000000
3.0075000000 3.5925000000 2.4608000000
3.0072000000 3.2648000000 2.5532000000
3.0070000000 3.6702000000 2.4213000000
3.0067000000 2.0884000000 1.9125000000
3.0065000000 5.0547000000 1.6732000000
3.0063000000 2.8166000000 2.3058000000
3.0061000000 5.1988000000 1.5795000000
3.0060000000 4.8906000000 1.7615000000
3.0058000000 1.7346000000 1.7209000000
3.0057000000 3.2391000000 2.5426000000
3.0055000000 5.2884000000 1.4860000000
3.0053000000 6.4935000000 0.2018000000
3.0051000000 0.0127000000 0.0680000000
3.0050000000 5.3642000000 1.4222000000
3.0049000000 4.6204000000 1.9107000000
3.0047000000 1.3716000000 1.4590000000
3.0045000000 4.5310000000 1.9603000000
3.0043000000 2.3440000000 2.0537000000
3.0042000000 6.5538000000 0.1311000000
3.0040000000 2.9733000000 2.3888000000
3.0038000000 1.3950000000 1.4741000000
3.0034000000 5.3567000000 1.4277000000
3.0032000000 1.0900000000 1.1599000000
3.0030000000 3.4422000000 2.5498000000
3.0030000000 6.5143000000 0.1781000000
3.0028000000 2.6835000000 2.2330000000
3.0025000000 1.6991000000 1.7072000000
3.0023000000 0.9430000000 0.9985000000
3.0022000000 4.8033000000 1.8139000000
3.0017000000 6.0634000000 0.6696000000
3.0013000000 2.4598000000 2.1205000000
3.0012000000 4.9252000000 1.7520000000
3.0010000000 3.0867000000 2.4586000000
3.0009000000 5.7600000000 0.9926000000
2.9999000000 6.1042000000 0.6218000000
2.9995000000 6.1960000000 0.5227000000
2.9992000000 4.6638000000 1.8933000000
2.9985000000 0.5978000000 0.6254000000
2.9985000000 1.2828000000 1.3666000000
2.9982000000 4.8762000000 1.7833000000
2.9967000000 0.2484000000 0.2542000000
2.9956000000 0.1870000000 0.1803000000
2.7622000000 5.1358000000 1.6730000000
2.7604000000 5.2213000000 1.5819000000
2.7598000000 1.6510000000 1.7624000000
2.7586000000 5.8821000000 0.8635000000
2.7584000000 1.9272000000 2.0364000000
2.7580000000 2.5267000000 2.3805000000
2.7577000000 1.1409000000 1.2186000000
2.7575000000 1.2719000000 1.3571000000
2.7573000000 4.4515000000 2.2304000000
2.7569000000 0.8351000000 0.8821000000
2.7567000000 5.6109000000 1.1570000000
2.7566000000 1.4530000000 1.5502000000
2.7564000000 1.7313000000 1.8500000000
2.7562000000 1.9520000000 2.0525000000
2.7560000000 4.4546000000 2.2357000000
2.7559000000 2.1973000000 2.2106000000
2.7556000000 2.4569000000 2.3502000000
2.7554000000 2.9376000000 2.6069000000
2.7551000000 4.7990000000 2.0130000000
2.7549000000 6.2170000000 0.5014000000
2.7548000000 6.3492000000 0.3602000000
2.7547000000 0.1009000000 0.0842000000
2.7545000000 3.9197000000 2.5265000000
2.7543000000 6.6572000000 0.1015000000
2.7540000000 3.2627000000 2.7898000000
2.7537000000 0.7157000000 0.7530000000
2.7533000000 3.1104000000 2.7030000000
2.7531000000 4.5228000000 2.1964000000
2.7529000000 3.7202000000 2.6331000000
2.7527000000 3.4358000000 2.7874000000
2.7526000000 0.3020000000 0.3072000000
2.7525000000 4.1835000000 2.3861000000
2.7523000000 2.0437000000 2.1265000000
2.7521000000 3.9476000000 2.5080000000
2.7520000000 3.7219000000 2.6305000000
2.7517000000 6.6869000000 0.0710000000
2.7513000000 4.2574000000 2.3447000000
2.7512000000 0.4570000000 0.4755000000
2.7510000000 0.2894000000 0.2900000000
2.7506000000 1.2857000000 1.3684000000
2.7499000000 4.6334000000 2.1401000000
2.7493000000 2.7474000000 2.5053000000
2.7490000000 1.3085000000 1.3946000000
2.7486000000 0.7944000000 0.8358000000
2.7477000000 3.1137000000 2.7017000000
2.7472000000 2.3432000000 2.2934000000
2.7458000000 3.3737000000 2.8082000000
2.7446000000 1.6078000000 1.7172000000
2.5130000000 3.8281000000 2.7916000000
2.5120000000 3.7348000000 2.8484000000
2.5107000000 6.6828000000 0.0763000000
2.5099000000 1.0615000000 1.1266000000
2.5090000000 6.3777000000 0.3278000000
2.5084000000 2.0551000000 2.2017000000
2.5083000000 2.3847000000 2.5227000000
2.5080000000 1.3570000000 1.4509000000
2.5078000000 0.0519000000 0.1123000000
2.5077000000 2.0978000000 2.2497000000
2.5075000000 1.1532000000 1.2278000000
2.5072000000 4.5405000000 2.3135000000
2.5069000000 6.0571000000 0.6724000000
2.5068000000 5.3567000000 1.4337000000
2.5065000000 4.7788000000 2.0537000000
2.5064000000 4.4777000000 2.3798000000
2.5061000000 5.1020000000 1.7105000000
2.5060000000 5.2124000000 1.5847000000
2.5056000000 4.3156000000 2.5271000000
2.5054000000 3.8479000000 2.7948000000
2.5051000000 4.4362000000 2.4121000000
2.5048000000 0.1643000000 0.1605000000
2.5047000000 2.1487000000 2.2977000000
2.5045000000 0.7114000000 0.7507000000
2.5044000000 4.0211000000 2.7023000000
2.5040000000 2.9505000000 2.8501000000
2.5039000000 4.2231000000 2.5906000000
2.5038000000 4.3494000000 2.5042000000
2.5035000000 1.3814000000 1.4768000000
2.5031000000 5.9457000000 0.7935000000
2.5028000000 5.2567000000 1.5362000000
2.5027000000 0.6348000000 0.6621000000
2.5024000000 1.5729000000 1.6785000000
2.5020000000 3.0562000000 2.9108000000
2.5018000000 2.2921000000 2.4412000000
2.5017000000 0.2601000000 0.2645000000
2.5013000000 6.5209000000 0.1734000000
2.5010000000 0.6550000000 0.6883000000
2.5008000000 1.6199000000 1.7310000000
2.5006000000 2.4186000000 2.5424000000
2.5004000000 1.3241000000 1.4129000000
2.5000000000 1.9418000000 2.0675000000
2.4997000000 3.8844000000 2.7775000000
2.4992000000 4.8335000000 1.9951000000
2.4988000000 2.6909000000 2.7147000000
2.4986000000 0.0105000000 0.0624000000
2.4973000000 0.0118000000 0.0662000000
2.4965000000 0.2564000000 0.2603000000
2.4963000000 0.8784000000 0.9260000000
2.4940000000 0.5536000000 0.5763000000
2.2615000000 4.1322000000 2.7544000000
2.2605000000 0.8059000000 0.8455000000
2.2601000000 0.5630000000 0.5895000000
2.2598000000 0.0590000000 0.1199000000
2.2596000000 2.8115000000 2.9888000000
2.2594000000 2.2682000000 2.4344000000
2.2589000000 3.9985000000 2.8829000000
2.2584000000 5.0441000000 1.7687000000
2.2580000000 4.5589000000 2.2898000000
2.2578000000 4.2583000000 2.6190000000
2.2576000000 6.5889000000 0.0997000000
2.2573000000 5.8718000000 0.8755000000
2.2569000000 4.2353000000 2.6446000000
2.2564000000 4.2237000000 2.6570000000
2.2561000000 4.1646000000 2.7215000000
2.2558000000 2.2587000000 2.4257000000
2.2555000000 1.4135000000 1.5094000000
2.2553000000 2.7527000000 2.9365000000
2.2551000000 6.1444000000 0.5821000000
2.2548000000 4.9540000000 1.8654000000
2.2548000000 3.9536000000 2.9298000000
2.2545000000 0.7381000000 0.7809000000
2.2543000000 0.8198000000 0.8645000000
2.2541000000 3.0560000000 3.1456000000
2.2540000000 6.1961000000 0.5287000000
2.2539000000 2.0164000000 2.1643000000
2.2538000000 1.6654000000 1.7816000000
2.2535000000 5.4515000000 1.3332000000
2.2530000000 1.2369000000 1.3184000000
2.2529000000 1.4178000000 1.5117000000
2.2526000000 5.3259000000 1.4648000000
2.2525000000 5.3683000000 1.4125000000
2.2520000000 6.0212000000 0.7100000000
2.2519000000 5.7647000000 0.9885000000
2.2518000000 0.8550000000 0.9016000000
2.2514000000 6.6840000000 0.0684000000
2.2513000000 6.6356000000 0.1290000000
2.2511000000 6.5665000000 0.1228000000
2.2509000000 1.5415000000 1.6485000000
2.2503000000 4.6232000000 2.2209000000
2.2496000000 3.7303000000 3.1000000000
2.2491000000 2.0227000000 2.1662000000
2.2488000000 2.9951000000 3.1153000000
2.2485000000 2.5947000000 2.7805000000
2.2484000000 1.4321000000 1.5307000000
2.2482000000 3.2888000000 3.2756000000
2.2471000000 0.8540000000 0.8962000000
2.2463000000 4.0017000000 2.8975000000
2.2450000000 2.4761000000 2.6520000000
2.2435000000 5.5041000000 1.2736000000
2.0131000000 4.3329000000 2.5374000000
2.0098000000 1.3498000000 1.4405000000
2.0097000000 6.1555000000 0.5684000000
2.0086000000 1.3715000000 1.4657000000
2.0077000000 4.6732000000 2.1695000000
2.0074000000 4.2501000000 2.6260000000
2.0070000000 3.6812000000 3.2435000000
2.0070000000 6.6980000000 0.0543000000
2.0068000000 6.0018000000 0.7330000000
2.0064000000 1.8598000000 1.9898000000
2.0060000000 3.3874000000 3.5237000000
2.0058000000 3.4201000000 3.5151000000
2.0055000000 2.3348000000 2.5048000000
2.0052000000 5.4820000000 1.2930000000
2.0050000000 3.9999000000 2.9014000000
2.0048000000 2.9318000000 3.1456000000
2.0045000000 2.8330000000 3.0439000000
2.0044000000 5.7073000000 1.0530000000
2.0043000000 6.3492000000 0.3573000000
2.0039000000 0.6241000000 0.6586000000
2.0038000000 4.4702000000 2.3918000000
2.0034000000 4.2136000000 2.6656000000
2.0032000000 1.6006000000 1.7108000000
2.0028000000 1.8258000000 1.9500000000
2.0025000000 1.4546000000 1.5539000000
2.0022000000 1.3656000000 1.4576000000
2.0021000000 6.2272000000 0.4913000000
2.0016000000 3.7977000000 3.1114000000
2.0011000000 5.6263000000 1.1377000000
2.0010000000 5.3353000000 1.4517000000
2.0010000000 4.4124000000 2.4512000000
2.0008000000 6.4021000000 0.3018000000
2.0004000000 5.2863000000 1.5107000000
1.9998000000 2.6956000000 2.8974000000
1.9993000000 5.4432000000 1.3366000000
1.9990000000 4.3888000000 2.4778000000
1.9989000000 5.3627000000 1.4213000000
1.9985000000 2.1439000000 2.2927000000
1.9982000000 0.0877000000 0.0734000000
1.9973000000 1.0115000000 1.0749000000
1.9967000000 0.0698000000 0.0580000000
1.9964000000 3.4885000000 3.4265000000
1.9933000000 0.3286000000 0.3317000000
1.7620000000 6.4139000000 0.2886000000
1.7605000000 2.0500000000 2.1937000000
1.7595000000 1.0801000000 1.1458000000
1.7590000000 1.8729000000 2.0090000000
1.7588000000 4.7964000000 2.0385000000
1.7580000000 4.0139000000 2.8762000000
1.7578000000 4.7724000000 2.0628000000
1.7575000000 0.3518000000 0.3562000000
1.7575000000 5.8752000000 0.8742000000
1.7570000000 5.4258000000 1.3562000000
1.7569000000 6.5672000000 0.1265000000
1.7566000000 6.1855000000 0.5364000000
1.7562000000 4.8830000000 1.9437000000
1.7555000000 5.7679000000 0.9817000000
1.7553000000 0.8119000000 0.8540000000
1.7546000000 6.5291000000 0.1650000000
1.7545000000 1.9868000000 2.1243000000
1.7544000000 4.7558000000 2.0807000000
1.7543000000 1.4219000000 1.5211000000
1.7539000000 5.5149000000 1.2579000000
1.7538000000 2.0989000000 2.2485000000
1.7537000000 1.6829000000 1.8036000000
1.7535000000 6.2727000000 0.4400000000
1.7534000000 3.4955000000 3.3533000000
1.7533000000 2.8388000000 3.0499000000
1.7530000000 5.2190000000 1.5825000000
1.7527000000 1.4484000000 1.5482000000
1.7525000000 6.6612000000 0.0957000000
1.7524000000 3.2830000000 3.3961000000
1.7521000000 0.3866000000 0.3987000000
1.7516000000 1.7269000000 1.8508000000
1.7514000000 2.2761000000 2.4375000000
1.7508000000 5.8006000000 0.9562000000
1.7504000000 3.7657000000 3.1401000000
1.7501000000 1.7909000000 1.9179000000
1.7500000000 0.2379000000 0.2353000000
1.7495000000 1.2855000000 1.3664000000
1.7492000000 4.0428000000 2.8514000000
1.7486000000 1.3214000000 1.4089000000
1.7477000000 3.8847000000 3.0205000000
1.7465000000 2.1512000000 2.3001000000
1.7409000000 1.0876000000 1.1533000000
1.5145000000 6.3125000000 0.3963000000
1.5102000000 3.0288000000 3.0306000000
1.5091000000 3.9994000000 2.8330000000
1.5088000000 5.6902000000 1.0709000000
1.5082000000 4.1595000000 2.7053000000
1.5073000000 2.3760000000 2.5472000000
1.5070000000 5.3772000000 1.4105000000
1.5068000000 6.0497000000 0.6784000000
1.5065000000 2.9911000000 3.0043000000
1.5062000000 2.8557000000 2.9313000000
1.5059000000 2.9500000000 2.9825000000
1.5058000000 6.4028000000 0.2982000000
1.5056000000 5.7992000000 0.9523000000
1.5054000000 6.6472000000 0.1067000000
1.5052000000 0.5784000000 0.6091000000
1.5048000000 5.2337000000 1.5611000000
1.5047000000 2.7600000000 2.8826000000
1.5045000000 6.0801000000 0.6460000000
1.5043000000 4.9514000000 1.8664000000
1.5040000000 2.3592000000 2.5312000000
1.5038000000 2.9739000000 2.9954000000
1.5037000000 0.8133000000 0.8575000000
1.5036000000 1.3534000000 1.4439000000
1.5035000000 0.3634000000 0.3716000000
1.5034000000 3.2003000000 3.1122000000
1.5029000000 2.2248000000 2.3844000000
1.5027000000 5.3158000000 1.4754000000
1.5025000000 4.3717000000 2.5044000000
1.5023000000 0.2501000000 0.2540000000
1.5022000000 0.6844000000 0.7212000000
1.5020000000 6.7027000000 0.0448000000
1.5017000000 5.2149000000 1.5786000000
1.5016000000 0.1493000000 0.1351000000
1.5015000000 2.8805000000 2.9448000000
1.5012000000 3.6765000000 3.0256000000
1.5010000000 4.9847000000 1.8347000000
1.5003000000 0.8937000000 0.9454000000
1.5001000000 5.0007000000 1.8170000000
1.4998000000 0.6287000000 0.6561000000
1.4989000000 1.5281000000 1.6306000000
1.4988000000 0.3071000000 0.3137000000
1.4986000000 2.6238000000 2.7762000000
1.4980000000 2.3465000000 2.5167000000
1.4963000000 1.2140000000 1.2935000000
1.2632000000 4.2788000000 2.4751000000
1.2624000000 4.6545000000 2.1909000000
1.2622000000 4.8736000000 1.9510000000
1.2615000000 4.6229000000 2.2197000000
1.2601000000 0.9273000000 0.9847000000
1.2586000000 5.3452000000 1.4394000000
1.2585000000 5.1753000000 1.6311000000
1.2582000000 0.1238000000 0.1076000000
1.2578000000 3.7721000000 2.7391000000
1.2575000000 2.2156000000 2.3361000000
1.2571000000 1.1235000000 1.1975000000
1.2567000000 5.1511000000 1.6512000000
1.2563000000 6.0211000000 0.7110000000
1.2560000000 4.1204000000 2.5470000000
1.2558000000 6.1740000000 0.5440000000
1.2557000000 4.1303000000 2.5480000000
1.2555000000 3.5467000000 2.8549000000
1.2550000000 1.2017000000 1.2813000000
1.2545000000 4.9038000000 1.9165000000
1.2544000000 5.5982000000 1.1757000000
1.2542000000 3.5734000000 2.8414000000
1.2540000000 5.4706000000 1.3095000000
1.2539000000 0.2177000000 0.2153000000
1.2536000000 0.2412000000 0.2430000000
1.2535000000 4.2142000000 2.4951000000
1.2534000000 6.3903000000 0.3053000000
1.2533000000 4.1977000000 2.5066000000
1.2533000000 3.3502000000 2.9487000000
1.2530000000 5.1475000000 1.6612000000
1.2528000000 0.9235000000 0.9771000000
1.2527000000 3.4216000000 2.9239000000
1.2526000000 2.4109000000 2.4525000000
1.2525000000 2.8127000000 2.6721000000
1.2523000000 6.4937000000 0.2047000000
1.2522000000 0.4207000000 0.4323000000
1.2520000000 5.2395000000 1.5557000000
1.2520000000 2.8782000000 2.7068000000
1.2518000000 0.0324000000 0.0897000000
1.2517000000 2.4199000000 2.4592000000
1.2515000000 0.7063000000 0.7411000000
1.2511000000 0.1733000000 0.1651000000
1.2509000000 3.5966000000 2.8298000000
1.2507000000 5.9342000000 0.8071000000
1.2504000000 3.1990000000 2.8820000000
1.2501000000 2.1694000000 2.3128000000
1.2496000000 4.7660000000 2.0672000000
1.2487000000 6.6253000000 0.0553000000
1.2485000000 0.8901000000 0.9429000000
1.2480000000 0.6829000000 0.7181000000
1.2458000000 0.3067000000 0.3127000000
1.0115000000 4.6590000000 2.0309000000
1.0098000000 0.9668000000 1.0256000000
1.0095000000 5.6106000000 1.1609000000
1.0092000000 5.0778000000 1.7347000000
1.0087000000 5.2645000000 1.5321000000
1.0083000000 6.1505000000 0.5731000000
1.0074000000 3.0831000000 2.5928000000
1.0070000000 2.6037000000 2.3321000000
1.0064000000 6.7130000000 0.0386000000
1.0063000000 1.8935000000 1.9447000000
1.0060000000 1.6892000000 1.7832000000
1.0058000000 1.7274000000 1.8280000000
1.0057000000 3.1072000000 2.6019000000
1.0055000000 4.7142000000 1.9907000000
1.0053000000 5.8564000000 0.8937000000
1.0052000000 1.5533000000 1.6593000000
1.0050000000 0.2911000000 0.3040000000
1.0049000000 3.6186000000 2.5887000000
1.0048000000 2.9085000000 2.4967000000
1.0046000000 4.7665000000 1.9646000000
1.0039000000 0.8737000000 0.9245000000
1.0035000000 2.3886000000 2.2121000000
1.0035000000 4.6349000000 2.0372000000
1.0034000000 4.3069000000 2.2139000000
1.0033000000 5.5466000000 1.2282000000
1.0031000000 4.4048000000 2.1602000000
1.0030000000 5.5986000000 1.1710000000
1.0028000000 0.1129000000 0.0992000000
1.0028000000 0.6445000000 0.6758000000
1.0027000000 3.4231000000 2.6895000000
1.0023000000 5.4587000000 1.3168000000
1.0021000000 4.8009000000 1.9450000000
1.0020000000 1.7633000000 1.8501000000
1.0019000000 3.5285000000 2.6299000000
1.0015000000 6.6825000000 0.0774000000
1.0014000000 5.0574000000 1.7380000000
1.0011000000 4.8959000000 1.8701000000
1.0010000000 4.2003000000 2.2632000000
1.0008000000 2.6623000000 2.3579000000
1.0008000000 0.1965000000 0.1938000000
1.0005000000 3.6492000000 2.5644000000
1.0004000000 3.4103000000 2.6909000000
0.9995000000 0.1095000000 0.0989000000
0.9991000000 2.2425000000 2.1226000000
0.9983000000 4.8757000000 1.8863000000
0.9972000000 2.1481000000 2.0753000000
0.9970000000 5.1390000000 1.6672000000
0.9943000000 1.4780000000 1.5774000000
0.7618000000 5.8813000000 0.8677000000
0.7605000000 4.4563000000 1.9086000000
0.7601000000 6.2005000000 0.5196000000
0.7596000000 4.4284000000 1.9133000000
0.7586000000 2.5686000000 2.0807000000
0.7585000000 5.4946000000 1.2776000000
0.7578000000 4.5396000000 1.8524000000
0.7577000000 6.0321000000 0.7022000000
0.7576000000 5.5700000000 1.1967000000
0.7574000000 5.1233000000 1.5386000000
0.7569000000 3.0008000000 2.3085000000
0.7566000000 0.9504000000 0.9999000000
0.7563000000 2.0498000000 1.7938000000
0.7561000000 5.8394000000 0.9146000000
0.7560000000 1.1100000000 1.1781000000
0.7558000000 3.5362000000 2.3985000000
0.7557000000 1.1544000000 1.2274000000
0.7555000000 5.1128000000 1.5455000000
0.7554000000 5.1940000000 1.4981000000
0.7553000000 5.2939000000 1.4430000000
0.7552000000 6.2091000000 0.5113000000
0.7549000000 5.8026000000 0.9509000000
0.7546000000 4.3629000000 1.9497000000
0.7544000000 1.2681000000 1.3321000000
0.7542000000 6.1016000000 0.6225000000
0.7541000000 1.7470000000 1.6329000000
0.7540000000 1.3876000000 1.4191000000
0.7539000000 4.1171000000 2.0818000000
0.7538000000 5.7927000000 0.9623000000
0.7536000000 3.0978000000 2.3621000000
0.7535000000 3.5229000000 2.4000000000
0.7533000000 6.3897000000 0.3123000000
0.7529000000 3.3086000000 2.4580000000
0.7526000000 3.1279000000 2.3842000000
0.7523000000 2.4864000000 2.0313000000
0.7521000000 1.8401000000 1.6790000000
0.7520000000 5.2240000000 1.4843000000
0.7519000000 2.5529000000 2.0663000000
0.7518000000 4.1830000000 2.0436000000
0.7515000000 2.1070000000 1.8196000000
0.7514000000 4.2040000000 2.0320000000
0.7511000000 4.4475000000 1.9014000000
0.7509000000 1.9233000000 1.7165000000
0.7505000000 5.0471000000 1.5784000000
0.7500000000 1.5545000000 1.5265000000
0.7495000000 0.6464000000 0.6712000000
0.7493000000 3.6217000000 2.3435000000
0.7487000000 5.7324000000 1.0196000000
0.7485000000 2.9290000000 2.2681000000
0.7476000000 2.9909000000 2.2961000000
0.7470000000 4.5646000000 1.8376000000
0.7469000000 1.1664000000 1.2437000000
0.7465000000 0.4381000000 0.4501000000
0.7442000000 3.2695000000 2.4446000000
0.7410000000 0.4008000000 0.4196000000
0.5118000000 5.3056000000 1.2144000000
0.5109000000 6.1877000000 0.5324000000
0.5103000000 5.0192000000 1.3662000000
0.5095000000 3.8279000000 2.0136000000
0.5093000000 6.6023000000 0.0815000000
0.5091000000 6.0852000000 0.6405000000
0.5090000000 6.5804000000 0.1082000000
0.5082000000 2.2587000000 1.6735000000
0.5075000000 5.1117000000 1.3149000000
0.5067000000 1.9398000000 1.5034000000
0.5063000000 5.4998000000 1.1040000000
0.5060000000 3.7710000000 2.0367000000
0.5058000000 2.0015000000 1.5319000000
0.5056000000 2.4013000000 1.7469000000
0.5053000000 4.3608000000 1.7162000000
0.5052000000 3.9702000000 1.9312000000
0.5051000000 3.8075000000 2.0192000000
0.5050000000 5.2565000000 1.2320000000
0.5049000000 4.6496000000 1.5674000000
0.5047000000 6.6401000000 0.1174000000
0.5043000000 2.5471000000 1.8276000000
0.5040000000 5.2313000000 1.2453000000
0.5038000000 4.1655000000 1.8163000000
0.5037000000 5.3921000000 1.1633000000
0.5035000000 0.2056000000 0.2036000000
0.5034000000 4.0430000000 1.8927000000
0.5033000000 5.8051000000 0.9158000000
0.5032000000 5.3235000000 1.1921000000
0.5030000000 4.0489000000 1.8834000000
0.5023000000 6.6268000000 0.0562000000
0.5021000000 5.6775000000 1.0011000000
0.5020000000 3.3401000000 2.2413000000
0.5018000000 4.6129000000 1.5788000000
0.5015000000 2.2994000000 1.6933000000
0.5013000000 0.5517000000 0.5732000000
0.5010000000 4.1495000000 1.8312000000
0.5008000000 0.3959000000 0.4095000000
0.5005000000 5.4937000000 1.1010000000
0.5001000000 2.7377000000 1.9254000000
0.4997000000 1.8748000000 1.4664000000
0.4995000000 3.9666000000 1.9279000000
0.4993000000 2.4374000000 1.7658000000
0.4989000000 2.2339000000 1.6551000000
0.4973000000 0.1857000000 0.1748000000
0.4957000000 4.4322000000 1.6728000000
0.4938000000 2.9019000000 2.0094000000
0.2599000000 4.0396000000 1.6594000000
0.2592000000 1.9670000000 1.2867000000
0.2585000000 4.6955000000 1.3054000000
0.2577000000 4.5679000000 1.3736000000
0.2574000000 6.0216000000 0.5880000000
0.2573000000 5.2428000000 1.0052000000
0.2570000000 4.0285000000 1.6607000000
0.2568000000 6.0199000000 0.5909000000
0.2565000000 6.6160000000 0.0692000000
0.2562000000 4.7111000000 1.2939000000
0.2561000000 1.8688000000 1.2300000000
0.2560000000 4.3295000000 1.5028000000
0.2559000000 4.9903000000 1.1459000000
0.2555000000 0.8095000000 0.6554000000
0.2552000000 0.4484000000 0.4427000000
0.2551000000 5.4252000000 0.9128000000
0.2548000000 4.7190000000 1.2879000000
0.2544000000 1.8459000000 1.2150000000
0.2540000000 1.5407000000 1.0529000000
0.2539000000 4.9249000000 1.1750000000
0.2537000000 4.6907000000 1.3048000000
0.2535000000 2.9310000000 1.7996000000
0.2534000000 5.4740000000 0.8776000000
0.2533000000 6.1968000000 0.4711000000
0.2532000000 5.1647000000 1.0465000000
0.2530000000 2.8419000000 1.7494000000
0.2528000000 3.3476000000 2.0036000000
0.2527000000 1.0240000000 0.7692000000
0.2523000000 0.6458000000 0.5613000000
0.2520000000 2.9558000000 1.8118000000
0.2518000000 5.4298000000 0.8962000000
0.2516000000 0.3210000000 0.3235000000
0.2512000000 0.9873000000 0.7443000000
0.2510000000 6.5337000000 0.1581000000
0.2506000000 2.7733000000 1.7098000000
0.2505000000 1.4454000000 0.9941000000
0.2498000000 1.0845000000 0.7956000000
0.2493000000 3.0363000000 1.8514000000
0.2490000000 4.4592000000 1.4251000000
0.2486000000 2.1388000000 1.3735000000
0.2477000000 0.9243000000 0.7164000000
0.2475000000 2.4041000000 1.5008000000
0.2473000000 5.2654000000 0.9824000000
0.2451000000 0.9450000000 0.7124000000
0.0118000000 6.4592000000 0.1196000000
0.0115000000 6.1688000000 0.2777000000
0.0097000000 5.4808000000 0.6454000000
0.0095000000 0.2831000000 0.1457000000
0.0089000000 4.6114000000 1.1166000000
0.0087000000 4.2452000000 1.3150000000
0.0086000000 2.7201000000 1.4573000000
0.0084000000 4.7610000000 1.0385000000
0.0079000000 3.6354000000 1.6426000000
0.0073000000 6.0198000000 0.3532000000
0.0073000000 5.3952000000 0.6917000000
0.0071000000 6.1823000000 0.2588000000
0.0068000000 2.7447000000 1.4712000000
0.0067000000 2.7135000000 1.4489000000
0.0065000000 5.7767000000 0.4854000000
0.0063000000 3.0240000000 1.6221000000
0.0060000000 5.8299000000 0.4563000000
0.0060000000 6.5074000000 0.0868000000
0.0055000000 4.8725000000 0.9714000000
0.0053000000 4.8822000000 0.9689000000
0.0051000000 2.5927000000 1.3853000000
0.0050000000 5.5899000000 0.5854000000
0.0049000000 4.4499000000 1.2018000000
0.0044000000 4.6057000000 1.1210000000
0.0043000000 4.3138000000 1.2717000000
0.0040000000 2.2199000000 1.1822000000
0.0037000000 2.7563000000 1.4721000000
0.0033000000 4.7128000000 1.0591000000
0.0033000000 3.2743000000 1.7533000000
0.0031000000 1.1378000000 0.5996000000
0.0027000000 4.0751000000 1.3977000000
0.0025000000 2.3088000000 1.2316000000
0.0025000000 3.2963000000 1.7594000000
0.0023000000 5.4877000000 0.6400000000
0.0021000000 2.7620000000 1.4775000000
0.0020000000 4.1629000000 1.3539000000
0.0018000000 2.3811000000 1.2711000000
0.0017000000 3.4708000000 1.7246000000
0.0016000000 2.0378000000 1.0864000000
0.0015000000 3.1254000000 1.6680000000
0.0012000000 5.0104000000 0.8974000000
0.0010000000 2.0671000000 1.1016000000
0.0009000000 6.1126000000 0.3004000000
0.0005000000 0.6539000000 0.3315000000
0.0003000000 3.5018000000 1.7130000000
0.0003000000 0.2803000000 0.1296000000
-0.0007000000 1.7700000000 0.9363000000
-0.0012000000 0.9975000000 0.5168000000
-0.0017000000 5.8206000000 0.4536000000
-0.0021000000 4.4396000000 1.1931000000
-0.0030000000 0.0221000000 0.0464000000
-0.0032000000 1.7679000000 0.9352000000
-0.0037000000 0.0095000000 0.0391000000
-0.2389000000 5.2338000000 0.5492000000
-0.2396000000 6.4198000000 0.0605000000
-0.2406000000 1.6813000000 0.6645000000
-0.2410000000 1.9221000000 0.7944000000
-0.2418000000 3.8091000000 1.3153000000
-0.2427000000 3.5589000000 1.4435000000
-0.2429000000 4.6407000000 0.8607000000
-0.2431000000 3.0149000000 1.3817000000
-0.2433000000 2.6539000000 1.1838000000
-0.2436000000 4.6875000000 0.8393000000
-0.2438000000 4.4543000000 0.9687000000
-0.2440000000 5.5399000000 0.3804000000
-0.2443000000 2.6046000000 1.1575000000
-0.2444000000 4.8021000000 0.7767000000
-0.2447000000 1.8936000000 0.7745000000
-0.2450000000 5.9875000000 0.1365000000
-0.2452000000 3.9177000000 1.2529000000
-0.2454000000 5.2349000000 0.5423000000
-0.2458000000 6.4136000000 0.0506000000
-0.2460000000 3.9320000000 1.2509000000
-0.2462000000 2.4746000000 1.0890000000
-0.2464000000 2.1223000000 0.8962000000
-0.2465000000 5.6168000000 0.3316000000
-0.2468000000 4.1238000000 1.1376000000
-0.2472000000 4.0911000000 1.1588000000
-0.2472000000 3.9944000000 1.2129000000
-0.2474000000 6.1479000000 0.1176000000
-0.2477000000 4.9353000000 0.7000000000
-0.2479000000 4.7106000000 0.8250000000
-0.2482000000 3.9066000000 1.2543000000
-0.2484000000 0.2317000000 0.0227000000
-0.2485000000 2.5355000000 1.1161000000
-0.2488000000 2.1245000000 0.8951000000
-0.2493000000 5.7772000000 0.2502000000
-0.2499000000 5.5717000000 0.3589000000
-0.2501000000 2.5838000000 1.1451000000
-0.2506000000 2.1248000000 0.8944000000
-0.2508000000 3.2879000000 1.5235000000
-0.2509000000 4.2389000000 1.0714000000
-0.2514000000 1.8865000000 0.7646000000
-0.2517000000 3.5970000000 1.4199000000
-0.2525000000 0.3496000000 0.0779000000
-0.2537000000 0.9275000000 0.2447000000
-0.2539000000 1.3450000000 0.4702000000
-0.2550000000 1.7095000000 0.6677000000
-0.4876000000 5.3861000000 0.2371000000
-0.4899000000 5.4232000000 0.2087000000
-0.4910000000 3.7250000000 1.1317000000
-0.4918000000 5.0945000000 0.3945000000
-0.4920000000 5.1332000000 0.3707000000
-0.4923000000 4.8277000000 0.5346000000
-0.4929000000 4.8409000000 0.5219000000
-0.4939000000 1.4274000000 0.2860000000
-0.4942000000 4.4697000000 0.7249000000
-0.4945000000 0.7951000000 0.0947000000
-0.4947000000 5.8567000000 0.0513000000
-0.4954000000 2.5203000000 0.8776000000
-0.4955000000 5.9283000000 0.0837000000
-0.4957000000 3.1265000000 1.2068000000
-0.4958000000 1.0863000000 0.1002000000
-0.4959000000 5.4860000000 0.1725000000
-0.4963000000 5.1666000000 0.3410000000
-0.4967000000 0.6605000000 0.0239000000
-0.4969000000 2.8445000000 1.0502000000
-0.4972000000 5.4038000000 0.2158000000
-0.4977000000 1.9105000000 0.5460000000
-0.4980000000 1.0885000000 0.0952000000
-0.4981000000 2.9256000000 1.0960000000
-0.4984000000 0.9385000000 0.1001000000
-0.4989000000 2.2259000000 0.7174000000
-0.4991000000 3.9989000000 0.9700000000
-0.4992000000 2.1771000000 0.6942000000
-0.4993000000 3.7757000000 1.0873000000
-0.4995000000 2.7670000000 1.0103000000
-0.4999000000 5.9730000000 0.0518000000
-0.5000000000 1.2303000000 0.1784000000
-0.5004000000 2.6779000000 0.9576000000
-0.5005000000 1.4719000000 0.3125000000
-0.5007000000 1.0541000000 0.0864000000
-0.5010000000 0.8005000000 0.0925000000
-0.5011000000 4.3691000000 0.7664000000
-0.5012000000 2.7143000000 0.9737000000
-0.5024000000 0.6837000000 0.0322000000
-0.5029000000 0.9517000000 0.0956000000
-0.5066000000 3.9757000000 0.9743000000
-0.7369000000 1.6219000000 0.1681000000
-0.7400000000 4.0788000000 0.7021000000
-0.7402000000 5.0887000000 0.1596000000
-0.7411000000 4.5481000000 0.4540000000
-0.7418000000 1.5135000000 0.1025000000
-0.7427000000 4.3270000000 0.5658000000
-0.7430000000 5.2869000000 0.0475000000
-0.7434000000 3.5099000000 1.0101000000
-0.7437000000 2.3641000000 0.5611000000
-0.7441000000 1.0758000000 0.0136000000
-0.7444000000 4.5145000000 0.4605000000
-0.7444000000 5.0979000000 0.1496000000
-0.7451000000 2.4402000000 0.6043000000
-0.7452000000 1.1181000000 0.0379000000
-0.7453000000 3.6710000000 0.9171000000
-0.7458000000 2.5997000000 0.6817000000
-0.7449000000 5.1277000000 0.1283000000
-0.7466000000 3.1985000000 1.0109000000
-0.7470000000 5.3217000000 0.1034000000
-0.7472000000 3.8087000000 0.8452000000
-0.7474000000 2.7630000000 0.7694000000
-0.7475000000 2.6954000000 0.7332000000
-0.7476000000 5.2214000000 0.0741000000
-0.7478000000 1.4633000000 0.0688000000
-0.7479000000 2.9709000000 0.8870000000
-0.7482000000 4.3868000000 0.5322000000
-0.7485000000 2.3901000000 0.5695000000
-0.7490000000 1.3750000000 0.0954000000
-0.7495000000 3.5641000000 0.9740000000
-0.7499000000 4.2230000000 0.6126000000
-0.7509000000 1.8540000000 0.2712000000
-0.7518000000 4.6614000000 0.3773000000
-0.7570000000 3.8478000000 0.8160000000
-0.9915000000 3.2322000000 0.7932000000
-0.9919000000 4.7473000000 0.1066000000
-0.9920000000 4.5109000000 0.2377000000
-0.9924000000 3.3700000000 0.8353000000
-0.9928000000 3.5318000000 0.7586000000
-0.9935000000 2.9794000000 0.6644000000
-0.9946000000 3.2004000000 0.7795000000
-0.9948000000 3.8258000000 0.6048000000
-0.9951000000 4.0772000000 0.4674000000
-0.9956000000 1.7298000000 0.0567000000
-0.9962000000 2.9689000000 0.6520000000
-0.9965000000 1.6200000000 0.0717000000
-0.9967000000 4.1825000000 0.4065000000
-0.9968000000 1.9021000000 0.0769000000
-0.9972000000 3.8504000000 0.5861000000
-0.9973000000 1.9328000000 0.0898000000
-0.9975000000 4.9246000000 0.0788000000
-0.9980000000 1.7397000000 0.0592000000
-0.9985000000 3.0553000000 0.6951000000
-0.9987000000 1.4983000000 0.0016000000
-0.9994000000 3.2592000000 0.8070000000
-1.0003000000 2.5439000000 0.4144000000
-1.0002000000 2.1548000000 0.2062000000
-1.0005000000 3.2330000000 0.7931000000
-1.0010000000 1.7382000000 0.0601000000
-1.0027000000 3.2578000000 0.8046000000
-1.0039000000 2.3339000000 0.3069000000
-1.0045000000 2.6732000000 0.4844000000
-1.2395000000 3.6750000000 0.4531000000
-1.2420000000 2.3588000000 0.0965000000
-1.2423000000 3.8596000000 0.3555000000
-1.2429000000 2.5824000000 0.2169000000
-1.2438000000 4.0918000000 0.2248000000
-1.2441000000 3.8727000000 0.3408000000
-1.2448000000 3.5412000000 0.5196000000
-1.2453000000 3.6518000000 0.4590000000
-1.2460000000 3.4179000000 0.5853000000
-1.2467000000 2.9589000000 0.4073000000
-1.2472000000 2.0551000000 0.0718000000
-1.2475000000 3.1638000000 0.5209000000
-1.2481000000 2.2075000000 0.0746000000
-1.2496000000 4.2463000000 0.1382000000
-1.2505000000 4.7239000000 0.0221000000
-1.2510000000 2.5831000000 0.2081000000
-1.2524000000 4.0809000000 0.2193000000
-1.4897000000 3.8905000000 0.1049000000
-1.4907000000 3.0817000000 0.2529000000
-1.4923000000 4.1070000000 0.0568000000
-1.4931000000 4.1708000000 0.0245000000
-1.4950000000 3.4576000000 0.3345000000
-1.4961000000 2.3601000000 0.0049000000
-1.4978000000 3.4447000000 0.3404000000
-1.4983000000 3.7288000000 0.1870000000
-1.4991000000 3.4766000000 0.3164000000
-1.4999000000 2.9565000000 0.1742000000
-1.5035000000 3.6439000000 0.2260000000
-1.7410000000 3.7514000000 0.0910000000
-1.7431000000 3.3605000000 0.1358000000
-1.7444000000 3.5856000000 0.1019000000
-1.7445000000 2.8436000000 0.0286000000
-1.7469000000 3.4949000000 0.0691000000
-1.7476000000 3.7518000000 0.0834000000
-1.7506000000 3.2792000000 0.1086000000
-1.7521000000 3.7486000000 0.0797000000
-1.7531000000 3.4320000000 0.0982000000
