4.5053000000 2.1297000000 0.9824000000
4.5052000000 6.6452000000 0.2695000000
4.5051000000 0.6860000000 0.1861000000
4.5050000000 5.5289000000 0.8886000000
4.5048000000 1.8362000000 0.8252000000
4.5043000000 3.5534000000 1.7784000000
4.5042000000 2.4470000000 1.1620000000
4.5038000000 4.6756000000 1.3620000000
4.5035000000 3.9321000000 1.7769000000
4.5034000000 5.7306000000 0.7821000000
4.5031000000 0.6051000000 0.1429000000
4.5030000000 0.3104000000 0.0551000000
4.5029000000 6.7272000000 0.2303000000
4.5026000000 0.4355000000 0.1208000000
4.5025000000 4.8381000000 1.2793000000
4.5023000000 0.5750000000 0.1217000000
4.5020000000 1.2577000000 0.5085000000
4.5015000000 7.1643000000 0.0592000000
4.5013000000 1.6928000000 0.7499000000
4.5011000000 4.0225000000 1.7307000000
4.5009000000 4.7724000000 1.3135000000
4.5007000000 2.7992000000 1.3618000000
4.5001000000 7.4086000000 -0.0038000000
4.4996000000 3.1881000000 1.5827000000
4.4992000000 2.9704000000 1.4600000000
4.4986000000 2.2564000000 1.0588000000
4.4968000000 1.6127000000 0.7087000000
4.4951000000 2.7820000000 1.3573000000
4.2640000000 5.6812000000 1.0366000000
4.2631000000 4.2002000000 1.8568000000
4.2614000000 3.7493000000 2.0934000000
4.2603000000 4.7320000000 1.5659000000
4.2600000000 3.5478000000 2.0074000000
4.2597000000 4.6527000000 1.6189000000
4.2595000000 5.2525000000 1.2774000000
4.2586000000 1.6190000000 0.9400000000
4.2584000000 7.1627000000 0.2187000000
4.2583000000 1.8596000000 1.0777000000
4.2582000000 7.2479000000 0.1721000000
4.2581000000 4.6502000000 1.6171000000
4.2578000000 3.5881000000 2.0355000000
4.2573000000 1.4065000000 0.8275000000
4.2571000000 7.2492000000 0.1775000000
4.2568000000 4.2855000000 1.8201000000
4.2567000000 6.1322000000 0.7933000000
4.2566000000 0.6418000000 0.3970000000
4.2564000000 5.0733000000 1.3829000000
4.2562000000 4.3393000000 1.7853000000
4.2561000000 6.5237000000 0.5820000000
4.2559000000 6.5458000000 0.5626000000
4.2555000000 5.1586000000 1.3300000000
4.2554000000 5.2655000000 1.2753000000
4.2553000000 1.7088000000 0.9943000000
4.2553000000 5.4790000000 1.1537000000
4.2550000000 2.8478000000 1.6263000000
4.2549000000 2.2929000000 1.3195000000
4.2546000000 0.0462000000 0.0909000000
4.2545000000 2.7251000000 1.5545000000
4.2544000000 7.0930000000 0.2587000000
4.2539000000 1.2434000000 0.7354000000
4.2536000000 3.4123000000 1.9383000000
4.2535000000 2.0679000000 1.1938000000
4.2534000000 1.8247000000 1.0598000000
4.2532000000 0.8317000000 0.5113000000
4.2530000000 2.7940000000 1.5936000000
4.2527000000 1.8197000000 1.0538000000
4.2526000000 5.5572000000 1.1187000000
4.2523000000 0.6819000000 0.4225000000
4.2519000000 6.2312000000 0.7406000000
4.2518000000 2.2707000000 1.2996000000
4.2517000000 4.9799000000 1.4398000000
4.2516000000 2.9761000000 1.7044000000
4.2512000000 0.8293000000 0.5071000000
4.2508000000 0.6483000000 0.4075000000
4.2502000000 2.1390000000 1.2337000000
4.2499000000 0.3048000000 0.2182000000
4.2493000000 3.3642000000 1.9121000000
4.2491000000 3.6952000000 2.0888000000
4.2489000000 5.4289000000 1.1907000000
4.2486000000 2.4228000000 1.3946000000
4.2483000000 2.1634000000 1.2495000000
4.2476000000 2.4545000000 1.4181000000
4.2471000000 2.5547000000 1.4723000000
4.2465000000 2.3942000000 1.3867000000
4.0121000000 7.0585000000 0.4424000000
4.0106000000 6.7987000000 0.6593000000
4.0099000000 0.8013000000 0.7271000000
4.0094000000 1.7303000000 1.2426000000
4.0093000000 5.8550000000 1.1799000000
4.0089000000 1.5580000000 1.1475000000
4.0085000000 7.2153000000 0.2837000000
4.0078000000 5.2361000000 1.5283000000
4.0075000000 2.4033000000 1.6129000000
4.0075000000 5.1514000000 1.5779000000
4.0073000000 4.5851000000 1.8928000000
4.0069000000 4.8206000000 1.7597000000
4.0068000000 1.1195000000 0.9100000000
4.0065000000 3.2204000000 2.0738000000
4.0065000000 4.6444000000 1.8552000000
4.0063000000 5.1334000000 1.5874000000
4.0063000000 2.1745000000 1.4904000000
4.0060000000 6.0048000000 1.0962000000
4.0059000000 1.4234000000 1.0705000000
4.0058000000 6.1901000000 1.0042000000
4.0055000000 5.0538000000 1.6280000000
4.0053000000 2.9097000000 1.9020000000
4.0052000000 5.3877000000 1.4547000000
4.0049000000 3.1286000000 2.0226000000
4.0048000000 7.1465000000 0.3594000000
4.0045000000 7.3418000000 0.1387000000
4.0044000000 6.5108000000 0.8224000000
4.0042000000 1.5708000000 1.1619000000
4.0039000000 7.2753000000 0.2190000000
4.0037000000 7.4054000000 0.0694000000
4.0035000000 1.3822000000 1.0519000000
4.0031000000 6.4816000000 0.8468000000
4.0030000000 6.1681000000 1.0202000000
4.0029000000 6.4550000000 0.8516000000
4.0027000000 3.8401000000 2.3104000000
4.0024000000 4.2446000000 2.0872000000
4.0020000000 3.7288000000 2.3441000000
4.0020000000 1.0843000000 0.8868000000
4.0016000000 0.0997000000 0.0919000000
4.0014000000 2.7356000000 1.8017000000
4.0012000000 0.0276000000 0.0867000000
4.0010000000 0.8976000000 0.7889000000
4.0008000000 3.8261000000 2.3180000000
4.0007000000 2.3204000000 1.5786000000
4.0005000000 5.7844000000 1.2367000000
4.0005000000 1.8828000000 1.3359000000
4.0001000000 1.7489000000 1.2583000000
3.9995000000 3.4878000000 2.2205000000
3.9991000000 0.1232000000 0.1221000000
3.9989000000 5.3602000000 1.4699000000
3.9988000000 0.8917000000 0.7875000000
3.9985000000 0.7141000000 0.6897000000
3.9979000000 3.5506000000 2.2628000000
3.9973000000 1.8785000000 1.3350000000
3.9967000000 0.0984000000 0.0921000000
3.9946000000 0.1977000000 0.2010000000
3.7623000000 5.7205000000 1.4925000000
3.7603000000 2.7398000000 2.0400000000
3.7599000000 6.4440000000 1.0819000000
3.7595000000 4.6858000000 2.0696000000
3.7587000000 1.0769000000 1.1105000000
3.7587000000 0.2940000000 0.3093000000
3.7583000000 5.1196000000 1.8337000000
3.7581000000 4.0248000000 2.4351000000
3.7577000000 4.6983000000 2.0697000000
3.7574000000 0.3971000000 0.4242000000
3.7570000000 6.0421000000 1.3213000000
3.7568000000 5.1521000000 1.8122000000
3.7567000000 1.2969000000 1.2405000000
3.7565000000 2.8777000000 2.1192000000
3.7564000000 3.3230000000 2.3670000000
3.7559000000 4.2923000000 2.2954000000
3.7557000000 0.7591000000 0.8276000000
3.7556000000 4.7062000000 2.0564000000
3.7554000000 5.3448000000 1.7153000000
3.7552000000 0.7549000000 0.8194000000
3.7550000000 0.8526000000 0.9304000000
3.7545000000 0.3543000000 0.3753000000
3.7544000000 5.1409000000 1.8275000000
3.7543000000 4.3963000000 2.2389000000
3.7541000000 2.7686000000 2.0632000000
3.7539000000 3.2060000000 2.3114000000
3.7537000000 6.5414000000 1.0097000000
3.7533000000 7.4186000000 0.0557000000
3.7532000000 1.6084000000 1.4188000000
3.7530000000 4.2560000000 2.3213000000
3.7528000000 2.5293000000 1.9302000000
3.7525000000 3.4606000000 2.4501000000
3.7521000000 2.0179000000 1.6502000000
3.7519000000 1.4682000000 1.3436000000
3.7518000000 3.3629000000 2.3931000000
3.7513000000 0.7295000000 0.7944000000
3.7510000000 1.1463000000 1.1647000000
3.7506000000 3.2815000000 2.3495000000
3.7498000000 2.1120000000 1.7016000000
3.7495000000 2.0683000000 1.6781000000
3.7491000000 0.4187000000 0.4509000000
3.7479000000 3.0064000000 2.2006000000
3.7455000000 2.1250000000 1.7096000000
3.5137000000 4.0610000000 2.6557000000
3.5113000000 5.9257000000 1.6230000000
3.5104000000 4.1317000000 2.6186000000
3.5094000000 7.2961000000 0.1910000000
3.5087000000 1.4868000000 1.5699000000
3.5085000000 4.2992000000 2.5310000000
3.5079000000 6.8482000000 0.6914000000
3.5078000000 7.4653000000 0.0715000000
3.5076000000 5.6524000000 1.7796000000
3.5075000000 0.2843000000 0.2992000000
3.5073000000 4.0158000000 2.6869000000
3.5068000000 6.4527000000 1.1294000000
3.5067000000 2.8622000000 2.3522000000
3.5065000000 2.4284000000 2.1134000000
3.5065000000 7.1911000000 0.3106000000
3.5061000000 7.5275000000 0.0836000000
3.5060000000 4.7862000000 2.2628000000
3.5058000000 4.5212000000 2.4063000000
3.5057000000 1.0396000000 1.1446000000
3.5055000000 5.0586000000 2.1056000000
3.5054000000 0.9970000000 1.0909000000
3.5053000000 5.9776000000 1.5884000000
3.5051000000 5.9444000000 1.6145000000
3.5049000000 1.1052000000 1.2102000000
3.5048000000 2.1800000000 1.9738000000
3.5045000000 3.2101000000 2.5458000000
3.5043000000 7.3650000000 0.1181000000
3.5040000000 0.3687000000 0.3903000000
3.5043000000 3.6119000000 2.7696000000
3.5037000000 5.3157000000 1.9703000000
3.5034000000 2.0337000000 1.8934000000
3.5033000000 1.9230000000 1.8359000000
3.5031000000 2.5994000000 2.2099000000
3.5030000000 0.5461000000 0.5852000000
3.5028000000 5.9316000000 1.6266000000
3.5027000000 6.7852000000 0.7616000000
3.5026000000 1.7540000000 1.7439000000
3.5023000000 6.3475000000 1.2454000000
3.5022000000 4.5449000000 2.4009000000
3.5020000000 1.6839000000 1.6987000000
3.5018000000 1.6487000000 1.6800000000
3.5014000000 0.7405000000 0.8069000000
3.5009000000 4.6516000000 2.3368000000
3.5006000000 3.9146000000 2.7448000000
3.5003000000 1.6192000000 1.6617000000
3.5002000000 0.4246000000 0.4497000000
3.5000000000 2.3024000000 2.0424000000
3.4998000000 3.5243000000 2.7188000000
3.4992000000 1.3019000000 1.4204000000
3.4984000000 2.2323000000 2.0077000000
3.4981000000 0.4401000000 0.4682000000
3.4974000000 0.1063000000 0.1026000000
3.4972000000 1.1974000000 1.3104000000
3.4959000000 0.5209000000 0.5580000000
3.2628000000 5.0487000000 2.3464000000
3.2617000000 5.3364000000 2.1912000000
3.2608000000 5.0531000000 2.3543000000
3.2604000000 3.4856000000 2.9373000000
3.2596000000 5.8075000000 1.8447000000
3.2594000000 1.1640000000 1.2761000000
3.2591000000 1.5887000000 1.7480000000
3.2586000000 4.5530000000 2.6309000000
3.2583000000 3.8398000000 3.0284000000
3.2582000000 6.8837000000 0.6485000000
3.2581000000 7.0739000000 0.4424000000
3.2578000000 5.3503000000 2.1844000000
3.2578000000 5.1958000000 2.2740000000
3.2576000000 7.0439000000 0.4755000000
3.2575000000 6.3454000000 1.2464000000
3.2574000000 7.0878000000 0.4241000000
3.2573000000 1.8820000000 2.0308000000
3.2571000000 1.5903000000 1.7469000000
3.2569000000 2.7819000000 2.5521000000
3.2567000000 6.5067000000 1.0672000000
3.2565000000 0.6086000000 0.6572000000
3.2559000000 3.2948000000 2.8348000000
3.2558000000 4.0590000000 2.9060000000
3.2557000000 0.8262000000 0.9003000000
3.2556000000 3.7368000000 3.0605000000
3.2555000000 6.0209000000 1.6077000000
3.2555000000 0.0753000000 0.0667000000
3.2553000000 6.8384000000 0.7065000000
3.2550000000 7.2225000000 0.2718000000
3.2547000000 1.9388000000 2.0658000000
3.2546000000 7.3862000000 0.0920000000
3.2544000000 0.6104000000 0.6558000000
3.2543000000 5.1339000000 2.3134000000
3.2541000000 5.6451000000 2.0082000000
3.2539000000 6.2444000000 1.3579000000
3.2538000000 5.4062000000 2.1563000000
3.2536000000 0.8821000000 0.9645000000
3.2535000000 4.5781000000 2.6221000000
3.2533000000 4.8546000000 2.4655000000
3.2532000000 2.5388000000 2.4134000000
3.2531000000 0.8285000000 0.9017000000
3.2530000000 0.7025000000 0.7618000000
3.2527000000 5.6860000000 1.9614000000
3.2525000000 1.3984000000 1.5357000000
3.2523000000 3.3963000000 2.8909000000
3.2523000000 6.7517000000 0.7984000000
3.2521000000 2.7854000000 2.5530000000
3.2520000000 3.8704000000 3.0156000000
3.2519000000 0.6632000000 0.7166000000
3.2518000000 4.2756000000 2.7913000000
3.2516000000 4.2529000000 2.7995000000
3.2513000000 1.7538000000 1.9131000000
3.2508000000 6.6821000000 0.8762000000
3.2505000000 5.8577000000 1.7865000000
3.2503000000 3.1402000000 2.7528000000
3.2502000000 0.7140000000 0.7755000000
3.2498000000 0.7007000000 0.7586000000
3.2496000000 4.8193000000 2.4885000000
3.2494000000 5.1849000000 2.2898000000
3.2493000000 3.6220000000 3.0178000000
3.2490000000 0.8472000000 0.9234000000
3.2486000000 3.5027000000 2.9550000000
3.2486000000 3.1802000000 2.7783000000
3.2481000000 0.2187000000 0.2261000000
3.2480000000 6.8085000000 0.7324000000
3.2467000000 4.1870000000 2.8427000000
3.2466000000 0.3480000000 0.3697000000
3.2460000000 2.1672000000 2.2198000000
3.2450000000 7.4654000000 0.0771000000
3.2443000000 2.6342000000 2.4756000000
3.0151000000 3.7808000000 3.2749000000
3.0131000000 7.0798000000 0.4273000000
3.0119000000 3.0104000000 2.9123000000
3.0110000000 4.8900000000 2.6764000000
3.0107000000 4.1184000000 3.1064000000
3.0103000000 5.8518000000 1.7907000000
3.0098000000 6.8012000000 0.7403000000
3.0096000000 5.5682000000 2.1112000000
3.0092000000 0.4867000000 0.5260000000
3.0085000000 4.2574000000 3.0340000000
3.0083000000 4.6125000000 2.8339000000
3.0080000000 3.5136000000 3.1936000000
3.0078000000 5.7845000000 1.8736000000
3.0074000000 6.4845000000 1.0939000000
3.0073000000 6.5322000000 1.0383000000
3.0071000000 1.0203000000 1.1172000000
3.0068000000 3.6377000000 3.2574000000
3.0066000000 6.8500000000 0.6888000000
3.0064000000 1.2968000000 1.4217000000
3.0063000000 4.3888000000 2.9603000000
3.0061000000 2.1829000000 2.3834000000
3.0057000000 6.7813000000 0.7633000000
3.0055000000 4.2499000000 3.0436000000
3.0054000000 1.5696000000 1.7221000000
3.0053000000 3.6723000000 3.2771000000
3.0052000000 0.2499000000 0.2620000000
3.0050000000 0.9371000000 1.0203000000
3.0049000000 4.2190000000 3.0572000000
3.0046000000 4.8143000000 2.7259000000
3.0044000000 5.2560000000 2.4402000000
3.0043000000 3.9715000000 3.1893000000
3.0042000000 4.3608000000 2.9770000000
3.0041000000 5.2491000000 2.4469000000
3.0040000000 5.7294000000 1.9332000000
3.0038000000 5.8610000000 1.7840000000
3.0036000000 1.8977000000 2.0858000000
3.0036000000 3.8456000000 3.2677000000
3.0033000000 2.3415000000 2.5297000000
3.0032000000 1.8710000000 2.0594000000
3.0030000000 1.4854000000 1.6267000000
3.0029000000 7.4964000000 0.0430000000
3.0027000000 1.4957000000 1.6418000000
3.0026000000 4.9092000000 2.6772000000
3.0025000000 2.8325000000 2.8178000000
3.0024000000 2.3869000000 2.5671000000
3.0023000000 2.8654000000 2.8346000000
3.0020000000 4.6066000000 2.8487000000
3.0018000000 1.3424000000 1.4743000000
3.0015000000 5.3133000000 2.3958000000
3.0015000000 4.1197000000 3.1211000000
3.0012000000 6.8869000000 0.6459000000
3.0010000000 5.8344000000 1.8114000000
3.0006000000 5.9519000000 1.6845000000
3.0002000000 6.9590000000 0.5670000000
3.0001000000 1.0792000000 1.1791000000
2.9998000000 2.6118000000 2.6993000000
2.9995000000 4.0684000000 3.1395000000
2.9994000000 6.7320000000 0.8180000000
2.9990000000 0.7320000000 0.7988000000
2.9987000000 0.9676000000 1.0563000000
2.9985000000 2.6795000000 2.7394000000
2.9984000000 0.8896000000 0.9704000000
2.9965000000 1.5321000000 1.6806000000
2.9954000000 1.8194000000 1.9928000000
2.7639000000 2.4185000000 2.6688000000
2.7623000000 5.9752000000 1.6595000000
2.7618000000 6.4644000000 1.1127000000
2.7601000000 6.5823000000 0.9785000000
2.7598000000 6.2967000000 1.3060000000
2.7594000000 4.0672000000 3.3782000000
2.7588000000 4.5226000000 3.1245000000
2.7583000000 7.2593000000 0.2321000000
2.7581000000 5.7638000000 1.8964000000
2.7579000000 2.4863000000 2.7355000000
2.7578000000 0.3723000000 0.3971000000
2.7575000000 5.0755000000 2.6538000000
2.7573000000 4.1593000000 3.3291000000
2.7570000000 6.8657000000 0.6710000000
2.7570000000 1.1907000000 1.3086000000
2.7568000000 6.3613000000 1.2280000000
2.7568000000 2.4627000000 2.7146000000
2.7565000000 5.0460000000 2.6898000000
2.7565000000 3.4298000000 3.3882000000
2.7563000000 7.1434000000 0.3557000000
2.7561000000 4.8382000000 2.8962000000
2.7560000000 6.8436000000 0.6907000000
2.7559000000 0.2833000000 0.3011000000
2.7558000000 5.9821000000 1.6460000000
2.7557000000 2.3995000000 2.6453000000
2.7553000000 4.9421000000 2.8061000000
2.7552000000 5.4631000000 2.2239000000
2.7549000000 4.4394000000 3.1767000000
2.7546000000 6.9662000000 0.5580000000
2.7545000000 2.7644000000 3.0008000000
2.7542000000 0.8743000000 0.9592000000
2.7540000000 3.7842000000 3.5237000000
2.7538000000 6.3363000000 1.2513000000
2.7536000000 1.9280000000 2.1205000000
2.7535000000 7.4573000000 0.0868000000
2.7532000000 2.1934000000 2.4110000000
2.7531000000 5.1377000000 2.5827000000
2.7530000000 1.3257000000 1.4508000000
2.7529000000 1.0600000000 1.1579000000
2.7527000000 0.7807000000 0.8548000000
2.7526000000 1.4020000000 1.5394000000
2.7524000000 6.5355000000 1.0312000000
2.7521000000 1.7221000000 1.8974000000
2.7518000000 1.6153000000 1.7745000000
2.7517000000 0.6236000000 0.6731000000
2.7514000000 2.5272000000 2.7862000000
2.7511000000 1.9919000000 2.1852000000
2.7510000000 7.0295000000 0.4853000000
2.7508000000 6.1838000000 1.4260000000
2.7508000000 3.1017000000 3.2081000000
2.7505000000 2.9917000000 3.1472000000
2.7503000000 6.0775000000 1.5441000000
2.7494000000 4.2090000000 3.3086000000
2.7491000000 4.8324000000 2.9119000000
2.7488000000 0.9840000000 1.0720000000
2.7480000000 3.5301000000 3.4499000000
2.7475000000 3.4114000000 3.3814000000
2.7466000000 1.1843000000 1.2960000000
2.5147000000 6.3585000000 1.2265000000
2.5108000000 7.0378000000 0.4819000000
2.5105000000 6.1034000000 1.5127000000
2.5101000000 7.0286000000 0.4909000000
2.5096000000 7.3018000000 0.1803000000
2.5092000000 0.0214000000 0.0843000000
2.5083000000 4.7711000000 2.9927000000
2.5080000000 6.6712000000 0.8845000000
2.5078000000 2.7731000000 3.0547000000
2.5077000000 4.6239000000 3.1573000000
2.5073000000 6.9760000000 0.5474000000
2.5072000000 4.3540000000 3.4385000000
2.5069000000 3.0422000000 3.3440000000
2.5066000000 1.9624000000 2.1577000000
2.5064000000 5.1554000000 2.5645000000
2.5062000000 0.2179000000 0.2246000000
2.5060000000 2.2909000000 2.5193000000
2.5060000000 3.9757000000 3.6721000000
2.5057000000 3.6016000000 3.7233000000
2.5056000000 5.6669000000 1.9945000000
2.5053000000 6.7338000000 0.8158000000
2.5050000000 5.6117000000 2.0620000000
2.5050000000 4.7131000000 3.0581000000
2.5049000000 1.8571000000 2.0447000000
2.5045000000 6.2426000000 1.3571000000
2.5044000000 0.2192000000 0.2228000000
2.5043000000 6.7323000000 0.8193000000
2.5040000000 1.5204000000 1.6663000000
2.5038000000 2.0486000000 2.2560000000
2.5036000000 2.4678000000 2.7194000000
2.5033000000 6.5182000000 1.0567000000
2.5032000000 2.2460000000 2.4705000000
2.5031000000 5.0749000000 2.6529000000
2.5030000000 4.9404000000 2.8027000000
2.5029000000 1.4982000000 1.6482000000
2.5027000000 3.7851000000 3.7596000000
2.5025000000 3.1559000000 3.4614000000
2.5025000000 6.3721000000 1.2232000000
2.5023000000 0.0767000000 0.0712000000
2.5020000000 1.0214000000 1.1179000000
2.5019000000 7.2490000000 0.2433000000
2.5017000000 3.7913000000 3.7700000000
2.5012000000 1.4254000000 1.5623000000
2.5009000000 1.4376000000 1.5798000000
2.5007000000 5.2544000000 2.4558000000
2.5004000000 0.4700000000 0.5100000000
2.5000000000 0.6594000000 0.7142000000
2.4998000000 2.5634000000 2.8244000000
2.4993000000 3.1194000000 3.4284000000
2.4987000000 0.5467000000 0.5879000000
2.4981000000 3.3030000000 3.5683000000
2.4944000000 1.7327000000 1.9080000000
2.2638000000 5.2448000000 2.4632000000
2.2618000000 5.6052000000 2.0665000000
2.2613000000 4.0714000000 3.7638000000
2.2606000000 1.7560000000 1.9283000000
2.2596000000 5.6241000000 2.0484000000
2.2591000000 6.6630000000 0.8963000000
2.2590000000 2.8560000000 3.1497000000
2.2590000000 3.4110000000 3.7629000000
2.2586000000 4.7714000000 2.9903000000
2.2583000000 5.4838000000 2.2060000000
2.2581000000 6.6296000000 0.9343000000
2.2580000000 4.0336000000 3.8051000000
2.2575000000 3.9070000000 3.9354000000
2.2575000000 1.5449000000 1.6986000000
2.2569000000 0.4187000000 0.4475000000
2.2565000000 3.1004000000 3.4248000000
2.2563000000 2.8723000000 3.1728000000
2.2561000000 3.9685000000 3.8611000000
2.2558000000 6.1102000000 1.5066000000
2.2556000000 0.4058000000 0.4328000000
2.2555000000 3.3695000000 3.7158000000
2.2554000000 5.0522000000 2.6845000000
2.2552000000 2.4894000000 2.7366000000
2.2550000000 2.1729000000 2.3902000000
2.2548000000 4.1887000000 3.6353000000
2.2547000000 3.1290000000 3.4537000000
2.2544000000 1.3804000000 1.5165000000
2.2543000000 2.5170000000 2.7819000000
2.2542000000 6.8010000000 0.7376000000
2.2542000000 2.6429000000 2.9114000000
2.2540000000 5.6515000000 2.0125000000
2.2538000000 2.3733000000 2.6156000000
2.2537000000 1.7812000000 1.9599000000
2.2536000000 2.4917000000 2.7458000000
2.2535000000 3.1681000000 3.4982000000
2.2533000000 3.2331000000 3.5646000000
2.2531000000 1.9038000000 2.0886000000
2.2530000000 2.4049000000 2.6511000000
2.2529000000 6.7398000000 0.8113000000
2.2528000000 1.0530000000 1.1548000000
2.2525000000 6.5753000000 0.9896000000
2.2523000000 4.9260000000 2.8206000000
2.2521000000 1.1475000000 1.2572000000
2.2520000000 2.0497000000 2.2574000000
2.2518000000 5.6112000000 2.0591000000
2.2517000000 4.6022000000 3.1776000000
2.2516000000 0.3483000000 0.3711000000
2.2513000000 0.8885000000 0.9644000000
2.2508000000 7.0923000000 0.4212000000
2.2506000000 3.1891000000 3.5164000000
2.2504000000 1.7353000000 1.9063000000
2.2502000000 5.7034000000 1.9590000000
2.2499000000 7.2335000000 0.2632000000
2.2495000000 2.2536000000 2.4807000000
2.2492000000 3.3533000000 3.7058000000
2.2479000000 4.7768000000 2.9859000000
2.2473000000 0.9718000000 1.0595000000
2.2448000000 3.3501000000 3.7012000000
2.2423000000 0.8484000000 0.9277000000
2.0110000000 4.9108000000 2.8363000000
2.0102000000 7.3171000000 0.1678000000
2.0097000000 1.8746000000 2.0614000000
2.0094000000 5.3415000000 2.3630000000
2.0093000000 7.2909000000 0.1942000000
2.0086000000 4.0400000000 3.7887000000
2.0082000000 4.2140000000 3.6084000000
2.0078000000 2.7846000000 3.0741000000
2.0075000000 5.7684000000 1.8824000000
2.0074000000 0.8499000000 0.9250000000
2.0072000000 0.6303000000 0.6805000000
2.0070000000 6.1243000000 1.4918000000
2.0069000000 5.9425000000 1.6981000000
2.0065000000 6.9533000000 0.5696000000
2.0063000000 7.2130000000 0.2875000000
2.0062000000 0.0422000000 0.1012000000
2.0060000000 7.0682000000 0.4425000000
2.0059000000 1.3310000000 1.4565000000
2.0058000000 3.1778000000 3.5044000000
2.0056000000 7.1459000000 0.3588000000
2.0055000000 7.3168000000 0.1719000000
2.0053000000 1.6797000000 1.8441000000
2.0051000000 1.9655000000 2.1597000000
2.0049000000 0.8927000000 0.9732000000
2.0048000000 2.9544000000 3.2585000000
2.0046000000 4.4449000000 3.3508000000
2.0045000000 4.2367000000 3.5902000000
2.0043000000 6.5566000000 1.0166000000
2.0041000000 0.1920000000 0.1902000000
2.0040000000 3.9128000000 3.8799000000
2.0038000000 5.8107000000 1.8398000000
2.0036000000 4.7877000000 2.9787000000
2.0035000000 3.7053000000 3.9429000000
2.0033000000 1.7803000000 1.9638000000
2.0030000000 2.2898000000 2.5204000000
2.0029000000 5.5951000000 2.0783000000
2.0026000000 2.5901000000 2.8529000000
2.0025000000 0.0792000000 0.0707000000
2.0023000000 3.6751000000 3.9450000000
2.0022000000 0.0230000000 0.0810000000
2.0020000000 0.2445000000 0.2473000000
2.0018000000 1.2999000000 1.4318000000
2.0015000000 4.5927000000 3.1926000000
2.0013000000 0.1938000000 0.2034000000
2.0011000000 5.7287000000 1.9274000000
2.0010000000 4.0095000000 3.8144000000
2.0004000000 4.4259000000 3.3775000000
2.0007000000 6.7898000000 0.7545000000
2.0000000000 2.3618000000 2.6025000000
1.9998000000 2.7839000000 3.0692000000
1.9996000000 0.7509000000 0.8221000000
1.9992000000 0.2010000000 0.2042000000
1.9989000000 0.1591000000 0.1589000000
1.9984000000 6.8595000000 0.6797000000
1.9978000000 3.6197000000 3.9133000000
1.9968000000 2.6344000000 2.9011000000
1.9962000000 0.0553000000 0.1200000000
1.9952000000 0.2213000000 0.2262000000
1.7639000000 6.0866000000 1.5337000000
1.7616000000 2.0354000000 2.2366000000
1.7612000000 7.1275000000 0.3782000000
1.7603000000 6.9603000000 0.5556000000
1.7600000000 2.3983000000 2.6352000000
1.7596000000 6.9782000000 0.5467000000
1.7590000000 4.5468000000 3.2308000000
1.7588000000 3.2048000000 3.4484000000
1.7585000000 0.8529000000 0.9289000000
1.7582000000 5.8302000000 1.8164000000
1.7578000000 6.1608000000 1.4523000000
1.7577000000 4.5012000000 3.2698000000
1.7573000000 2.5731000000 2.8326000000
1.7570000000 5.3361000000 2.3650000000
1.7569000000 3.6562000000 3.7038000000
1.7563000000 4.9209000000 2.8261000000
1.7563000000 1.0745000000 1.1764000000
1.7560000000 0.9212000000 1.0067000000
1.7558000000 4.3749000000 3.3755000000
1.7553000000 1.9833000000 2.1791000000
1.7550000000 4.8456000000 2.9055000000
1.7548000000 6.3608000000 1.2299000000
1.7546000000 2.4138000000 2.6589000000
1.7545000000 3.1579000000 3.4131000000
1.7543000000 1.5381000000 1.6913000000
1.7542000000 6.9412000000 0.5851000000
1.7541000000 6.5987000000 0.9683000000
1.7540000000 2.0959000000 2.3072000000
1.7539000000 6.1484000000 1.4635000000
1.7538000000 3.9999000000 3.6008000000
1.7537000000 2.6782000000 2.9511000000
1.7536000000 2.3977000000 2.6448000000
1.7535000000 7.0612000000 0.4565000000
1.7533000000 4.2537000000 3.4533000000
1.7531000000 6.4335000000 1.1505000000
1.7531000000 5.6851000000 1.9728000000
1.7529000000 1.9996000000 2.1996000000
1.7526000000 3.3189000000 3.5064000000
1.7525000000 2.0064000000 2.2065000000
1.7523000000 2.6354000000 2.9047000000
1.7518000000 1.7541000000 1.9252000000
1.7517000000 2.0772000000 2.2891000000
1.7513000000 4.0601000000 3.5606000000
1.7512000000 3.2578000000 3.4694000000
1.7510000000 1.6195000000 1.7842000000
1.7509000000 4.5994000000 3.1810000000
1.7508000000 0.8920000000 0.9760000000
1.7506000000 5.0123000000 2.7238000000
1.7504000000 3.0910000000 3.3562000000
1.7500000000 4.4655000000 3.3131000000
1.7498000000 3.0120000000 3.3067000000
1.7493000000 6.6653000000 0.8905000000
1.7488000000 0.8006000000 0.8650000000
1.7485000000 2.5544000000 2.8130000000
1.7483000000 2.9002000000 3.2012000000
1.7453000000 0.6720000000 0.7272000000
1.5153000000 1.9075000000 2.1020000000
1.5114000000 6.6644000000 0.8917000000
1.5107000000 7.3513000000 0.1256000000
1.5103000000 6.1685000000 1.4403000000
1.5100000000 2.0649000000 2.2756000000
1.5095000000 6.4264000000 1.1605000000
1.5092000000 3.7310000000 3.4851000000
1.5089000000 2.9375000000 3.0648000000
1.5086000000 3.4459000000 3.3433000000
1.5083000000 4.3167000000 3.1897000000
1.5083000000 0.9782000000 1.0677000000
1.5078000000 6.3213000000 1.2678000000
1.5073000000 4.8864000000 2.8453000000
1.5070000000 1.8374000000 2.0244000000
1.5069000000 5.5062000000 2.1802000000
1.5068000000 7.3246000000 0.1593000000
1.5066000000 5.6896000000 1.9722000000
1.5065000000 4.6312000000 3.0130000000
1.5062000000 4.2966000000 3.1932000000
1.5059000000 2.3594000000 2.6001000000
1.5057000000 7.2108000000 0.2836000000
1.5054000000 4.2994000000 3.2025000000
1.5053000000 1.7748000000 1.9527000000
1.5052000000 1.1241000000 1.2280000000
1.5050000000 6.3241000000 1.2721000000
1.5048000000 3.8635000000 3.4370000000
1.5046000000 4.0080000000 3.3590000000
1.5045000000 2.8118000000 2.9834000000
1.5044000000 7.1363000000 0.3669000000
1.5042000000 6.3655000000 1.2209000000
1.5040000000 0.0016000000 0.0628000000
1.5038000000 7.0593000000 0.4529000000
1.5036000000 2.0266000000 2.2283000000
1.5035000000 5.4667000000 2.2213000000
1.5033000000 6.1848000000 1.4214000000
1.5028000000 0.9713000000 1.0581000000
1.5027000000 3.7749000000 3.4652000000
1.5026000000 1.5079000000 1.6526000000
1.5025000000 4.3547000000 3.1664000000
1.5021000000 6.3185000000 1.2812000000
1.5020000000 3.5720000000 3.4087000000
1.5016000000 4.5679000000 3.0373000000
1.5013000000 1.5366000000 1.6907000000
1.5010000000 0.7492000000 0.8161000000
1.5008000000 0.8565000000 0.9363000000
1.5006000000 5.2723000000 2.4395000000
1.5005000000 6.5105000000 1.0628000000
1.5000000000 3.1268000000 3.1524000000
1.4994000000 2.3662000000 2.6052000000
1.4988000000 5.8048000000 1.8521000000
1.4979000000 4.7083000000 2.9600000000
1.4973000000 1.1122000000 1.2174000000
1.4968000000 1.3553000000 1.4843000000
1.4952000000 1.3513000000 1.4796000000
1.2644000000 7.2621000000 0.2304000000
1.2614000000 5.0405000000 2.5459000000
1.2609000000 6.6984000000 0.8542000000
1.2603000000 6.5803000000 0.9858000000
1.2598000000 6.4775000000 1.1003000000
1.2597000000 3.7026000000 3.2311000000
1.2589000000 1.2599000000 1.3810000000
1.2582000000 7.3332000000 0.1534000000
1.2579000000 6.8484000000 0.6941000000
1.2578000000 3.7244000000 3.2377000000
1.2575000000 2.2395000000 2.4179000000
1.2574000000 4.3602000000 2.9221000000
1.2571000000 2.3013000000 2.4676000000
1.2569000000 4.8810000000 2.6353000000
1.2563000000 4.8999000000 2.6238000000
1.2562000000 3.4269000000 3.0898000000
1.2560000000 3.8568000000 3.1972000000
1.2560000000 3.0647000000 2.8796000000
1.2558000000 5.5853000000 2.0868000000
1.2557000000 0.5954000000 0.6430000000
1.2556000000 7.1693000000 0.3318000000
1.2555000000 2.3446000000 2.4905000000
1.2554000000 7.1368000000 0.3721000000
1.2550000000 3.7991000000 3.2287000000
1.2548000000 7.0594000000 0.4538000000
1.2546000000 2.7909000000 2.7329000000
1.2543000000 0.8269000000 0.8981000000
1.2541000000 1.5420000000 1.6961000000
1.2540000000 7.1907000000 0.3097000000
1.2536000000 0.2898000000 0.3089000000
1.2533000000 5.6247000000 2.0431000000
1.2530000000 3.6081000000 3.1871000000
1.2522000000 2.5760000000 2.6170000000
1.2519000000 4.0054000000 3.1125000000
1.2516000000 5.0950000000 2.5096000000
1.2514000000 0.4307000000 0.4624000000
1.2512000000 1.2579000000 1.3804000000
1.2510000000 3.0301000000 2.8636000000
1.2508000000 6.5601000000 1.0074000000
1.2503000000 5.0902000000 2.5172000000
1.2502000000 5.8992000000 1.7407000000
1.2500000000 1.8555000000 2.0391000000
1.2497000000 0.7720000000 0.8363000000
1.2495000000 0.5198000000 0.5654000000
1.2488000000 5.9791000000 1.6515000000
1.2487000000 3.3011000000 3.0155000000
1.2485000000 2.0028000000 2.2045000000
1.2482000000 3.8766000000 3.1802000000
1.2473000000 1.3740000000 1.5019000000
1.2470000000 0.1500000000 0.1475000000
1.2464000000 0.1771000000 0.1761000000
1.2451000000 0.5572000000 0.6018000000
1.0130000000 7.4955000000 0.0467000000
1.0107000000 6.6021000000 0.9623000000
1.0101000000 2.7214000000 2.4614000000
1.0098000000 7.2782000000 0.2181000000
1.0095000000 1.9066000000 2.0090000000
1.0088000000 6.0506000000 1.5732000000
1.0084000000 4.3234000000 2.7083000000
1.0082000000 1.9430000000 2.0288000000
1.0080000000 2.7989000000 2.4962000000
1.0080000000 6.8938000000 0.6383000000
1.0075000000 4.2081000000 2.7676000000
1.0070000000 3.4895000000 2.8935000000
1.0066000000 6.0035000000 1.6242000000
1.0064000000 4.9830000000 2.3341000000
1.0062000000 0.5650000000 0.6093000000
1.0061000000 2.0868000000 2.1086000000
1.0059000000 5.5081000000 2.0411000000
1.0057000000 7.3212000000 0.1674000000
1.0056000000 2.0797000000 2.1027000000
1.0055000000 5.5436000000 2.0276000000
1.0054000000 2.6481000000 2.4174000000
1.0050000000 5.9676000000 1.6678000000
1.0048000000 4.1437000000 2.8022000000
1.0046000000 2.7034000000 2.4469000000
1.0045000000 7.0861000000 0.4206000000
1.0044000000 2.6617000000 2.4234000000
1.0042000000 2.4208000000 2.2914000000
1.0040000000 5.5382000000 2.0218000000
1.0039000000 1.4495000000 1.5918000000
1.0038000000 1.6924000000 1.8459000000
1.0037000000 1.8562000000 1.9777000000
1.0035000000 4.5842000000 2.5571000000
1.0033000000 5.7988000000 1.8334000000
1.0030000000 4.0030000000 2.8761000000
1.0028000000 0.9157000000 0.9995000000
1.0027000000 1.1353000000 1.2473000000
1.0020000000 4.7802000000 2.4423000000
1.0019000000 5.4197000000 2.0886000000
1.0015000000 1.6674000000 1.8101000000
1.0010000000 2.1841000000 2.1563000000
1.0010000000 3.0377000000 2.6236000000
1.0004000000 3.3952000000 2.8280000000
1.0002000000 6.6701000000 0.8881000000
1.0001000000 0.7381000000 0.8044000000
0.9998000000 1.7186000000 1.8678000000
0.9994000000 1.6247000000 1.7825000000
0.9991000000 5.4678000000 2.0621000000
0.9986000000 5.6511000000 1.9542000000
0.9983000000 1.6799000000 1.8217000000
0.9980000000 6.4763000000 1.1005000000
0.9977000000 0.8498000000 0.9316000000
0.9942000000 0.5041000000 0.5436000000
0.7622000000 7.3671000000 0.1104000000
0.7608000000 6.5769000000 0.9900000000
0.7591000000 2.5680000000 2.1360000000
0.7588000000 2.9399000000 2.3439000000
0.7585000000 0.7859000000 0.8545000000
0.7582000000 7.2860000000 0.2034000000
0.7580000000 3.6580000000 2.7421000000
0.7578000000 7.2393000000 0.2561000000
0.7573000000 3.2348000000 2.5021000000
0.7571000000 7.4693000000 0.0792000000
0.7569000000 3.0327000000 2.3948000000
0.7565000000 3.7390000000 2.7677000000
0.7562000000 1.5012000000 1.5467000000
0.7558000000 4.7123000000 2.2473000000
0.7558000000 3.7807000000 2.7470000000
0.7555000000 4.5547000000 2.3324000000
0.7553000000 5.3333000000 1.8981000000
0.7552000000 4.0243000000 2.6305000000
0.7550000000 4.5165000000 2.3567000000
0.7549000000 5.3602000000 1.8831000000
0.7545000000 4.5647000000 2.3271000000
0.7544000000 2.3594000000 2.0189000000
0.7543000000 5.1029000000 2.0292000000
0.7542000000 6.4984000000 1.0755000000
0.7541000000 3.7624000000 2.7569000000
0.7540000000 6.2320000000 1.3558000000
0.7538000000 6.5434000000 1.0284000000
0.7537000000 5.5427000000 1.7799000000
0.7532000000 0.4790000000 0.5134000000
0.7530000000 6.9001000000 0.6326000000
0.7528000000 4.2589000000 2.4928000000
0.7526000000 1.2682000000 1.3713000000
0.7525000000 6.6915000000 0.8655000000
0.7523000000 1.3183000000 1.4198000000
0.7522000000 0.5542000000 0.6015000000
0.7521000000 4.4087000000 2.4093000000
0.7520000000 1.8263000000 1.7172000000
0.7518000000 4.5042000000 2.3586000000
0.7517000000 0.9284000000 1.0105000000
0.7513000000 2.2441000000 1.9524000000
0.7511000000 6.5631000000 1.0044000000
0.7510000000 1.9606000000 1.7916000000
0.7507000000 4.1502000000 2.5563000000
0.7503000000 4.0560000000 2.6010000000
0.7500000000 3.8199000000 2.7367000000
0.7500000000 3.9159000000 2.6796000000
0.7498000000 0.9099000000 0.9974000000
0.7495000000 6.6871000000 0.8702000000
0.7494000000 0.9181000000 0.9973000000
0.7492000000 2.0005000000 1.8036000000
0.7489000000 0.9812000000 1.0673000000
0.7482000000 4.3411000000 2.4429000000
0.7474000000 2.3643000000 2.0149000000
0.7467000000 4.0011000000 2.6310000000
0.5130000000 4.8418000000 1.9421000000
0.5118000000 6.9134000000 0.6211000000
0.5109000000 5.6649000000 1.4845000000
0.5100000000 1.6253000000 1.3715000000
0.5095000000 2.2336000000 1.7117000000
0.5088000000 4.1153000000 2.3378000000
0.5078000000 7.0549000000 0.4620000000
0.5076000000 7.3703000000 0.1126000000
0.5073000000 5.2577000000 1.7049000000
0.5072000000 5.2432000000 1.7120000000
0.5068000000 4.5430000000 2.1008000000
0.5066000000 4.0070000000 2.3990000000
0.5064000000 3.7282000000 2.5220000000
0.5063000000 5.0039000000 1.8451000000
0.5061000000 3.8687000000 2.4721000000
0.5060000000 4.1484000000 2.3191000000
0.5059000000 4.5345000000 2.1046000000
0.5054000000 2.7009000000 1.9719000000
0.5052000000 3.6796000000 2.5084000000
0.5050000000 6.9023000000 0.6296000000
0.5049000000 6.0072000000 1.2917000000
0.5048000000 1.9524000000 1.5485000000
0.5045000000 3.4338000000 2.3711000000
0.5043000000 0.0137000000 0.0719000000
0.5043000000 3.4046000000 2.3585000000
0.5040000000 3.9627000000 2.4167000000
0.5038000000 2.7184000000 1.9744000000
0.5034000000 4.0311000000 2.3813000000
0.5032000000 5.9249000000 1.3360000000
0.5031000000 1.6241000000 1.3669000000
0.5030000000 1.2465000000 1.1638000000
0.5028000000 4.0434000000 2.3776000000
0.5025000000 1.6861000000 1.4033000000
0.5021000000 2.0510000000 1.6009000000
0.5019000000 0.9520000000 0.9744000000
0.5013000000 3.3013000000 2.2907000000
0.5011000000 5.2353000000 1.7158000000
0.5007000000 4.2174000000 2.2740000000
0.5004000000 4.3738000000 2.1889000000
0.5002000000 2.0674000000 1.6084000000
0.4999000000 0.8068000000 0.8639000000
0.4997000000 2.1895000000 1.6735000000
0.4994000000 1.8250000000 1.4759000000
0.4989000000 2.1844000000 1.6684000000
0.4982000000 1.1480000000 1.0971000000
0.4978000000 6.6549000000 0.8862000000
0.4971000000 0.4453000000 0.4776000000
0.4970000000 1.4739000000 1.2767000000
0.4963000000 0.7575000000 0.8169000000
0.4959000000 3.0186000000 2.1317000000
0.2623000000 6.2304000000 0.9331000000
0.2602000000 2.7252000000 1.7450000000
0.2598000000 5.1665000000 1.5189000000
0.2594000000 5.4569000000 1.3583000000
0.2590000000 5.2165000000 1.4908000000
0.2584000000 7.3545000000 0.1302000000
0.2580000000 5.9406000000 1.0872000000
0.2576000000 2.3936000000 1.5538000000
0.2574000000 4.7092000000 1.7700000000
0.2570000000 7.3163000000 0.1736000000
0.2567000000 1.8469000000 1.2538000000
0.2565000000 7.4733000000 0.0631000000
0.2562000000 3.6875000000 2.2700000000
0.2558000000 1.2426000000 0.9161000000
0.2556000000 2.1694000000 1.4330000000
0.2555000000 6.1394000000 0.9800000000
0.2554000000 2.0804000000 1.3833000000
0.2551000000 6.9885000000 0.4853000000
0.2550000000 2.6094000000 1.6742000000
0.2549000000 1.5775000000 1.1022000000
0.2548000000 3.3523000000 2.0851000000
0.2546000000 3.2695000000 2.0411000000
0.2545000000 1.6772000000 1.1623000000
0.2544000000 6.0526000000 1.0171000000
0.2543000000 4.9346000000 1.6428000000
0.2542000000 4.7850000000 1.7273000000
0.2540000000 2.2569000000 1.4811000000
0.2538000000 3.2505000000 2.0308000000
0.2535000000 0.3102000000 0.3305000000
0.2534000000 5.0696000000 1.5702000000
0.2532000000 1.2976000000 0.9418000000
0.2527000000 0.2018000000 0.2098000000
0.2526000000 2.5192000000 1.6192000000
0.2523000000 6.1823000000 0.9472000000
0.2521000000 4.8295000000 1.6998000000
0.2518000000 0.6865000000 0.6071000000
0.2515000000 1.6030000000 1.1131000000
0.2510000000 3.7488000000 2.2783000000
0.2508000000 0.8889000000 0.7191000000
0.2506000000 2.9246000000 1.8476000000
0.2502000000 4.0958000000 2.0999000000
0.2500000000 0.9767000000 0.7679000000
0.2500000000 4.6692000000 1.7790000000
0.2498000000 3.7211000000 2.2706000000
0.2495000000 1.2490000000 0.9136000000
0.2487000000 5.3065000000 1.4265000000
0.2478000000 4.1270000000 2.0849000000
0.2472000000 1.1450000000 0.8520000000
0.2457000000 4.4705000000 1.8909000000
0.2424000000 2.1970000000 1.4333000000
0.0123000000 6.7834000000 0.3869000000
0.0120000000 3.5236000000 1.9462000000
0.0111000000 5.1898000000 1.2685000000
0.0105000000 7.3046000000 0.0916000000
0.0101000000 5.6944000000 0.9826000000
0.0096000000 4.3577000000 1.7311000000
0.0091000000 7.2397000000 0.1246000000
0.0085000000 6.0196000000 0.8019000000
0.0082000000 3.1020000000 1.7105000000
0.0080000000 4.6421000000 1.5640000000
0.0075000000 7.2339000000 0.1275000000
0.0074000000 5.3800000000 1.1553000000
0.0070000000 3.2129000000 1.7738000000
0.0067000000 0.1921000000 0.0980000000
0.0062000000 2.2969000000 1.2664000000
0.0059000000 6.6655000000 0.4382000000
0.0055000000 4.1093000000 1.8637000000
0.0053000000 3.8874000000 1.9851000000
0.0052000000 5.1411000000 1.2870000000
0.0048000000 3.0952000000 1.7017000000
0.0047000000 1.9720000000 1.0786000000
0.0044000000 3.3211000000 1.8243000000
0.0040000000 2.1364000000 1.1724000000
0.0038000000 6.8908000000 0.3186000000
0.0035000000 0.5201000000 0.2748000000
0.0033000000 2.1317000000 1.1662000000
0.0031000000 0.8015000000 0.4309000000
0.0030000000 2.5084000000 1.3768000000
0.0029000000 3.8710000000 1.9884000000
0.0028000000 1.5108000000 0.8262000000
0.0025000000 4.7010000000 1.5221000000
0.0024000000 1.4147000000 0.7711000000
0.0025000000 3.8782000000 1.9891000000
0.0021000000 5.7411000000 0.9561000000
0.0019000000 5.5817000000 1.0413000000
0.0018000000 1.1050000000 0.5941000000
0.0015000000 6.8692000000 0.3286000000
0.0014000000 4.4375000000 1.6765000000
0.0010000000 2.4684000000 1.3502000000
0.0008000000 6.6216000000 0.4663000000
0.0006000000 2.3440000000 1.2840000000
0.0003000000 6.6041000000 0.4760000000
0.0001000000 4.3618000000 1.7185000000
-0.0001000000 7.1411000000 0.1722000000
-0.0004000000 4.5223000000 1.6223000000
-0.0007000000 6.9585000000 0.2752000000
-0.0009000000 1.1497000000 0.6235000000
-0.0012000000 0.7517000000 0.3951000000
-0.0017000000 3.5960000000 1.9727000000
-0.0023000000 4.3880000000 1.6987000000
-0.0025000000 3.1066000000 1.7037000000
-0.0042000000 0.5536000000 0.2850000000
-0.0055000000 2.5244000000 1.3732000000
-0.0060000000 0.9588000000 0.5070000000
-0.2376000000 7.1794000000 0.0747000000
-0.2387000000 5.8861000000 0.6391000000
-0.2392000000 6.0885000000 0.5280000000
-0.2410000000 4.7795000000 1.2448000000
-0.2412000000 2.2452000000 1.0011000000
-0.2414000000 5.9775000000 0.5879000000
-0.2418000000 4.9472000000 1.1509000000
-0.2421000000 6.0667000000 0.5341000000
-0.2425000000 6.3326000000 0.3874000000
-0.2429000000 6.7794000000 0.1459000000
-0.2432000000 5.1459000000 1.0447000000
-0.2435000000 1.2546000000 0.4490000000
-0.2437000000 6.5905000000 0.2452000000
-0.2441000000 7.1925000000 0.0628000000
-0.2444000000 7.0679000000 0.0602000000
-0.2445000000 5.9412000000 0.6010000000
-0.2446000000 6.6065000000 0.2358000000
-0.2449000000 6.8738000000 0.0878000000
-0.2450000000 0.2137000000 0.0134000000
-0.2451000000 7.2748000000 0.0099000000
-0.2452000000 5.7393000000 0.7141000000
-0.2455000000 2.6273000000 1.1991000000
-0.2457000000 2.1363000000 0.9317000000
-0.2459000000 4.3874000000 1.4662000000
-0.2461000000 5.8610000000 0.6499000000
-0.2465000000 6.9167000000 0.0602000000
-0.2468000000 1.9571000000 0.8274000000
-0.2470000000 6.3799000000 0.3613000000
-0.2472000000 1.7252000000 0.7011000000
-0.2474000000 1.2271000000 0.4298000000
-0.2476000000 6.2118000000 0.4532000000
-0.2478000000 5.9669000000 0.5806000000
-0.2480000000 1.4394000000 0.5432000000
-0.2482000000 3.6541000000 1.7673000000
-0.2484000000 1.3118000000 0.4755000000
-0.2485000000 6.6995000000 0.1802000000
-0.2487000000 4.1271000000 1.6088000000
-0.2491000000 3.2364000000 1.5444000000
-0.2494000000 6.2616000000 0.4271000000
-0.2497000000 2.4386000000 1.0944000000
-0.2500000000 2.1279000000 0.9245000000
-0.2501000000 1.2737000000 0.4476000000
-0.2504000000 2.5970000000 1.1845000000
-0.2507000000 1.3830000000 0.5066000000
-0.2509000000 0.5839000000 0.0653000000
-0.2511000000 2.5939000000 1.1801000000
-0.2515000000 3.8491000000 1.7581000000
-0.2517000000 2.8789000000 1.3311000000
-0.2525000000 2.8642000000 1.3289000000
-0.2530000000 0.7545000000 0.1602000000
-0.2532000000 2.7907000000 1.2877000000
-0.2565000000 1.4286000000 0.5300000000
-0.2581000000 3.8676000000 1.7458000000
-0.4876000000 5.3215000000 0.7132000000
-0.4901000000 3.4424000000 1.4217000000
-0.4918000000 2.2945000000 0.7800000000
-0.4922000000 3.1113000000 1.2384000000
-0.4927000000 4.8982000000 0.9449000000
-0.4930000000 5.3430000000 0.6946000000
-0.4931000000 6.7873000000 0.0412000000
-0.4933000000 6.6659000000 0.0357000000
-0.4937000000 5.0349000000 0.8724000000
-0.4941000000 5.3345000000 0.6965000000
-0.4942000000 6.4606000000 0.0771000000
-0.4944000000 1.6131000000 0.4013000000
-0.4945000000 3.4428000000 1.4197000000
-0.4947000000 3.5366000000 1.4709000000
-0.4949000000 3.3510000000 1.3672000000
-0.4955000000 3.4750000000 1.4349000000
-0.4959000000 2.3234000000 0.7957000000
-0.4964000000 3.4115000000 1.3969000000
-0.4965000000 4.1409000000 1.3564000000
-0.4967000000 1.7845000000 0.4914000000
-0.4969000000 5.4380000000 0.6400000000
-0.4972000000 4.0280000000 1.4227000000
-0.4974000000 5.9940000000 0.3330000000
-0.4975000000 5.0134000000 0.8788000000
-0.4976000000 3.3030000000 1.3414000000
-0.4978000000 3.1951000000 1.2752000000
-0.4980000000 3.8617000000 1.5153000000
-0.4984000000 4.6140000000 1.0986000000
-0.4985000000 2.8299000000 1.0789000000
-0.4985000000 1.8809000000 0.5439000000
-0.4987000000 1.9845000000 0.6074000000
-0.4988000000 4.6022000000 1.1028000000
-0.4990000000 3.9431000000 1.4627000000
-0.4991000000 1.3836000000 0.2754000000
-0.4993000000 3.6786000000 1.5427000000
-0.4994000000 3.9694000000 1.4554000000
-0.4998000000 3.4671000000 1.4265000000
-0.5002000000 5.5868000000 0.5564000000
-0.5006000000 0.8787000000 0.0633000000
-0.5009000000 5.9024000000 0.3784000000
-0.5010000000 1.2185000000 0.1815000000
-0.5020000000 3.3783000000 1.3731000000
-0.5026000000 6.8191000000 0.0214000000
-0.5040000000 2.3894000000 0.8272000000
-0.7375000000 4.2670000000 1.0599000000
-0.7397000000 2.6956000000 0.7652000000
-0.7406000000 3.2789000000 1.0899000000
-0.7410000000 4.9109000000 0.6942000000
-0.7421000000 5.7317000000 0.2457000000
-0.7425000000 2.7009000000 0.7745000000
-0.7426000000 4.1742000000 1.1050000000
-0.7430000000 2.3481000000 0.5737000000
-0.7432000000 6.0344000000 0.0743000000
-0.7434000000 3.2626000000 1.0806000000
-0.7438000000 4.4481000000 0.9488000000
-0.7443000000 5.1081000000 0.5856000000
-0.7445000000 5.1962000000 0.5364000000
-0.7446000000 3.4562000000 1.1841000000
-0.7450000000 4.9572000000 0.6712000000
-0.7451000000 5.2547000000 0.5087000000
-0.7453000000 2.8543000000 0.8512000000
-0.7455000000 5.3542000000 0.4501000000
-0.7457000000 2.4643000000 0.6343000000
-0.7460000000 1.8557000000 0.2944000000
-0.7463000000 3.4032000000 1.1548000000
-0.7468000000 6.1641000000 0.0716000000
-0.7472000000 3.6591000000 1.2954000000
-0.7473000000 5.2272000000 0.5218000000
-0.7475000000 2.2473000000 0.5130000000
-0.7477000000 1.6999000000 0.2046000000
-0.7480000000 1.6666000000 0.1903000000
-0.7482000000 4.8410000000 0.7298000000
-0.7484000000 1.9916000000 0.3622000000
-0.7485000000 5.1931000000 0.5356000000
-0.7486000000 1.7634000000 0.2433000000
-0.7487000000 3.2435000000 1.0692000000
-0.7492000000 4.0552000000 1.1594000000
-0.7496000000 2.2520000000 0.5124000000
-0.7501000000 4.8726000000 0.7128000000
-0.7502000000 3.3401000000 1.1180000000
-0.7506000000 2.0601000000 0.4027000000
-0.7510000000 1.8264000000 0.2792000000
-0.7511000000 5.8816000000 0.1524000000
-0.7517000000 4.6725000000 0.8263000000
-0.7524000000 3.0770000000 0.9686000000
-0.9866000000 3.8654000000 1.0443000000
-0.9918000000 5.1665000000 0.3170000000
-0.9923000000 2.5836000000 0.4607000000
-0.9929000000 2.9267000000 0.6514000000
-0.9930000000 4.8825000000 0.4732000000
-0.9932000000 5.6058000000 0.0724000000
-0.9940000000 3.5840000000 1.0148000000
-0.9942000000 5.9403000000 0.0305000000
-0.9945000000 2.7300000000 0.5393000000
-0.9949000000 2.7671000000 0.5652000000
-0.9950000000 2.3484000000 0.3304000000
-0.9955000000 2.9606000000 0.6688000000
-0.9955000000 5.0136000000 0.4021000000
-0.9962000000 4.0549000000 0.9273000000
-0.9964000000 5.3431000000 0.2134000000
-0.9967000000 5.8748000000 0.0698000000
-0.9971000000 3.7141000000 1.0676000000
-0.9971000000 1.8562000000 0.0560000000
-0.9972000000 5.7716000000 0.0453000000
-0.9975000000 5.9032000000 0.0434000000
-0.9978000000 2.6039000000 0.4707000000
-0.9980000000 2.4419000000 0.3818000000
-0.9986000000 3.4579000000 0.9429000000
-0.9989000000 4.7591000000 0.5312000000
-0.9992000000 5.9790000000 0.0075000000
-0.9996000000 4.5308000000 0.6616000000
-0.9999000000 2.7316000000 0.5393000000
-1.0007000000 4.0830000000 0.9042000000
-1.0009000000 2.3967000000 0.3525000000
-1.0017000000 4.9067000000 0.4510000000
-1.0024000000 2.0083000000 0.1327000000
-1.0044000000 4.3797000000 0.7413000000
-1.2399000000 4.9375000000 0.2021000000
-1.2403000000 4.7234000000 0.3210000000
-1.2415000000 4.3433000000 0.5344000000
-1.2428000000 5.0696000000 0.1227000000
-1.2432000000 4.4870000000 0.4506000000
-1.2435000000 2.8201000000 0.3548000000
-1.2436000000 4.3774000000 0.5077000000
-1.2442000000 2.6669000000 0.2681000000
-1.2450000000 2.0463000000 0.0742000000
-1.2453000000 4.5484000000 0.4111000000
-1.2456000000 2.5565000000 0.2044000000
-1.2457000000 4.1524000000 0.6345000000
-1.2459000000 4.8139000000 0.2708000000
-1.2463000000 5.2017000000 0.1297000000
-1.2464000000 4.9631000000 0.1867000000
-1.2471000000 3.1879000000 0.5516000000
-1.2472000000 4.2285000000 0.5923000000
-1.2478000000 4.5823000000 0.3977000000
-1.2482000000 5.4611000000 0.0577000000
-1.2483000000 2.1376000000 0.0458000000
-1.2492000000 4.6071000000 0.3819000000
-1.2493000000 4.3981000000 0.4934000000
-1.2502000000 2.7411000000 0.2962000000
-1.2507000000 3.6829000000 0.8229000000
-1.2512000000 4.8503000000 0.2381000000
-1.2525000000 3.9775000000 0.7273000000
-1.4877000000 4.7820000000 0.0518000000
-1.4902000000 3.8332000000 0.5760000000
-1.4926000000 4.2365000000 0.3557000000
-1.4945000000 4.1888000000 0.3733000000
-1.4952000000 3.7015000000 0.5810000000
-1.4963000000 5.0805000000 0.0328000000
-1.4971000000 4.1694000000 0.3828000000
-1.4975000000 3.2273000000 0.3350000000
-1.4978000000 4.5774000000 0.1580000000
