7.0113000000 4.1163000000 0.1078000000
7.0088000000 4.2814000000 0.0718000000
7.0071000000 4.3758000000 0.0413000000
7.0036000000 4.4205000000 0.0959000000
6.7588000000 4.3094000000 0.2415000000
6.7580000000 4.3570000000 0.2245000000
6.7572000000 4.8129000000 0.0395000000
6.7563000000 3.3051000000 0.0454000000
6.7550000000 4.9341000000 0.0623000000
6.7542000000 4.8135000000 0.0421000000
6.7527000000 3.5423000000 0.0743000000
6.7504000000 4.6755000000 0.0998000000
6.7493000000 3.2891000000 0.0512000000
6.5108000000 4.2076000000 0.4550000000
6.5097000000 4.6628000000 0.2674000000
6.5082000000 4.6327000000 0.2914000000
6.5073000000 4.9635000000 0.1541000000
6.5068000000 4.1219000000 0.4629000000
6.5049000000 4.9862000000 0.1398000000
6.5042000000 4.1179000000 0.4671000000
6.5034000000 2.8318000000 0.0319000000
6.5020000000 3.3314000000 0.1625000000
6.5013000000 5.1834000000 0.0617000000
6.2624000000 4.5691000000 0.4834000000
6.2613000000 5.6040000000 0.0620000000
6.2605000000 4.7299000000 0.4145000000
6.2598000000 4.9190000000 0.3408000000
6.2587000000 4.1591000000 0.6413000000
6.2579000000 3.9682000000 0.6011000000
6.2573000000 3.0311000000 0.2175000000
6.2566000000 3.5581000000 0.4306000000
6.2561000000 3.0908000000 0.2402000000
6.2560000000 5.8107000000 0.0605000000
6.2556000000 5.8505000000 0.0414000000
6.2548000000 2.4363000000 0.0450000000
6.2544000000 4.4814000000 0.5277000000
6.2542000000 2.8778000000 0.1536000000
6.2536000000 3.0396000000 0.2186000000
6.2530000000 2.8742000000 0.1512000000
6.2524000000 3.9658000000 0.5893000000
6.2520000000 3.8602000000 0.5550000000
6.2511000000 2.5002000000 0.0743000000
6.2505000000 3.1425000000 0.2619000000
6.2499000000 4.8725000000 0.3683000000
6.2477000000 2.5923000000 0.0394000000
6.0139000000 5.3887000000 0.3275000000
6.0105000000 4.2833000000 0.7762000000
6.0097000000 2.6700000000 0.2427000000
6.0090000000 3.3524000000 0.5182000000
6.0084000000 5.5882000000 0.2511000000
6.0081000000 2.3737000000 0.1234000000
6.0075000000 3.9085000000 0.7491000000
6.0070000000 5.9490000000 0.1013000000
6.0068000000 4.2797000000 0.7791000000
6.0066000000 3.4100000000 0.5450000000
6.0063000000 3.0603000000 0.4028000000
6.0061000000 2.3388000000 0.1074000000
6.0057000000 5.8466000000 0.1492000000
6.0050000000 3.4114000000 0.5455000000
6.0043000000 3.5283000000 0.5926000000
6.0038000000 4.9303000000 0.5155000000
6.0032000000 6.0278000000 0.0716000000
6.0030000000 5.6455000000 0.2324000000
6.0027000000 2.4500000000 0.1547000000
6.0017000000 2.0371000000 0.0602000000
6.0009000000 5.3360000000 0.3586000000
5.9988000000 1.9126000000 0.0152000000
5.9950000000 3.5861000000 0.6186000000
5.7622000000 4.9473000000 0.6845000000
5.7610000000 4.5512000000 0.8454000000
5.7600000000 5.6111000000 0.4171000000
5.7588000000 5.8151000000 0.3363000000
5.7583000000 3.7974000000 0.8727000000
5.7579000000 1.5255000000 0.0293000000
5.7573000000 2.0325000000 0.1550000000
5.7570000000 5.0202000000 0.6503000000
5.7564000000 4.3239000000 0.9343000000
5.7560000000 2.3395000000 0.2885000000
5.7553000000 6.4195000000 0.0898000000
5.7551000000 5.9326000000 0.2898000000
5.7547000000 4.4779000000 0.8789000000
5.7544000000 5.4416000000 0.4845000000
5.7542000000 6.4686000000 0.0684000000
5.7539000000 4.5428000000 0.8519000000
5.7534000000 1.5839000000 0.0549000000
5.7533000000 2.8531000000 0.4908000000
5.7529000000 3.3528000000 0.6962000000
5.7526000000 1.9669000000 0.1391000000
5.7519000000 6.1392000000 0.2036000000
5.7516000000 5.6237000000 0.4117000000
5.7512000000 4.2227000000 0.9821000000
5.7507000000 6.1562000000 0.2051000000
5.7505000000 6.7281000000 0.0443000000
5.7484000000 4.1854000000 0.9932000000
5.7463000000 2.5323000000 0.3732000000
5.5131000000 6.1379000000 0.3752000000
5.5123000000 1.6806000000 0.1885000000
5.5117000000 7.2388000000 0.0060000000
5.5105000000 3.2364000000 0.8286000000
5.5101000000 2.7279000000 0.6127000000
5.5096000000 3.6182000000 0.9784000000
5.5090000000 5.1626000000 0.7732000000
5.5088000000 2.3164000000 0.4407000000
5.5085000000 4.9103000000 0.8722000000
5.5081000000 4.6851000000 0.9748000000
5.5072000000 4.5210000000 1.0312000000
5.5070000000 5.3945000000 0.6890000000
5.5066000000 3.2206000000 0.8166000000
5.5063000000 5.0191000000 0.8361000000
5.5061000000 6.0492000000 0.4187000000
5.5058000000 5.5312000000 0.6252000000
5.5055000000 5.3770000000 0.6882000000
5.5053000000 6.9894000000 0.0316000000
5.5048000000 2.2974000000 0.4455000000
5.5048000000 1.6039000000 0.1607000000
5.5046000000 6.5351000000 0.2188000000
5.5044000000 3.4321000000 0.9042000000
5.5040000000 2.8178000000 0.6559000000
5.5036000000 6.8179000000 0.1065000000
5.5032000000 4.9423000000 0.8675000000
5.5028000000 4.0968000000 1.1707000000
5.5023000000 2.7785000000 0.6440000000
5.5019000000 4.0902000000 1.1715000000
5.5013000000 2.3875000000 0.4830000000
5.5003000000 4.5701000000 1.0214000000
5.4998000000 1.4400000000 0.0979000000
5.4990000000 2.8788000000 0.6817000000
5.4977000000 6.7736000000 0.1230000000
5.2639000000 6.0122000000 0.6023000000
5.2625000000 7.4475000000 0.0207000000
5.2614000000 7.4516000000 0.0152000000
5.2604000000 1.7370000000 0.3877000000
5.2598000000 7.4771000000 0.0040000000
5.2595000000 7.0330000000 0.1910000000
5.2589000000 6.0656000000 0.5838000000
5.2585000000 6.9840000000 0.2112000000
5.2582000000 4.1151000000 1.3441000000
5.2579000000 6.2270000000 0.5156000000
5.2574000000 7.1649000000 0.1351000000
5.2571000000 6.5847000000 0.3714000000
5.2568000000 3.8085000000 1.2328000000
5.2566000000 6.8901000000 0.2471000000
5.2562000000 6.3484000000 0.4673000000
5.2559000000 6.7756000000 0.2959000000
5.2555000000 2.5387000000 0.7190000000
5.2552000000 6.8913000000 0.2467000000
5.2550000000 3.2806000000 1.0155000000
5.2547000000 6.3816000000 0.4589000000
5.2544000000 5.8466000000 0.6726000000
5.2542000000 0.7582000000 0.0717000000
5.2535000000 2.2400000000 0.5960000000
5.2532000000 1.5296000000 0.3068000000
5.2528000000 4.8576000000 1.0807000000
5.2525000000 1.1093000000 0.1382000000
5.2521000000 2.3247000000 0.6317000000
5.2520000000 1.0533000000 0.1163000000
5.2518000000 0.6266000000 0.0169000000
5.2517000000 3.4593000000 1.0935000000
5.2513000000 5.4716000000 0.8293000000
5.2512000000 1.3853000000 0.2471000000
5.2509000000 6.4428000000 0.4307000000
5.2503000000 0.6439000000 0.0263000000
5.2494000000 6.2297000000 0.5268000000
5.2460000000 0.8801000000 0.0463000000
5.0118000000 6.1677000000 0.7152000000
5.0112000000 5.8219000000 0.8517000000
5.0094000000 3.3124000000 1.2085000000
5.0090000000 7.7239000000 0.0888000000
5.0086000000 4.9739000000 1.2028000000
5.0077000000 6.6340000000 0.5265000000
5.0073000000 3.3128000000 1.2113000000
5.0070000000 3.0128000000 1.0846000000
5.0068000000 1.6047000000 0.5130000000
5.0066000000 3.7135000000 1.3701000000
5.0063000000 1.3454000000 0.4082000000
5.0060000000 7.2349000000 0.2896000000
5.0056000000 5.7538000000 0.8768000000
5.0052000000 5.6068000000 0.9468000000
5.0050000000 3.1081000000 1.1261000000
5.0047000000 3.6472000000 1.3423000000
5.0044000000 5.3170000000 1.0623000000
5.0042000000 2.4150000000 0.8438000000
5.0037000000 8.0344000000 0.0353000000
5.0036000000 3.6161000000 1.3331000000
5.0035000000 2.1699000000 0.7445000000
5.0032000000 6.4192000000 0.6198000000
5.0028000000 3.4387000000 1.2687000000
5.0025000000 7.9656000000 0.0697000000
5.0023000000 0.6491000000 0.1281000000
5.0016000000 6.0870000000 0.7617000000
5.0013000000 3.7420000000 1.3886000000
5.0007000000 0.5392000000 0.0814000000
5.0000000000 4.3060000000 1.4844000000
4.9989000000 7.8034000000 0.0569000000
4.9960000000 2.7074000000 0.9698000000
4.7622000000 5.5412000000 1.1487000000
4.7612000000 7.4284000000 0.3817000000
4.7601000000 6.5587000000 0.7342000000
4.7600000000 6.7502000000 0.6535000000
4.7590000000 6.1431000000 0.9045000000
4.7588000000 4.1560000000 1.6953000000
4.7580000000 3.4439000000 1.4323000000
4.7579000000 6.8812000000 0.6050000000
4.7575000000 4.8876000000 1.4123000000
4.7573000000 7.2770000000 0.4423000000
4.7571000000 3.2495000000 1.3534000000
4.7568000000 7.5406000000 0.3326000000
4.7565000000 8.3101000000 0.0596000000
4.7562000000 6.0171000000 0.9529000000
4.7560000000 1.1613000000 0.5095000000
4.7558000000 3.8385000000 1.6002000000
4.7556000000 8.1400000000 0.0820000000
4.7553000000 0.7251000000 0.3350000000
4.7551000000 0.6758000000 0.3122000000
4.7548000000 2.7336000000 1.1472000000
4.7544000000 1.5861000000 0.6822000000
4.7539000000 4.7770000000 1.4614000000
4.7538000000 7.7941000000 0.2380000000
4.7534000000 6.1153000000 0.9155000000
4.7532000000 0.6595000000 0.3112000000
4.7528000000 2.9076000000 1.2195000000
4.7527000000 4.7747000000 1.4635000000
4.7525000000 6.6179000000 0.7158000000
4.7521000000 0.1317000000 0.0795000000
4.7518000000 3.5715000000 1.4909000000
4.7515000000 5.2207000000 1.2820000000
4.7514000000 3.6552000000 1.5292000000
4.7511000000 5.9672000000 0.9828000000
4.7503000000 1.0887000000 0.4862000000
4.7499000000 3.3805000000 1.4139000000
4.7490000000 5.3079000000 1.2548000000
4.7487000000 0.7009000000 0.3293000000
4.7479000000 8.3146000000 0.0562000000
4.7473000000 0.0607000000 0.0563000000
4.5149000000 7.6965000000 0.4437000000
4.5130000000 6.5647000000 0.9054000000
4.5127000000 8.1580000000 0.1138000000
4.5112000000 6.7729000000 0.8208000000
4.5106000000 6.4220000000 0.9678000000
4.5099000000 6.3909000000 0.9816000000
4.5095000000 6.7201000000 0.8439000000
4.5088000000 7.6413000000 0.4721000000
4.5085000000 5.7740000000 1.2322000000
4.5081000000 3.9073000000 1.8011000000
4.5078000000 7.1494000000 0.6689000000
4.5075000000 3.7902000000 1.7543000000
4.5073000000 0.7216000000 0.5046000000
4.5069000000 6.6990000000 0.8553000000
4.5067000000 6.9405000000 0.7562000000
4.5061000000 4.1490000000 1.8759000000
4.5060000000 6.6179000000 0.8904000000
4.5056000000 5.7554000000 1.2428000000
4.5055000000 5.6163000000 1.3026000000
4.5053000000 0.7521000000 0.5243000000
4.5050000000 2.7472000000 1.3364000000
4.5048000000 5.7722000000 1.2323000000
4.5042000000 2.2816000000 1.1435000000
4.5039000000 6.4879000000 0.9387000000
4.5037000000 6.1282000000 1.0905000000
4.5035000000 1.9863000000 1.0231000000
4.5030000000 4.1875000000 1.8710000000
4.5027000000 4.7430000000 1.6541000000
4.5026000000 1.1413000000 0.6770000000
4.5023000000 1.1965000000 0.7057000000
4.5022000000 7.8807000000 0.3326000000
4.5020000000 3.8405000000 1.7841000000
4.5018000000 5.4152000000 1.3818000000
4.5014000000 1.2736000000 0.7385000000
4.5011000000 0.5246000000 0.4208000000
4.5008000000 4.1468000000 1.8792000000
4.5000000000 0.5169000000 0.4132000000
4.4993000000 7.1739000000 0.6595000000
4.4989000000 3.1621000000 1.5065000000
4.4984000000 1.7187000000 0.9209000000
4.4977000000 3.2591000000 1.5459000000
4.4949000000 1.2333000000 0.7200000000
4.2615000000 1.6482000000 1.0566000000
4.2595000000 7.8556000000 0.3659000000
4.2591000000 7.9403000000 0.2238000000
4.2587000000 7.2446000000 0.8099000000
4.2585000000 6.3140000000 1.1890000000
4.2581000000 3.1804000000 1.6810000000
4.2580000000 1.1253000000 0.8455000000
4.2575000000 6.2384000000 1.2209000000
4.2573000000 7.6043000000 0.4944000000
4.2571000000 6.8816000000 0.9587000000
4.2566000000 6.5421000000 1.0912000000
4.2563000000 7.5800000000 0.5896000000
4.2563000000 4.2657000000 2.0180000000
4.2560000000 2.4229000000 1.3769000000
4.2557000000 7.4651000000 0.6756000000
4.2555000000 2.3864000000 1.3600000000
4.2552000000 4.7131000000 1.8454000000
4.2549000000 6.7321000000 1.0237000000
4.2547000000 5.4806000000 1.5311000000
4.2544000000 2.7210000000 1.4961000000
4.2541000000 0.3153000000 0.2771000000
4.2540000000 5.8177000000 1.3942000000
4.2538000000 2.8788000000 1.5634000000
4.2534000000 4.3268000000 1.9988000000
4.2531000000 2.5021000000 1.4097000000
4.2528000000 0.6537000000 0.5541000000
4.2526000000 2.7591000000 1.5161000000
4.2523000000 0.9723000000 0.7721000000
4.2519000000 2.1943000000 1.2851000000
4.2518000000 1.3177000000 0.9251000000
4.2515000000 4.9587000000 1.7419000000
4.2514000000 1.9223000000 1.1754000000
4.2512000000 5.2526000000 1.6224000000
4.2505000000 8.0100000000 0.2402000000
4.2500000000 2.2433000000 1.3045000000
4.2498000000 2.5295000000 1.4234000000
4.2482000000 3.4806000000 1.8119000000
4.2473000000 7.2018000000 0.8327000000
4.0135000000 8.1344000000 0.0664000000
4.0123000000 5.6617000000 1.6245000000
4.0120000000 6.2595000000 1.3809000000
4.0115000000 7.5995000000 0.5721000000
4.0104000000 6.6813000000 1.2139000000
4.0100000000 6.9678000000 1.0752000000
4.0095000000 4.9841000000 1.9033000000
4.0089000000 6.5521000000 1.2595000000
4.0086000000 4.4334000000 2.1260000000
4.0081000000 4.7271000000 2.0071000000
4.0078000000 1.2754000000 1.0415000000
4.0074000000 0.9587000000 0.8027000000
4.0070000000 3.6124000000 2.0348000000
4.0068000000 0.8636000000 0.7280000000
4.0065000000 2.5848000000 1.6111000000
4.0063000000 3.8146000000 2.1156000000
4.0058000000 4.8938000000 1.9492000000
4.0055000000 3.5784000000 2.0159000000
4.0053000000 3.3609000000 1.9333000000
4.0050000000 6.4430000000 1.3128000000
4.0048000000 5.4183000000 1.7294000000
4.0046000000 6.8188000000 1.1575000000
4.0044000000 1.5857000000 1.2131000000
4.0040000000 7.1404000000 0.9484000000
4.0036000000 2.4872000000 1.5769000000
4.0034000000 6.5450000000 1.2739000000
4.0032000000 0.6233000000 0.5278000000
4.0030000000 2.2845000000 1.4987000000
4.0029000000 3.2826000000 1.9010000000
4.0024000000 3.0830000000 1.8240000000
4.0018000000 5.5677000000 1.6671000000
4.0014000000 0.3548000000 0.3055000000
4.0010000000 0.6561000000 0.5556000000
4.0004000000 2.4420000000 1.5631000000
3.9998000000 3.2681000000 1.8999000000
3.9992000000 0.0933000000 0.0990000000
3.9987000000 0.8186000000 0.6904000000
3.9983000000 1.3705000000 1.1172000000
3.9973000000 1.2473000000 1.0317000000
3.9946000000 1.5524000000 1.2079000000
3.7633000000 3.7960000000 2.2812000000
3.7615000000 5.0487000000 2.0528000000
3.7606000000 8.1916000000 0.0899000000
3.7598000000 7.2989000000 0.8280000000
3.7592000000 4.1248000000 2.4078000000
3.7590000000 6.4117000000 1.4897000000
3.7588000000 2.7898000000 1.8767000000
3.7586000000 6.5388000000 1.4233000000
3.7581000000 6.6186000000 1.3641000000
3.7577000000 4.5736000000 2.2422000000
3.7575000000 5.8527000000 1.7298000000
3.7573000000 0.5039000000 0.4307000000
3.7567000000 5.5094000000 1.8739000000
3.7564000000 8.2413000000 0.0520000000
3.7562000000 2.1835000000 1.6323000000
3.7560000000 3.2530000000 2.0700000000
3.7558000000 3.6291000000 2.2187000000
3.7556000000 5.3653000000 1.9317000000
3.7551000000 2.2357000000 1.6521000000
3.7548000000 7.9912000000 0.1822000000
3.7547000000 6.7593000000 1.2559000000
3.7544000000 7.9282000000 0.3060000000
3.7540000000 7.2441000000 0.8672000000
3.7539000000 0.1453000000 0.1464000000
3.7536000000 5.7518000000 1.7659000000
3.7533000000 1.1476000000 0.9512000000
3.7531000000 3.5950000000 2.2062000000
3.7527000000 2.2913000000 1.6756000000
3.7525000000 2.5219000000 1.7677000000
3.7523000000 7.8334000000 0.3839000000
3.7519000000 1.8973000000 1.5188000000
3.7518000000 0.1013000000 0.0987000000
3.7515000000 3.7327000000 2.2609000000
3.7512000000 4.6045000000 2.2415000000
3.7505000000 1.8747000000 1.4983000000
3.7503000000 2.6425000000 1.8209000000
3.7497000000 3.3063000000 2.0869000000
3.7494000000 1.5067000000 1.2511000000
3.7490000000 2.2864000000 1.6800000000
3.7485000000 0.5310000000 0.4532000000
3.7480000000 5.9783000000 1.6812000000
3.7446000000 1.4778000000 1.2273000000
3.5128000000 5.3952000000 2.0883000000
3.5106000000 7.9229000000 0.2396000000
3.5102000000 0.8841000000 0.7449000000
3.5095000000 7.9711000000 0.1987000000
3.5090000000 2.6428000000 1.9897000000
3.5087000000 4.2797000000 2.5437000000
3.5085000000 5.5398000000 2.0299000000
3.5079000000 5.2487000000 2.1542000000
3.5075000000 0.4031000000 0.3496000000
3.5073000000 0.3424000000 0.3026000000
3.5070000000 4.7737000000 2.3424000000
3.5068000000 7.7555000000 0.4506000000
3.5065000000 2.8247000000 2.0657000000
3.5064000000 1.8975000000 1.5651000000
3.5060000000 7.9098000000 0.2460000000
3.5059000000 1.9084000000 1.5703000000
3.5057000000 3.7386000000 2.4379000000
3.5053000000 1.7232000000 1.4271000000
3.5051000000 3.7022000000 2.4251000000
3.5049000000 5.8992000000 1.8857000000
3.5047000000 0.8440000000 0.7080000000
3.5043000000 4.0215000000 2.5503000000
3.5039000000 3.4673000000 2.3292000000
3.5037000000 5.8661000000 1.8997000000
3.5033000000 3.4486000000 2.3221000000
3.5030000000 7.9561000000 0.2105000000
3.5026000000 6.7837000000 1.2417000000
3.5024000000 4.7321000000 2.3624000000
3.5020000000 5.6358000000 2.0003000000
3.5016000000 3.7825000000 2.4562000000
3.5013000000 0.4355000000 0.3712000000
3.5009000000 0.5106000000 0.4378000000
3.5005000000 2.3041000000 1.8443000000
3.5000000000 0.4344000000 0.3786000000
3.4996000000 0.6759000000 0.5741000000
3.4993000000 6.7971000000 1.2289000000
3.4986000000 6.4791000000 1.4844000000
3.4968000000 2.0876000000 1.7170000000
3.2655000000 5.0925000000 2.3877000000
3.2633000000 2.9391000000 2.2788000000
3.2615000000 6.4926000000 1.4730000000
3.2611000000 4.1239000000 2.7561000000
3.2605000000 5.7605000000 2.0683000000
3.2600000000 2.6330000000 2.1501000000
3.2592000000 4.9786000000 2.4384000000
3.2585000000 5.1105000000 2.3807000000
3.2579000000 7.7066000000 0.4864000000
3.2576000000 6.9377000000 1.1076000000
3.2573000000 4.4638000000 2.6415000000
3.2572000000 2.2595000000 1.8638000000
3.2570000000 6.9597000000 1.0961000000
3.2568000000 7.8707000000 0.2824000000
3.2565000000 4.6145000000 2.5869000000
3.2563000000 3.8292000000 2.6516000000
3.2558000000 2.4583000000 2.0205000000
3.2556000000 7.7166000000 0.4816000000
3.2553000000 3.1286000000 2.3649000000
3.2549000000 2.2364000000 1.8380000000
3.2548000000 5.9971000000 1.8778000000
3.2545000000 4.5698000000 2.6072000000
3.2544000000 7.7608000000 0.4422000000
3.2541000000 8.0101000000 0.2377000000
3.2536000000 1.4225000000 1.1790000000
3.2531000000 0.8215000000 0.6926000000
3.2528000000 1.3549000000 1.1231000000
3.2523000000 5.7674000000 2.0624000000
3.2521000000 1.4677000000 1.2143000000
3.2518000000 3.0836000000 2.3535000000
3.2508000000 3.4611000000 2.5022000000
3.2505000000 3.1599000000 2.3864000000
3.2498000000 0.1817000000 0.1736000000
3.2497000000 0.5483000000 0.4673000000
3.2486000000 5.1130000000 2.3825000000
3.2477000000 8.2011000000 0.0897000000
3.2461000000 1.5547000000 1.2844000000
3.0130000000 6.7210000000 1.2854000000
3.0101000000 4.3163000000 2.8756000000
3.0093000000 4.2651000000 2.8995000000
3.0088000000 7.6293000000 0.5483000000
3.0086000000 5.1463000000 2.5300000000
3.0080000000 7.8477000000 0.3013000000
3.0077000000 5.9974000000 1.8824000000
3.0073000000 3.7609000000 2.8000000000
3.0065000000 1.1103000000 0.9263000000
3.0063000000 3.1876000000 2.5660000000
3.0060000000 0.8516000000 0.7130000000
3.0057000000 7.6319000000 0.4790000000
3.0054000000 2.3167000000 1.9076000000
3.0051000000 8.3107000000 0.0698000000
3.0049000000 6.9795000000 1.0842000000
3.0048000000 3.0557000000 2.4974000000
3.0046000000 3.6285000000 2.7428000000
3.0044000000 5.9844000000 1.8876000000
3.0043000000 3.8421000000 2.8321000000
3.0040000000 5.8749000000 1.9794000000
3.0038000000 3.7705000000 2.8116000000
3.0032000000 3.5136000000 2.7017000000
3.0027000000 0.6232000000 0.5263000000
3.0025000000 8.2391000000 0.0491000000
3.0023000000 3.6474000000 2.7535000000
3.0020000000 0.4270000000 0.3701000000
3.0017000000 3.3148000000 2.6168000000
3.0013000000 6.8516000000 1.1826000000
3.0010000000 0.4149000000 0.3545000000
3.0006000000 2.9706000000 2.4275000000
2.9995000000 3.3976000000 2.6501000000
2.9992000000 1.8613000000 1.5362000000
2.9990000000 3.2675000000 2.6043000000
2.9987000000 0.5140000000 0.4418000000
2.9981000000 1.6639000000 1.3810000000
2.9978000000 3.8042000000 2.8222000000
2.9975000000 5.3553000000 2.4001000000
2.9968000000 1.1177000000 0.9317000000
2.9952000000 1.1920000000 0.9901000000
2.7626000000 7.0017000000 1.0565000000
2.7622000000 7.9568000000 0.2137000000
2.7610000000 4.9474000000 2.7294000000
2.7604000000 8.0952000000 0.0972000000
2.7595000000 4.9192000000 2.7512000000
2.7587000000 4.9621000000 2.7227000000
2.7582000000 3.3108000000 2.7154000000
2.7579000000 2.1740000000 1.7870000000
2.7575000000 4.5637000000 2.9577000000
2.7572000000 0.8801000000 0.7432000000
2.7568000000 3.1124000000 2.5531000000
2.7564000000 7.5761000000 0.5959000000
2.7561000000 1.6189000000 1.3403000000
2.7560000000 6.5854000000 1.4033000000
2.7557000000 0.0154000000 0.0355000000
2.7555000000 4.6749000000 2.9055000000
2.7553000000 5.5427000000 2.2427000000
2.7550000000 5.0690000000 2.6308000000
2.7548000000 4.6338000000 2.9265000000
2.7546000000 5.0721000000 2.6282000000
2.7544000000 1.6431000000 1.3641000000
2.7542000000 6.0583000000 1.8258000000
2.7538000000 7.8132000000 0.3988000000
2.7535000000 1.4866000000 1.2318000000
2.7533000000 2.5872000000 2.1249000000
2.7532000000 1.7887000000 1.4764000000
2.7529000000 5.6652000000 2.1503000000
2.7526000000 6.2424000000 1.6800000000
2.7523000000 1.4325000000 1.1907000000
2.7521000000 6.4333000000 1.5229000000
2.7519000000 0.9248000000 0.7745000000
2.7516000000 4.1896000000 3.1032000000
2.7513000000 2.8450000000 2.3331000000
2.7509000000 7.0625000000 1.0154000000
2.7504000000 0.3992000000 0.3457000000
2.7495000000 2.6770000000 2.1993000000
2.7493000000 1.8377000000 1.5145000000
2.7488000000 0.5217000000 0.4490000000
2.5141000000 8.0924000000 0.1694000000
2.5118000000 7.6468000000 0.4621000000
2.5109000000 6.6279000000 1.3645000000
2.5106000000 8.0365000000 0.1437000000
2.5100000000 2.0698000000 1.7102000000
2.5097000000 7.4534000000 0.6897000000
2.5088000000 6.2890000000 1.6383000000
2.5085000000 4.6500000000 2.9673000000
2.5083000000 1.4096000000 1.1685000000
2.5079000000 3.5949000000 2.9466000000
2.5076000000 3.6501000000 2.9955000000
2.5073000000 5.3406000000 2.4106000000
2.5070000000 1.4945000000 1.2399000000
2.5067000000 5.3847000000 2.3757000000
2.5063000000 4.9024000000 2.7670000000
2.5060000000 1.2185000000 1.0106000000
2.5058000000 7.5377000000 0.6222000000
2.5056000000 1.2331000000 1.0279000000
2.5053000000 0.5480000000 0.4639000000
2.5050000000 7.4462000000 0.6940000000
2.5048000000 5.7705000000 2.0604000000
2.5046000000 3.3493000000 2.7450000000
2.5044000000 3.5603000000 2.9144000000
2.5042000000 7.7961000000 0.4138000000
2.5038000000 7.1002000000 0.9828000000
2.5034000000 7.5794000000 0.5911000000
2.5031000000 0.3976000000 0.3465000000
2.5028000000 6.5320000000 1.4437000000
2.5024000000 3.8411000000 3.1353000000
2.5023000000 3.3061000000 2.7089000000
2.5020000000 7.0638000000 1.0186000000
2.5017000000 7.2639000000 0.8429000000
2.5015000000 3.9900000000 3.2326000000
2.5010000000 7.0101000000 1.0525000000
2.5003000000 6.6874000000 1.3137000000
2.4996000000 4.9367000000 2.7384000000
2.4981000000 1.2937000000 1.0734000000
2.4966000000 0.9950000000 0.8268000000
2.4963000000 3.3436000000 2.7436000000
2.2650000000 5.1106000000 2.5984000000
2.2628000000 5.9412000000 1.9219000000
2.2610000000 6.5386000000 1.4384000000
2.2600000000 8.0913000000 0.1735000000
2.2591000000 6.0239000000 1.8524000000
2.2583000000 7.5065000000 0.5762000000
2.2580000000 1.1517000000 0.9617000000
2.2576000000 0.6902000000 0.5817000000
2.2575000000 0.1740000000 0.1638000000
2.2570000000 7.7105000000 0.4796000000
2.2566000000 3.8806000000 3.1655000000
2.2564000000 7.8505000000 0.3646000000
2.2561000000 3.7649000000 3.0798000000
2.2559000000 5.2949000000 2.4449000000
2.2555000000 3.5866000000 2.9342000000
2.2553000000 1.9972000000 1.6482000000
2.2551000000 4.6574000000 2.9700000000
2.2550000000 6.0612000000 1.8233000000
2.2546000000 6.9243000000 1.1221000000
2.2544000000 6.5071000000 1.4639000000
2.2542000000 5.0436000000 2.6487000000
2.2539000000 1.3996000000 1.1629000000
2.2538000000 5.7333000000 2.0894000000
2.2536000000 0.6113000000 0.5232000000
2.2533000000 7.6991000000 0.4912000000
2.2530000000 1.5756000000 1.2992000000
2.2527000000 5.2749000000 2.4594000000
2.2525000000 5.2595000000 2.4724000000
2.2522000000 5.6813000000 2.1315000000
2.2519000000 4.9648000000 2.7190000000
2.2515000000 7.1430000000 0.9455000000
2.2511000000 7.1158000000 0.9679000000
2.2509000000 7.7005000000 0.4150000000
2.2507000000 0.6478000000 0.5521000000
2.2498000000 4.7607000000 2.8821000000
2.2496000000 0.8932000000 0.7476000000
2.2487000000 1.7415000000 1.4328000000
2.2482000000 2.7368000000 2.2490000000
2.2471000000 3.3917000000 2.7856000000
2.0128000000 3.5449000000 2.8684000000
2.0103000000 6.8155000000 1.2139000000
2.0099000000 4.7972000000 2.8386000000
2.0093000000 3.2812000000 2.6875000000
2.0089000000 4.2228000000 3.0876000000
2.0085000000 7.7050000000 0.4066000000
2.0078000000 6.2025000000 1.7066000000
2.0075000000 3.2231000000 2.6412000000
2.0072000000 4.2547000000 3.0724000000
2.0070000000 6.2834000000 1.6408000000
2.0068000000 4.9853000000 2.7060000000
2.0064000000 7.5991000000 0.5060000000
2.0063000000 2.7169000000 2.2313000000
2.0060000000 6.0245000000 1.8588000000
2.0058000000 5.4718000000 2.3037000000
2.0056000000 2.4472000000 2.0128000000
2.0053000000 2.7100000000 2.2242000000
2.0050000000 4.1881000000 3.0862000000
2.0049000000 2.8072000000 2.3045000000
2.0045000000 2.8793000000 2.3641000000
2.0043000000 3.1393000000 2.5726000000
2.0041000000 0.3230000000 0.2869000000
2.0039000000 1.0817000000 0.9025000000
2.0036000000 4.0600000000 3.0828000000
2.0033000000 7.3394000000 0.7823000000
2.0030000000 1.7250000000 1.4254000000
2.0028000000 1.1744000000 0.9781000000
2.0025000000 2.3289000000 1.9162000000
2.0023000000 5.2920000000 2.4522000000
2.0020000000 4.3834000000 3.0171000000
2.0017000000 2.3937000000 1.9684000000
2.0013000000 2.0011000000 1.6490000000
2.0008000000 0.1348000000 0.1292000000
1.9997000000 2.0338000000 1.6790000000
1.9993000000 2.3089000000 1.9011000000
1.9976000000 0.7080000000 0.6018000000
1.7621000000 5.7218000000 2.1026000000
1.7610000000 7.3926000000 0.7435000000
1.7602000000 4.8520000000 2.6552000000
1.7593000000 4.4967000000 2.7994000000
1.7583000000 5.5716000000 2.2251000000
1.7580000000 1.6119000000 1.3311000000
1.7575000000 6.3251000000 1.6135000000
1.7571000000 7.9320000000 0.3043000000
1.7565000000 4.9656000000 2.6123000000
1.7564000000 0.9292000000 0.7817000000
1.7562000000 5.6992000000 2.1237000000
1.7559000000 1.6491000000 1.3636000000
1.7556000000 7.3973000000 0.7378000000
1.7555000000 4.7496000000 2.6964000000
1.7553000000 0.7608000000 0.6441000000
1.7552000000 7.6044000000 0.5707000000
1.7550000000 3.4066000000 2.6471000000
1.7548000000 0.5169000000 0.4470000000
1.7545000000 2.5197000000 2.0717000000
1.7544000000 1.8965000000 1.5639000000
1.7540000000 0.3625000000 0.3100000000
1.7538000000 1.9228000000 1.5859000000
1.7535000000 0.0163000000 0.0317000000
1.7533000000 0.7106000000 0.5971000000
1.7531000000 5.1152000000 2.5457000000
1.7527000000 1.9073000000 1.5712000000
1.7523000000 2.2643000000 1.8653000000
1.7521000000 3.2078000000 2.5626000000
1.7520000000 4.6595000000 2.7308000000
1.7515000000 8.2399000000 0.0463000000
1.7512000000 6.2794000000 1.6490000000
1.7508000000 0.8483000000 0.7154000000
1.7506000000 3.8667000000 2.8308000000
1.7502000000 1.3036000000 1.0837000000
1.7498000000 0.4039000000 0.3511000000
1.7493000000 2.4669000000 2.0282000000
1.7489000000 1.2055000000 1.0035000000
1.7488000000 0.0888000000 0.0959000000
1.7478000000 4.7131000000 2.7002000000
1.7470000000 2.5564000000 2.1011000000
1.7461000000 0.0581000000 0.0734000000
1.5109000000 3.5221000000 2.5212000000
1.5098000000 5.3129000000 2.2897000000
1.5095000000 4.1446000000 2.7513000000
1.5091000000 5.6638000000 2.1318000000
1.5089000000 5.7886000000 2.0461000000
1.5085000000 4.9771000000 2.4270000000
1.5080000000 4.3764000000 2.6711000000
1.5079000000 5.6484000000 2.1404000000
1.5074000000 7.9315000000 0.2975000000
1.5071000000 6.8333000000 1.1999000000
1.5068000000 3.5446000000 2.5237000000
1.5065000000 6.6233000000 1.3611000000
1.5060000000 1.6828000000 1.3890000000
1.5057000000 4.8115000000 2.4986000000
1.5055000000 7.1250000000 0.9564000000
1.5053000000 3.8926000000 2.6693000000
1.5051000000 4.7072000000 2.5349000000
1.5050000000 5.7886000000 2.0433000000
1.5048000000 0.4890000000 0.4185000000
1.5046000000 7.8882000000 0.3381000000
1.5044000000 3.9095000000 2.6773000000
1.5042000000 4.2777000000 2.7048000000
1.5040000000 1.5875000000 1.3185000000
1.5038000000 5.4546000000 2.2321000000
1.5036000000 4.0278000000 2.7183000000
1.5034000000 1.9437000000 1.6053000000
1.5032000000 3.2847000000 2.4180000000
1.5030000000 6.7069000000 1.2979000000
1.5028000000 1.2721000000 1.0589000000
1.5027000000 3.0521000000 2.3294000000
1.5025000000 6.5746000000 1.4060000000
1.5022000000 4.2659000000 2.7129000000
1.5020000000 2.5250000000 2.0601000000
1.5018000000 2.4015000000 1.9724000000
1.5013000000 6.0471000000 1.8349000000
1.5011000000 3.7649000000 2.6099000000
1.5007000000 0.3126000000 0.2787000000
1.5001000000 2.4351000000 2.0047000000
1.4993000000 1.0826000000 0.9039000000
1.4981000000 0.7277000000 0.6119000000
1.4978000000 2.2155000000 1.8202000000
1.2640000000 7.2637000000 0.8474000000
1.2617000000 6.6750000000 1.3237000000
1.2610000000 4.9857000000 2.2495000000
1.2604000000 8.2318000000 0.0600000000
1.2586000000 6.6239000000 1.3668000000
1.2582000000 6.0797000000 1.7854000000
1.2580000000 1.1097000000 0.9248000000
1.2579000000 4.7170000000 2.3591000000
1.2575000000 4.3546000000 2.5016000000
1.2571000000 3.1096000000 2.1726000000
1.2565000000 2.9980000000 2.1242000000
1.2563000000 6.9037000000 1.1412000000
1.2561000000 7.4415000000 0.7062000000
1.2557000000 8.2948000000 0.0071000000
1.2555000000 4.0751000000 2.5563000000
1.2554000000 0.5887000000 0.5040000000
1.2552000000 5.6935000000 1.9561000000
1.2550000000 6.0569000000 1.7960000000
1.2547000000 2.6635000000 1.9933000000
1.2545000000 4.6704000000 2.3686000000
1.2543000000 7.1159000000 0.9653000000
1.2542000000 4.8689000000 2.2955000000
1.2540000000 6.4504000000 1.5108000000
1.2539000000 3.2993000000 2.2472000000
1.2536000000 3.0772000000 2.1572000000
1.2533000000 5.4501000000 2.0543000000
1.2529000000 0.4962000000 0.4297000000
1.2526000000 3.2082000000 2.2115000000
1.2524000000 2.9051000000 2.0821000000
1.2521000000 7.8543000000 0.2909000000
1.2520000000 4.6017000000 2.4045000000
1.2517000000 2.2192000000 1.7957000000
1.2515000000 1.8319000000 1.5083000000
1.2509000000 1.7741000000 1.4672000000
1.2505000000 4.8664000000 2.2904000000
1.2502000000 1.9130000000 1.5769000000
1.2484000000 0.9252000000 0.7742000000
1.2462000000 1.1670000000 0.9672000000
1.2448000000 2.5161000000 1.9245000000
1.0109000000 4.8170000000 2.1436000000
1.0098000000 5.4273000000 1.8937000000
1.0093000000 3.3294000000 2.0860000000
1.0089000000 4.3263000000 2.3391000000
1.0084000000 5.2796000000 1.9558000000
1.0081000000 7.3322000000 0.7912000000
1.0074000000 0.4161000000 0.3689000000
1.0069000000 2.9345000000 1.9291000000
1.0068000000 7.3561000000 0.7701000000
1.0061000000 6.7074000000 1.2988000000
1.0058000000 8.3172000000 0.0634000000
1.0056000000 8.2919000000 0.0093000000
1.0051000000 5.0493000000 2.0381000000
1.0049000000 0.2156000000 0.2022000000
1.0045000000 6.5148000000 1.4348000000
1.0043000000 6.3491000000 1.5142000000
1.0041000000 1.6284000000 1.3395000000
1.0039000000 3.2501000000 2.0517000000
1.0037000000 0.5603000000 0.4824000000
1.0036000000 2.3177000000 1.6793000000
1.0033000000 5.5669000000 1.8293000000
1.0031000000 0.5565000000 0.4748000000
1.0028000000 1.0790000000 0.9007000000
1.0026000000 5.8869000000 1.7012000000
1.0023000000 6.5016000000 1.4335000000
1.0022000000 4.1744000000 2.3871000000
1.0018000000 1.5468000000 1.2734000000
1.0014000000 5.7561000000 1.7532000000
1.0010000000 3.2538000000 2.0541000000
1.0008000000 5.3119000000 1.9331000000
1.0006000000 7.0707000000 1.0043000000
1.0002000000 2.5503000000 1.7672000000
0.9993000000 0.6143000000 0.5211000000
0.9987000000 2.0870000000 1.5724000000
0.9976000000 5.1770000000 1.9847000000
0.9933000000 4.1352000000 2.3883000000
0.7630000000 8.3097000000 0.0759000000
0.7606000000 2.6488000000 1.6359000000
0.7591000000 2.0535000000 1.3876000000
0.7588000000 2.7997000000 1.6943000000
0.7586000000 2.9762000000 1.7649000000
0.7581000000 7.0614000000 1.0030000000
0.7578000000 8.2305000000 0.0625000000
0.7575000000 3.7506000000 2.0848000000
0.7569000000 1.9305000000 1.3456000000
0.7567000000 3.7013000000 2.0604000000
0.7564000000 5.8045000000 1.5637000000
0.7562000000 5.7638000000 1.5796000000
0.7558000000 0.5892000000 0.5046000000
0.7555000000 5.4368000000 1.7103000000
0.7551000000 7.0391000000 1.0174000000
0.7550000000 3.5507000000 1.9968000000
0.7547000000 1.1739000000 0.9798000000
0.7544000000 5.0015000000 1.8869000000
0.7542000000 5.5648000000 1.6612000000
0.7538000000 6.1522000000 1.4177000000
0.7536000000 4.4466000000 2.1146000000
0.7533000000 4.6586000000 2.0218000000
0.7530000000 1.1462000000 0.9577000000
0.7528000000 7.0146000000 1.0377000000
0.7526000000 7.0959000000 0.9878000000
0.7525000000 0.7731000000 0.6522000000
0.7523000000 6.8087000000 1.1509000000
0.7520000000 5.7111000000 1.5987000000
0.7519000000 7.9922000000 0.1803000000
0.7516000000 2.8654000000 1.7134000000
0.7514000000 3.6517000000 2.0349000000
0.7513000000 4.7278000000 1.9950000000
0.7502000000 5.3722000000 1.7321000000
0.7498000000 1.1430000000 0.9482000000
0.7496000000 0.6629000000 0.5636000000
0.7489000000 3.2028000000 1.8498000000
0.7480000000 1.9222000000 1.3302000000
0.7469000000 4.9778000000 1.8924000000
0.5148000000 6.7248000000 1.0197000000
0.5115000000 5.9531000000 1.3231000000
0.5108000000 8.2901000000 0.0085000000
0.5101000000 8.0113000000 0.2382000000
0.5098000000 5.0535000000 1.6900000000
0.5087000000 5.9878000000 1.3143000000
0.5083000000 8.2008000000 0.0851000000
0.5079000000 5.6733000000 1.4435000000
0.5074000000 3.5118000000 1.8087000000
0.5070000000 4.2550000000 2.0095000000
0.5068000000 5.0163000000 1.7055000000
0.5064000000 2.6507000000 1.4575000000
0.5062000000 4.8191000000 1.7857000000
0.5060000000 6.1317000000 1.2505000000
0.5060000000 8.1359000000 0.1376000000
0.5058000000 8.1263000000 0.1469000000
0.5054000000 2.4821000000 1.3854000000
0.5053000000 6.5638000000 1.0727000000
0.5051000000 6.8479000000 0.9611000000
0.5048000000 5.3766000000 1.5579000000
0.5046000000 2.6056000000 1.4369000000
0.5043000000 4.8462000000 1.7759000000
0.5040000000 7.6993000000 0.4940000000
0.5038000000 5.6850000000 1.4292000000
0.5035000000 6.6626000000 1.0325000000
0.5033000000 5.1017000000 1.6727000000
0.5031000000 6.9489000000 0.9173000000
0.5029000000 1.0898000000 0.8209000000
0.5026000000 6.5776000000 1.0669000000
0.5024000000 5.1387000000 1.6565000000
0.5020000000 6.1518000000 1.2342000000
0.5019000000 2.7336000000 1.4859000000
0.5017000000 6.2086000000 1.2142000000
0.5014000000 2.5873000000 1.4270000000
0.5013000000 5.6817000000 1.4274000000
0.5011000000 5.0849000000 1.6723000000
0.5010000000 1.4787000000 0.9795000000
0.5005000000 0.6629000000 0.5632000000
0.5002000000 5.7059000000 1.4236000000
0.5000000000 1.4145000000 0.9520000000
0.4997000000 3.9740000000 1.9905000000
0.4995000000 6.3812000000 1.1474000000
0.4990000000 5.7228000000 1.4101000000
0.4987000000 3.3815000000 1.7468000000
0.4974000000 4.2047000000 2.0329000000
0.4961000000 2.9037000000 1.5528000000
0.2668000000 7.1705000000 0.6559000000
0.2635000000 6.0358000000 1.1223000000
0.2619000000 7.2257000000 0.6347000000
0.2607000000 2.5073000000 1.2256000000
0.2593000000 7.2943000000 0.6045000000
0.2588000000 5.9167000000 1.1614000000
0.2582000000 5.0213000000 1.5292000000
0.2578000000 5.8967000000 1.1770000000
0.2576000000 5.5730000000 1.3030000000
0.2571000000 2.2572000000 1.1143000000
0.2570000000 5.9853000000 1.1364000000
0.2567000000 4.2762000000 1.8295000000
0.2563000000 2.1942000000 1.0964000000
0.2562000000 2.5243000000 1.2314000000
0.2559000000 1.1585000000 0.6773000000
0.2554000000 0.0947000000 0.0978000000
0.2551000000 8.1617000000 0.1155000000
0.2550000000 8.2004000000 0.0841000000
0.2548000000 2.9362000000 1.3876000000
0.2546000000 2.1592000000 1.0799000000
0.2545000000 4.0158000000 1.8267000000
0.2543000000 5.2370000000 1.4419000000
0.2541000000 8.1597000000 0.1140000000
0.2537000000 3.7701000000 1.7341000000
0.2534000000 4.1416000000 1.8662000000
0.2533000000 3.8768000000 1.7785000000
0.2530000000 0.9548000000 0.5998000000
0.2527000000 4.4657000000 1.7525000000
0.2525000000 2.6467000000 1.2821000000
0.2524000000 0.1414000000 0.1370000000
0.2522000000 2.2887000000 1.1313000000
0.2520000000 7.7527000000 0.4004000000
0.2518000000 3.1219000000 1.4642000000
0.2512000000 1.5931000000 0.8443000000
0.2509000000 6.8808000000 0.7610000000
0.2506000000 2.6729000000 1.2859000000
0.2498000000 3.0020000000 1.4147000000
0.2496000000 5.7408000000 1.2271000000
0.2465000000 7.0306000000 0.6993000000
0.2423000000 2.2066000000 1.0944000000
0.0114000000 6.7728000000 0.6438000000
0.0103000000 6.2349000000 0.8586000000
0.0101000000 7.3367000000 0.4101000000
0.0092000000 5.2265000000 1.2713000000
0.0087000000 5.9010000000 0.9954000000
0.0083000000 5.8688000000 1.0027000000
0.0079000000 5.6856000000 1.0783000000
0.0075000000 1.4463000000 0.6169000000
0.0072000000 4.6605000000 1.4995000000
0.0068000000 8.0518000000 0.1196000000
0.0064000000 6.1438000000 0.8952000000
0.0061000000 5.2640000000 1.2521000000
0.0060000000 3.3815000000 1.4027000000
0.0057000000 5.6455000000 1.0968000000
0.0055000000 8.0097000000 0.1324000000
0.0053000000 6.8215000000 0.6096000000
0.0050000000 4.6628000000 1.4959000000
0.0049000000 7.2940000000 0.4243000000
0.0046000000 0.9997000000 0.4324000000
0.0045000000 4.4449000000 1.5757000000
0.0043000000 7.8829000000 0.1852000000
0.0041000000 7.5119000000 0.3388000000
0.0040000000 1.8732000000 0.7895000000
0.0037000000 0.6439000000 0.2855000000
0.0035000000 0.7282000000 0.3247000000
0.0033000000 1.8701000000 0.7839000000
0.0031000000 2.7571000000 1.1464000000
0.0029000000 3.8583000000 1.5906000000
0.0025000000 4.9950000000 1.3634000000
0.0023000000 4.4256000000 1.5876000000
0.0021000000 6.7952000000 0.6267000000
0.0017000000 4.6035000000 1.5197000000
0.0013000000 1.0543000000 0.4473000000
0.0010000000 1.2945000000 0.5499000000
0.0007000000 6.6487000000 0.6835000000
0.0005000000 4.0940000000 1.6779000000
0.0002000000 0.4714000000 0.2147000000
-0.0002000000 5.7258000000 1.0597000000
-0.0010000000 7.2073000000 0.4562000000
-0.0016000000 5.6282000000 1.0975000000
-0.0022000000 5.6138000000 1.1052000000
-0.0036000000 0.2880000000 0.1394000000
-0.2382000000 4.5063000000 1.3848000000
-0.2390000000 7.7704000000 0.0577000000
-0.2396000000 6.7736000000 0.4670000000
-0.2405000000 7.8638000000 0.0969000000
-0.2408000000 7.0911000000 0.3308000000
-0.2419000000 6.5983000000 0.5380000000
-0.2423000000 6.6009000000 0.5326000000
-0.2429000000 5.7061000000 0.8976000000
-0.2437000000 5.2980000000 1.0627000000
-0.2439000000 2.4124000000 0.8313000000
-0.2442000000 1.8818000000 0.6134000000
-0.2444000000 4.8179000000 1.2638000000
-0.2445000000 0.7150000000 0.1418000000
-0.2447000000 6.0284000000 0.7607000000
-0.2448000000 3.0021000000 1.0707000000
-0.2450000000 7.2673000000 0.2599000000
-0.2452000000 2.8178000000 0.9957000000
-0.2455000000 5.7431000000 0.8764000000
-0.2457000000 6.1096000000 0.7294000000
-0.2458000000 6.4216000000 0.6018000000
-0.2462000000 2.7597000000 0.9725000000
-0.2463000000 7.6090000000 0.1219000000
-0.2465000000 3.5414000000 1.2836000000
-0.2467000000 2.6768000000 0.9338000000
-0.2471000000 5.6122000000 0.9345000000
-0.2472000000 4.7248000000 1.2900000000
-0.2474000000 4.4149000000 1.4153000000
-0.2476000000 6.3248000000 0.6418000000
-0.2477000000 6.9601000000 0.3787000000
-0.2479000000 0.8529000000 0.1946000000
-0.2480000000 3.3731000000 1.2178000000
-0.2483000000 2.6512000000 0.9224000000
-0.2483000000 1.8898000000 0.6227000000
-0.2491000000 5.0960000000 1.1397000000
-0.2492000000 4.7872000000 1.2659000000
-0.2494000000 5.0251000000 1.1648000000
-0.2495000000 7.2716000000 0.2570000000
-0.2500000000 4.1186000000 1.5120000000
-0.2502000000 0.4671000000 0.0327000000
-0.2510000000 3.7209000000 1.3547000000
-0.2514000000 1.3446000000 0.3927000000
-0.2517000000 1.9980000000 0.6629000000
-0.2520000000 2.7574000000 0.9645000000
-0.2551000000 1.3758000000 0.4035000000
-0.4871000000 5.8119000000 0.6797000000
-0.4885000000 4.7169000000 1.1294000000
-0.4897000000 3.7373000000 1.2015000000
-0.4906000000 2.4964000000 0.6940000000
-0.4911000000 4.5084000000 1.2074000000
-0.4919000000 4.9642000000 1.0284000000
-0.4923000000 6.3688000000 0.4472000000
-0.4925000000 4.9256000000 1.0389000000
-0.4932000000 3.6263000000 1.1514000000
-0.4937000000 4.9630000000 1.0215000000
-0.4941000000 3.4201000000 1.0631000000
-0.4945000000 4.1409000000 1.3446000000
-0.4946000000 2.6278000000 0.7395000000
-0.4949000000 4.1000000000 1.3325000000
-0.4952000000 7.2004000000 0.1125000000
-0.4954000000 3.5587000000 1.1207000000
-0.4955000000 1.5132000000 0.2884000000
-0.4959000000 0.8338000000 0.0846000000
-0.4961000000 1.7530000000 0.3855000000
-0.4963000000 7.2419000000 0.0946000000
-0.4965000000 4.6152000000 1.1648000000
-0.4968000000 6.0132000000 0.5914000000
-0.4972000000 1.2730000000 0.1866000000
-0.4978000000 2.4094000000 0.6498000000
-0.4982000000 0.9532000000 0.0604000000
-0.4986000000 3.7975000000 1.2167000000
-0.4989000000 4.9387000000 1.0331000000
-0.4996000000 5.8990000000 0.6421000000
-0.5001000000 7.1674000000 0.1176000000
-0.5008000000 2.2493000000 0.5821000000
-0.5029000000 2.3085000000 0.6035000000
-0.5062000000 4.4747000000 1.2121000000
-0.7398000000 3.6051000000 0.9585000000
-0.7404000000 5.7822000000 0.5143000000
-0.7412000000 6.2048000000 0.3393000000
-0.7419000000 6.8888000000 0.0666000000
-0.7425000000 4.0347000000 1.1408000000
-0.7426000000 6.6524000000 0.1613000000
-0.7432000000 7.0095000000 0.0854000000
-0.7440000000 5.3065000000 0.7044000000
-0.7445000000 4.6352000000 0.9821000000
-0.7447000000 5.1549000000 0.7650000000
-0.7450000000 1.1757000000 0.0514000000
-0.7451000000 2.9294000000 0.6927000000
-0.7453000000 6.4884000000 0.2254000000
-0.7457000000 3.0009000000 0.7131000000
-0.7459000000 6.0712000000 0.3961000000
-0.7462000000 3.7674000000 1.0302000000
-0.7470000000 2.8438000000 0.6532000000
-0.7473000000 2.1165000000 0.3544000000
-0.7478000000 1.2677000000 0.0921000000
-0.7481000000 2.4219000000 0.4840000000
-0.7483000000 1.2140000000 0.0606000000
-0.7485000000 2.0081000000 0.3113000000
-0.7487000000 5.8739000000 0.4743000000
-0.7491000000 1.1447000000 0.0351000000
-0.7497000000 4.8244000000 0.8971000000
-0.7505000000 6.7709000000 0.1039000000
-0.7522000000 2.1397000000 0.3644000000
-0.7538000000 3.0408000000 0.7301000000
-0.9886000000 6.3831000000 0.0986000000
-0.9906000000 6.7712000000 0.0124000000
-0.9911000000 1.7982000000 0.0579000000
-0.9917000000 2.9728000000 0.5292000000
-0.9922000000 2.4064000000 0.3058000000
-0.9926000000 6.6444000000 0.0596000000
-0.9932000000 6.3068000000 0.1273000000
-0.9936000000 5.4829000000 0.4582000000
-0.9939000000 6.1746000000 0.1805000000
-0.9943000000 6.1781000000 0.1760000000
-0.9947000000 5.0795000000 0.6202000000
-0.9950000000 2.6187000000 0.3864000000
-0.9953000000 6.0394000000 0.2364000000
-0.9958000000 6.0226000000 0.2408000000
-0.9962000000 5.0714000000 0.6298000000
-0.9965000000 2.6473000000 0.3997000000
-0.9973000000 6.2567000000 0.1454000000
-0.9977000000 2.3132000000 0.2571000000
-0.9979000000 2.7899000000 0.4573000000
-0.9981000000 2.6140000000 0.3799000000
-0.9982000000 4.1030000000 0.9785000000
-0.9990000000 4.9396000000 0.6762000000
-0.9997000000 1.9014000000 0.0931000000
-1.0006000000 3.9529000000 0.9250000000
-1.0010000000 2.8820000000 0.4951000000
-1.0015000000 4.7472000000 0.7541000000
-1.0032000000 2.7845000000 0.4436000000
-1.2398000000 5.5398000000 0.2552000000
-1.2405000000 6.2250000000 0.0586000000
-1.2414000000 2.5765000000 0.1890000000
-1.2426000000 2.4447000000 0.1398000000
-1.2431000000 3.9409000000 0.7494000000
-1.2439000000 6.3311000000 0.0147000000
-1.2441000000 4.5990000000 0.6386000000
-1.2445000000 4.4373000000 0.7063000000
-1.2447000000 2.3500000000 0.1016000000
-1.2453000000 5.2160000000 0.3904000000
-1.2457000000 4.2412000000 0.7849000000
-1.2462000000 5.7215000000 0.1899000000
-1.2469000000 5.5242000000 0.2683000000
-1.2473000000 4.4417000000 0.7024000000
-1.2477000000 2.9402000000 0.3417000000
-1.2479000000 2.4411000000 0.1403000000
-1.2485000000 2.6617000000 0.2283000000
-1.2490000000 4.2982000000 0.7604000000
-1.2499000000 2.0349000000 0.0437000000
-1.2505000000 4.6500000000 0.6140000000
-1.2509000000 5.5019000000 0.2671000000
-1.2516000000 5.7398000000 0.1725000000
-1.2524000000 2.1745000000 0.0235000000
-1.4899000000 4.3848000000 0.5583000000
-1.4922000000 5.6639000000 0.0388000000
-1.4935000000 5.6664000000 0.0305000000
-1.4940000000 5.7425000000 0.0772000000
-1.4944000000 3.4399000000 0.3713000000
-1.4952000000 5.4304000000 0.1264000000
-1.4960000000 2.5969000000 0.0225000000
-1.4965000000 2.4494000000 0.0357000000
-1.4974000000 3.5406000000 0.4124000000
-1.4980000000 5.5786000000 0.0627000000
-1.4982000000 3.1641000000 0.2572000000
-1.4985000000 5.2842000000 0.1825000000
-1.4988000000 3.0781000000 0.2199000000
-1.4991000000 2.9010000000 0.1429000000
-1.7373000000 5.3674000000 0.0583000000
-1.7430000000 4.5746000000 0.2999000000
-1.7441000000 4.0612000000 0.4468000000
-1.7447000000 3.7970000000 0.3423000000
-1.7456000000 4.3798000000 0.3811000000
-1.7465000000 5.4671000000 0.0085000000
-1.7473000000 5.2446000000 0.0298000000
-1.7478000000 5.1348000000 0.0695000000
-1.7532000000 3.0559000000 0.0289000000
-1.9909000000 4.9278000000 0.0587000000
-1.9930000000 4.4277000000 0.1844000000
-1.9949000000 4.6704000000 0.0862000000
-1.9955000000 4.0886000000 0.2667000000
-1.9961000000 4.2541000000 0.2502000000
-1.9976000000 4.3477000000 0.2168000000
-1.9988000000 3.9457000000 0.2234000000
-1.9999000000 4.4858000000 0.1505000000
