5.0058000000 2.2466000000 0.2442000000
5.0054000000 4.4734000000 0.3999000000
5.0050000000 5.5753000000 0.0409000000
5.0049000000 2.1916000000 0.2205000000
5.0047000000 3.2421000000 0.6994000000
5.0044000000 1.5055000000 0.0559000000
5.0043000000 4.1476000000 0.5416000000
5.0040000000 4.3277000000 0.4620000000
5.0038000000 4.0553000000 0.5859000000
5.0032000000 1.3896000000 0.0120000000
5.0028000000 1.6166000000 0.0278000000
5.0025000000 5.4205000000 0.0427000000
5.0023000000 2.0781000000 0.1715000000
5.0021000000 2.0543000000 0.1609000000
5.0019000000 5.4690000000 0.0225000000
5.0017000000 3.9184000000 0.6441000000
5.0016000000 5.4433000000 0.0320000000
5.0002000000 2.6736000000 0.4447000000
4.9995000000 2.0562000000 0.1579000000
4.9991000000 4.9909000000 0.1631000000
4.9986000000 3.3693000000 0.7557000000
4.9970000000 4.0216000000 0.6109000000
4.9965000000 1.5734000000 0.0189000000
4.7648000000 5.2382000000 0.2374000000
4.7634000000 4.6379000000 0.5112000000
4.7612000000 3.8310000000 0.8755000000
4.7603000000 5.6486000000 0.1264000000
4.7586000000 3.3361000000 0.9402000000
4.7584000000 1.1744000000 0.0218000000
4.7580000000 3.3800000000 0.9554000000
4.7578000000 4.0545000000 0.7823000000
4.7579000000 5.0022000000 0.3474000000
4.7575000000 3.9480000000 0.8258000000
4.7569000000 3.5801000000 0.9949000000
4.7565000000 1.4820000000 0.0857000000
4.7561000000 2.3365000000 0.4810000000
4.7557000000 3.1193000000 0.8366000000
4.7556000000 1.9285000000 0.2919000000
4.7554000000 2.8424000000 0.7129000000
4.7553000000 5.4167000000 0.1567000000
4.7552000000 1.4194000000 0.1371000000
4.7548000000 3.2745000000 0.9114000000
4.7547000000 5.2203000000 0.2519000000
4.7545000000 1.6776000000 0.1845000000
4.7543000000 3.3215000000 0.9284000000
4.7541000000 4.6096000000 0.5309000000
4.7540000000 3.5150000000 1.0834000000
4.7539000000 3.0717000000 0.8162000000
4.7535000000 2.2878000000 0.4553000000
4.7530000000 1.5576000000 0.1278000000
4.7525000000 3.2854000000 0.9163000000
4.7521000000 3.9744000000 0.8247000000
4.7518000000 4.2549000000 0.6936000000
4.7515000000 3.4041000000 0.9697000000
4.7513000000 4.2940000000 0.6739000000
4.7510000000 1.7280000000 0.2055000000
4.7508000000 1.9011000000 0.2867000000
4.7500000000 4.6914000000 0.4967000000
4.7497000000 3.2049000000 0.8812000000
4.7494000000 5.0855000000 0.3117000000
4.7482000000 3.2670000000 0.9088000000
4.7471000000 2.9696000000 0.7748000000
4.7443000000 3.6071000000 0.9907000000
4.5105000000 2.2556000000 0.6338000000
4.5100000000 5.8973000000 0.1331000000
4.5095000000 6.2257000000 0.0624000000
4.5087000000 3.5092000000 1.2712000000
4.5084000000 5.8985000000 0.1384000000
4.5083000000 2.6481000000 0.8229000000
4.5080000000 4.1324000000 0.9369000000
4.5077000000 3.0211000000 0.9855000000
4.5073000000 2.1783000000 0.6035000000
4.5071000000 2.2783000000 0.6513000000
4.5070000000 5.1147000000 0.5003000000
4.5069000000 3.2876000000 1.1089000000
4.5067000000 5.0304000000 0.5387000000
4.5063000000 5.5495000000 0.2992000000
4.5061000000 5.7482000000 0.2107000000
4.5056000000 3.9383000000 1.0295000000
4.5053000000 5.0887000000 0.5064000000
4.5050000000 1.9032000000 0.4838000000
4.5049000000 2.1841000000 0.6066000000
4.5049000000 2.8922000000 0.9278000000
4.5046000000 6.0816000000 0.1321000000
4.5045000000 6.3560000000 0.0862000000
4.5042000000 5.3631000000 0.3834000000
4.5040000000 5.8799000000 0.1498000000
4.5039000000 4.5572000000 0.7512000000
4.5034000000 0.6918000000 0.0092000000
4.5031000000 4.1044000000 0.9588000000
4.5030000000 4.1683000000 0.9325000000
4.5029000000 2.8800000000 0.9343000000
4.5026000000 5.5903000000 0.2862000000
4.5024000000 1.8650000000 0.4600000000
4.5022000000 1.7019000000 0.3954000000
4.5021000000 4.3162000000 0.8660000000
4.5020000000 4.0883000000 0.9658000000
4.5019000000 1.0955000000 0.1171000000
4.5015000000 2.5437000000 0.7764000000
4.5012000000 1.6856000000 0.3839000000
4.5010000000 6.4711000000 0.0318000000
4.5007000000 1.3691000000 0.2442000000
4.5003000000 4.9260000000 0.5885000000
4.5000000000 6.2712000000 0.0492000000
4.4996000000 4.6402000000 0.7173000000
4.4991000000 3.3909000000 1.1609000000
4.4989000000 4.2640000000 0.8876000000
4.4984000000 3.7754000000 1.1115000000
4.4972000000 1.7542000000 0.4173000000
4.4962000000 0.5457000000 0.0216000000
4.2645000000 4.6011000000 0.9199000000
4.2624000000 4.5907000000 0.9313000000
4.2617000000 5.8898000000 0.3361000000
4.2613000000 4.5799000000 0.9352000000
4.2608000000 4.0454000000 1.1732000000
4.2604000000 4.4106000000 1.0087000000
4.2589000000 1.2285000000 0.3655000000
4.2587000000 2.9837000000 1.1664000000
4.2585000000 4.6748000000 0.8953000000
4.2584000000 6.2930000000 0.1506000000
4.2583000000 6.1931000000 0.1994000000
4.2581000000 5.8016000000 0.3800000000
4.2579000000 3.6909000000 1.3449000000
4.2578000000 5.1539000000 0.6741000000
4.2576000000 6.4803000000 0.0690000000
4.2572000000 5.7621000000 0.3971000000
4.2570000000 3.2183000000 1.2761000000
4.2568000000 1.2079000000 0.3560000000
4.2565000000 5.2044000000 0.6535000000
4.2562000000 5.2536000000 0.6350000000
4.2559000000 3.8067000000 1.2881000000
4.2559000000 4.6640000000 0.9013000000
4.2557000000 2.9827000000 1.1648000000
4.2556000000 4.7579000000 0.8603000000
4.2555000000 4.2239000000 1.1017000000
4.2553000000 4.2637000000 1.0795000000
4.2551000000 2.3874000000 0.8961000000
4.2550000000 2.6133000000 1.0015000000
4.2548000000 4.8830000000 0.7992000000
4.2547000000 2.9800000000 1.1670000000
4.2545000000 5.2401000000 0.6386000000
4.2543000000 4.5547000000 0.9529000000
4.2542000000 1.7730000000 0.6262000000
4.2540000000 2.9607000000 1.1573000000
4.2538000000 5.0690000000 0.7171000000
4.2533000000 0.3541000000 0.0515000000
4.2532000000 0.6553000000 0.1104000000
4.2531000000 6.8318000000 0.0626000000
4.2528000000 1.6223000000 0.5492000000
4.2525000000 0.2344000000 0.0694000000
4.2523000000 6.1057000000 0.2466000000
4.2520000000 6.5576000000 0.1133000000
4.2516000000 0.3500000000 0.0497000000
4.2513000000 3.5519000000 1.3945000000
4.2505000000 5.8759000000 0.3510000000
4.2502000000 1.6837000000 0.5837000000
4.2499000000 3.1523000000 1.2541000000
4.2496000000 2.6378000000 1.0139000000
4.2493000000 6.5015000000 0.1366000000
4.2490000000 6.5694000000 0.1144000000
4.2481000000 0.7793000000 0.1773000000
4.2465000000 4.3268000000 1.0586000000
4.0115000000 4.8253000000 1.0120000000
4.0110000000 4.2736000000 1.2696000000
4.0105000000 2.7348000000 1.2479000000
4.0103000000 7.0812000000 0.0827000000
4.0098000000 5.4995000000 0.7089000000
4.0095000000 5.6743000000 0.6328000000
4.0094000000 1.9423000000 0.8973000000
4.0092000000 2.7038000000 1.2340000000
4.0090000000 3.0529000000 1.3985000000
4.0089000000 3.2172000000 1.4657000000
4.0087000000 4.1923000000 1.3048000000
4.0083000000 5.6465000000 0.6463000000
4.0081000000 5.7287000000 0.6057000000
4.0078000000 0.4896000000 0.2311000000
4.0074000000 6.3975000000 0.3056000000
4.0070000000 1.5851000000 0.7317000000
4.0070000000 5.9386000000 0.5153000000
4.0068000000 3.3319000000 1.5303000000
4.0064000000 6.7432000000 0.1496000000
4.0060000000 5.8842000000 0.5392000000
4.0057000000 2.2365000000 1.0285000000
4.0055000000 3.2529000000 1.4870000000
4.0053000000 4.6352000000 1.1079000000
4.0050000000 6.6384000000 0.2018000000
4.0049000000 2.6119000000 1.1974000000
4.0046000000 3.6384000000 1.5626000000
4.0043000000 2.0208000000 0.9305000000
4.0038000000 4.5657000000 1.1438000000
4.0037000000 0.1574000000 0.1376000000
4.0035000000 6.7564000000 0.1439000000
4.0031000000 5.1740000000 0.8700000000
4.0030000000 6.0424000000 0.4698000000
4.0026000000 0.1055000000 0.1150000000
4.0023000000 1.0346000000 0.4802000000
4.0023000000 4.4570000000 1.1952000000
4.0020000000 0.2124000000 0.0984000000
4.0019000000 6.4960000000 0.2664000000
4.0018000000 0.4957000000 0.2397000000
4.0017000000 4.0698000000 1.3684000000
4.0015000000 2.3417000000 1.0778000000
4.0011000000 0.7979000000 0.3754000000
4.0006000000 4.2179000000 1.3045000000
4.0004000000 5.6495000000 0.6504000000
4.0002000000 6.6039000000 0.2122000000
3.9998000000 1.9963000000 0.9225000000
3.9996000000 6.0063000000 0.4885000000
3.9993000000 3.1821000000 1.4657000000
3.9985000000 0.8749000000 0.4134000000
3.9979000000 1.1958000000 0.5616000000
3.9959000000 3.4711000000 1.5955000000
3.7653000000 7.0496000000 0.0400000000
3.7628000000 5.3703000000 0.9660000000
3.7617000000 5.4111000000 0.9523000000
3.7602000000 6.5586000000 0.3946000000
3.7598000000 5.5772000000 0.8762000000
3.7595000000 4.3427000000 1.4334000000
3.7594000000 3.5461000000 1.8583000000
3.7590000000 1.6490000000 0.9544000000
3.7585000000 2.9661000000 1.5539000000
3.7582000000 1.7816000000 1.0150000000
3.7578000000 3.3199000000 1.7136000000
3.7575000000 4.8229000000 1.2205000000
3.7572000000 3.1389000000 1.6329000000
3.7570000000 3.6069000000 1.7760000000
3.7568000000 5.7259000000 0.8012000000
3.7565000000 5.8609000000 0.7482000000
3.7559000000 0.4103000000 0.3296000000
3.7558000000 5.2386000000 1.0327000000
3.7557000000 0.8613000000 0.6038000000
3.7554000000 0.9829000000 0.6544000000
3.7553000000 2.8022000000 1.4873000000
3.7551000000 4.3770000000 1.4297000000
3.7548000000 5.8493000000 0.7546000000
3.7545000000 4.5952000000 1.3261000000
3.7544000000 1.1601000000 0.7375000000
3.7543000000 6.0205000000 0.6743000000
3.7542000000 3.0805000000 1.6080000000
3.7541000000 4.0871000000 1.5550000000
3.7537000000 4.7223000000 1.2682000000
3.7536000000 3.9981000000 1.5953000000
3.7533000000 2.6984000000 1.4382000000
3.7529000000 3.9703000000 1.6066000000
3.7528000000 4.4450000000 1.3936000000
3.7525000000 2.1996000000 1.2177000000
3.7525000000 0.3033000000 0.2359000000
3.7522000000 1.5087000000 0.8975000000
3.7520000000 2.8666000000 1.5156000000
3.7518000000 3.7148000000 1.7283000000
3.7515000000 1.3125000000 0.8125000000
3.7514000000 6.1536000000 0.6180000000
3.7513000000 3.6067000000 1.7739000000
3.7511000000 3.2099000000 1.6678000000
3.7510000000 1.1503000000 0.7344000000
3.7506000000 2.7926000000 1.4809000000
3.7504000000 0.3924000000 0.3190000000
3.7500000000 2.4232000000 1.3147000000
3.7499000000 1.4353000000 0.8670000000
3.7495000000 5.2012000000 1.0517000000
3.7491000000 2.4958000000 1.3449000000
3.7488000000 2.3816000000 1.2932000000
3.7477000000 6.5977000000 0.3643000000
3.7444000000 2.0867000000 1.1601000000
3.5119000000 2.9537000000 1.7428000000
3.5109000000 5.9450000000 0.8962000000
3.5105000000 6.9173000000 0.0832000000
3.5098000000 7.0296000000 0.0569000000
3.5093000000 4.4333000000 1.5925000000
3.5086000000 3.0526000000 1.7879000000
3.5082000000 4.1501000000 1.7211000000
3.5080000000 2.5957000000 1.5807000000
3.5078000000 6.7879000000 0.1978000000
3.5078000000 3.8774000000 1.8455000000
3.5076000000 2.1706000000 1.3854000000
3.5073000000 5.3857000000 1.1614000000
3.5067000000 0.8148000000 0.7050000000
3.5064000000 6.7555000000 0.2356000000
3.5062000000 6.0556000000 0.8421000000
3.5058000000 7.0850000000 0.0764000000
3.5057000000 6.2065000000 0.7221000000
3.5055000000 5.3468000000 1.1831000000
3.5054000000 5.6571000000 1.0322000000
3.5051000000 4.3278000000 1.6420000000
3.5051000000 5.6289000000 1.0519000000
3.5049000000 1.7846000000 1.2119000000
3.5048000000 6.4015000000 0.5466000000
3.5045000000 6.6721000000 0.3074000000
3.5044000000 0.9003000000 0.8396000000
3.5043000000 0.9289000000 0.8650000000
3.5040000000 5.3510000000 1.1807000000
3.5038000000 4.9689000000 1.3500000000
3.5038000000 2.1477000000 1.3789000000
3.5034000000 2.3283000000 1.4624000000
3.5032000000 4.1167000000 1.7397000000
3.5030000000 2.4915000000 1.5438000000
3.5030000000 5.4964000000 1.1160000000
3.5028000000 0.1308000000 0.0821000000
3.5025000000 4.1956000000 1.7054000000
3.5023000000 2.2824000000 1.4463000000
3.5021000000 1.1713000000 0.9381000000
3.5020000000 4.5621000000 1.5364000000
3.5018000000 2.7305000000 1.6437000000
3.5018000000 3.0047000000 1.7708000000
3.5017000000 4.9137000000 1.3844000000
3.5015000000 2.2205000000 1.4170000000
3.5013000000 2.5118000000 1.5507000000
3.5010000000 0.0646000000 0.0977000000
3.5009000000 3.7052000000 1.9297000000
3.5006000000 1.1581000000 0.9379000000
3.5004000000 1.7937000000 1.2207000000
3.5000000000 3.0177000000 1.7868000000
3.4995000000 0.5380000000 0.4515000000
3.4992000000 1.6697000000 1.1741000000
3.4983000000 1.2896000000 0.9989000000
3.4980000000 0.2439000000 0.1877000000
3.4978000000 0.0479000000 0.0759000000
3.4971000000 2.1501000000 1.3844000000
3.4965000000 3.5948000000 1.9868000000
3.4954000000 0.8079000000 0.6957000000
3.2629000000 3.6850000000 2.1294000000
3.2618000000 6.7143000000 0.2680000000
3.2599000000 4.2259000000 1.8856000000
3.2596000000 3.5226000000 2.2633000000
3.2590000000 6.9955000000 0.0787000000
3.2589000000 5.8946000000 1.0130000000
3.2588000000 4.2777000000 1.8591000000
3.2587000000 4.7548000000 1.6431000000
3.2585000000 5.7903000000 1.1078000000
3.2583000000 7.0295000000 0.0564000000
3.2578000000 3.1596000000 2.0406000000
3.2575000000 1.7600000000 1.4005000000
3.2573000000 1.6877000000 1.3688000000
3.2570000000 5.8125000000 1.0852000000
3.2568000000 3.3118000000 2.1100000000
3.2566000000 3.5846000000 2.1741000000
3.2565000000 3.2315000000 2.0671000000
3.2563000000 1.7958000000 1.4170000000
3.2560000000 6.5579000000 0.4150000000
3.2556000000 4.1963000000 1.9002000000
3.2555000000 1.7434000000 1.3970000000
3.2553000000 6.0234000000 0.8957000000
3.2552000000 2.9311000000 1.9355000000
3.2549000000 3.7303000000 2.1158000000
3.2548000000 0.7867000000 0.6740000000
3.2545000000 1.9759000000 1.5064000000
3.2544000000 4.6729000000 1.6860000000
3.2544000000 6.5333000000 0.4331000000
3.2541000000 3.0801000000 2.0011000000
3.2540000000 0.6840000000 0.5760000000
3.2539000000 5.1713000000 1.4606000000
3.2535000000 1.3560000000 1.2525000000
3.2532000000 0.3940000000 0.3185000000
3.2531000000 6.5414000000 0.4259000000
3.2528000000 4.2065000000 1.8960000000
3.2526000000 2.9684000000 1.9534000000
3.2526000000 3.3941000000 2.1440000000
3.2524000000 1.3062000000 1.1419000000
3.2522000000 3.3142000000 2.1120000000
3.2519000000 1.1589000000 1.0142000000
3.2516000000 2.2212000000 1.6160000000
3.2514000000 1.0903000000 0.9523000000
3.2514000000 0.8012000000 0.6901000000
3.2511000000 1.4030000000 1.2996000000
3.2508000000 2.0001000000 1.5164000000
3.2507000000 0.4323000000 0.3539000000
3.2505000000 5.5340000000 1.2898000000
3.2504000000 3.2676000000 2.0910000000
3.2500000000 0.2041000000 0.1470000000
3.2498000000 5.7759000000 1.1173000000
3.2496000000 1.1752000000 1.0324000000
3.2494000000 2.1518000000 1.5871000000
3.2493000000 4.1784000000 1.9137000000
3.2490000000 3.0319000000 1.9930000000
3.2483000000 3.7494000000 2.1061000000
3.2472000000 1.2396000000 1.0869000000
3.2470000000 2.5546000000 1.7664000000
3.0131000000 4.2500000000 2.0620000000
3.0117000000 2.4806000000 1.9200000000
3.0103000000 5.6349000000 1.2447000000
3.0097000000 0.7406000000 0.6342000000
3.0094000000 3.9637000000 2.2021000000
3.0093000000 2.6966000000 2.0203000000
3.0089000000 3.7947000000 2.2764000000
3.0086000000 6.0994000000 0.8260000000
3.0081000000 3.3361000000 2.3148000000
3.0080000000 4.8929000000 1.7749000000
3.0079000000 5.6970000000 1.1920000000
3.0074000000 5.9599000000 0.9526000000
3.0071000000 4.6626000000 1.8826000000
3.0070000000 2.1110000000 1.7582000000
3.0067000000 2.4039000000 1.8893000000
3.0065000000 1.2323000000 1.0801000000
3.0065000000 5.0026000000 1.7321000000
3.0063000000 5.8175000000 1.0855000000
3.0059000000 0.8316000000 0.7117000000
3.0056000000 5.1430000000 1.6500000000
3.0055000000 0.4131000000 0.3365000000
3.0052000000 3.9931000000 2.1858000000
3.0050000000 4.7890000000 1.8287000000
3.0048000000 4.1391000000 2.1202000000
3.0047000000 0.9885000000 0.8588000000
3.0045000000 1.0639000000 0.9252000000
3.0043000000 3.7325000000 2.3094000000
3.0043000000 5.7195000000 1.1666000000
3.0040000000 2.4286000000 1.9060000000
3.0038000000 5.4270000000 1.4375000000
3.0034000000 6.7736000000 0.2143000000
3.0034000000 5.0521000000 1.7085000000
3.0033000000 0.3626000000 0.2928000000
3.0029000000 5.8515000000 1.0489000000
3.0026000000 6.3496000000 0.5992000000
3.0023000000 0.1129000000 0.1365000000
3.0021000000 2.8438000000 2.1001000000
3.0020000000 3.8183000000 2.2696000000
3.0016000000 1.7443000000 1.5363000000
3.0015000000 0.7150000000 0.6097000000
3.0014000000 1.4071000000 1.2394000000
3.0011000000 3.1417000000 2.2326000000
3.0010000000 1.3012000000 1.1439000000
3.0008000000 5.4572000000 1.4076000000
3.0004000000 3.7743000000 2.2931000000
3.0001000000 0.4643000000 0.3844000000
2.9996000000 4.7348000000 1.8543000000
2.9994000000 6.6144000000 0.3604000000
2.9989000000 2.3434000000 1.8708000000
2.9984000000 4.8207000000 1.8169000000
2.9973000000 0.6037000000 0.5050000000
2.9971000000 3.9843000000 2.1996000000
2.9948000000 1.3956000000 1.2314000000
2.7634000000 4.6640000000 2.0723000000
2.7625000000 2.4053000000 2.0817000000
2.7613000000 4.8158000000 1.9780000000
2.7610000000 1.1455000000 0.9980000000
2.7597000000 5.2630000000 1.5896000000
2.7595000000 6.9525000000 0.1227000000
2.7591000000 3.5283000000 2.6501000000
2.7588000000 5.7795000000 1.1104000000
2.7585000000 5.8906000000 1.0133000000
2.7585000000 3.8052000000 2.4694000000
2.7574000000 4.8921000000 1.9181000000
2.7573000000 3.4123000000 2.5437000000
2.7572000000 3.6687000000 2.5348000000
2.7570000000 6.1049000000 0.8153000000
2.7567000000 5.7351000000 1.1579000000
2.7566000000 4.7252000000 2.0426000000
2.7565000000 6.7452000000 0.2355000000
2.7564000000 0.4229000000 0.3440000000
2.7558000000 5.2061000000 1.6366000000
2.7555000000 2.4097000000 2.0879000000
2.7553000000 6.0496000000 0.8753000000
2.7553000000 3.6911000000 2.5230000000
2.7551000000 6.9436000000 0.1334000000
2.7550000000 0.1718000000 0.1158000000
2.7548000000 6.1778000000 0.7540000000
2.7544000000 0.8551000000 0.7351000000
2.7543000000 2.4819000000 2.1263000000
2.7540000000 6.6156000000 0.3577000000
2.7539000000 6.4245000000 0.5334000000
2.7538000000 0.9766000000 0.8454000000
2.7535000000 5.4950000000 1.3787000000
2.7533000000 4.1742000000 2.3113000000
2.7531000000 2.4223000000 2.0987000000
2.7530000000 1.3346000000 1.1755000000
2.7527000000 1.5972000000 1.4147000000
2.7525000000 0.3701000000 0.2952000000
2.7523000000 0.3467000000 0.2758000000
2.7521000000 2.1278000000 1.8940000000
2.7520000000 1.0861000000 0.9419000000
2.7518000000 3.7289000000 2.5097000000
2.7515000000 4.7029000000 2.0512000000
2.7513000000 1.8186000000 1.6142000000
2.7510000000 0.6811000000 0.5817000000
2.7508000000 5.5248000000 1.3487000000
2.7507000000 0.7075000000 0.6015000000
2.7503000000 2.4515000000 2.1122000000
2.7501000000 1.6135000000 1.4249000000
2.7498000000 1.0758000000 0.9410000000
2.7490000000 0.2994000000 0.2245000000
2.7485000000 1.0475000000 0.9108000000
2.7478000000 5.9985000000 0.9177000000
2.7473000000 0.4891000000 0.4052000000
2.5155000000 3.8913000000 2.6197000000
2.5133000000 6.9950000000 0.0856000000
2.5125000000 3.9765000000 2.5850000000
2.5097000000 2.4400000000 2.1832000000
2.5090000000 6.5057000000 0.4587000000
2.5087000000 2.3317000000 2.0820000000
2.5083000000 4.5379000000 2.2498000000
2.5080000000 6.6728000000 0.3111000000
2.5074000000 5.2444000000 1.6009000000
2.5071000000 5.5932000000 1.2811000000
2.5067000000 4.8173000000 1.9884000000
2.5065000000 3.5300000000 2.8514000000
2.5060000000 3.9919000000 2.5819000000
2.5058000000 0.7058000000 0.6007000000
2.5055000000 5.2108000000 1.6364000000
2.5050000000 5.2714000000 1.5764000000
2.5048000000 5.5655000000 1.3088000000
2.5047000000 1.2185000000 1.0659000000
2.5046000000 3.7964000000 2.6707000000
2.5045000000 1.0709000000 0.9353000000
2.5044000000 4.7423000000 2.0613000000
2.5042000000 2.8800000000 2.4947000000
2.5040000000 5.3797000000 1.4837000000
2.5035000000 5.2268000000 1.6194000000
2.5033000000 2.5616000000 2.2946000000
2.5032000000 1.8326000000 1.6230000000
2.5031000000 5.7969000000 1.0981000000
2.5028000000 4.1547000000 2.5105000000
2.5025000000 2.0609000000 1.8363000000
2.5023000000 2.4316000000 2.1679000000
2.5022000000 5.8055000000 1.0968000000
2.5021000000 1.6182000000 1.4356000000
2.5020000000 4.3881000000 2.4427000000
2.5018000000 0.4730000000 0.3909000000
2.5016000000 2.7746000000 2.5159000000
2.5013000000 3.3089000000 2.7001000000
2.5011000000 2.9246000000 2.5264000000
2.5010000000 3.7852000000 2.6851000000
2.5006000000 2.3121000000 2.0668000000
2.5003000000 3.1307000000 2.6250000000
2.4998000000 0.0628000000 0.0887000000
2.4981000000 6.5969000000 0.3711000000
2.4973000000 0.3386000000 0.2629000000
2.4969000000 5.2739000000 1.5781000000
2.2636000000 6.6611000000 0.3157000000
2.2612000000 5.5657000000 1.3150000000
2.2593000000 5.8627000000 1.0452000000
2.2584000000 4.8474000000 1.9605000000
2.2582000000 5.1571000000 1.6867000000
2.2574000000 4.3715000000 2.3986000000
2.2593000000 6.3151000000 0.6312000000
2.2571000000 4.1317000000 2.6183000000
2.2568000000 3.2803000000 2.8824000000
2.2567000000 3.0607000000 2.8088000000
2.2566000000 6.7134000000 0.2710000000
2.2562000000 5.0146000000 1.8126000000
2.2560000000 5.0957000000 1.7412000000
2.2557000000 4.2282000000 2.5296000000
2.2555000000 5.7763000000 1.1200000000
2.2553000000 3.3866000000 2.9263000000
2.2553000000 6.4416000000 0.5088000000
2.2552000000 5.7296000000 1.1562000000
2.2551000000 6.8508000000 0.1405000000
2.2548000000 1.1751000000 1.0297000000
2.2548000000 2.2516000000 2.0099000000
2.2547000000 5.2589000000 1.5918000000
2.2544000000 2.6952000000 2.4127000000
2.2543000000 4.4728000000 2.3065000000
2.2541000000 0.5266000000 0.4374000000
2.2540000000 5.8345000000 1.0644000000
2.2539000000 3.4230000000 2.9492000000
2.2535000000 3.6873000000 2.9221000000
2.2533000000 2.0197000000 1.7930000000
2.2532000000 0.8773000000 0.7603000000
2.2531000000 5.6558000000 1.2317000000
2.2529000000 1.5967000000 1.4091000000
2.2527000000 6.7547000000 0.2294000000
2.2525000000 1.7254000000 1.5346000000
2.2521000000 1.7515000000 1.5505000000
2.2520000000 2.2577000000 2.0150000000
2.2519000000 5.1585000000 1.6846000000
2.2518000000 3.9584000000 2.7569000000
2.2516000000 1.5280000000 1.3506000000
2.2515000000 1.9762000000 1.7576000000
2.2513000000 6.5504000000 0.4141000000
2.2512000000 5.0114000000 1.8176000000
2.2510000000 6.7045000000 0.2733000000
2.2508000000 3.4140000000 2.9437000000
2.2506000000 1.2626000000 1.1131000000
2.2499000000 1.0669000000 0.9328000000
2.2497000000 4.3491000000 2.4212000000
2.2492000000 0.1999000000 0.1423000000
2.2489000000 3.0101000000 2.6997000000
2.2473000000 3.0795000000 2.8259000000
2.2466000000 1.7311000000 1.5394000000
2.2455000000 1.8868000000 1.6722000000
2.2440000000 1.2486000000 1.0989000000
2.0113000000 5.6157000000 1.2675000000
2.0106000000 4.1906000000 2.5540000000
2.0101000000 3.9396000000 2.7913000000
2.0097000000 7.0589000000 0.0273000000
2.0086000000 4.4279000000 2.3466000000
2.0083000000 4.7805000000 2.0274000000
2.0080000000 3.3459000000 2.9994000000
2.0078000000 5.6676000000 1.2180000000
2.0075000000 2.9515000000 2.6453000000
2.0074000000 4.6289000000 2.1662000000
2.0072000000 3.3559000000 3.0099000000
2.0071000000 6.0636000000 0.8649000000
2.0069000000 0.0915000000 0.1206000000
2.0068000000 6.4562000000 0.5016000000
2.0066000000 5.6258000000 1.2569000000
2.0064000000 6.6492000000 0.3240000000
2.0061000000 2.7743000000 2.4758000000
2.0058000000 4.4357000000 2.3400000000
2.0058000000 2.6063000000 2.3301000000
2.0056000000 4.2401000000 2.5214000000
2.0053000000 0.1441000000 0.0939000000
2.0051000000 1.8119000000 1.6110000000
2.0050000000 4.0064000000 2.7336000000
2.0049000000 6.2270000000 0.7079000000
2.0048000000 3.9307000000 2.8020000000
2.0047000000 4.6300000000 2.1613000000
2.0045000000 2.2386000000 1.9957000000
2.0043000000 2.4152000000 2.1575000000
2.0043000000 3.4117000000 3.1065000000
2.0040000000 4.1494000000 2.6065000000
2.0038000000 0.4369000000 0.3630000000
2.0037000000 2.4825000000 2.2199000000
2.0036000000 4.6769000000 2.1208000000
2.0033000000 2.3996000000 2.1405000000
2.0029000000 4.2355000000 2.5162000000
2.0026000000 3.6012000000 3.1032000000
2.0025000000 2.8604000000 2.5653000000
2.0025000000 4.4130000000 2.3569000000
2.0018000000 6.7505000000 0.2340000000
2.0016000000 3.8012000000 2.9142000000
2.0013000000 4.9708000000 1.8517000000
2.0011000000 3.3783000000 3.0987000000
2.0009000000 3.5310000000 3.1133000000
2.0009000000 4.3341000000 2.4356000000
2.0007000000 4.4627000000 2.3098000000
2.0005000000 2.9139000000 2.6077000000
2.0002000000 1.4250000000 1.2587000000
1.9998000000 6.4945000000 0.4654000000
1.9996000000 2.8179000000 2.5205000000
1.9990000000 4.7035000000 2.0998000000
1.9987000000 2.8114000000 2.5209000000
1.9972000000 2.7374000000 2.4532000000
1.9951000000 2.7474000000 2.4569000000
1.7608000000 4.2575000000 2.5008000000
1.7605000000 6.7088000000 0.2727000000
1.7603000000 0.8782000000 0.7516000000
1.7598000000 3.0517000000 2.7975000000
1.7594000000 6.5185000000 0.4484000000
1.7590000000 5.0775000000 1.7588000000
1.7588000000 0.6879000000 0.5862000000
1.7586000000 3.4509000000 2.9141000000
1.7583000000 3.0255000000 2.7689000000
1.7581000000 6.3136000000 0.6275000000
1.7576000000 6.9361000000 0.1449000000
1.7570000000 2.2516000000 2.0045000000
1.7568000000 2.6995000000 2.4142000000
1.7565000000 4.0416000000 2.6830000000
1.7563000000 2.8566000000 2.5552000000
1.7561000000 6.3779000000 0.5695000000
1.7560000000 5.4545000000 1.4095000000
1.7558000000 5.3053000000 1.5482000000
1.7553000000 1.9660000000 1.7481000000
1.7551000000 4.5407000000 2.2394000000
1.7548000000 6.6375000000 0.3370000000
1.7548000000 3.4783000000 2.9126000000
1.7546000000 5.3882000000 1.4787000000
1.7545000000 2.0805000000 1.8573000000
1.7545000000 4.7782000000 2.0302000000
1.7544000000 2.2242000000 1.9853000000
1.7543000000 6.4745000000 0.4830000000
1.7542000000 3.2904000000 2.8423000000
1.7541000000 3.1399000000 2.7556000000
1.7541000000 1.5147000000 1.3385000000
1.7538000000 4.9202000000 1.8962000000
1.7535000000 2.8987000000 2.5913000000
1.7533000000 1.2857000000 1.1327000000
1.7533000000 1.9954000000 1.7748000000
1.7530000000 6.4074000000 0.5484000000
1.7528000000 1.5514000000 1.3714000000
1.7527000000 2.6195000000 2.3431000000
1.7523000000 7.0211000000 0.0627000000
1.7522000000 1.1500000000 1.0067000000
1.7521000000 3.5431000000 2.9199000000
1.7519000000 5.6331000000 1.2485000000
1.7517000000 7.0063000000 0.0797000000
1.7515000000 0.2893000000 0.2212000000
1.7512000000 2.4253000000 2.1625000000
1.7510000000 2.4146000000 2.1601000000
1.7508000000 3.2613000000 2.8264000000
1.7504000000 4.3376000000 2.4248000000
1.7500000000 5.9459000000 0.9687000000
1.7491000000 5.9962000000 0.9219000000
1.7481000000 2.4196000000 2.1571000000
1.7477000000 2.4208000000 2.1626000000
1.7474000000 3.2224000000 2.8032000000
1.7464000000 1.6274000000 1.4395000000
1.5116000000 2.4880000000 2.2241000000
1.5098000000 0.1891000000 0.1296000000
1.5090000000 6.8622000000 0.1339000000
1.5087000000 6.6578000000 0.3200000000
1.5082000000 0.1147000000 0.1414000000
1.5077000000 1.8030000000 1.5981000000
1.5074000000 6.4259000000 0.5343000000
1.5070000000 6.6707000000 0.3076000000
1.5068000000 6.3847000000 0.5644000000
1.5065000000 6.4140000000 0.5403000000
1.5063000000 1.4635000000 1.2935000000
1.5059000000 2.8813000000 2.4559000000
1.5056000000 6.6375000000 0.3347000000
1.5055000000 3.7133000000 2.6680000000
1.5054000000 4.5635000000 2.2224000000
1.5052000000 5.7961000000 1.1063000000
1.5050000000 2.0790000000 1.8552000000
1.5048000000 6.0899000000 0.8353000000
1.5045000000 4.6112000000 2.1780000000
1.5043000000 6.5183000000 0.4420000000
1.5037000000 4.4404000000 2.3956000000
1.5036000000 1.5332000000 1.3520000000
1.5035000000 3.0933000000 2.5473000000
1.5033000000 5.5692000000 1.3065000000
1.5032000000 1.0828000000 0.9348000000
1.5030000000 2.0454000000 1.8173000000
1.5028000000 0.9347000000 0.8152000000
1.5027000000 3.6759000000 2.6786000000
1.5023000000 6.0077000000 0.9088000000
1.5020000000 6.9673000000 0.1086000000
1.5018000000 2.6330000000 2.4003000000
1.5015000000 6.9308000000 0.1393000000
1.5014000000 6.0365000000 0.8782000000
1.5013000000 4.1403000000 2.4659000000
1.5008000000 2.6117000000 2.3936000000
1.5005000000 3.6795000000 2.6750000000
1.5003000000 0.2254000000 0.1641000000
1.5001000000 3.2788000000 2.6355000000
1.4997000000 2.4027000000 2.1498000000
1.4992000000 1.9013000000 1.6928000000
1.4990000000 4.2248000000 2.4250000000
1.4980000000 4.5487000000 2.2188000000
1.4977000000 0.4199000000 0.3436000000
1.4975000000 0.7132000000 0.6044000000
1.4967000000 5.4522000000 1.4130000000
1.4965000000 0.5222000000 0.4320000000
1.4940000000 1.6070000000 1.4230000000
1.2630000000 4.5414000000 2.0971000000
1.2619000000 5.4055000000 1.4625000000
1.2612000000 5.5769000000 1.3031000000
1.2608000000 6.1354000000 0.7932000000
1.2601000000 6.0736000000 0.8563000000
1.2598000000 2.5511000000 2.1109000000
1.2595000000 4.0670000000 2.3078000000
1.2585000000 3.5191000000 2.6197000000
1.2583000000 6.7829000000 0.2036000000
1.2580000000 5.2794000000 1.5770000000
1.2576000000 6.5128000000 0.4531000000
1.2575000000 3.9455000000 2.3576000000
1.2573000000 4.2470000000 2.2234000000
1.2570000000 5.7311000000 1.1583000000
1.2566000000 0.7939000000 0.6853000000
1.2564000000 6.3788000000 0.5691000000
1.2562000000 1.2282000000 1.0740000000
1.2558000000 5.1149000000 1.7189000000
1.2556000000 0.9304000000 0.8032000000
1.2555000000 2.1827000000 2.0022000000
1.2552000000 6.9545000000 0.1243000000
1.2552000000 3.8038000000 2.4301000000
1.2547000000 1.9071000000 1.6939000000
1.2545000000 2.0681000000 1.8334000000
1.2543000000 6.6781000000 0.3029000000
1.2541000000 2.2251000000 2.0197000000
1.2539000000 4.0241000000 2.3265000000
1.2536000000 4.2164000000 2.2352000000
1.2534000000 2.4872000000 2.0841000000
1.2533000000 1.7695000000 1.5664000000
1.2531000000 0.3060000000 0.2382000000
1.2529000000 1.9963000000 1.7727000000
1.2527000000 1.5283000000 1.3469000000
1.2526000000 2.0558000000 1.8259000000
1.2520000000 0.0784000000 0.1107000000
1.2519000000 4.4124000000 2.1500000000
1.2518000000 4.8433000000 1.9361000000
1.2515000000 6.8859000000 0.1121000000
1.2514000000 3.2158000000 2.4058000000
1.2512000000 2.2709000000 1.9700000000
1.2509000000 2.4275000000 2.0479000000
1.2506000000 5.6885000000 1.2022000000
1.2503000000 0.3979000000 0.3213000000
1.2498000000 0.2537000000 0.1868000000
1.2488000000 3.3284000000 2.4629000000
1.2479000000 3.6452000000 2.4912000000
1.2476000000 3.5978000000 2.5134000000
1.2455000000 2.5094000000 2.0820000000
1.0093000000 6.6786000000 0.2958000000
1.0080000000 4.3958000000 1.9620000000
1.0078000000 5.4088000000 1.4447000000
1.0076000000 4.9195000000 1.7241000000
1.0070000000 3.2821000000 2.2450000000
1.0068000000 5.4804000000 1.3871000000
1.0068000000 3.8408000000 2.2180000000
1.0066000000 0.9770000000 0.8431000000
1.0065000000 6.0215000000 0.8957000000
1.0060000000 1.3910000000 1.2230000000
1.0059000000 6.4765000000 0.4826000000
1.0058000000 6.1706000000 0.7600000000
1.0056000000 3.3055000000 2.2616000000
1.0055000000 1.7399000000 1.6019000000
1.0053000000 0.0281000000 0.0618000000
1.0050000000 0.6033000000 0.5118000000
1.0049000000 1.1824000000 1.0392000000
1.0048000000 5.2589000000 1.5534000000
1.0047000000 0.6780000000 0.5751000000
1.0044000000 6.2141000000 0.7177000000
1.0042000000 4.9573000000 1.6992000000
1.0040000000 2.7292000000 1.9901000000
1.0039000000 3.6132000000 2.3159000000
1.0037000000 7.0398000000 0.0429000000
1.0035000000 5.4991000000 1.3659000000
1.0034000000 5.3520000000 1.4935000000
1.0033000000 2.6978000000 1.9756000000
1.0031000000 1.7083000000 1.5757000000
1.0030000000 0.3486000000 0.2729000000
1.0026000000 0.8877000000 0.7675000000
1.0024000000 4.7654000000 1.7887000000
1.0022000000 0.1282000000 0.0745000000
1.0020000000 2.1441000000 1.7227000000
1.0018000000 5.3335000000 1.5059000000
1.0017000000 3.9360000000 2.1639000000
1.0015000000 6.6160000000 0.3552000000
1.0014000000 3.9005000000 2.1847000000
1.0009000000 0.9993000000 0.8673000000
1.0008000000 4.9705000000 1.6949000000
1.0007000000 2.5854000000 1.9265000000
1.0006000000 0.6964000000 0.5901000000
1.0001000000 2.0560000000 1.6846000000
1.0000000000 2.0484000000 1.6767000000
0.9988000000 0.5475000000 0.4610000000
0.9984000000 0.1728000000 0.1193000000
0.9972000000 0.1402000000 0.0869000000
0.9950000000 1.0954000000 0.9561000000
0.7617000000 7.0059000000 0.0754000000
0.7615000000 7.0129000000 0.0693000000
0.7614000000 0.9210000000 0.7982000000
0.7597000000 2.5666000000 1.7268000000
0.7593000000 6.9484000000 0.1263000000
0.7583000000 5.3747000000 1.3162000000
0.7582000000 2.7797000000 1.8186000000
0.7574000000 3.1043000000 1.9680000000
0.7573000000 6.0394000000 0.8828000000
0.7571000000 3.9826000000 1.9543000000
0.7570000000 2.5632000000 1.7262000000
0.7567000000 6.8879000000 0.1069000000
0.7565000000 1.4412000000 1.2109000000
0.7564000000 2.0376000000 1.4812000000
0.7562000000 4.1371000000 1.8810000000
0.7558000000 6.3093000000 0.6304000000
0.7557000000 0.9283000000 0.8111000000
0.7555000000 5.6740000000 1.1700000000
0.7554000000 4.7672000000 1.5914000000
0.7552000000 6.4972000000 0.4646000000
0.7551000000 1.8899000000 1.4104000000
0.7548000000 6.5848000000 0.3892000000
0.7547000000 2.5126000000 1.6963000000
0.7544000000 6.4083000000 0.5432000000
0.7543000000 3.7108000000 2.0750000000
0.7540000000 2.6377000000 1.7492000000
0.7538000000 4.9031000000 1.5299000000
0.7537000000 1.6535000000 1.3030000000
0.7535000000 0.7022000000 0.5996000000
0.7534000000 3.4653000000 2.1311000000
0.7532000000 3.1493000000 1.9928000000
0.7531000000 3.8039000000 2.0300000000
0.7530000000 3.6099000000 2.1170000000
0.7528000000 0.7119000000 0.6081000000
0.7526000000 4.7029000000 1.6226000000
0.7523000000 5.7830000000 1.0990000000
0.7518000000 1.7650000000 1.3555000000
0.7517000000 1.0042000000 0.8712000000
0.7515000000 1.9604000000 1.4416000000
0.7515000000 6.0716000000 0.8467000000
0.7513000000 5.8021000000 1.0800000000
0.7512000000 0.9377000000 0.8156000000
0.7509000000 0.2203000000 0.1593000000
0.7506000000 0.8358000000 0.7251000000
0.7505000000 6.4945000000 0.4636000000
0.7500000000 0.5574000000 0.4677000000
0.7498000000 0.7692000000 0.6577000000
0.7489000000 2.7381000000 1.7938000000
0.7487000000 2.4766000000 1.6756000000
0.7485000000 0.9134000000 0.7921000000
0.7472000000 0.9727000000 0.8434000000
0.7468000000 3.6831000000 2.0788000000
0.7451000000 1.7247000000 1.3327000000
0.5119000000 4.4060000000 1.5592000000
0.5101000000 3.6561000000 1.9049000000
0.5098000000 1.5152000000 1.0494000000
0.5096000000 3.2669000000 1.8501000000
0.5086000000 4.0645000000 1.7165000000
0.5083000000 4.1017000000 1.7045000000
0.5079000000 5.8093000000 0.9246000000
0.5075000000 6.7098000000 0.2674000000
0.5070000000 6.7307000000 0.2516000000
0.5069000000 0.6130000000 0.5197000000
0.5067000000 3.1578000000 1.7953000000
0.5063000000 2.4766000000 1.4848000000
0.5062000000 4.5051000000 1.5151000000
0.5060000000 6.7792000000 0.2099000000
0.5059000000 4.9994000000 1.2876000000
0.5057000000 4.8524000000 1.3574000000
0.5056000000 4.7463000000 1.4076000000
0.5054000000 5.8288000000 0.9126000000
0.5052000000 2.6790000000 1.5733000000
0.5052000000 4.3773000000 1.5791000000
0.5048000000 3.2130000000 1.8168000000
0.5047000000 2.1705000000 1.3440000000
0.5046000000 0.8528000000 0.7927000000
0.5044000000 1.9092000000 1.2247000000
0.5041000000 3.3898000000 1.8969000000
0.5040000000 3.5291000000 2.0208000000
0.5038000000 1.2971000000 0.9470000000
0.5037000000 4.0575000000 1.7227000000
0.5035000000 5.0375000000 1.2723000000
0.5033000000 0.9178000000 0.8349000000
0.5030000000 4.0032000000 1.7433000000
0.5028000000 2.2100000000 1.3582000000
0.5028000000 5.4639000000 1.0795000000
0.5026000000 1.4879000000 1.0266000000
0.5024000000 3.4250000000 1.9184000000
0.5022000000 0.3767000000 0.3062000000
0.5020000000 2.9104000000 1.6787000000
0.5018000000 3.5479000000 1.9317000000
0.5017000000 6.0667000000 0.8034000000
0.5009000000 1.6255000000 1.0968000000
0.5006000000 3.3942000000 1.8974000000
0.5005000000 6.1143000000 0.7725000000
0.5003000000 3.0374000000 1.7323000000
0.5000000000 2.6447000000 1.5607000000
0.5001000000 1.3281000000 0.9649000000
0.4995000000 1.3262000000 0.9508000000
0.4990000000 4.8892000000 1.3383000000
0.4984000000 2.4770000000 1.4845000000
0.4975000000 2.3466000000 1.4175000000
0.4963000000 1.6734000000 1.1118000000
0.4938000000 0.2077000000 0.1512000000
0.2598000000 6.7591000000 0.2278000000
0.2595000000 2.2625000000 1.1970000000
0.2591000000 3.1076000000 1.5780000000
0.2587000000 5.0463000000 1.0766000000
0.2585000000 6.3657000000 0.4749000000
0.2583000000 4.4261000000 1.3589000000
0.2580000000 0.0733000000 0.1010000000
0.2575000000 4.5390000000 1.3065000000
0.2573000000 5.2914000000 0.9608000000
0.2570000000 0.3103000000 0.2427000000
0.2567000000 3.3117000000 1.6684000000
0.2563000000 5.2071000000 0.9990000000
0.2562000000 6.0199000000 0.6323000000
0.2560000000 3.0412000000 1.5473000000
0.2557000000 2.7420000000 1.4096000000
0.2555000000 0.2942000000 0.2288000000
0.2554000000 7.0274000000 0.0539000000
0.2550000000 3.0914000000 1.5671000000
0.2548000000 3.3354000000 1.6754000000
0.2545000000 4.8984000000 1.1378000000
0.2542000000 7.0788000000 0.0810000000
0.2539000000 3.6071000000 1.7292000000
0.2538000000 6.6937000000 0.2702000000
0.2536000000 2.5202000000 1.3043000000
0.2534000000 5.4785000000 0.8706000000
0.2532000000 6.5387000000 0.3782000000
0.2525000000 2.2970000000 1.2087000000
0.2523000000 0.0512000000 0.0771000000
0.2519000000 2.2398000000 1.1739000000
0.2517000000 3.6203000000 1.7163000000
0.2516000000 1.3351000000 0.7672000000
0.2515000000 5.0166000000 1.0759000000
0.2515000000 6.3853000000 0.4556000000
0.2513000000 4.0124000000 1.5371000000
0.2512000000 3.3935000000 1.7024000000
0.2510000000 0.1904000000 0.1349000000
0.2509000000 1.3135000000 0.7549000000
0.2504000000 0.2439000000 0.1829000000
0.2502000000 2.5339000000 1.3077000000
0.2499000000 2.7612000000 1.4145000000
0.2492000000 4.0719000000 1.5111000000
0.2490000000 0.9271000000 0.5780000000
0.2487000000 3.5231000000 1.8158000000
0.2480000000 1.4217000000 0.8033000000
0.2468000000 2.0438000000 1.0806000000
0.2461000000 0.8261000000 0.5303000000
0.2433000000 0.3088000000 0.2390000000
0.0145000000 5.1669000000 0.8267000000
0.0117000000 2.9868000000 1.3267000000
0.0095000000 5.1062000000 0.8549000000
0.0093000000 6.5787000000 0.1807000000
0.0090000000 3.6827000000 1.4996000000
0.0087000000 2.9737000000 1.3206000000
0.0080000000 5.7227000000 0.5701000000
0.0080000000 3.5546000000 1.6137000000
0.0077000000 2.4689000000 1.0908000000
0.0074000000 3.6150000000 1.5327000000
0.0066000000 4.9990000000 0.9030000000
0.0064000000 5.0045000000 0.8929000000
0.0063000000 3.2295000000 1.4307000000
0.0062000000 0.6295000000 0.2507000000
0.0060000000 5.3012000000 0.7626000000
0.0059000000 1.4862000000 0.6415000000
0.0058000000 0.3915000000 0.1365000000
0.0057000000 6.4942000000 0.2195000000
0.0056000000 1.9342000000 0.8437000000
0.0055000000 5.6231000000 0.6147000000
0.0051000000 4.6688000000 1.0441000000
0.0050000000 0.8725000000 0.3573000000
0.0049000000 4.4829000000 1.1290000000
0.0045000000 3.3582000000 1.4896000000
0.0043000000 3.4122000000 1.5174000000
0.0042000000 3.7398000000 1.4718000000
0.0040000000 4.0842000000 1.3179000000
0.0039000000 0.8271000000 0.3375000000
0.0035000000 3.8506000000 1.4203000000
0.0035000000 1.4809000000 0.6347000000
0.0030000000 2.9524000000 1.3083000000
0.0025000000 7.0102000000 0.0421000000
0.0023000000 3.0608000000 1.3536000000
0.0019000000 5.8036000000 0.5252000000
0.0018000000 0.2947000000 0.0920000000
0.0010000000 1.9039000000 0.8303000000
0.0009000000 2.0361000000 0.8848000000
0.0005000000 1.0771000000 0.4493000000
0.0002000000 2.9627000000 1.3099000000
-0.0003000000 0.1256000000 0.0915000000
-0.0007000000 0.8078000000 0.3272000000
-0.0014000000 2.8201000000 1.2400000000
-0.0018000000 1.7127000000 0.7364000000
-0.0022000000 2.2650000000 0.9907000000
-0.0027000000 1.7708000000 0.7630000000
-0.0030000000 4.8372000000 0.9621000000
-0.0045000000 1.1734000000 0.4903000000
-0.2388000000 0.5585000000 0.0998000000
-0.2407000000 6.8263000000 0.0193000000
-0.2412000000 3.2132000000 1.2268000000
-0.2414000000 4.6558000000 0.8588000000
-0.2415000000 6.6614000000 0.0179000000
-0.2420000000 6.6958000000 0.0782000000
-0.2424000000 0.4785000000 0.0595000000
-0.2426000000 3.7400000000 1.2744000000
-0.2429000000 5.5662000000 0.4421000000
-0.2432000000 6.0837000000 0.2134000000
-0.2433000000 5.8593000000 0.3082000000
-0.2434000000 4.5216000000 0.9211000000
-0.2437000000 0.7874000000 0.1222000000
-0.2442000000 3.7758000000 1.2629000000
-0.2443000000 6.8439000000 0.0134000000
-0.2444000000 6.0065000000 0.2399000000
-0.2445000000 5.8934000000 0.2945000000
-0.2447000000 4.4643000000 0.9434000000
-0.2449000000 4.5837000000 0.8880000000
-0.2455000000 3.1564000000 1.2065000000
-0.2458000000 2.6797000000 0.9822000000
-0.2460000000 5.3289000000 0.5439000000
-0.2461000000 1.6731000000 0.5287000000
-0.2465000000 2.6081000000 0.9512000000
-0.2465000000 1.4966000000 0.4490000000
-0.2467000000 0.2013000000 0.0075000000
-0.2469000000 6.7957000000 0.0277000000
-0.2471000000 0.6006000000 0.1139000000
-0.2473000000 3.6276000000 1.3232000000
-0.2474000000 4.2310000000 1.0457000000
-0.2475000000 0.7068000000 0.0796000000
-0.2477000000 1.3709000000 0.3902000000
-0.2478000000 4.1979000000 1.0657000000
-0.2480000000 6.8527000000 0.0090000000
-0.2483000000 2.1801000000 0.7550000000
-0.2484000000 3.8482000000 1.2170000000
-0.2487000000 1.5149000000 0.4512000000
-0.2487000000 2.0046000000 0.6766000000
-0.2489000000 6.5385000000 0.0715000000
-0.2492000000 1.9122000000 0.6315000000
-0.2494000000 6.2758000000 0.1166000000
-0.2499000000 0.6636000000 0.1403000000
-0.2500000000 4.3279000000 1.0010000000
-0.2505000000 1.2959000000 0.3528000000
-0.2509000000 3.1098000000 1.1809000000
-0.2510000000 2.0106000000 0.6779000000
-0.2513000000 0.5608000000 0.0910000000
-0.2532000000 0.3116000000 0.0550000000
-0.2566000000 3.4282000000 1.3209000000
-0.4885000000 5.8626000000 0.1137000000
-0.4889000000 6.3161000000 0.0578000000
-0.4897000000 5.4308000000 0.3102000000
-0.4900000000 2.5911000000 0.7516000000
-0.4908000000 2.0691000000 0.5094000000
-0.4909000000 4.3397000000 0.8096000000
-0.4915000000 3.6944000000 1.1011000000
-0.4920000000 6.2213000000 0.0262000000
-0.4923000000 4.8754000000 0.5617000000
-0.4930000000 4.5841000000 0.6943000000
-0.4933000000 0.8872000000 0.0518000000
-0.4938000000 1.1085000000 0.0719000000
-0.4944000000 5.8664000000 0.1129000000
-0.4946000000 3.4150000000 1.1222000000
-0.4947000000 6.3892000000 0.0210000000
-0.4949000000 4.0338000000 0.9489000000
-0.4951000000 4.8311000000 0.5805000000
-0.4953000000 5.3760000000 0.3304000000
-0.4955000000 5.7589000000 0.1510000000
-0.4958000000 4.7583000000 0.6098000000
-0.4963000000 5.6986000000 0.1833000000
-0.4965000000 3.1990000000 1.0218000000
-0.4967000000 5.7313000000 0.1709000000
-0.4969000000 4.4508000000 0.7481000000
-0.4973000000 5.2198000000 0.4001000000
-0.4976000000 5.1038000000 0.4586000000
-0.4977000000 0.7653000000 0.0625000000
-0.4980000000 0.6696000000 0.0243000000
-0.4979000000 5.6679000000 0.1916000000
-0.4981000000 5.1912000000 0.4102000000
-0.4982000000 5.7238000000 0.1701000000
-0.4987000000 1.5713000000 0.2795000000
-0.4992000000 5.6444000000 0.2077000000
-0.4995000000 1.4253000000 0.2174000000
-0.4996000000 2.7886000000 0.8343000000
-0.4997000000 5.5062000000 0.2701000000
-0.5002000000 1.4088000000 0.2050000000
-0.5003000000 4.5209000000 0.7188000000
-0.5010000000 0.8152000000 0.0131000000
-0.5015000000 5.1527000000 0.4267000000
-0.5018000000 2.1813000000 0.5501000000
-0.5025000000 4.4866000000 0.7313000000
-0.5045000000 0.8801000000 0.0387000000
-0.7390000000 4.9733000000 0.3218000000
-0.7398000000 5.8603000000 0.0688000000
-0.7403000000 4.3067000000 0.6236000000
-0.7413000000 3.3100000000 0.8827000000
-0.7417000000 5.2369000000 0.2021000000
-0.7421000000 4.5048000000 0.5318000000
-0.7428000000 5.6511000000 0.0842000000
-0.7433000000 1.5586000000 0.0799000000
-0.7441000000 5.6365000000 0.0899000000
-0.7444000000 4.6394000000 0.4736000000
-0.7447000000 2.0955000000 0.3181000000
-0.7450000000 4.6245000000 0.4787000000
-0.7452000000 4.4886000000 0.5376000000
-0.7453000000 2.8242000000 0.6618000000
-0.7454000000 4.7996000000 0.3972000000
-0.7457000000 4.8429000000 0.3713000000
-0.7457000000 4.9512000000 0.3270000000
-0.7460000000 5.8119000000 0.0147000000
-0.7462000000 5.2796000000 0.1789000000
-0.7466000000 2.4582000000 0.4938000000
-0.7467000000 1.4141000000 0.0886000000
-0.7470000000 5.5384000000 0.1314000000
-0.7471000000 2.9936000000 0.7330000000
-0.7475000000 5.7470000000 0.0373000000
-0.7478000000 5.2920000000 0.1699000000
-0.7482000000 4.4673000000 0.5458000000
-0.7483000000 4.3757000000 0.5914000000
-0.7485000000 2.4151000000 0.4731000000
-0.7485000000 1.3538000000 0.0620000000
-0.7486000000 1.5774000000 0.0849000000
-0.7488000000 1.3226000000 0.0471000000
-0.7490000000 4.5877000000 0.4909000000
-0.7492000000 4.0704000000 0.7178000000
-0.7494000000 2.9559000000 0.7122000000
-0.7500000000 5.2837000000 0.1754000000
-0.7501000000 4.7434000000 0.4192000000
-0.7503000000 2.2320000000 0.3869000000
-0.7504000000 2.3640000000 0.4393000000
-0.7509000000 4.7041000000 0.4357000000
-0.7512000000 2.4854000000 0.4980000000
-0.7530000000 1.2723000000 0.0240000000
-0.7537000000 4.9081000000 0.3465000000
-0.9834000000 5.3117000000 0.0553000000
-0.9878000000 3.0935000000 0.5915000000
-0.9904000000 2.4896000000 0.3089000000
-0.9913000000 3.7868000000 0.6651000000
-0.9919000000 3.6431000000 0.7303000000
-0.9927000000 4.9096000000 0.1531000000
-0.9930000000 3.4723000000 0.7496000000
-0.9932000000 2.8307000000 0.4654000000
-0.9935000000 4.5137000000 0.3338000000
-0.9938000000 5.2035000000 0.0894000000
-0.9941000000 2.4770000000 0.3000000000
-0.9947000000 4.4673000000 0.3523000000
-0.9951000000 4.7780000000 0.2071000000
-0.9954000000 3.3451000000 0.6961000000
-0.9958000000 3.8215000000 0.6425000000
-0.9962000000 5.2731000000 0.0592000000
-0.9966000000 2.0256000000 0.0960000000
-0.9968000000 3.0859000000 0.5772000000
-0.9970000000 3.5067000000 0.8312000000
-0.9977000000 2.7222000000 0.4112000000
-0.9984000000 2.9140000000 0.4946000000
-0.9988000000 2.8005000000 0.4454000000
-0.9990000000 2.6120000000 0.3591000000
-0.9997000000 1.9661000000 0.1463000000
-1.0000000000 2.0705000000 0.1102000000
-1.0010000000 4.4173000000 0.3665000000
-1.0020000000 2.8593000000 0.4677000000
-1.0062000000 2.4454000000 0.2791000000
-1.2400000000 4.8336000000 0.0647000000
-1.2410000000 5.1165000000 0.0119000000
-1.2416000000 2.7203000000 0.2161000000
-1.2430000000 3.8989000000 0.4142000000
-1.2436000000 3.6983000000 0.5126000000
-1.2442000000 4.7476000000 0.1002000000
-1.2446000000 4.8691000000 0.0450000000
-1.2449000000 4.9677000000 0.0753000000
-1.2452000000 2.8798000000 0.2863000000
-1.2454000000 3.7225000000 0.4975000000
-1.2457000000 3.1755000000 0.4232000000
-1.2461000000 2.2262000000 0.0627000000
-1.2465000000 2.9792000000 0.3325000000
-1.2468000000 3.9679000000 0.3815000000
-1.2467000000 4.1830000000 0.2787000000
-1.2473000000 3.2882000000 0.4708000000
-1.2477000000 4.5151000000 0.1247000000
-1.2480000000 3.7837000000 0.4571000000
-1.2485000000 3.1003000000 0.3877000000
-1.2489000000 3.6276000000 0.5288000000
-1.2497000000 3.8249000000 0.4445000000
-1.2504000000 4.5758000000 0.1006000000
-1.2508000000 4.4666000000 0.1479000000
-1.2515000000 3.1705000000 0.4118000000
-1.2523000000 2.7684000000 0.2335000000
-1.2580000000 3.4136000000 0.5215000000
-1.4922000000 4.0732000000 0.1438000000
-1.4929000000 3.3482000000 0.3054000000
-1.4940000000 4.4874000000 0.0196000000
-1.4946000000 4.6168000000 0.0480000000
-1.4951000000 2.8375000000 0.0746000000
-1.4955000000 4.2724000000 0.1185000000
-1.4965000000 2.6805000000 0.0774000000
-1.4967000000 4.6280000000 0.0291000000
-1.4980000000 3.4370000000 0.3391000000
-1.4985000000 3.7140000000 0.2970000000
-1.4996000000 3.4730000000 0.3488000000
-1.5001000000 4.0668000000 0.1380000000
