5.2605000000 2.6755000000 0.3349000000
5.2601000000 3.7624000000 0.6998000000
5.2590000000 1.9091000000 0.0205000000
5.2584000000 3.6259000000 0.7531000000
5.2576000000 5.2659000000 0.0856000000
5.2573000000 1.9332000000 0.0305000000
5.2570000000 4.1580000000 0.4946000000
5.2567000000 5.1932000000 0.0464000000
5.2558000000 3.7198000000 0.7193000000
5.2555000000 2.3594000000 0.1768000000
5.2554000000 3.3994000000 0.7031000000
5.2550000000 3.5079000000 0.7584000000
5.2547000000 5.1317000000 0.0774000000
5.2546000000 2.0336000000 0.0877000000
5.2540000000 4.0463000000 0.5531000000
5.2538000000 5.1056000000 0.0967000000
5.2535000000 3.1851000000 0.5997000000
5.2532000000 5.0635000000 0.0414000000
5.2530000000 4.3047000000 0.4253000000
5.2528000000 5.0836000000 0.1126000000
5.2527000000 5.1139000000 0.0938000000
5.2525000000 3.3364000000 0.6720000000
5.2518000000 4.4382000000 0.3578000000
5.2516000000 4.1678000000 0.4924000000
5.2509000000 2.3440000000 0.1772000000
5.2505000000 2.5973000000 0.3015000000
5.2504000000 4.3169000000 0.4227000000
5.2487000000 2.8181000000 0.4202000000
5.2478000000 2.4878000000 0.2519000000
5.0118000000 2.5729000000 0.4979000000
5.0110000000 4.0816000000 0.7524000000
5.0103000000 4.4049000000 0.5849000000
5.0092000000 2.4473000000 0.4318000000
5.0084000000 5.3117000000 0.1285000000
5.0079000000 1.9397000000 0.1812000000
5.0076000000 5.7526000000 0.0609000000
5.0075000000 4.4120000000 0.5857000000
5.0074000000 3.0293000000 0.7311000000
5.0073000000 2.0322000000 0.2247000000
5.0066000000 3.7908000000 0.8999000000
5.0065000000 4.5723000000 0.5078000000
5.0063000000 2.4358000000 0.4321000000
5.0057000000 4.7855000000 0.4001000000
5.0055000000 4.5835000000 0.5008000000
5.0054000000 4.9168000000 0.3370000000
5.0052000000 1.9819000000 0.2102000000
5.0049000000 4.5634000000 0.5148000000
5.0046000000 5.3161000000 0.1310000000
5.0044000000 3.6014000000 0.9812000000
5.0041000000 2.6057000000 0.5265000000
5.0039000000 5.1978000000 0.1919000000
5.0037000000 2.3985000000 0.4208000000
5.0035000000 3.2675000000 0.8548000000
5.0033000000 1.3349000000 0.0302000000
5.0026000000 2.0458000000 0.2372000000
5.0023000000 1.8578000000 0.1470000000
5.0015000000 4.6493000000 0.4759000000
5.0013000000 3.4274000000 0.9441000000
5.0012000000 4.4453000000 0.5746000000
5.0006000000 1.3707000000 0.0477000000
5.0004000000 5.3763000000 0.1039000000
5.0002000000 5.2627000000 0.1642000000
4.9999000000 1.4742000000 0.0272000000
4.9997000000 1.8213000000 0.1293000000
4.9993000000 1.7217000000 0.0744000000
4.9982000000 4.0107000000 0.7965000000
4.7648000000 0.9533000000 0.0418000000
4.7612000000 5.9678000000 0.0903000000
4.7600000000 5.5850000000 0.2124000000
4.7595000000 3.3790000000 1.1262000000
4.7594000000 5.0411000000 0.4876000000
4.7588000000 2.8213000000 0.8433000000
4.7587000000 3.5656000000 1.2086000000
4.7580000000 4.9293000000 0.5437000000
4.7573000000 2.1739000000 0.5215000000
4.7572000000 5.9921000000 0.0814000000
4.7565000000 5.7819000000 0.1147000000
4.7561000000 1.4106000000 0.1333000000
4.7561000000 4.4372000000 0.7936000000
4.7553000000 3.1881000000 1.0370000000
4.7549000000 4.1987000000 0.9112000000
4.7543000000 2.8799000000 0.8795000000
4.7540000000 1.9572000000 0.4135000000
4.7537000000 2.9260000000 0.9080000000
4.7534000000 4.5161000000 0.7524000000
4.7533000000 3.0075000000 0.9474000000
4.7530000000 2.3037000000 0.5936000000
4.7528000000 3.6365000000 1.1990000000
4.7525000000 5.0493000000 0.4891000000
4.7523000000 5.3165000000 0.3516000000
4.7523000000 1.0238000000 0.0212000000
4.7521000000 4.1773000000 0.9334000000
4.7518000000 3.0476000000 0.9707000000
4.7515000000 4.6654000000 0.6804000000
4.7513000000 6.1312000000 0.0895000000
4.7509000000 1.6228000000 0.2462000000
4.7502000000 1.4144000000 0.1430000000
4.7493000000 2.6930000000 0.7854000000
4.7488000000 3.4182000000 1.1529000000
4.7469000000 3.4681000000 1.1795000000
4.5097000000 3.2311000000 1.2669000000
4.5093000000 6.2163000000 0.1080000000
4.5083000000 1.7272000000 0.5110000000
4.5081000000 6.1886000000 0.1293000000
4.5080000000 5.5383000000 0.4503000000
4.5078000000 4.8745000000 0.7897000000
4.5077000000 5.9804000000 0.2269000000
4.5074000000 5.3260000000 0.5580000000
4.5070000000 4.4906000000 0.9809000000
4.5069000000 4.9674000000 0.7407000000
4.5066000000 5.7401000000 0.3540000000
4.5065000000 3.5246000000 1.4125000000
4.5064000000 5.8304000000 0.3085000000
4.5062000000 1.8968000000 0.6047000000
4.5059000000 6.7242000000 0.0056000000
4.5053000000 0.4535000000 0.0180000000
4.5051000000 1.3407000000 0.3190000000
4.5048000000 6.4347000000 0.0774000000
4.5047000000 1.1975000000 0.2437000000
4.5046000000 1.1406000000 0.2118000000
4.5045000000 5.3317000000 0.5564000000
4.5044000000 1.5262000000 0.4150000000
4.5043000000 2.8975000000 1.1057000000
4.5042000000 0.9809000000 0.1387000000
4.5040000000 3.9877000000 1.2473000000
4.5038000000 6.1492000000 0.1495000000
4.5037000000 3.0433000000 1.1805000000
4.5038000000 4.1773000000 1.1457000000
4.5033000000 3.9138000000 1.2857000000
4.5029000000 1.9785000000 0.6414000000
4.5026000000 4.1867000000 1.1431000000
4.5025000000 0.6036000000 0.0298000000
4.5022000000 3.7134000000 1.3845000000
4.5018000000 3.5431000000 1.4230000000
4.5008000000 4.6071000000 0.9300000000
4.5007000000 3.3609000000 1.3411000000
4.5004000000 0.4632000000 0.0335000000
4.5002000000 2.9076000000 1.1168000000
4.4999000000 1.8043000000 0.5618000000
4.4993000000 1.3071000000 0.3073000000
4.4979000000 4.6841000000 0.8968000000
4.4977000000 4.6068000000 0.9344000000
4.4971000000 4.0502000000 1.2141000000
4.2655000000 6.1435000000 0.3656000000
4.2628000000 6.9970000000 0.0803000000
4.2623000000 6.3279000000 0.2693000000
4.2617000000 3.7515000000 1.5725000000
4.2606000000 6.8841000000 0.0651000000
4.2605000000 6.0819000000 0.3964000000
4.2599000000 5.9441000000 0.4681000000
4.2598000000 1.1440000000 0.4360000000
4.2593000000 3.3238000000 1.5387000000
4.2588000000 4.4406000000 1.2265000000
4.2587000000 5.8630000000 0.5038000000
4.2584000000 0.2445000000 0.0550000000
4.2582000000 6.8074000000 0.1102000000
4.2579000000 3.5089000000 1.6370000000
4.2575000000 4.7160000000 1.0886000000
4.2574000000 1.0133000000 0.3716000000
4.2573000000 4.3905000000 1.2555000000
4.2570000000 2.1520000000 0.9480000000
4.2569000000 6.4297000000 0.2248000000
4.2566000000 4.7121000000 1.0913000000
4.2565000000 5.4442000000 0.7217000000
4.2564000000 2.1103000000 0.9253000000
4.2562000000 1.3787000000 0.5587000000
4.2560000000 4.7773000000 1.0581000000
4.2558000000 4.5796000000 1.1616000000
4.2556000000 4.7469000000 1.0795000000
4.2554000000 3.9715000000 1.4662000000
4.2553000000 6.2384000000 0.3232000000
4.2550000000 4.4316000000 1.2333000000
4.2549000000 5.9153000000 0.4841000000
4.2548000000 0.1105000000 0.0666000000
4.2547000000 0.2452000000 0.0602000000
4.2545000000 1.7911000000 0.7704000000
4.2543000000 3.3622000000 1.5577000000
4.2542000000 2.4887000000 1.1165000000
4.2540000000 2.1587000000 0.9570000000
4.2539000000 0.7693000000 0.2496000000
4.2538000000 4.3541000000 1.2770000000
4.2535000000 6.4898000000 0.1969000000
4.2535000000 2.1282000000 0.9381000000
4.2533000000 6.0845000000 0.4017000000
4.2532000000 2.4668000000 1.1081000000
4.2529000000 4.8565000000 1.0253000000
4.2528000000 1.2002000000 0.4712000000
4.2526000000 6.5055000000 0.1887000000
4.2525000000 4.4155000000 1.2460000000
4.2523000000 2.7225000000 1.2381000000
4.2518000000 0.2745000000 0.0754000000
4.2512000000 4.3568000000 1.2830000000
4.2508000000 4.4225000000 1.2448000000
4.2505000000 3.6713000000 1.6252000000
4.2500000000 2.0635000000 0.9066000000
4.2495000000 0.4396000000 0.0871000000
4.2493000000 0.2898000000 0.0880000000
4.2489000000 0.4889000000 0.1152000000
4.2475000000 1.2671000000 0.5075000000
4.2471000000 2.4453000000 1.0979000000
4.2465000000 4.6110000000 1.1534000000
4.2405000000 3.8553000000 1.5424000000
4.0120000000 5.9312000000 0.6919000000
4.0106000000 2.8090000000 1.5025000000
4.0098000000 7.0124000000 0.0938000000
4.0088000000 3.6571000000 1.8395000000
4.0087000000 2.4493000000 1.3133000000
4.0085000000 6.9353000000 0.1659000000
4.0083000000 3.1169000000 1.6481000000
4.0081000000 2.5341000000 1.3514000000
4.0080000000 3.8422000000 1.7469000000
4.0076000000 1.8266000000 0.9990000000
4.0074000000 6.2069000000 0.5542000000
4.0071000000 4.1986000000 1.5678000000
4.0068000000 6.1135000000 0.6047000000
4.0066000000 1.6467000000 0.9096000000
4.0066000000 7.1006000000 0.0951000000
4.0064000000 5.6472000000 0.8399000000
4.0063000000 0.3817000000 0.2695000000
4.0061000000 5.6920000000 0.8085000000
4.0060000000 3.9791000000 1.6804000000
4.0057000000 4.6615000000 1.3415000000
4.0056000000 6.8859000000 0.2006000000
4.0053000000 3.6712000000 1.8323000000
4.0051000000 5.2487000000 1.0404000000
4.0048000000 0.3308000000 0.2448000000
4.0045000000 6.7320000000 0.2954000000
4.0044000000 4.6932000000 1.3208000000
4.0042000000 5.9457000000 0.6923000000
4.0039000000 6.6645000000 0.3253000000
4.0038000000 1.2377000000 0.7027000000
4.0036000000 0.4951000000 0.3343000000
4.0033000000 3.2573000000 1.7255000000
4.0032000000 0.6491000000 0.4098000000
4.0032000000 7.0780000000 0.0465000000
4.0028000000 4.0470000000 1.6492000000
4.0024000000 0.0023000000 0.0504000000
4.0023000000 0.8319000000 0.5049000000
4.0022000000 2.7238000000 1.4579000000
4.0020000000 0.3257000000 0.2421000000
4.0019000000 6.5786000000 0.3684000000
4.0018000000 6.4971000000 0.4092000000
4.0015000000 0.6395000000 0.4032000000
4.0014000000 0.5613000000 0.3640000000
4.0009000000 3.4382000000 1.8183000000
4.0007000000 7.0439000000 0.0765000000
4.0003000000 6.3493000000 0.4939000000
4.0001000000 0.7614000000 0.4663000000
4.0000000000 5.5208000000 0.9059000000
3.9997000000 6.3484000000 0.4868000000
3.9995000000 2.6266000000 1.4054000000
3.9995000000 4.7644000000 1.2918000000
3.9994000000 1.4682000000 0.8262000000
3.9991000000 4.1730000000 1.5868000000
3.9989000000 4.3853000000 1.4772000000
3.9983000000 1.8779000000 1.0365000000
3.9953000000 0.2843000000 0.2159000000
3.7640000000 6.9852000000 0.1452000000
3.7610000000 7.0479000000 0.0742000000
3.7605000000 5.5341000000 1.1088000000
3.7600000000 0.7421000000 0.6635000000
3.7592000000 1.8098000000 1.2132000000
3.7589000000 3.5027000000 2.0636000000
3.7584000000 5.3168000000 1.2197000000
3.7581000000 4.6143000000 1.5761000000
3.7580000000 5.7122000000 1.0265000000
3.7580000000 4.1628000000 1.8057000000
3.7575000000 7.0869000000 0.0396000000
3.7574000000 3.5990000000 2.0812000000
3.7570000000 5.3016000000 1.2337000000
3.7569000000 3.8190000000 1.9800000000
3.7567000000 4.3914000000 1.6883000000
3.7567000000 3.4021000000 2.0128000000
3.7565000000 6.0655000000 0.8505000000
3.7563000000 2.0377000000 1.3227000000
3.7562000000 5.7817000000 0.9912000000
3.7560000000 2.4254000000 1.5225000000
3.7559000000 6.7012000000 0.4242000000
3.7558000000 6.4127000000 0.6649000000
3.7556000000 7.0200000000 0.1048000000
3.7553000000 1.3569000000 0.9864000000
3.7549000000 5.5471000000 1.1099000000
3.7548000000 3.4390000000 2.0387000000
3.7546000000 2.6303000000 1.6293000000
3.7543000000 0.5077000000 0.4885000000
3.7541000000 5.1539000000 1.3098000000
3.7539000000 5.1803000000 1.2957000000
3.7538000000 2.6914000000 1.6572000000
3.7537000000 2.2987000000 1.4564000000
3.7536000000 0.6355000000 0.6005000000
3.7535000000 6.1910000000 0.7829000000
3.7534000000 5.0549000000 1.3589000000
3.7533000000 5.4042000000 1.1880000000
3.7531000000 6.5241000000 0.5910000000
3.7528000000 6.7974000000 0.3286000000
3.7526000000 4.0938000000 1.8419000000
3.7524000000 2.0677000000 1.3407000000
3.7522000000 3.4135000000 2.0245000000
3.7520000000 1.7879000000 1.2053000000
3.7519000000 4.1252000000 1.8280000000
3.7518000000 3.2678000000 1.9533000000
3.7514000000 0.0511000000 0.0935000000
3.7513000000 1.7594000000 1.1957000000
3.7511000000 5.0100000000 1.3854000000
3.7508000000 5.8613000000 0.9560000000
3.7504000000 4.0860000000 1.8520000000
3.7500000000 2.2713000000 1.4503000000
3.7498000000 3.3948000000 2.0198000000
3.7493000000 6.3446000000 0.7160000000
3.7489000000 1.5291000000 1.0785000000
3.7485000000 3.7405000000 2.0250000000
3.7482000000 0.3144000000 0.2921000000
3.7475000000 3.8593000000 1.9673000000
3.7466000000 1.1282000000 0.8780000000
3.7453000000 2.2044000000 1.4184000000
3.5119000000 6.4878000000 0.6400000000
3.5100000000 2.0894000000 1.5711000000
3.5095000000 3.2655000000 2.1665000000
3.5090000000 1.3009000000 1.1704000000
3.5088000000 6.3920000000 0.7405000000
3.5085000000 5.0615000000 1.5746000000
3.5084000000 3.4978000000 2.2817000000
3.5083000000 5.4956000000 1.3486000000
3.5081000000 2.5470000000 1.7971000000
3.5078000000 6.5294000000 0.6046000000
3.5077000000 5.1709000000 1.5197000000
3.5074000000 7.1395000000 0.0590000000
3.5071000000 2.6547000000 1.8524000000
3.5070000000 3.4690000000 2.2703000000
3.5068000000 0.7807000000 0.7603000000
3.5065000000 5.4022000000 1.3956000000
3.5062000000 5.7527000000 1.2233000000
3.5063000000 4.1434000000 2.0338000000
3.5059000000 4.3349000000 1.9409000000
3.5058000000 6.6096000000 0.5181000000
3.5057000000 5.2620000000 1.4765000000
3.5054000000 7.1430000000 0.0490000000
3.5051000000 5.4137000000 1.3997000000
3.5049000000 1.8359000000 1.4433000000
3.5047000000 2.7534000000 1.9100000000
3.5046000000 2.4177000000 1.7378000000
3.5045000000 1.6782000000 1.3686000000
3.5044000000 5.8390000000 1.1840000000
3.5042000000 3.8796000000 2.1683000000
3.5040000000 3.0124000000 2.0411000000
3.5038000000 4.0271000000 2.1028000000
3.5034000000 6.6757000000 0.4527000000
3.5033000000 5.7796000000 1.2116000000
3.5030000000 2.4132000000 1.7405000000
3.5028000000 1.6537000000 1.3547000000
3.5027000000 1.2153000000 1.1268000000
3.5026000000 5.8915000000 1.1577000000
3.5025000000 0.7765000000 0.7550000000
3.5022000000 5.7764000000 1.2126000000
3.5020000000 1.6336000000 1.3479000000
3.5016000000 5.9620000000 1.1136000000
3.5010000000 1.8648000000 1.4597000000
3.5008000000 0.0026000000 0.0462000000
3.5005000000 3.6925000000 2.2668000000
3.5005000000 3.5233000000 2.2970000000
3.5001000000 1.9813000000 1.5198000000
3.4994000000 1.5697000000 1.3127000000
3.4992000000 4.9181000000 1.6548000000
3.4988000000 1.9737000000 1.5180000000
3.4985000000 0.9275000000 0.9113000000
3.4982000000 6.3320000000 0.8046000000
3.4974000000 0.6807000000 0.6609000000
3.4953000000 1.0318000000 0.9968000000
3.2619000000 3.0243000000 2.2583000000
3.2607000000 5.8793000000 1.2541000000
3.2600000000 6.0957000000 1.0415000000
3.2593000000 0.2858000000 0.2674000000
3.2592000000 6.0975000000 1.0363000000
3.2591000000 6.4015000000 0.7279000000
3.2585000000 7.0131000000 0.1163000000
3.2581000000 2.2742000000 1.8861000000
3.2580000000 2.0974000000 1.7978000000
3.2578000000 2.1285000000 1.8095000000
3.2577000000 3.9959000000 2.3339000000
3.2576000000 4.0634000000 2.2981000000
3.2574000000 4.9593000000 1.8390000000
3.2572000000 3.8871000000 2.3793000000
3.2570000000 5.2104000000 1.7167000000
3.2565000000 1.7785000000 1.6326000000
3.2560000000 3.1817000000 2.3410000000
3.2558000000 3.9598000000 2.3552000000
3.2557000000 6.3957000000 0.7382000000
3.2555000000 0.0951000000 0.0614000000
3.2554000000 4.4595000000 2.0935000000
3.2553000000 2.7259000000 2.1121000000
3.2550000000 6.7573000000 0.3734000000
3.2548000000 6.6228000000 0.5040000000
3.2545000000 4.1811000000 2.2396000000
3.2543000000 2.0364000000 1.7640000000
3.2538000000 4.2524000000 2.2010000000
3.2536000000 7.0048000000 0.1205000000
3.2535000000 4.4320000000 2.1115000000
3.2534000000 4.2283000000 2.2120000000
3.2531000000 4.4808000000 2.0897000000
3.2530000000 6.6010000000 0.5251000000
3.2527000000 2.6178000000 2.0611000000
3.2525000000 6.2690000000 0.8665000000
3.2523000000 5.4016000000 1.6229000000
3.2522000000 4.3199000000 2.1629000000
3.2517000000 6.2365000000 0.8936000000
3.2517000000 5.0826000000 1.7857000000
3.2515000000 1.3804000000 1.3684000000
3.2512000000 4.6955000000 1.9813000000
3.2510000000 3.1383000000 2.3264000000
3.2506000000 4.4488000000 2.1077000000
3.2502000000 3.0591000000 2.2878000000
3.2490000000 1.1384000000 1.1205000000
3.2484000000 2.7240000000 2.1166000000
3.2477000000 0.4875000000 0.4611000000
3.2448000000 4.9474000000 1.8599000000
3.0120000000 3.6051000000 2.7244000000
3.0109000000 6.4318000000 0.6974000000
3.0104000000 4.5862000000 2.2510000000
3.0093000000 4.1107000000 2.4927000000
3.0090000000 4.7287000000 2.1744000000
3.0083000000 4.4043000000 2.3416000000
3.0078000000 5.1266000000 1.9611000000
3.0076000000 5.4968000000 1.6423000000
3.0075000000 2.6680000000 2.3014000000
3.0071000000 0.9129000000 0.8984000000
3.0070000000 5.3560000000 1.7886000000
3.0069000000 6.4076000000 0.7195000000
3.0067000000 4.4093000000 2.3444000000
3.0066000000 2.6365000000 2.2844000000
3.0061000000 4.7903000000 2.1468000000
3.0060000000 0.6017000000 0.5772000000
3.0058000000 5.8860000000 1.2462000000
3.0055000000 5.3901000000 1.7562000000
3.0054000000 0.0181000000 0.0631000000
3.0052000000 4.5709000000 2.2615000000
3.0050000000 5.3754000000 1.7691000000
3.0048000000 5.1437000000 1.9508000000
3.0046000000 4.3209000000 2.3868000000
3.0044000000 6.8000000000 0.3241000000
3.0042000000 0.8249000000 0.8051000000
3.0040000000 3.8455000000 2.6234000000
3.0037000000 6.6600000000 0.4696000000
3.0036000000 6.4476000000 0.6837000000
3.0034000000 5.0133000000 2.0398000000
3.0032000000 2.2561000000 2.0958000000
3.0031000000 0.1646000000 0.1414000000
3.0029000000 3.3353000000 2.6483000000
3.0028000000 1.9650000000 1.9347000000
3.0027000000 1.1976000000 1.1837000000
3.0023000000 0.1780000000 0.1524000000
3.0022000000 4.3969000000 2.3469000000
3.0021000000 3.8799000000 2.6085000000
3.0018000000 3.1641000000 2.5542000000
3.0017000000 3.1364000000 2.5460000000
3.0015000000 2.9347000000 2.4442000000
3.0011000000 0.5740000000 0.5487000000
3.0010000000 0.3639000000 0.3385000000
3.0009000000 6.4576000000 0.6693000000
3.0008000000 0.2586000000 0.2312000000
3.0005000000 5.9788000000 1.1590000000
3.0003000000 4.6148000000 2.2388000000
3.0000000000 1.7169000000 1.7004000000
2.9991000000 2.5174000000 2.2339000000
2.9986000000 1.4904000000 1.4758000000
2.9980000000 0.1869000000 0.1653000000
2.7638000000 0.9602000000 0.9430000000
2.7625000000 2.5044000000 2.4344000000
2.7607000000 3.6431000000 2.9429000000
2.7605000000 4.6156000000 2.4531000000
2.7597000000 5.8472000000 1.2877000000
2.7591000000 3.4552000000 2.9141000000
2.7588000000 3.5800000000 2.9587000000
2.7582000000 5.7061000000 1.4347000000
2.7578000000 0.5256000000 0.4992000000
2.7574000000 3.4357000000 2.9072000000
2.7569000000 4.6132000000 2.4546000000
2.7567000000 0.1528000000 0.1236000000
2.7563000000 4.3119000000 2.6082000000
2.7560000000 3.9405000000 2.7965000000
2.7558000000 0.8134000000 0.7870000000
2.7556000000 5.7334000000 1.4033000000
2.7553000000 1.1032000000 1.0878000000
2.7554000000 5.0196000000 2.1274000000
2.7551000000 7.0264000000 0.1015000000
2.7547000000 2.8779000000 2.6259000000
2.7546000000 3.3488000000 2.8646000000
2.7542000000 2.3018000000 2.2824000000
2.7541000000 6.2807000000 0.8488000000
2.7538000000 4.9572000000 2.1917000000
2.7535000000 1.6931000000 1.6842000000
2.7535000000 4.5662000000 2.4805000000
2.7532000000 5.5162000000 1.6280000000
2.7530000000 5.2584000000 1.8858000000
2.7528000000 5.5618000000 1.5762000000
2.7527000000 1.5195000000 1.5130000000
2.7525000000 5.8808000000 1.2586000000
2.7523000000 5.9024000000 1.2383000000
2.7523000000 0.4346000000 0.4031000000
2.7522000000 2.6814000000 2.5300000000
2.7517000000 4.3714000000 2.5825000000
2.7515000000 1.3783000000 1.3601000000
2.7512000000 0.0745000000 0.0422000000
2.7508000000 0.0921000000 0.0598000000
2.7504000000 0.4737000000 0.4468000000
2.7501000000 1.2528000000 1.2407000000
2.7499000000 0.6852000000 0.6638000000
2.7496000000 2.8386000000 2.6110000000
2.7485000000 3.2543000000 2.8217000000
2.7466000000 2.7109000000 2.5478000000
2.7441000000 0.9350000000 0.9186000000
2.5119000000 2.0341000000 2.0254000000
2.5111000000 6.9431000000 0.1831000000
2.5107000000 0.4773000000 0.4557000000
2.5100000000 7.1668000000 0.0365000000
2.5096000000 4.9183000000 2.2335000000
2.5095000000 6.8066000000 0.3174000000
2.5095000000 0.5510000000 0.5246000000
2.5088000000 5.6488000000 1.4963000000
2.5076000000 3.9725000000 2.9969000000
2.5075000000 6.8141000000 0.3127000000
2.5074000000 6.3735000000 0.7580000000
2.5073000000 3.1353000000 2.9772000000
2.5072000000 3.3047000000 3.0576000000
2.5070000000 4.2538000000 2.8401000000
2.5068000000 7.0421000000 0.0871000000
2.5064000000 2.4965000000 2.4909000000
2.5063000000 0.3112000000 0.2881000000
2.5060000000 5.7901000000 1.3538000000
2.5056000000 4.8289000000 2.3206000000
2.5055000000 4.3337000000 2.8061000000
2.5054000000 4.8456000000 2.3027000000
2.5051000000 0.9509000000 0.9352000000
2.5050000000 5.0306000000 2.1161000000
2.5046000000 6.2499000000 0.8861000000
2.5043000000 3.6771000000 3.1446000000
2.5043000000 4.1123000000 2.9294000000
2.5040000000 1.3612000000 1.3483000000
2.5037000000 0.9007000000 0.8783000000
2.5030000000 4.2857000000 2.8300000000
2.5028000000 2.1214000000 2.1168000000
2.5025000000 4.6904000000 2.4597000000
2.5022000000 1.2444000000 1.2300000000
2.5020000000 4.9468000000 2.1996000000
2.5018000000 3.5735000000 3.1841000000
2.5014000000 5.4308000000 1.7102000000
2.5013000000 1.2535000000 1.2435000000
2.5011000000 3.8617000000 3.0581000000
2.5009000000 4.9674000000 2.1815000000
2.5006000000 0.4316000000 0.4092000000
2.5002000000 1.3915000000 1.3791000000
2.5000000000 6.3224000000 0.8098000000
2.4992000000 0.9861000000 0.9689000000
2.4986000000 1.8017000000 1.7880000000
2.4984000000 1.7846000000 1.7766000000
2.4979000000 1.8084000000 1.7966000000
2.4975000000 0.3904000000 0.3629000000
2.2629000000 5.5467000000 1.5939000000
2.2619000000 6.6836000000 0.4459000000
2.2611000000 1.1544000000 1.1374000000
2.2604000000 6.0783000000 1.0613000000
2.2598000000 1.8415000000 1.8356000000
2.2587000000 2.3129000000 2.3103000000
2.2584000000 7.1323000000 0.0665000000
2.2582000000 6.0615000000 1.0784000000
2.2580000000 3.5323000000 3.3715000000
2.2574000000 1.2439000000 1.2220000000
2.2573000000 0.4800000000 0.4539000000
2.2572000000 4.8572000000 2.2970000000
2.2570000000 4.7175000000 2.4282000000
2.2568000000 4.7036000000 2.4450000000
2.2565000000 2.8249000000 2.8242000000
2.2563000000 6.3332000000 0.7973000000
2.2562000000 2.0971000000 2.0849000000
2.2558000000 5.4017000000 1.7407000000
2.2558000000 1.0606000000 1.0411000000
2.2553000000 6.5140000000 0.6138000000
2.2548000000 6.4872000000 0.6455000000
2.2545000000 1.1497000000 1.1373000000
2.2543000000 2.7820000000 2.7809000000
2.2541000000 3.4285000000 3.3430000000
2.2540000000 5.6031000000 1.5372000000
2.2538000000 4.7613000000 2.3907000000
2.2536000000 0.9803000000 0.9579000000
2.2533000000 3.8575000000 3.2636000000
2.2532000000 2.9908000000 2.9938000000
2.2530000000 7.1281000000 0.0685000000
2.2529000000 1.6831000000 1.6716000000
2.2527000000 4.2479000000 2.9094000000
2.2526000000 5.7082000000 1.4314000000
2.2525000000 2.0228000000 2.0183000000
2.2523000000 6.1205000000 1.0117000000
2.2522000000 3.0392000000 3.0392000000
2.2521000000 1.7017000000 1.6866000000
2.2520000000 7.1287000000 0.0779000000
2.2519000000 6.2953000000 0.8383000000
2.2516000000 0.6913000000 0.6665000000
2.2513000000 5.6404000000 1.4974000000
2.2512000000 1.4686000000 1.4524000000
2.2510000000 5.8453000000 1.2966000000
2.2503000000 1.9924000000 1.9868000000
2.2498000000 0.1415000000 0.1129000000
2.2497000000 3.6210000000 3.3935000000
2.2493000000 5.0183000000 2.1284000000
2.2489000000 6.2210000000 0.9134000000
2.2486000000 0.8823000000 0.8677000000
2.2477000000 2.6424000000 2.6450000000
2.2475000000 3.8484000000 3.2705000000
2.2460000000 2.2264000000 2.2272000000
2.2448000000 5.6154000000 1.5258000000
2.2443000000 1.2873000000 1.2709000000
2.0130000000 6.2629000000 0.8755000000
2.0120000000 3.8601000000 3.2965000000
2.0108000000 5.7588000000 1.3789000000
2.0104000000 4.2339000000 2.9211000000
2.0098000000 6.6515000000 0.4805000000
2.0095000000 2.0198000000 2.0105000000
2.0088000000 6.5249000000 0.6098000000
2.0083000000 6.4505000000 0.6826000000
2.0080000000 0.6753000000 0.6484000000
2.0077000000 6.5572000000 0.5689000000
2.0075000000 2.3852000000 2.3803000000
2.0073000000 0.4621000000 0.4388000000
2.0069000000 5.4395000000 1.7025000000
2.0065000000 2.9750000000 2.9786000000
2.0064000000 5.0540000000 2.0942000000
2.0062000000 6.5773000000 0.5534000000
2.0060000000 2.1638000000 2.1593000000
2.0058000000 4.4201000000 2.7333000000
2.0056000000 3.9232000000 3.2415000000
2.0055000000 2.6594000000 2.6532000000
2.0052000000 2.7443000000 2.7384000000
2.0051000000 1.6828000000 1.6699000000
2.0050000000 4.0691000000 3.0897000000
2.0048000000 6.6815000000 0.4486000000
2.0047000000 3.3206000000 3.3237000000
2.0046000000 4.4931000000 2.6618000000
2.0045000000 7.0854000000 0.0390000000
2.0043000000 6.4759000000 0.6563000000
2.0042000000 4.8482000000 2.3028000000
2.0041000000 6.8498000000 0.2816000000
2.0038000000 6.3031000000 0.8290000000
2.0038000000 1.9226000000 1.9141000000
2.0036000000 2.2623000000 2.2588000000
2.0036000000 1.3321000000 1.3193000000
2.0035000000 4.9172000000 2.2341000000
2.0033000000 2.9298000000 2.9387000000
2.0033000000 5.4658000000 1.6745000000
2.0029000000 0.8934000000 0.8714000000
2.0028000000 2.5093000000 2.5055000000
2.0025000000 0.0995000000 0.0731000000
2.0023000000 3.2011000000 3.2032000000
2.0024000000 1.4540000000 1.4448000000
2.0020000000 4.3105000000 2.8457000000
2.0019000000 4.8862000000 2.2600000000
2.0016000000 1.2736000000 1.2596000000
2.0013000000 1.6166000000 1.6050000000
2.0010000000 0.3559000000 0.3294000000
2.0008000000 2.8576000000 2.8554000000
2.0006000000 5.9770000000 1.1604000000
2.0003000000 3.6098000000 3.5230000000
2.0000000000 0.5287000000 0.5057000000
1.9999000000 3.3397000000 3.3454000000
1.9998000000 4.8925000000 2.2582000000
1.9997000000 3.8839000000 3.2752000000
1.9992000000 5.3293000000 1.8168000000
1.9988000000 1.6388000000 1.6248000000
1.9985000000 0.1444000000 0.1162000000
1.9980000000 0.3424000000 0.3211000000
1.9970000000 1.1849000000 1.1717000000
1.9929000000 1.1114000000 1.0956000000
1.7613000000 5.2077000000 1.9367000000
1.7608000000 4.9907000000 2.1546000000
1.7602000000 5.6598000000 1.4799000000
1.7598000000 0.7520000000 0.7315000000
1.7595000000 2.7198000000 2.7162000000
1.7588000000 3.6562000000 3.2775000000
1.7586000000 0.7344000000 0.7166000000
1.7585000000 4.5083000000 2.6412000000
1.7583000000 7.1059000000 0.0957000000
1.7582000000 1.8912000000 1.8878000000
1.7581000000 0.6347000000 0.6100000000
1.7575000000 2.1666000000 2.1588000000
1.7574000000 6.7794000000 0.3457000000
1.7568000000 2.4052000000 2.4064000000
1.7567000000 3.0352000000 3.0204000000
1.7566000000 4.4629000000 2.6879000000
1.7561000000 3.9311000000 3.1338000000
1.7557000000 5.3644000000 1.7742000000
1.7555000000 4.8205000000 2.3231000000
1.7555000000 4.5757000000 2.5742000000
1.7554000000 5.3789000000 1.7623000000
1.7553000000 4.2925000000 2.8640000000
1.7549000000 1.9801000000 1.9702000000
1.7545000000 6.6234000000 0.5132000000
1.7544000000 2.9399000000 2.9335000000
1.7543000000 2.6709000000 2.6729000000
1.7542000000 1.1296000000 1.1146000000
1.7541000000 1.3947000000 1.3837000000
1.7538000000 1.3281000000 1.3155000000
1.7536000000 4.7759000000 2.3737000000
1.7533000000 6.0613000000 1.0790000000
1.7531000000 0.6086000000 0.5927000000
1.7531000000 3.1950000000 3.1215000000
1.7530000000 4.8364000000 2.3118000000
1.7526000000 2.4964000000 2.4979000000
1.7524000000 2.4393000000 2.4339000000
1.7524000000 2.7004000000 2.6994000000
1.7522000000 0.5413000000 0.5214000000
1.7520000000 6.3961000000 0.7352000000
1.7519000000 6.2847000000 0.8495000000
1.7518000000 2.0615000000 2.0538000000
1.7516000000 5.8230000000 1.3147000000
1.7513000000 3.0351000000 3.0204000000
1.7512000000 2.5195000000 2.5196000000
1.7510000000 5.8750000000 1.2592000000
1.7510000000 3.2132000000 3.1290000000
1.7508000000 0.2379000000 0.2129000000
1.7505000000 6.6284000000 0.4996000000
1.7503000000 0.1835000000 0.1557000000
1.7498000000 1.3806000000 1.3655000000
1.7493000000 5.5378000000 1.6041000000
1.7490000000 6.5169000000 0.6091000000
1.7488000000 2.2604000000 2.2572000000
1.7487000000 0.4063000000 0.3802000000
1.7484000000 1.1410000000 1.1306000000
1.7477000000 0.1337000000 0.1096000000
1.7472000000 0.9130000000 0.8948000000
1.7457000000 3.7400000000 3.2287000000
1.5154000000 2.2741000000 2.2685000000
1.5124000000 3.6480000000 3.0657000000
1.5113000000 1.6358000000 1.6256000000
1.5105000000 6.5168000000 0.6164000000
1.5099000000 6.6551000000 0.4769000000
1.5095000000 0.3614000000 0.3418000000
1.5090000000 5.9731000000 1.1651000000
1.5085000000 5.2884000000 1.8529000000
1.5079000000 7.0464000000 0.0774000000
1.5078000000 3.2671000000 2.9481000000
1.5075000000 5.7358000000 1.4020000000
1.5073000000 5.4724000000 1.6658000000
1.5071000000 2.9957000000 2.8111000000
1.5070000000 2.6187000000 2.5974000000
1.5069000000 4.5691000000 2.5666000000
1.5067000000 2.8201000000 2.7136000000
1.5066000000 4.1449000000 2.8081000000
1.5063000000 5.5881000000 1.5550000000
1.5064000000 4.7343000000 2.4170000000
1.5062000000 5.9669000000 1.1679000000
1.5060000000 1.3764000000 1.3594000000
1.5058000000 2.4623000000 2.4585000000
1.5054000000 6.8588000000 0.2685000000
1.5053000000 7.1828000000 0.0925000000
1.5052000000 0.2710000000 0.2485000000
1.5051000000 0.1795000000 0.1456000000
1.5050000000 6.5315000000 0.5979000000
1.5047000000 3.2817000000 2.9494000000
1.5046000000 3.3068000000 2.9569000000
1.5044000000 3.0744000000 2.8443000000
1.5043000000 5.3129000000 1.8268000000
1.5041000000 4.5624000000 2.5735000000
1.5040000000 0.4138000000 0.3929000000
1.5038000000 2.3220000000 2.3156000000
1.5037000000 0.4326000000 0.4148000000
1.5036000000 4.5613000000 2.5725000000
1.5035000000 0.8646000000 0.8459000000
1.5034000000 7.0561000000 0.0702000000
1.5032000000 4.4562000000 2.6400000000
1.5030000000 5.9965000000 1.1441000000
1.5028000000 1.9657000000 1.9579000000
1.5027000000 5.4507000000 1.6959000000
1.5025000000 1.5995000000 1.5900000000
1.5023000000 0.2427000000 0.2142000000
1.5019000000 0.9229000000 0.9004000000
1.5016000000 7.0556000000 0.0722000000
1.5013000000 1.7698000000 1.7633000000
1.5012000000 0.3670000000 0.3451000000
1.5011000000 5.4738000000 1.6606000000
1.5009000000 0.5183000000 0.4959000000
1.5008000000 6.7225000000 0.4072000000
1.5006000000 1.3224000000 1.3058000000
1.5004000000 5.4829000000 1.6636000000
1.5002000000 1.5415000000 1.5255000000
1.4997000000 4.9838000000 2.1662000000
1.4995000000 3.0614000000 2.8284000000
1.4991000000 3.4905000000 3.0543000000
1.4972000000 6.1348000000 1.0019000000
1.4967000000 5.4026000000 1.7392000000
1.4956000000 5.5820000000 1.5566000000
1.2601000000 3.8359000000 2.7475000000
1.2596000000 6.0270000000 1.1041000000
1.2593000000 2.3665000000 2.2689000000
1.2587000000 5.3491000000 1.7962000000
1.2580000000 3.8246000000 2.7558000000
1.2578000000 4.2992000000 2.5164000000
1.2576000000 0.5217000000 0.5006000000
1.2572000000 3.3888000000 2.7873000000
1.2569000000 4.0764000000 2.6232000000
1.2568000000 1.5774000000 1.5661000000
1.2567000000 6.1862000000 0.9505000000
1.2562000000 6.8048000000 0.3216000000
1.2560000000 3.8350000000 2.7451000000
1.2558000000 6.0058000000 1.1275000000
1.2555000000 4.4055000000 2.4608000000
1.2553000000 0.3841000000 0.3612000000
1.2552000000 1.4524000000 1.4347000000
1.2550000000 5.6061000000 1.5395000000
1.2550000000 4.3600000000 2.4808000000
1.2548000000 3.6649000000 2.8345000000
1.2547000000 4.1183000000 2.5975000000
1.2545000000 5.0397000000 2.0907000000
1.2544000000 5.9854000000 1.1512000000
1.2543000000 0.6647000000 0.6433000000
1.2540000000 1.4483000000 1.4378000000
1.2538000000 0.5327000000 0.5069000000
1.2537000000 6.1101000000 1.0235000000
1.2534000000 5.9654000000 1.1723000000
1.2531000000 0.1248000000 0.1002000000
1.2530000000 2.8438000000 2.5023000000
1.2527000000 4.6790000000 2.3195000000
1.2524000000 2.6384000000 2.4017000000
1.2520000000 6.1334000000 1.0039000000
1.2518000000 3.6390000000 2.8380000000
1.2515000000 0.4862000000 0.4624000000
1.2513000000 0.9619000000 0.9406000000
1.2510000000 2.3122000000 2.2318000000
1.2506000000 3.3866000000 2.7796000000
1.2505000000 2.5188000000 2.3441000000
1.2502000000 1.5285000000 1.5184000000
1.2497000000 6.7897000000 0.3327000000
1.2498000000 0.9368000000 0.9165000000
1.2493000000 3.8298000000 2.7400000000
1.2484000000 4.1575000000 2.5822000000
1.2480000000 2.2932000000 2.2272000000
1.2473000000 0.3398000000 0.3176000000
1.2454000000 0.3382000000 0.3144000000
1.0132000000 2.7115000000 2.2311000000
1.0113000000 5.0667000000 1.9124000000
1.0101000000 7.1134000000 0.0843000000
1.0093000000 4.0655000000 2.4086000000
1.0091000000 3.8016000000 2.5423000000
1.0085000000 6.6403000000 0.4855000000
1.0083000000 6.5075000000 0.6258000000
1.0080000000 5.8604000000 1.2787000000
1.0077000000 5.1871000000 1.8510000000
1.0075000000 1.8028000000 1.7515000000
1.0073000000 0.8596000000 0.8416000000
1.0069000000 5.6270000000 1.5156000000
1.0065000000 0.1081000000 0.0713000000
1.0063000000 3.7003000000 2.5985000000
1.0060000000 6.1195000000 1.0131000000
1.0058000000 4.6088000000 2.1353000000
1.0053000000 1.9614000000 1.8455000000
1.0051000000 4.2849000000 2.2997000000
1.0049000000 0.6967000000 0.6760000000
1.0049000000 5.3718000000 1.7394000000
1.0047000000 2.6493000000 2.1891000000
1.0046000000 5.9252000000 1.2094000000
1.0045000000 3.9196000000 2.4839000000
1.0043000000 5.2949000000 1.7892000000
1.0043000000 4.6089000000 2.1344000000
1.0041000000 3.1984000000 2.4676000000
1.0040000000 0.8337000000 0.8145000000
1.0039000000 4.9605000000 1.9642000000
1.0036000000 3.2569000000 2.4943000000
1.0035000000 0.2627000000 0.2384000000
1.0035000000 3.0502000000 2.3908000000
1.0030000000 3.0370000000 2.3880000000
1.0027000000 3.9263000000 2.4760000000
1.0026000000 4.9203000000 1.9809000000
1.0025000000 6.9277000000 0.2046000000
1.0023000000 5.0802000000 1.9003000000
1.0020000000 5.2793000000 1.7960000000
1.0018000000 3.9733000000 2.4638000000
1.0016000000 1.7423000000 1.7111000000
1.0014000000 0.3640000000 0.3371000000
1.0012000000 1.6025000000 1.5880000000
1.0007000000 4.8216000000 2.0307000000
1.0005000000 0.4918000000 0.4676000000
1.0001000000 1.4957000000 1.4808000000
1.0000000000 4.0829000000 2.3987000000
0.9993000000 2.6757000000 2.1968000000
0.9984000000 4.0776000000 2.3975000000
0.9982000000 3.4199000000 2.5778000000
0.9978000000 1.5189000000 1.5107000000
0.7618000000 4.8320000000 1.8083000000
0.7604000000 2.2706000000 1.7816000000
0.7600000000 1.4677000000 1.3780000000
0.7597000000 6.0257000000 1.1102000000
0.7594000000 5.1922000000 1.6264000000
0.7589000000 2.1992000000 1.7461000000
0.7581000000 0.8378000000 0.8168000000
0.7575000000 6.9605000000 0.1692000000
0.7569000000 7.1759000000 0.0244000000
0.7562000000 1.9094000000 1.5970000000
0.7556000000 6.5337000000 0.5956000000
0.7553000000 1.9845000000 1.6325000000
0.7551000000 7.1062000000 0.0880000000
0.7550000000 2.7704000000 2.0279000000
0.7541000000 3.2295000000 2.2657000000
0.7540000000 4.5210000000 1.9608000000
0.7538000000 3.6809000000 2.3833000000
0.7536000000 3.8368000000 2.3080000000
0.7533000000 2.8172000000 2.0542000000
0.7532000000 1.6099000000 1.4462000000
0.7530000000 3.5056000000 2.4005000000
0.7529000000 2.8770000000 2.0858000000
0.7527000000 2.8372000000 2.0630000000
0.7525000000 1.2358000000 1.2022000000
0.7524000000 6.1598000000 0.9720000000
0.7523000000 5.1965000000 1.6193000000
0.7518000000 5.2138000000 1.6149000000
0.7516000000 4.3823000000 2.0328000000
0.7511000000 0.8447000000 0.8255000000
0.7510000000 4.6024000000 1.9186000000
0.7508000000 6.6460000000 0.4837000000
0.7506000000 1.0347000000 1.0226000000
0.7505000000 3.9335000000 2.2559000000
0.7502000000 0.1085000000 0.0797000000
0.7497000000 2.2281000000 1.7555000000
0.7489000000 6.0047000000 1.1320000000
0.7488000000 7.0051000000 0.1191000000
0.7483000000 0.8005000000 0.7792000000
0.7480000000 1.2049000000 1.1764000000
0.7476000000 5.0503000000 1.6881000000
0.7465000000 0.2739000000 0.2473000000
0.5124000000 5.7028000000 1.1505000000
0.5108000000 5.6111000000 1.1955000000
0.5094000000 3.3688000000 2.1189000000
0.5082000000 4.8384000000 1.5859000000
0.5080000000 3.6862000000 2.1718000000
0.5078000000 1.4157000000 1.1320000000
0.5074000000 6.5524000000 0.5818000000
0.5072000000 6.8071000000 0.3223000000
0.5066000000 6.6629000000 0.4690000000
0.5066000000 2.8357000000 1.8443000000
0.5063000000 5.2469000000 1.3762000000
0.5061000000 2.5479000000 1.7016000000
0.5058000000 6.1751000000 0.8989000000
0.5057000000 1.5300000000 1.1890000000
0.5054000000 4.3459000000 1.8275000000
0.5054000000 4.2567000000 1.8773000000
0.5052000000 6.9211000000 0.2057000000
0.5049000000 2.9862000000 1.9235000000
0.5048000000 6.9974000000 0.1344000000
0.5047000000 6.5942000000 0.5327000000
0.5044000000 5.3350000000 1.3255000000
0.5042000000 3.5624000000 2.1898000000
0.5041000000 0.9544000000 0.8847000000
0.5040000000 7.0960000000 0.0983000000
0.5038000000 7.0480000000 0.0783000000
0.5035000000 0.8702000000 0.8356000000
0.5034000000 4.3203000000 1.8388000000
0.5031000000 3.1200000000 1.9859000000
0.5030000000 2.9727000000 1.9137000000
0.5027000000 3.1596000000 2.0078000000
0.5025000000 0.0992000000 0.0717000000
0.5020000000 0.8426000000 0.8079000000
0.5018000000 3.4770000000 2.1698000000
0.5016000000 1.1648000000 0.9985000000
0.5014000000 0.2828000000 0.2574000000
0.5013000000 3.7617000000 2.1210000000
0.5006000000 1.0346000000 0.9268000000
0.5003000000 1.2863000000 1.0613000000
0.5000000000 1.0920000000 0.9621000000
0.4998000000 3.6063000000 2.1827000000
0.4996000000 1.7721000000 1.3073000000
0.4994000000 3.4425000000 2.1518000000
0.4992000000 0.1343000000 0.1087000000
0.4990000000 2.0433000000 1.4415000000
0.4986000000 0.9340000000 0.8634000000
0.4983000000 0.3814000000 0.3537000000
0.4979000000 0.0367000000 0.0816000000
0.4972000000 2.6882000000 1.7616000000
0.4969000000 0.8974000000 0.8397000000
0.4960000000 0.0872000000 0.0611000000
0.2640000000 5.3871000000 1.0853000000
0.2613000000 6.8221000000 0.3039000000
0.2611000000 5.9853000000 0.7921000000
0.2599000000 1.9310000000 1.1679000000
0.2595000000 6.2819000000 0.6386000000
0.2589000000 6.6067000000 0.4585000000
0.2585000000 5.1107000000 1.2301000000
0.2580000000 5.9480000000 0.8122000000
0.2574000000 7.0395000000 0.0872000000
0.2572000000 6.8213000000 0.3004000000
0.2568000000 2.6562000000 1.5358000000
0.2567000000 1.7664000000 1.0852000000
0.2565000000 3.6328000000 1.9665000000
0.2562000000 5.2830000000 1.1398000000
0.2559000000 1.0782000000 0.7386000000
0.2558000000 2.1910000000 1.3020000000
0.2555000000 5.5613000000 0.9986000000
0.2554000000 1.0415000000 0.7168000000
0.2553000000 4.4632000000 1.5531000000
0.2549000000 3.0573000000 1.7438000000
0.2546000000 0.0874000000 0.0550000000
0.2545000000 2.4924000000 1.4504000000
0.2542000000 4.8146000000 1.3729000000
0.2540000000 2.0079000000 1.2107000000
0.2540000000 4.4034000000 1.5807000000
0.2536000000 0.5494000000 0.4688000000
0.2535000000 4.1294000000 1.7244000000
0.2533000000 3.5792000000 1.9811000000
0.2530000000 4.1746000000 1.6977000000
0.2530000000 0.4589000000 0.4078000000
0.2528000000 5.2015000000 1.1778000000
0.2527000000 4.6459000000 1.4629000000
0.2525000000 3.4596000000 1.9425000000
0.2522000000 5.5975000000 0.9782000000
0.2521000000 3.4548000000 1.9336000000
0.2519000000 2.0495000000 1.2192000000
0.2518000000 3.1591000000 1.7907000000
0.2516000000 3.8194000000 1.8737000000
0.2515000000 6.1272000000 0.7067000000
0.2510000000 4.9566000000 1.2998000000
0.2509000000 4.9443000000 1.3060000000
0.2507000000 3.3771000000 1.8997000000
0.2506000000 1.8577000000 1.1263000000
0.2504000000 0.2636000000 0.2453000000
0.2503000000 0.3487000000 0.3071000000
0.2503000000 6.0028000000 0.7720000000
0.2500000000 2.1843000000 1.2952000000
0.2498000000 2.9237000000 1.6696000000
0.2494000000 1.1873000000 0.7878000000
0.2491000000 0.3381000000 0.2984000000
0.2490000000 5.9031000000 0.8273000000
0.2489000000 0.6756000000 0.5266000000
0.2486000000 7.0450000000 0.0863000000
0.2478000000 2.0286000000 1.2144000000
0.2476000000 5.9831000000 0.7799000000
0.2469000000 0.2007000000 0.1757000000
0.2466000000 0.0792000000 0.0493000000
0.2463000000 1.6578000000 1.0320000000
0.2459000000 0.0445000000 0.0954000000
0.2457000000 4.1934000000 1.6833000000
0.2419000000 0.4749000000 0.4085000000
0.0117000000 1.7788000000 0.8797000000
0.0100000000 6.9167000000 0.0956000000
0.0095000000 7.1684000000 0.0170000000
0.0088000000 6.9238000000 0.0949000000
0.0085000000 6.2326000000 0.4425000000
0.0078000000 6.8534000000 0.1232000000
0.0072000000 4.6579000000 1.2410000000
0.0070000000 1.1256000000 0.5519000000
0.0067000000 1.2126000000 0.5974000000
0.0064000000 5.7999000000 0.6607000000
0.0063000000 0.3654000000 0.1639000000
0.0060000000 2.9711000000 1.4811000000
0.0058000000 1.4451000000 0.7118000000
0.0057000000 4.9989000000 1.0666000000
0.0055000000 3.5652000000 1.7611000000
0.0054000000 2.3754000000 1.1813000000
0.0053000000 5.4175000000 0.8543000000
0.0052000000 3.1369000000 1.5703000000
0.0049000000 3.6503000000 1.7488000000
0.0047000000 4.3047000000 1.4145000000
0.0045000000 0.2017000000 0.0767000000
0.0038000000 2.3440000000 1.1605000000
0.0034000000 4.9632000000 1.0819000000
0.0032000000 4.5450000000 1.2898000000
0.0029000000 3.1804000000 1.5879000000
0.0027000000 1.6140000000 0.7924000000
0.0026000000 6.3856000000 0.3599000000
0.0025000000 2.4219000000 1.1981000000
0.0022000000 4.2636000000 1.4388000000
0.0020000000 6.4472000000 0.3269000000
0.0018000000 3.6769000000 1.7290000000
0.0015000000 3.4702000000 1.7279000000
0.0013000000 3.9281000000 1.5993000000
0.0008000000 0.3529000000 0.1440000000
0.0003000000 4.1449000000 1.4886000000
0.0001000000 5.2318000000 0.9394000000
0.0000000000 0.2942000000 0.1212000000
-0.0001000000 0.3965000000 0.1675000000
-0.0007000000 1.9612000000 0.9640000000
-0.0010000000 3.0025000000 1.4996000000
-0.0012000000 3.6787000000 1.7237000000
-0.0019000000 5.7799000000 0.6658000000
-0.0027000000 0.2669000000 0.0994000000
-0.0040000000 0.3108000000 0.1254000000
-0.2362000000 0.5279000000 0.1104000000
-0.2372000000 2.6646000000 1.1094000000
-0.2392000000 6.7198000000 0.0527000000
-0.2395000000 5.8980000000 0.3898000000
-0.2401000000 4.9167000000 0.8868000000
-0.2407000000 1.5255000000 0.5355000000
-0.2411000000 3.3004000000 1.4320000000
-0.2417000000 6.0739000000 0.3038000000
-0.2419000000 6.7094000000 0.0581000000
-0.2421000000 5.0783000000 0.8096000000
-0.2422000000 4.2397000000 1.2261000000
-0.2427000000 5.9424000000 0.3686000000
-0.2430000000 3.4852000000 1.5172000000
-0.2430000000 3.1726000000 1.3621000000
-0.2431000000 5.1626000000 0.7680000000
-0.2434000000 4.7383000000 0.9742000000
-0.2437000000 2.9479000000 1.2468000000
-0.2440000000 5.1624000000 0.7629000000
-0.2443000000 4.1409000000 1.2781000000
-0.2445000000 4.0623000000 1.3183000000
-0.2449000000 5.6929000000 0.4884000000
-0.2450000000 2.1814000000 0.8592000000
-0.2451000000 1.5452000000 0.5380000000
-0.2452000000 4.4414000000 1.1283000000
-0.2455000000 0.6622000000 0.0913000000
-0.2456000000 4.9950000000 0.8400000000
-0.2457000000 1.9252000000 0.7366000000
-0.2458000000 5.5640000000 0.5573000000
-0.2460000000 2.1778000000 0.8612000000
-0.2462000000 3.4367000000 1.4962000000
-0.2465000000 2.8656000000 1.2075000000
-0.2467000000 5.8812000000 0.3981000000
-0.2469000000 0.3576000000 0.0884000000
-0.2470000000 4.0386000000 1.3294000000
-0.2473000000 6.0229000000 0.3279000000
-0.2474000000 2.6002000000 1.0654000000
-0.2477000000 2.4609000000 1.0032000000
-0.2480000000 5.8966000000 0.3918000000
-0.2482000000 6.7894000000 0.0866000000
-0.2484000000 2.3583000000 0.9476000000
-0.2486000000 3.9685000000 1.3607000000
-0.2488000000 4.0520000000 1.3144000000
-0.2490000000 1.0378000000 0.2777000000
-0.2492000000 1.0853000000 0.3034000000
-0.2496000000 2.2815000000 0.9062000000
-0.2506000000 0.2080000000 0.0046000000
-0.2514000000 2.0020000000 0.7577000000
-0.2515000000 1.3851000000 0.4485000000
-0.2528000000 1.7904000000 0.6533000000
-0.2546000000 2.7544000000 1.1390000000
-0.2590000000 2.9673000000 1.2449000000
-0.4892000000 2.4174000000 0.7679000000
-0.4903000000 3.1529000000 1.1396000000
-0.4914000000 5.6634000000 0.2989000000
-0.4919000000 1.0768000000 0.0910000000
-0.4922000000 2.9034000000 1.0111000000
-0.4924000000 2.3752000000 0.7453000000
-0.4932000000 3.0279000000 1.0746000000
-0.4934000000 3.8355000000 1.2164000000
-0.4935000000 1.9782000000 0.5419000000
-0.4938000000 5.9751000000 0.1333000000
-0.4939000000 5.6742000000 0.2849000000
-0.4940000000 1.2879000000 0.1874000000
-0.4945000000 5.0553000000 0.5996000000
-0.4946000000 4.8439000000 0.7069000000
-0.4950000000 3.6220000000 1.3005000000
-0.4952000000 3.9020000000 1.1764000000
-0.4953000000 4.8929000000 0.6809000000
-0.4957000000 6.2550000000 0.0627000000
-0.4960000000 1.2948000000 0.1937000000
-0.4961000000 2.9360000000 1.0219000000
-0.4962000000 3.3359000000 1.2221000000
-0.4966000000 4.2132000000 1.0194000000
-0.4968000000 1.2857000000 0.1839000000
-0.4970000000 2.7605000000 0.9332000000
-0.4973000000 4.6904000000 0.7763000000
-0.4976000000 5.7280000000 0.2599000000
-0.4982000000 2.1097000000 0.6056000000
-0.4987000000 4.1030000000 1.0736000000
-0.4992000000 0.7812000000 0.0801000000
-0.4993000000 4.4626000000 0.8911000000
-0.4998000000 1.0857000000 0.0768000000
-0.5000000000 4.5729000000 0.8415000000
-0.5006000000 2.3276000000 0.7084000000
-0.5014000000 2.8164000000 0.9564000000
-0.5018000000 5.7614000000 0.2303000000
-0.5022000000 3.3689000000 1.2355000000
-0.5029000000 1.9001000000 0.4882000000
-0.5035000000 0.8413000000 0.0342000000
-0.5039000000 1.8491000000 0.4647000000
-0.5050000000 2.2319000000 0.6573000000
-0.7388000000 5.3139000000 0.2491000000
-0.7391000000 2.3069000000 0.4899000000
-0.7400000000 5.0690000000 0.3773000000
-0.7407000000 5.7937000000 0.0853000000
-0.7415000000 4.0171000000 0.9037000000
-0.7417000000 4.6383000000 0.5951000000
-0.7426000000 4.5596000000 0.6334000000
-0.7429000000 2.1243000000 0.3992000000
-0.7430000000 5.2001000000 0.3087000000
-0.7431000000 2.7962000000 0.7336000000
-0.7433000000 5.7919000000 0.0825000000
-0.7435000000 3.8960000000 0.9639000000
-0.7437000000 1.8535000000 0.2595000000
-0.7437000000 1.4701000000 0.0608000000
-0.7441000000 5.8079000000 0.0764000000
-0.7443000000 4.2955000000 0.7651000000
-0.7446000000 3.6878000000 1.0690000000
-0.7449000000 1.7089000000 0.1796000000
-0.7451000000 4.9769000000 0.4151000000
-0.7455000000 3.7880000000 1.0192000000
-0.7456000000 3.9985000000 0.9086000000
-0.7459000000 1.8478000000 0.2437000000
-0.7439000000 5.9330000000 0.0861000000
-0.7468000000 1.0878000000 0.0210000000
-0.7471000000 5.5130000000 0.1465000000
-0.7475000000 3.5876000000 1.1015000000
-0.7476000000 2.9093000000 0.7845000000
-0.7477000000 3.2751000000 0.9673000000
-0.7479000000 3.0463000000 0.8607000000
-0.7481000000 1.8843000000 0.2688000000
-0.7485000000 3.5591000000 1.1021000000
-0.7487000000 5.9793000000 0.0541000000
-0.7470000000 4.2776000000 0.7709000000
-0.7495000000 1.7793000000 0.2141000000
-0.7498000000 1.5178000000 0.0890000000
-0.7501000000 2.4877000000 0.5759000000
-0.7504000000 2.4155000000 0.5350000000
-0.7508000000 2.6844000000 0.6665000000
-0.7511000000 4.9588000000 0.4194000000
-0.7517000000 2.3941000000 0.5189000000
-0.7532000000 1.8983000000 0.2706000000
-0.9879000000 5.3864000000 0.0698000000
-0.9888000000 5.3528000000 0.0854000000
-0.9909000000 4.3544000000 0.5190000000
-0.9913000000 4.4371000000 0.4722000000
-0.9916000000 1.8225000000 0.0921000000
-0.9921000000 3.7066000000 0.8463000000
-0.9925000000 5.2078000000 0.0803000000
-0.9928000000 3.0832000000 0.6623000000
-0.9930000000 2.3336000000 0.2801000000
-0.9934000000 4.8456000000 0.2660000000
-0.9939000000 4.3264000000 0.5308000000
-0.9945000000 4.2979000000 0.5407000000
-0.9948000000 2.8287000000 0.5297000000
-0.9951000000 3.5355000000 0.8703000000
