4.5054000000 1.9683000000 0.1032000000
4.5052000000 2.8213000000 0.6070000000
4.5051000000 3.1653000000 0.6351000000
4.5050000000 2.6426000000 0.5043000000
4.5048000000 2.2435000000 0.2703000000
4.5047000000 4.1682000000 0.1179000000
4.5045000000 3.7198000000 0.3106000000
4.5045000000 3.8532000000 0.2278000000
4.5044000000 1.7171000000 0.0391000000
4.5043000000 4.3523000000 0.0785000000
4.5041000000 2.5991000000 0.4815000000
4.5038000000 2.9045000000 0.6660000000
4.5030000000 2.3061000000 0.3080000000
4.5029000000 4.2610000000 0.0604000000
4.5025000000 2.5598000000 0.4599000000
4.5023000000 4.4914000000 0.0046000000
4.5020000000 2.2302000000 0.2591000000
4.5019000000 2.6748000000 0.5249000000
4.5015000000 4.3337000000 0.0979000000
4.5013000000 2.7300000000 0.5645000000
4.5009000000 4.2924000000 0.0452000000
4.4980000000 1.7044000000 0.0311000000
4.4978000000 3.2956000000 0.5632000000
4.4945000000 2.9016000000 0.6723000000
4.2607000000 3.9288000000 0.4351000000
4.2603000000 4.4063000000 0.1517000000
4.2598000000 2.8816000000 0.9062000000
4.2598000000 4.1435000000 0.3087000000
4.2597000000 1.4024000000 0.0929000000
4.2595000000 4.0943000000 0.3379000000
4.2592000000 1.6332000000 0.1604000000
4.2587000000 3.9477000000 0.4235000000
4.2584000000 2.7991000000 0.8556000000
4.2582000000 3.5400000000 0.6660000000
4.2582000000 3.9386000000 0.4330000000
4.2578000000 4.0913000000 0.3382000000
4.2576000000 3.5895000000 0.6430000000
4.2574000000 3.7319000000 0.5536000000
4.2574000000 3.2733000000 0.8262000000
4.2569000000 2.0836000000 0.4301000000
4.2567000000 2.5844000000 0.7263000000
4.2563000000 3.2768000000 0.8268000000
4.2563000000 3.2606000000 0.8341000000
4.2560000000 2.9131000000 0.9223000000
4.2558000000 1.2027000000 0.0586000000
4.2556000000 1.3875000000 0.0903000000
4.2555000000 3.1205000000 0.9196000000
4.2553000000 1.1375000000 0.0187000000
4.2551000000 4.7069000000 0.0512000000
4.2550000000 4.4714000000 0.1182000000
4.2549000000 2.7453000000 0.8217000000
4.2548000000 3.5063000000 0.6934000000
4.2546000000 2.3721000000 0.6037000000
4.2543000000 4.2993000000 0.2276000000
4.2543000000 1.7825000000 0.2517000000
4.2540000000 1.1355000000 0.0189000000
4.2539000000 4.9083000000 0.0102000000
4.2539000000 3.7845000000 0.5258000000
4.2538000000 4.1711000000 0.2971000000
4.2538000000 1.3787000000 0.0884000000
4.2536000000 2.4195000000 0.6310000000
4.2531000000 1.5057000000 0.0899000000
4.2531000000 1.5185000000 0.0967000000
4.2530000000 3.6941000000 0.5796000000
4.2526000000 1.1745000000 0.0471000000
4.2523000000 1.2345000000 0.0825000000
4.2522000000 3.1326000000 0.9134000000
4.2522000000 2.5261000000 0.6960000000
4.2521000000 3.5322000000 0.6846000000
4.2520000000 3.2025000000 0.8715000000
4.2520000000 2.8689000000 0.8990000000
4.2518000000 4.0619000000 0.3681000000
4.2519000000 3.5115000000 0.6927000000
4.2514000000 4.0802000000 0.3507000000
4.2514000000 2.5361000000 0.7046000000
4.2511000000 4.6904000000 0.0691000000
4.2509000000 3.0490000000 0.9434000000
4.2510000000 3.4538000000 0.7288000000
4.2506000000 1.7429000000 0.2318000000
4.2504000000 1.6638000000 0.1847000000
4.2502000000 2.0950000000 0.4466000000
4.2495000000 1.6973000000 0.2096000000
4.2484000000 1.2947000000 0.0444000000
4.2433000000 2.6405000000 0.7738000000
4.0101000000 2.3136000000 0.8168000000
4.0089000000 5.0442000000 0.1068000000
4.0085000000 2.9566000000 1.2021000000
4.0084000000 2.8061000000 1.1101000000
4.0084000000 5.0951000000 0.0741000000
4.0085000000 5.0822000000 0.0814000000
4.0081000000 3.3881000000 1.0180000000
4.0080000000 2.0307000000 0.6601000000
4.0079000000 3.7099000000 0.8275000000
4.0078000000 4.7179000000 0.2264000000
4.0077000000 4.4621000000 0.3801000000
4.0076000000 4.6093000000 0.2910000000
4.0076000000 1.9633000000 0.6121000000
4.0073000000 3.4348000000 0.9835000000
4.0071000000 2.5352000000 0.9499000000
4.0071000000 2.9230000000 1.1807000000
4.0068000000 5.3306000000 0.0155000000
4.0063000000 4.4350000000 0.3971000000
4.0062000000 0.9161000000 0.0678000000
4.0058000000 4.4553000000 0.3839000000
4.0055000000 2.9920000000 1.2065000000
4.0055000000 2.7714000000 1.0971000000
4.0053000000 2.9032000000 1.1787000000
4.0052000000 3.0707000000 1.2063000000
4.0050000000 2.2238000000 0.7712000000
4.0048000000 5.0360000000 0.1156000000
4.0048000000 1.5483000000 0.3664000000
4.0045000000 3.3498000000 1.0390000000
4.0045000000 2.3230000000 0.8350000000
4.0044000000 1.2230000000 0.1748000000
4.0043000000 5.3504000000 0.0059000000
4.0043000000 4.3082000000 0.4738000000
4.0040000000 4.8924000000 0.1244000000
4.0040000000 2.0725000000 0.6852000000
4.0037000000 3.0188000000 1.2172000000
4.0035000000 3.7236000000 0.8151000000
4.0035000000 4.7340000000 0.2227000000
4.0032000000 3.4433000000 0.9919000000
4.0030000000 4.0818000000 0.6122000000
4.0030000000 0.8903000000 0.0567000000
4.0029000000 5.2857000000 0.0412000000
4.0028000000 0.8338000000 0.0969000000
4.0027000000 3.7657000000 0.7985000000
4.0025000000 2.4483000000 0.9067000000
4.0024000000 1.6986000000 0.4573000000
4.0023000000 2.8299000000 1.1337000000
4.0023000000 1.4298000000 0.2999000000
4.0022000000 1.5301000000 0.3611000000
4.0021000000 3.7698000000 0.7918000000
4.0020000000 1.2983000000 0.2216000000
4.0020000000 1.4946000000 0.3421000000
4.0018000000 3.7371000000 0.8178000000
4.0015000000 2.8924000000 1.1725000000
4.0014000000 1.2664000000 0.2034000000
4.0009000000 2.6478000000 1.0300000000
4.0009000000 0.6895000000 0.0198000000
3.9991000000 2.6615000000 1.0388000000
3.9988000000 3.9847000000 0.6756000000
3.9980000000 2.9705000000 1.2025000000
3.9979000000 5.1194000000 0.0762000000
3.9977000000 0.7119000000 0.0307000000
3.9975000000 5.3006000000 0.0411000000
3.9973000000 2.7330000000 1.0827000000
3.9970000000 2.0520000000 0.6754000000
3.9967000000 2.6407000000 1.0312000000
3.9963000000 1.1282000000 0.1309000000
3.9955000000 1.4470000000 0.3203000000
3.9949000000 3.3267000000 1.0684000000
3.7616000000 0.5726000000 0.1111000000
3.7613000000 4.5849000000 0.5582000000
3.7612000000 5.1989000000 0.1929000000
3.7610000000 1.0345000000 0.3113000000
3.7594000000 0.4305000000 0.0348000000
3.7595000000 3.7425000000 1.0643000000
3.7593000000 5.5252000000 0.0792000000
3.7592000000 2.9846000000 1.4585000000
3.7591000000 2.7094000000 1.3132000000
3.7588000000 3.5236000000 1.1943000000
3.7586000000 3.8554000000 1.0019000000
3.7585000000 1.4846000000 0.5837000000
3.7584000000 1.8884000000 0.8262000000
3.7584000000 3.6918000000 1.0934000000
3.7580000000 0.3134000000 0.0433000000
3.7579000000 4.3425000000 0.7056000000
3.7579000000 2.9061000000 1.4233000000
3.7578000000 2.0628000000 0.9335000000
3.7573000000 2.9206000000 1.4394000000
3.7571000000 1.6801000000 0.7031000000
3.7570000000 5.1560000000 0.2216000000
3.7570000000 1.3875000000 0.5241000000
3.7568000000 1.0299000000 0.3190000000
3.7566000000 4.4177000000 0.6573000000
3.7564000000 5.0996000000 0.2589000000
3.7561000000 4.4660000000 0.6336000000
3.7560000000 3.1496000000 1.4134000000
3.7558000000 1.7670000000 0.7592000000
3.7557000000 3.1773000000 1.4039000000
3.7554000000 5.2573000000 0.1607000000
3.7553000000 1.4577000000 0.5696000000
3.7553000000 2.3951000000 1.1300000000
3.7552000000 4.8388000000 0.4130000000
3.7552000000 0.6145000000 0.0725000000
3.7551000000 4.1282000000 0.8373000000
3.7550000000 4.7002000000 0.4920000000
3.7550000000 2.7801000000 1.3552000000
3.7546000000 1.3516000000 0.5089000000
3.7546000000 1.4293000000 0.5559000000
3.7545000000 4.6129000000 0.5493000000
3.7545000000 3.8004000000 1.0320000000
3.7544000000 5.5214000000 0.0874000000
3.7544000000 1.2938000000 0.4778000000
3.7542000000 1.8062000000 0.7795000000
3.7542000000 3.8742000000 0.9913000000
3.7541000000 2.3244000000 1.0902000000
3.7541000000 1.4642000000 0.5788000000
3.7540000000 5.4567000000 0.1252000000
3.7539000000 1.2110000000 0.4286000000
3.7539000000 3.7847000000 1.0411000000
3.7537000000 2.1429000000 0.9802000000
3.7536000000 5.6191000000 0.1056000000
3.7535000000 4.0953000000 0.8604000000
3.7535000000 2.3336000000 1.0933000000
3.7533000000 2.8406000000 1.3976000000
3.7532000000 3.6637000000 1.1107000000
3.7532000000 2.7938000000 1.3732000000
3.7531000000 0.6835000000 0.1144000000
3.7529000000 1.3903000000 0.5376000000
3.7528000000 1.9942000000 0.8917000000
3.7528000000 0.6871000000 0.1236000000
3.7527000000 1.1667000000 0.3973000000
3.7526000000 4.6709000000 0.5150000000
3.7525000000 1.7147000000 0.7279000000
3.7525000000 3.8365000000 1.0090000000
3.7525000000 1.2193000000 0.4362000000
3.7524000000 4.2830000000 0.7419000000
3.7523000000 1.5544000000 0.6340000000
3.7523000000 1.1472000000 0.3900000000
3.7520000000 1.1877000000 0.4162000000
3.7520000000 1.1976000000 0.4208000000
3.7516000000 1.9932000000 0.8976000000
3.7515000000 0.4197000000 0.0307000000
3.7515000000 1.2735000000 0.4666000000
3.7511000000 3.6162000000 1.1459000000
3.7510000000 2.0448000000 0.9251000000
3.7509000000 2.5471000000 1.2272000000
3.7508000000 1.6543000000 0.6948000000
3.7508000000 2.4961000000 1.1931000000
3.7501000000 1.6872000000 0.7138000000
3.7501000000 3.9565000000 0.9435000000
3.7500000000 2.6456000000 1.2795000000
3.7499000000 3.7104000000 1.0928000000
3.7498000000 1.5815000000 0.6557000000
3.7495000000 0.2993000000 0.0399000000
3.7498000000 1.1354000000 0.3855000000
3.7493000000 3.7259000000 1.0815000000
3.7488000000 5.1694000000 0.2308000000
3.7488000000 0.8880000000 0.2464000000
3.7481000000 3.7601000000 1.0638000000
3.7474000000 3.3848000000 1.2860000000
3.7471000000 5.1856000000 0.2185000000
3.7462000000 5.3362000000 0.1317000000
3.7456000000 0.2824000000 0.0328000000
3.5119000000 4.0995000000 1.1045000000
3.5114000000 5.8230000000 0.0830000000
3.5113000000 4.8070000000 0.6811000000
3.5109000000 4.9648000000 0.5947000000
3.5103000000 5.1320000000 0.4969000000
3.5102000000 5.6405000000 0.1890000000
3.5098000000 1.3511000000 0.7663000000
3.5084000000 4.5762000000 0.8209000000
3.5083000000 2.2197000000 1.2819000000
3.5082000000 0.6467000000 0.3449000000
3.5081000000 4.4296000000 0.9083000000
3.5080000000 0.1893000000 0.0752000000
3.5080000000 4.3887000000 0.9317000000
3.5073000000 5.2080000000 0.4465000000
3.5073000000 4.3648000000 0.9478000000
3.5071000000 1.7067000000 0.9748000000
3.5071000000 3.3471000000 1.5525000000
3.5070000000 6.0411000000 0.0897000000
3.5069000000 1.7749000000 1.0161000000
3.5069000000 3.9905000000 1.1785000000
3.5068000000 4.3115000000 0.9828000000
3.5066000000 3.0947000000 1.7029000000
3.5066000000 4.4780000000 0.8830000000
3.5065000000 5.0081000000 0.5716000000
3.5064000000 1.9979000000 1.1519000000
3.5063000000 1.4276000000 0.8101000000
3.5062000000 1.5567000000 0.8918000000
3.5060000000 4.7535000000 0.7200000000
3.5060000000 5.0324000000 0.5537000000
3.5059000000 2.4448000000 1.4168000000
3.5058000000 4.5430000000 0.8443000000
3.5058000000 3.2250000000 1.6336000000
3.5056000000 3.7500000000 1.3239000000
3.5056000000 0.8520000000 0.4646000000
3.5054000000 5.2794000000 0.4044000000
3.5052000000 0.2151000000 0.0994000000
3.5051000000 2.4378000000 1.4134000000
3.5049000000 1.7236000000 0.9915000000
3.5048000000 0.7858000000 0.4304000000
3.5047000000 2.9092000000 1.6946000000
3.5047000000 2.4757000000 1.4345000000
3.5045000000 3.5596000000 1.4305000000
3.5042000000 1.4559000000 0.8303000000
3.5040000000 5.3899000000 0.3491000000
3.5038000000 3.5488000000 1.4357000000
3.5036000000 0.7639000000 0.4158000000
3.5035000000 1.2134000000 0.6867000000
3.5033000000 1.4372000000 0.8233000000
3.5032000000 1.3992000000 0.7969000000
3.5030000000 1.2984000000 0.7398000000
3.5029000000 5.9992000000 0.0457000000
3.5028000000 5.4487000000 0.3143000000
3.5028000000 3.6976000000 1.3487000000
3.5026000000 5.1785000000 0.4708000000
3.5025000000 0.3323000000 0.1659000000
3.5025000000 2.8249000000 1.6399000000
3.5024000000 1.8082000000 1.0400000000
3.5024000000 5.4454000000 0.3171000000
3.5023000000 0.7988000000 0.4448000000
3.5023000000 5.8305000000 0.0842000000
3.5022000000 3.9652000000 1.1946000000
3.5021000000 0.7168000000 0.4009000000
3.5020000000 4.6033000000 0.8139000000
3.5019000000 3.0330000000 1.7288000000
3.5019000000 1.0362000000 0.5855000000
3.5018000000 1.9540000000 1.1306000000
3.5017000000 4.5761000000 0.8310000000
3.5016000000 0.2318000000 0.1106000000
3.5015000000 5.4208000000 0.3302000000
3.5014000000 2.3045000000 1.3332000000
3.5013000000 1.4127000000 0.8067000000
3.5012000000 0.5361000000 0.2869000000
3.5010000000 2.2911000000 1.3287000000
3.5009000000 1.4576000000 0.8331000000
3.5008000000 1.8797000000 1.0846000000
3.5008000000 2.3367000000 1.3543000000
3.5007000000 1.5510000000 0.8877000000
3.5004000000 1.8528000000 1.0671000000
3.5002000000 2.6043000000 1.5139000000
3.5002000000 4.8815000000 0.6520000000
3.4998000000 1.3248000000 0.7592000000
3.4996000000 3.3498000000 1.5633000000
3.4995000000 2.2978000000 1.3364000000
3.4995000000 2.5348000000 1.4692000000
3.4994000000 0.6772000000 0.3757000000
3.4989000000 2.8356000000 1.6575000000
3.4988000000 1.2376000000 0.7106000000
3.4985000000 4.6351000000 0.7976000000
3.4981000000 4.5401000000 0.8569000000
3.4979000000 3.4486000000 1.5056000000
3.4977000000 1.0856000000 0.6167000000
3.4976000000 4.3946000000 0.9447000000
3.4974000000 0.9891000000 0.5591000000
3.4971000000 0.3482000000 0.1797000000
3.4967000000 1.0989000000 0.6254000000
3.4963000000 0.2564000000 0.1232000000
3.4961000000 1.6293000000 0.9458000000
3.2596000000 5.9439000000 0.0945000000
3.2594000000 0.7711000000 0.6782000000
3.2592000000 2.8712000000 1.9220000000
3.2590000000 2.9001000000 1.9431000000
3.2586000000 2.7268000000 1.8342000000
3.2584000000 4.3706000000 1.2065000000
3.2583000000 1.9334000000 1.3606000000
3.2582000000 3.0060000000 1.9845000000
3.2580000000 1.0300000000 0.8277000000
3.2580000000 3.1283000000 1.9405000000
3.2575000000 4.6235000000 1.0506000000
3.2573000000 5.4821000000 0.5463000000
3.2572000000 1.5077000000 1.1120000000
3.2571000000 4.2165000000 1.2962000000
3.2568000000 4.9753000000 0.8403000000
3.2565000000 2.9053000000 1.9478000000
3.2564000000 5.6049000000 0.4536000000
3.2563000000 2.5502000000 1.7332000000
3.2563000000 4.2746000000 1.2628000000
3.2561000000 2.6614000000 1.8012000000
3.2560000000 4.1580000000 1.3339000000
3.2560000000 2.9901000000 1.9779000000
3.2559000000 1.1886000000 0.9297000000
3.2558000000 0.5188000000 0.5305000000
3.2557000000 1.7423000000 1.2601000000
3.2556000000 1.3702000000 1.0387000000
3.2555000000 3.4362000000 1.7656000000
3.2554000000 4.4929000000 1.1344000000
3.2553000000 2.7717000000 1.8651000000
3.2551000000 3.7800000000 1.5601000000
3.2550000000 5.8259000000 0.2394000000
3.2550000000 4.3274000000 1.2366000000
3.2548000000 3.1610000000 1.9255000000
3.2548000000 5.7284000000 0.3327000000
3.2546000000 3.0366000000 1.9699000000
3.2545000000 0.7594000000 0.6766000000
3.2546000000 2.5748000000 1.7519000000
3.2544000000 2.0977000000 1.4698000000
3.2542000000 1.7803000000 1.2787000000
3.2540000000 1.8698000000 1.3371000000
3.2540000000 0.6807000000 0.6254000000
3.2540000000 5.0589000000 0.7961000000
3.2536000000 2.2205000000 1.5416000000
3.2535000000 0.0061000000 0.0720000000
3.2535000000 2.1773000000 1.5127000000
3.2535000000 0.3935000000 0.4376000000
3.2534000000 5.2168000000 0.7037000000
3.2534000000 4.6880000000 1.0181000000
3.2533000000 2.0857000000 1.4622000000
3.2532000000 4.7956000000 0.9540000000
3.2531000000 1.6943000000 1.2273000000
3.2526000000 2.5978000000 1.7675000000
3.2525000000 3.2948000000 1.8453000000
3.2524000000 3.4177000000 1.7784000000
3.2523000000 5.5418000000 0.4996000000
3.2522000000 1.4270000000 1.0772000000
3.2520000000 5.5715000000 0.4841000000
3.2519000000 0.3207000000 0.3535000000
3.2516000000 0.6864000000 0.6302000000
3.2516000000 5.9373000000 0.1027000000
3.2515000000 0.6375000000 0.6054000000
3.2515000000 2.4738000000 1.6937000000
3.2513000000 3.0176000000 1.9979000000
3.2512000000 0.7096000000 0.6479000000
3.2511000000 3.6910000000 1.6106000000
3.2508000000 0.4780000000 0.4949000000
3.2508000000 0.8226000000 0.7125000000
3.2506000000 2.2240000000 1.5487000000
3.2506000000 2.3951000000 1.6502000000
3.2505000000 5.0111000000 0.8295000000
3.2505000000 2.3523000000 1.6300000000
3.2504000000 5.7688000000 0.3035000000
3.2502000000 0.3172000000 0.3534000000
3.2497000000 5.5357000000 0.5033000000
3.2496000000 4.7774000000 0.9679000000
3.2495000000 5.2300000000 0.6968000000
3.2495000000 0.4190000000 0.4580000000
3.2490000000 4.2532000000 1.2887000000
3.2490000000 2.5091000000 1.7234000000
3.2484000000 3.5218000000 1.7164000000
3.2481000000 0.5465000000 0.5531000000
3.2480000000 5.6275000000 0.4514000000
3.2472000000 3.6525000000 1.6408000000
3.2463000000 2.5212000000 1.7238000000
3.0098000000 5.5215000000 0.5893000000
3.0094000000 1.9445000000 1.6276000000
3.0090000000 5.4823000000 0.6373000000
3.0089000000 3.5223000000 1.9603000000
3.0088000000 2.7119000000 2.0827000000
3.0088000000 2.6126000000 2.0239000000
3.0087000000 5.7527000000 0.3181000000
3.0086000000 2.3517000000 1.8714000000
3.0085000000 6.0424000000 0.0464000000
3.0085000000 5.7870000000 0.2801000000
3.0086000000 2.3535000000 1.8713000000
3.0080000000 5.4016000000 0.7353000000
3.0079000000 0.5741000000 0.6820000000
3.0078000000 3.5044000000 1.9787000000
3.0077000000 4.6602000000 1.2893000000
3.0077000000 4.6745000000 1.2787000000
3.0073000000 5.8463000000 0.2044000000
3.0068000000 4.1661000000 1.5815000000
3.0067000000 1.6039000000 1.4278000000
3.0067000000 3.6930000000 1.8666000000
3.0066000000 5.6623000000 0.4282000000
3.0065000000 4.8501000000 1.1822000000
3.0064000000 4.1706000000 1.5839000000
3.0063000000 4.6941000000 1.2662000000
3.0063000000 0.6599000000 0.7760000000
3.0060000000 0.6483000000 0.7615000000
3.0060000000 0.8743000000 0.9763000000
3.0058000000 4.8996000000 1.1478000000
3.0057000000 5.9421000000 0.0958000000
3.0056000000 6.0357000000 0.0583000000
3.0055000000 1.1450000000 1.1606000000
3.0053000000 5.0343000000 1.0650000000
3.0052000000 5.5434000000 0.5675000000
3.0052000000 2.2084000000 1.7958000000
3.0051000000 4.4104000000 1.4442000000
3.0048000000 2.3570000000 1.8764000000
3.0046000000 1.7089000000 1.4995000000
3.0045000000 2.0714000000 1.7121000000
3.0044000000 5.2075000000 0.9518000000
3.0043000000 2.5009000000 1.9599000000
3.0042000000 4.9489000000 1.1290000000
3.0041000000 1.1050000000 1.1376000000
3.0041000000 2.9673000000 2.2278000000
3.0040000000 3.5714000000 1.9419000000
3.0040000000 3.7605000000 1.8277000000
3.0039000000 3.0040000000 2.2442000000
3.0038000000 4.3334000000 1.4901000000
3.0036000000 2.7170000000 2.0966000000
3.0036000000 1.7042000000 1.4959000000
3.0035000000 0.3139000000 0.3668000000
3.0035000000 3.8767000000 1.7621000000
3.0033000000 2.0358000000 1.6909000000
3.0033000000 4.2350000000 1.5494000000
3.0032000000 1.5075000000 1.3798000000
3.0030000000 5.2979000000 0.8453000000
3.0030000000 1.6343000000 1.4577000000
3.0029000000 4.8991000000 1.1536000000
3.0029000000 1.4861000000 1.3622000000
3.0025000000 4.9482000000 1.1231000000
3.0023000000 1.4270000000 1.3298000000
3.0022000000 5.1472000000 0.9875000000
3.0020000000 3.9965000000 1.6890000000
3.0020000000 3.0146000000 2.2446000000
3.0018000000 5.3005000000 0.8442000000
3.0015000000 2.7884000000 2.1411000000
3.0015000000 3.6884000000 1.8739000000
3.0015000000 2.1549000000 1.7612000000
3.0013000000 5.5188000000 0.6004000000
3.0010000000 1.8872000000 1.6053000000
3.0010000000 4.9443000000 1.1275000000
3.0006000000 4.5919000000 1.3383000000
3.0006000000 2.9364000000 2.2237000000
3.0005000000 4.6375000000 1.3149000000
3.0000000000 1.6026000000 1.4362000000
2.9999000000 3.9094000000 1.7439000000
3.0000000000 1.3354000000 1.2818000000
2.9998000000 2.2187000000 1.8039000000
2.9994000000 1.6900000000 1.4886000000
2.9993000000 2.2706000000 1.8343000000
2.9984000000 5.5574000000 0.5493000000
2.7608000000 2.7496000000 2.3611000000
2.7608000000 4.2119000000 1.8141000000
2.7607000000 4.9573000000 1.2633000000
2.7602000000 3.8229000000 2.0471000000
2.7590000000 4.2470000000 1.7926000000
2.7588000000 2.4878000000 2.2133000000
2.7587000000 2.4505000000 2.1836000000
2.7584000000 4.4708000000 1.6553000000
2.7584000000 3.2717000000 2.3720000000
2.7582000000 4.1050000000 1.8738000000
2.7580000000 5.5162000000 0.5952000000
2.7579000000 5.3493000000 0.7977000000
2.7577000000 3.3861000000 2.3067000000
2.7576000000 1.8330000000 1.8212000000
2.7575000000 5.0106000000 1.2048000000
2.7573000000 4.4113000000 1.6960000000
2.7573000000 5.9420000000 0.0906000000
2.7573000000 3.8296000000 2.0407000000
2.7572000000 5.8674000000 0.1797000000
2.7571000000 4.9820000000 1.2380000000
2.7570000000 4.4306000000 1.6818000000
2.7569000000 0.9574000000 1.1271000000
2.7567000000 3.4153000000 2.2860000000
2.7566000000 0.3116000000 0.3644000000
2.7563000000 4.2903000000 1.7640000000
2.7562000000 2.7496000000 2.3650000000
2.7560000000 4.9761000000 1.2457000000
2.7558000000 4.9142000000 1.3128000000
2.7558000000 4.5526000000 1.6136000000
2.7557000000 5.8423000000 0.2131000000
2.7557000000 4.5331000000 1.6234000000
2.7556000000 5.6749000000 0.4118000000
2.7553000000 2.4159000000 2.1658000000
2.7551000000 5.3081000000 0.8473000000
2.7549000000 5.0960000000 1.0955000000
2.7548000000 2.3936000000 2.1526000000
2.7547000000 4.4685000000 1.6668000000
2.7544000000 5.8416000000 0.2165000000
2.7544000000 4.9519000000 1.2683000000
2.7542000000 4.4508000000 1.6823000000
2.7542000000 4.7620000000 1.4658000000
2.7540000000 2.6433000000 2.3070000000
2.7539000000 3.6239000000 2.1660000000
2.7537000000 2.4614000000 2.1994000000
2.7536000000 2.3036000000 2.1108000000
2.7535000000 1.0089000000 1.1912000000
2.7535000000 0.5754000000 0.6786000000
2.7533000000 0.2826000000 0.3275000000
2.7532000000 0.5123000000 0.5978000000
2.7532000000 3.9717000000 1.9576000000
2.7529000000 0.0870000000 0.0983000000
2.7530000000 4.3278000000 1.7470000000
2.7528000000 2.6080000000 2.2860000000
2.7528000000 1.6084000000 1.6966000000
2.7526000000 0.3601000000 0.4177000000
2.7526000000 5.4225000000 0.7156000000
2.7524000000 1.9516000000 1.9043000000
2.7523000000 4.6034000000 1.5820000000
2.7523000000 4.7170000000 1.4959000000
2.7522000000 1.4199000000 1.5849000000
2.7521000000 1.4521000000 1.6041000000
2.7520000000 2.4835000000 2.2163000000
2.7518000000 0.6865000000 0.8083000000
2.7515000000 5.3605000000 0.7854000000
2.7513000000 2.0255000000 1.9428000000
2.7507000000 2.6205000000 2.2938000000
2.7505000000 2.0498000000 1.9567000000
2.7503000000 2.4566000000 2.2012000000
2.7503000000 1.7858000000 1.8083000000
2.7502000000 0.3005000000 0.3485000000
2.7499000000 3.8696000000 2.0277000000
2.7495000000 1.1310000000 1.3408000000
2.7494000000 5.7038000000 0.3807000000
2.7490000000 3.8971000000 2.0090000000
2.7477000000 5.9226000000 0.1221000000
2.7473000000 4.9808000000 1.2388000000
2.7472000000 1.5662000000 1.6773000000
2.7470000000 2.2600000000 2.0850000000
2.7467000000 1.3814000000 1.5595000000
2.7466000000 0.2971000000 0.3459000000
2.7465000000 3.6629000000 2.1480000000
2.7450000000 3.5383000000 2.2226000000
2.7427000000 4.3153000000 1.7663000000
2.5123000000 0.7666000000 0.9002000000
2.5104000000 6.0345000000 0.0617000000
2.5103000000 4.3357000000 1.9793000000
2.5101000000 5.1525000000 1.0341000000
2.5090000000 5.7994000000 0.2661000000
2.5090000000 4.5631000000 1.7324000000
2.5088000000 3.2278000000 2.6524000000
2.5088000000 3.9837000000 2.2068000000
2.5084000000 5.4245000000 0.7053000000
2.5082000000 0.3108000000 0.3631000000
2.5081000000 1.8835000000 2.1104000000
2.5080000000 2.7541000000 2.6286000000
2.5074000000 1.1248000000 1.3318000000
2.5073000000 5.3788000000 0.7669000000
2.5070000000 0.5740000000 0.6678000000
2.5070000000 2.6198000000 2.5539000000
2.5070000000 4.1492000000 2.1056000000
2.5069000000 4.1003000000 2.1369000000
2.5068000000 2.1622000000 2.2759000000
2.5066000000 3.1550000000 2.6930000000
2.5065000000 4.2433000000 2.0409000000
2.5064000000 0.8975000000 1.0570000000
2.5061000000 6.0113000000 0.0864000000
2.5060000000 5.0068000000 1.2073000000
2.5058000000 0.3923000000 0.4599000000
2.5057000000 3.9404000000 2.2307000000
2.5056000000 6.0044000000 0.0935000000
2.5055000000 3.4654000000 2.5155000000
2.5055000000 1.2586000000 1.4874000000
2.5052000000 2.4771000000 2.4670000000
2.5050000000 3.0632000000 2.7399000000
2.5049000000 3.9783000000 2.2093000000
2.5048000000 0.7022000000 0.8276000000
2.5048000000 5.2481000000 0.9184000000
2.5047000000 4.1874000000 2.0850000000
2.5045000000 6.0029000000 0.0958000000
2.5045000000 0.8711000000 1.0248000000
2.5044000000 3.6629000000 2.4022000000
2.5043000000 5.3985000000 0.7461000000
2.5042000000 2.6520000000 2.5672000000
2.5041000000 3.1610000000 2.6989000000
2.5041000000 0.7314000000 0.8620000000
2.5040000000 0.7008000000 0.8251000000
2.5040000000 3.8331000000 2.3003000000
2.5039000000 1.4690000000 1.7367000000
2.5038000000 0.6623000000 0.7845000000
2.5037000000 1.9042000000 2.1238000000
2.5036000000 5.9955000000 0.1071000000
2.5035000000 0.6956000000 0.8220000000
2.5033000000 1.3851000000 1.6395000000
2.5032000000 4.2436000000 2.0450000000
2.5030000000 0.2480000000 0.2885000000
2.5029000000 0.9274000000 1.0919000000
2.5029000000 2.9667000000 2.7397000000
2.5028000000 0.4176000000 0.4891000000
2.5027000000 2.8536000000 2.6826000000
2.5025000000 4.2355000000 2.0477000000
2.5023000000 3.6727000000 2.3944000000
2.5023000000 3.0948000000 2.7388000000
2.5017000000 2.0948000000 2.2466000000
2.5015000000 2.6235000000 2.5591000000
2.5015000000 0.3066000000 0.3575000000
2.5015000000 2.7180000000 2.6084000000
2.5014000000 4.1297000000 2.1188000000
2.5014000000 3.8079000000 2.3124000000
2.5013000000 5.5075000000 0.6151000000
2.5012000000 0.4258000000 0.4985000000
2.5012000000 4.2846000000 2.0190000000
2.5011000000 2.9084000000 2.7255000000
2.5011000000 5.1159000000 1.0734000000
2.5010000000 2.4228000000 2.4338000000
2.5009000000 3.5353000000 2.4764000000
2.5007000000 3.2160000000 2.6724000000
2.5004000000 2.3447000000 2.3910000000
2.5003000000 3.7175000000 2.3698000000
2.5000000000 3.6356000000 2.4201000000
2.5000000000 1.9116000000 2.1296000000
2.4999000000 0.9058000000 1.0645000000
2.4998000000 1.0372000000 1.2238000000
2.4997000000 0.3889000000 0.4502000000
2.4994000000 1.4829000000 1.7543000000
2.4993000000 2.0796000000 2.2367000000
2.4993000000 0.2487000000 0.2851000000
2.4990000000 1.7178000000 2.0031000000
2.4987000000 1.6999000000 1.9888000000
2.4985000000 0.4230000000 0.4958000000
2.4979000000 1.0151000000 1.1944000000
2.4974000000 0.1080000000 0.1224000000
2.4969000000 1.6279000000 1.9085000000
2.4958000000 1.8485000000 2.1055000000
2.4957000000 3.9707000000 2.2197000000
2.4952000000 0.4995000000 0.5843000000
2.2606000000 2.2473000000 2.5786000000
2.2600000000 3.6269000000 2.6704000000
2.2599000000 2.6751000000 2.8338000000
2.2594000000 2.1884000000 2.5281000000
2.2593000000 4.9387000000 1.2879000000
2.2591000000 5.0336000000 1.1777000000
2.2587000000 4.2556000000 2.1035000000
2.2586000000 3.8996000000 2.4925000000
2.2585000000 4.3240000000 2.0190000000
2.2583000000 5.3319000000 0.8188000000
2.2582000000 5.3662000000 0.7761000000
2.2581000000 0.5542000000 0.6535000000
2.2576000000 5.0910000000 1.1085000000
2.2575000000 5.3648000000 0.7792000000
2.2574000000 6.0254000000 0.0700000000
2.2574000000 1.3311000000 1.5743000000
2.2573000000 5.6667000000 0.4282000000
2.2570000000 6.0536000000 0.0381000000
2.2571000000 5.7935000000 0.2736000000
2.2570000000 5.2511000000 0.9160000000
2.2567000000 4.1548000000 2.2090000000
2.2567000000 0.4466000000 0.5199000000
2.2565000000 4.9482000000 1.2739000000
2.2564000000 3.7318000000 2.6112000000
2.2563000000 5.1870000000 0.9928000000
2.2561000000 1.3899000000 1.6424000000
2.2561000000 4.0654000000 2.3195000000
2.2560000000 3.7939000000 2.5795000000
2.2559000000 2.2201000000 2.5541000000
2.2556000000 4.3869000000 1.9420000000
2.2555000000 4.3443000000 1.9931000000
2.2555000000 0.4568000000 0.5382000000
2.2555000000 3.3461000000 2.8423000000
2.2554000000 2.9393000000 2.9929000000
2.2553000000 5.4525000000 0.6742000000
2.2553000000 3.4857000000 2.7625000000
2.2553000000 3.6244000000 2.6754000000
2.2551000000 5.8473000000 0.2071000000
2.2550000000 2.6390000000 2.8175000000
2.2549000000 2.5306000000 2.7576000000
2.2544000000 4.4750000000 1.8349000000
2.2545000000 5.1520000000 1.0312000000
2.2544000000 2.2612000000 2.5988000000
2.2543000000 4.0009000000 2.3840000000
2.2542000000 2.9571000000 3.0001000000
2.2541000000 2.5489000000 2.7605000000
2.2538000000 1.5624000000 1.8440000000
2.2537000000 4.6728000000 1.5975000000
2.2537000000 1.1127000000 1.3100000000
2.2535000000 1.9572000000 2.3197000000
2.2535000000 2.6803000000 2.8455000000
2.2534000000 2.2978000000 2.6156000000
2.2533000000 2.2603000000 2.5978000000
2.2529000000 3.1366000000 2.9704000000
2.2527000000 3.6974000000 2.6405000000
2.2527000000 5.8214000000 0.2386000000
2.2526000000 2.0515000000 2.4097000000
2.2525000000 0.6251000000 0.7345000000
2.2523000000 3.7004000000 2.6387000000
2.2522000000 3.4163000000 2.8075000000
2.2518000000 3.3132000000 2.8668000000
2.2518000000 4.2767000000 2.0706000000
2.2517000000 2.4252000000 2.6962000000
2.2517000000 1.4219000000 1.6881000000
2.2516000000 2.5078000000 2.7433000000
2.2516000000 5.5905000000 0.5123000000
2.2513000000 4.1883000000 2.1772000000
2.2513000000 2.1140000000 2.4822000000
2.2512000000 5.4354000000 0.6974000000
2.2509000000 0.0655000000 0.0692000000
2.2505000000 1.2220000000 1.4504000000
2.2504000000 2.9250000000 2.9932000000
2.2503000000 0.3210000000 0.3702000000
2.2502000000 0.0410000000 0.1193000000
2.2502000000 2.0822000000 2.4436000000
2.2501000000 5.9358000000 0.1020000000
2.2493000000 2.4785000000 2.7260000000
2.2490000000 0.1858000000 0.2123000000
2.2491000000 0.5369000000 0.6335000000
2.2481000000 2.9933000000 3.0209000000
2.2456000000 3.5737000000 2.7152000000
2.2443000000 1.9869000000 2.3478000000
2.0143000000 2.0227000000 2.3933000000
2.0120000000 3.9279000000 2.4862000000
2.0108000000 1.9619000000 2.3127000000
2.0104000000 3.5295000000 2.9347000000
2.0100000000 2.7205000000 3.1158000000
2.0098000000 5.5562000000 0.5556000000
2.0094000000 5.5759000000 0.5301000000
2.0093000000 4.3525000000 1.9804000000
2.0090000000 2.4595000000 2.8899000000
2.0085000000 5.1814000000 0.9997000000
2.0084000000 0.9846000000 1.1620000000
2.0082000000 1.6552000000 1.9540000000
2.0078000000 0.8614000000 1.0193000000
2.0078000000 4.9350000000 1.2915000000
2.0076000000 4.6172000000 1.6694000000
2.0075000000 3.8393000000 2.5920000000
2.0075000000 1.7710000000 2.0979000000
2.0074000000 4.4313000000 1.8878000000
2.0073000000 2.3279000000 2.7574000000
2.0071000000 2.0428000000 2.4159000000
2.0069000000 0.7836000000 0.9213000000
2.0068000000 5.3902000000 0.7455000000
2.0066000000 4.6161000000 1.6723000000
2.0065000000 0.2268000000 0.2589000000
2.0065000000 5.5985000000 0.5041000000
2.0064000000 1.3830000000 1.6332000000
2.0061000000 4.1124000000 2.2681000000
2.0060000000 0.8671000000 1.0245000000
2.0058000000 3.8618000000 2.5620000000
2.0055000000 5.4749000000 0.6498000000
2.0053000000 2.5533000000 3.0083000000
2.0047000000 4.9730000000 1.2447000000
2.0045000000 2.5285000000 2.9783000000
2.0044000000 0.3014000000 0.3524000000
2.0044000000 2.7597000000 3.1440000000
2.0043000000 5.3522000000 0.7946000000
2.0042000000 1.4966000000 1.7676000000
2.0041000000 2.2386000000 2.6476000000
2.0040000000 0.4869000000 0.5689000000
2.0038000000 4.1535000000 2.2161000000
2.0039000000 4.0623000000 2.3328000000
2.0037000000 0.4922000000 0.5777000000
2.0035000000 5.5673000000 0.5423000000
2.0035000000 1.3018000000 1.5410000000
2.0035000000 5.1436000000 1.0459000000
2.0034000000 4.2212000000 2.1367000000
2.0032000000 0.3671000000 0.4282000000
2.0031000000 2.4048000000 2.8444000000
2.0030000000 5.8323000000 0.2309000000
2.0029000000 1.2715000000 1.5005000000
2.0028000000 2.4076000000 2.8535000000
2.0028000000 1.0649000000 1.2571000000
2.0024000000 1.0654000000 1.2529000000
2.0023000000 3.7092000000 2.7411000000
2.0018000000 1.4251000000 1.6815000000
2.0017000000 4.1053000000 2.2765000000
2.0017000000 1.2440000000 1.4735000000
2.0015000000 0.0137000000 0.0818000000
2.0016000000 2.7493000000 3.1441000000
2.0014000000 1.4385000000 1.7007000000
2.0011000000 0.7244000000 0.8522000000
2.0010000000 2.0720000000 2.4566000000
2.0009000000 0.3791000000 0.4389000000
2.0008000000 0.4976000000 0.5782000000
2.0008000000 3.0049000000 3.2867000000
2.0007000000 3.1907000000 3.2000000000
2.0006000000 5.5939000000 0.5054000000
2.0006000000 2.1721000000 2.5692000000
1.9997000000 1.8403000000 2.1756000000
1.9997000000 4.6778000000 1.5956000000
1.9994000000 2.0160000000 2.3831000000
1.9990000000 5.5939000000 0.5139000000
1.9990000000 2.5189000000 2.9674000000
1.9984000000 5.8727000000 0.1752000000
1.9975000000 0.1119000000 0.1249000000
1.9965000000 0.7993000000 0.9416000000
1.9965000000 1.3288000000 1.5684000000
1.9963000000 2.7945000000 3.1776000000
1.9949000000 4.5560000000 1.7405000000
1.7628000000 4.5749000000 1.7186000000
1.7620000000 0.9103000000 1.0766000000
1.7614000000 5.9911000000 0.1114000000
1.7607000000 4.3544000000 1.9826000000
1.7604000000 5.7267000000 0.3454000000
1.7603000000 3.6939000000 2.7579000000
1.7595000000 5.9678000000 0.1408000000
1.7585000000 3.4104000000 3.1002000000
1.7581000000 5.1853000000 1.0002000000
1.7580000000 0.0736000000 0.0773000000
1.7579000000 0.0927000000 0.0991000000
1.7578000000 2.1816000000 2.5820000000
1.7575000000 5.9800000000 0.1290000000
1.7574000000 3.4188000000 3.0902000000
1.7573000000 5.0118000000 1.2014000000
1.7571000000 2.4454000000 2.8993000000
1.7570000000 3.3799000000 3.1383000000
1.7567000000 5.9460000000 0.0875000000
1.7567000000 1.2337000000 1.4598000000
1.7565000000 3.2351000000 3.3108000000
1.7564000000 3.1171000000 3.4010000000
1.7563000000 3.9310000000 2.4794000000
1.7565000000 5.8616000000 0.1937000000
1.7562000000 1.6469000000 1.9401000000
1.7562000000 0.4701000000 0.5536000000
1.7560000000 5.4032000000 0.7381000000
1.7559000000 2.9606000000 3.4795000000
1.7558000000 3.4898000000 3.0083000000
1.7556000000 3.7740000000 2.6690000000
1.7555000000 5.9558000000 0.0708000000
1.7554000000 5.0238000000 1.1878000000
1.7553000000 3.0062000000 3.4818000000
1.7548000000 2.0278000000 2.4014000000
1.7547000000 2.0535000000 2.4365000000
1.7545000000 1.4743000000 1.7451000000
1.7545000000 5.6678000000 0.4174000000
1.7544000000 1.5254000000 1.7945000000
1.7543000000 2.4508000000 2.9028000000
1.7542000000 5.6245000000 0.4695000000
1.7541000000 4.2615000000 2.0909000000
1.7540000000 3.3206000000 3.2101000000
1.7540000000 0.2340000000 0.2742000000
1.7540000000 4.8116000000 1.4346000000
1.7539000000 3.6645000000 2.7969000000
1.7538000000 5.4448000000 0.6820000000
1.7536000000 5.7670000000 0.3029000000
1.7537000000 0.8378000000 0.9883000000
1.7534000000 3.5485000000 2.9340000000
1.7533000000 1.1720000000 1.3856000000
1.7531000000 3.7568000000 2.6842000000
1.7530000000 5.2121000000 0.9603000000
1.7530000000 4.1001000000 2.2815000000
1.7529000000 0.0388000000 0.1134000000
1.7528000000 1.1771000000 1.3886000000
1.7526000000 4.4998000000 1.8065000000
1.7525000000 0.2490000000 0.2865000000
1.7523000000 1.8734000000 2.2221000000
1.7523000000 4.4424000000 1.8767000000
1.7518000000 2.8791000000 3.4051000000
1.7518000000 2.5698000000 3.0423000000
1.7515000000 0.5044000000 0.5916000000
1.7512000000 1.7202000000 2.0343000000
1.7513000000 2.0819000000 2.4634000000
1.7510000000 6.0609000000 0.0295000000
1.7510000000 2.9233000000 3.4705000000
1.7509000000 0.2959000000 0.3425000000
1.7508000000 0.4027000000 0.4721000000
1.7503000000 3.9089000000 2.5067000000
1.7503000000 1.7137000000 2.0252000000
1.7497000000 1.8348000000 2.1686000000
1.7495000000 3.0323000000 3.4797000000
1.7493000000 1.8401000000 2.1823000000
1.7492000000 3.0898000000 3.4846000000
1.7490000000 1.5322000000 1.8091000000
1.7488000000 0.1226000000 0.1410000000
1.7485000000 3.1336000000 3.4178000000
1.7474000000 1.2995000000 1.5320000000
1.7472000000 0.9397000000 1.1059000000
1.7468000000 1.5757000000 1.8666000000
1.7467000000 2.9802000000 3.4709000000
1.7462000000 2.5188000000 2.9807000000
1.7455000000 0.0360000000 0.1122000000
1.7455000000 2.3072000000 2.7333000000
1.7440000000 0.5158000000 0.6054000000
1.5127000000 4.1032000000 2.2792000000
1.5107000000 6.0098000000 0.0869000000
1.5103000000 2.0524000000 2.4279000000
1.5100000000 1.4333000000 1.6924000000
1.5091000000 2.5592000000 3.0082000000
1.5088000000 0.6474000000 0.7630000000
1.5084000000 5.9643000000 0.1420000000
1.5081000000 1.2577000000 1.4853000000
1.5077000000 4.9361000000 1.2856000000
1.5077000000 5.2426000000 0.9244000000
1.5075000000 3.4344000000 3.0521000000
1.5074000000 3.1125000000 3.2711000000
1.5071000000 5.7245000000 0.3557000000
1.5071000000 5.0598000000 1.1440000000
1.5070000000 4.4848000000 1.8268000000
1.5070000000 4.0232000000 2.3707000000
1.5067000000 4.5479000000 1.7516000000
1.5065000000 4.5402000000 1.7579000000
1.5063000000 3.1888000000 3.2264000000
1.5061000000 3.5573000000 2.9231000000
1.5060000000 2.6449000000 3.0871000000
1.5059000000 3.2165000000 3.2076000000
1.5059000000 4.6810000000 1.5877000000
1.5057000000 5.4193000000 0.7183000000
1.5057000000 2.5186000000 2.9683000000
1.5054000000 3.8900000000 2.5281000000
1.5053000000 0.5613000000 0.6602000000
1.5050000000 0.7872000000 0.9256000000
1.5051000000 5.6696000000 0.4185000000
1.5049000000 0.5737000000 0.6741000000
1.5048000000 3.1826000000 3.2283000000
1.5047000000 5.0097000000 1.1980000000
1.5047000000 5.6350000000 0.4553000000
1.5045000000 5.5205000000 0.5968000000
1.5043000000 3.3039000000 3.1614000000
1.5043000000 2.9465000000 3.2875000000
1.5038000000 0.3556000000 0.4154000000
1.5038000000 4.9154000000 1.3114000000
1.5030000000 4.8142000000 1.4309000000
1.5032000000 1.6149000000 1.9062000000
1.5030000000 5.8387000000 0.2187000000
1.5029000000 2.9617000000 3.2871000000
1.5028000000 4.6290000000 1.6527000000
1.5027000000 0.1586000000 0.1815000000
1.5026000000 2.2804000000 2.6967000000
1.5025000000 5.8298000000 0.2306000000
1.5024000000 0.2856000000 0.3302000000
1.5023000000 2.0776000000 2.4627000000
1.5021000000 2.9631000000 3.2862000000
1.5021000000 0.5337000000 0.6245000000
1.5020000000 5.5981000000 0.5046000000
1.5019000000 0.5491000000 0.6411000000
1.5019000000 1.5193000000 1.8008000000
1.5017000000 2.7513000000 3.1678000000
1.5016000000 0.9270000000 1.0907000000
1.5017000000 3.5339000000 2.9398000000
1.5016000000 4.7493000000 1.5098000000
1.5015000000 2.0237000000 2.3964000000
1.5010000000 1.4659000000 1.7363000000
1.5012000000 0.5689000000 0.6663000000
1.5013000000 1.3938000000 1.6483000000
1.5009000000 3.6039000000 2.8730000000
1.5009000000 1.0798000000 1.2732000000
1.5007000000 6.0155000000 0.0845000000
1.5006000000 3.9259000000 2.4861000000
1.5004000000 3.8215000000 2.6149000000
1.5003000000 4.2546000000 2.0955000000
1.5003000000 0.1889000000 0.2098000000
1.5001000000 4.1241000000 2.2567000000
1.5002000000 2.1107000000 2.4979000000
1.5000000000 2.0179000000 2.3933000000
1.4995000000 4.7918000000 1.4542000000
1.4993000000 3.0326000000 3.2902000000
1.4992000000 0.7506000000 0.8834000000
1.4991000000 5.6919000000 0.3915000000
1.4991000000 3.8824000000 2.5444000000
1.4990000000 1.0148000000 1.1945000000
1.4990000000 1.0043000000 1.1863000000
1.4988000000 0.7139000000 0.8367000000
1.4988000000 0.5004000000 0.5853000000
1.4981000000 0.7555000000 0.8945000000
1.4977000000 2.8536000000 3.2246000000
1.4975000000 4.8230000000 1.4251000000
1.4966000000 1.2336000000 1.4539000000
1.4963000000 1.0747000000 1.2650000000
1.4958000000 1.9820000000 2.3445000000
1.2600000000 3.4504000000 2.8230000000
1.2595000000 4.5607000000 1.7372000000
1.2593000000 4.4227000000 1.9013000000
1.2592000000 2.5418000000 2.7994000000
1.2586000000 2.2171000000 2.5875000000
1.2581000000 3.5734000000 2.7486000000
1.2580000000 2.7377000000 2.9115000000
1.2578000000 3.6453000000 2.6985000000
1.2575000000 1.0632000000 1.2559000000
1.2574000000 5.7391000000 0.3338000000
1.2571000000 6.0046000000 0.0938000000
1.2571000000 1.2589000000 1.4836000000
1.2567000000 5.6014000000 0.5004000000
1.2566000000 4.1917000000 2.1682000000
1.2565000000 3.8018000000 2.5847000000
1.2565000000 0.5570000000 0.6568000000
1.2565000000 4.1299000000 2.2439000000
1.2564000000 1.3797000000 1.6292000000
1.2562000000 0.5386000000 0.6317000000
1.2559000000 3.4795000000 2.7975000000
1.2556000000 1.0967000000 1.2950000000
1.2555000000 0.2510000000 0.2943000000
1.2555000000 1.6398000000 1.9407000000
1.2552000000 2.8992000000 3.0080000000
1.2548000000 5.2455000000 0.9203000000
1.2547000000 5.0658000000 1.1388000000
1.2545000000 1.5041000000 1.7809000000
1.2544000000 0.2289000000 0.2611000000
1.2544000000 1.4452000000 1.7083000000
1.2543000000 2.4294000000 2.7256000000
1.2542000000 2.5645000000 2.8030000000
1.2541000000 1.0975000000 1.2968000000
1.2541000000 5.1738000000 1.0060000000
1.2540000000 0.6261000000 0.7350000000
1.2540000000 0.2511000000 0.2963000000
1.2538000000 3.9762000000 2.4299000000
1.2536000000 4.5376000000 1.7622000000
1.2535000000 5.3627000000 0.7837000000
1.2534000000 3.1039000000 3.0102000000
1.2533000000 4.8237000000 1.4191000000
1.2532000000 2.8259000000 2.9564000000
1.2531000000 0.2042000000 0.2367000000
1.2531000000 2.2949000000 2.6429000000
1.2528000000 2.3584000000 2.6755000000
1.2527000000 1.8020000000 2.1256000000
1.2526000000 2.7657000000 2.9244000000
1.2524000000 5.0344000000 1.1685000000
1.2522000000 5.3532000000 0.7916000000
1.2521000000 3.2272000000 2.9417000000
1.2521000000 0.5652000000 0.6612000000
1.2520000000 0.8523000000 1.0059000000
1.2518000000 0.8154000000 0.9646000000
1.2518000000 0.5683000000 0.6656000000
1.2515000000 0.0616000000 0.0708000000
1.2512000000 1.7152000000 2.0297000000
1.2511000000 1.5972000000 1.8882000000
1.2508000000 4.5618000000 1.7342000000
1.2506000000 5.3561000000 0.7852000000
1.2503000000 2.2805000000 2.6296000000
1.2501000000 1.5936000000 1.8854000000
1.2497000000 0.5712000000 0.6688000000
1.2493000000 1.9540000000 2.3156000000
1.2491000000 5.4927000000 0.6338000000
1.2488000000 1.2881000000 1.5255000000
1.2484000000 2.7293000000 2.8959000000
1.2483000000 2.0971000000 2.4618000000
1.2481000000 0.7786000000 0.9127000000
1.2478000000 0.3883000000 0.4535000000
1.2478000000 2.3655000000 2.6789000000
1.0123000000 5.0777000000 1.1196000000
1.0114000000 5.0664000000 1.1387000000
1.0098000000 2.4764000000 2.5011000000
1.0097000000 2.9538000000 2.7859000000
1.0090000000 2.0312000000 2.2368000000
1.0083000000 1.1914000000 1.4026000000
1.0079000000 4.9525000000 1.2727000000
1.0077000000 0.9604000000 1.1330000000
1.0077000000 5.7848000000 0.2783000000
1.0075000000 1.9597000000 2.1962000000
1.0074000000 3.6960000000 2.4110000000
1.0072000000 3.2395000000 2.6822000000
1.0071000000 0.9779000000 1.1568000000
1.0070000000 4.4912000000 1.8140000000
1.0068000000 3.6689000000 2.4276000000
1.0067000000 5.4647000000 0.6622000000
1.0065000000 1.1988000000 1.4173000000
1.0065000000 3.8089000000 2.3377000000
1.0066000000 5.0400000000 1.1645000000
1.0064000000 1.6334000000 1.9275000000
1.0062000000 3.8649000000 2.3070000000
1.0062000000 1.5907000000 1.8840000000
1.0057000000 5.1171000000 1.0737000000
1.0056000000 4.2436000000 2.0666000000
1.0055000000 5.9603000000 0.0737000000
1.0054000000 0.3016000000 0.3531000000
1.0052000000 0.7956000000 0.9375000000
1.0049000000 4.2708000000 2.0495000000
1.0048000000 3.0075000000 2.7859000000
1.0047000000 4.8513000000 1.3909000000
1.0045000000 2.1878000000 2.3228000000
1.0045000000 5.9484000000 0.0942000000
1.0044000000 0.4942000000 0.5790000000
1.0043000000 5.9611000000 0.0805000000
1.0042000000 2.1794000000 2.3213000000
1.0040000000 5.6011000000 0.4982000000
1.0040000000 4.6677000000 1.6070000000
1.0038000000 4.5218000000 1.7806000000
1.0037000000 2.7520000000 2.6577000000
1.0035000000 5.3502000000 0.8015000000
1.0035000000 5.9022000000 0.1403000000
1.0033000000 0.0041000000 0.0710000000
1.0032000000 5.1521000000 1.0311000000
1.0033000000 2.2018000000 2.3334000000
1.0030000000 3.6852000000 2.4151000000
1.0029000000 3.0382000000 2.7797000000
1.0029000000 1.0205000000 1.2011000000
1.0025000000 5.6438000000 0.4526000000
1.0024000000 1.9850000000 2.2005000000
1.0024000000 3.9334000000 2.2668000000
1.0023000000 5.7227000000 0.3545000000
1.0022000000 2.3552000000 2.4244000000
1.0021000000 4.3011000000 2.0205000000
1.0019000000 1.3040000000 1.5385000000
1.0018000000 3.9088000000 2.2833000000
1.0017000000 4.5668000000 1.7289000000
1.0016000000 0.1363000000 0.1477000000
1.0015000000 3.5747000000 2.4802000000
1.0014000000 2.2818000000 2.3739000000
1.0013000000 2.6096000000 2.5718000000
1.0013000000 4.4419000000 1.8727000000
1.0010000000 2.1169000000 2.2782000000
1.0010000000 6.0486000000 0.0421000000
1.0026000000 2.7073000000 2.6285000000
1.0008000000 0.8059000000 0.9491000000
1.0008000000 3.4908000000 2.5278000000
1.0006000000 1.8776000000 2.1359000000
1.0005000000 2.6954000000 2.6231000000
1.0004000000 5.2731000000 0.8915000000
1.0005000000 2.5070000000 2.5097000000
1.0004000000 5.4743000000 0.6459000000
1.0003000000 0.1412000000 0.1603000000
1.0003000000 2.9557000000 2.7714000000
1.0002000000 2.4929000000 2.5003000000
1.0001000000 4.3097000000 2.0185000000
1.0000000000 0.5062000000 0.5979000000
0.9998000000 3.9627000000 2.2475000000
0.9998000000 5.1087000000 1.0844000000
0.9996000000 1.3064000000 1.5427000000
0.9995000000 3.0052000000 2.7895000000
0.9993000000 1.3803000000 1.6322000000
0.9993000000 4.0573000000 2.1932000000
0.9991000000 3.7201000000 2.3907000000
0.9990000000 1.9558000000 2.1788000000
0.9987000000 2.0834000000 2.2547000000
0.9980000000 2.3850000000 2.4321000000
0.9980000000 0.9074000000 1.0657000000
0.9979000000 3.4568000000 2.5435000000
0.9978000000 2.5520000000 2.5306000000
0.9974000000 5.9935000000 0.1048000000
0.9969000000 0.5355000000 0.6259000000
0.9961000000 0.2374000000 0.2765000000
0.9943000000 3.4259000000 2.5554000000
0.9938000000 3.0494000000 2.7648000000
0.7621000000 2.7102000000 2.3887000000
0.7617000000 4.6231000000 1.5961000000
0.7615000000 5.9642000000 0.0704000000
0.7605000000 5.0278000000 1.1804000000
0.7599000000 5.4766000000 0.6464000000
0.7596000000 0.6357000000 0.7471000000
0.7592000000 2.4743000000 2.2406000000
0.7593000000 2.6197000000 2.3279000000
0.7590000000 5.7021000000 0.3749000000
0.7590000000 5.6545000000 0.4390000000
0.7589000000 4.6047000000 1.6161000000
0.7585000000 4.2586000000 1.8236000000
0.7583000000 4.9977000000 1.2150000000
0.7582000000 5.6167000000 0.4849000000
0.7580000000 3.0039000000 2.5386000000
0.7578000000 5.4142000000 0.7180000000
0.7578000000 0.3883000000 0.4558000000
0.7577000000 4.6914000000 1.5439000000
0.7573000000 5.2118000000 0.9617000000
0.7572000000 1.0653000000 1.2579000000
0.7571000000 3.2840000000 2.4033000000
0.7568000000 3.8070000000 2.0891000000
0.7566000000 4.6596000000 1.5693000000
0.7565000000 4.1527000000 1.8791000000
0.7565000000 5.4416000000 0.6890000000
0.7562000000 1.5189000000 1.6711000000
0.7559000000 1.7609000000 1.8147000000
0.7558000000 5.2747000000 0.8894000000
0.7557000000 3.2558000000 2.4148000000
0.7555000000 2.0672000000 1.9884000000
0.7555000000 3.3865000000 2.3387000000
0.7554000000 3.1719000000 2.4636000000
0.7553000000 5.9882000000 0.1184000000
0.7552000000 2.3437000000 2.1612000000
0.7552000000 0.1223000000 0.1368000000
0.7551000000 2.8776000000 2.4803000000
0.7550000000 5.4823000000 0.6357000000
0.7549000000 0.6342000000 0.7493000000
0.7548000000 5.0274000000 1.1832000000
0.7548000000 1.9550000000 1.9301000000
0.7545000000 3.2925000000 2.3924000000
0.7544000000 5.8611000000 0.1930000000
0.7543000000 1.3226000000 1.5341000000
0.7543000000 0.6641000000 0.7825000000
0.7542000000 5.7448000000 0.3332000000
0.7540000000 2.2910000000 2.1320000000
0.7540000000 0.5439000000 0.6335000000
0.7540000000 5.8431000000 0.2167000000
0.7534000000 5.2568000000 0.9103000000
0.7534000000 4.0011000000 1.9717000000
0.7532000000 5.7430000000 0.3337000000
0.7531000000 0.0767000000 0.0837000000
0.7528000000 4.3271000000 1.7780000000
0.7528000000 2.6809000000 2.3555000000
