5.2551000000 4.3664000000 0.3292000000
5.2548000000 2.2314000000 0.0799000000
5.2544000000 3.0184000000 0.5476000000
5.2539000000 4.3092000000 0.3613000000
5.2535000000 3.2059000000 0.6633000000
5.2534000000 4.0437000000 0.5267000000
5.2532000000 4.0733000000 0.5082000000
5.2525000000 4.0708000000 0.5127000000
5.2515000000 3.4598000000 0.8026000000
5.2513000000 2.0096000000 0.0210000000
5.2505000000 3.0394000000 0.5732000000
5.2498000000 4.3176000000 0.3617000000
5.2477000000 3.4979000000 0.8301000000
5.0123000000 4.5901000000 0.4472000000
5.0108000000 2.7523000000 0.6483000000
5.0095000000 4.7177000000 0.3761000000
5.0090000000 1.7075000000 0.0917000000
5.0085000000 1.7963000000 0.0748000000
5.0078000000 2.4728000000 0.4822000000
5.0075000000 1.9871000000 0.1895000000
5.0070000000 4.8657000000 0.2833000000
5.0069000000 1.7266000000 0.1055000000
5.0064000000 2.0575000000 0.2284000000
5.0063000000 2.6151000000 0.5722000000
5.0057000000 2.4853000000 0.4892000000
5.0053000000 3.0141000000 0.8130000000
5.0051000000 5.5809000000 0.0015000000
5.0050000000 4.7048000000 0.3901000000
5.0049000000 2.4850000000 0.4986000000
5.0046000000 5.1903000000 0.0931000000
5.0045000000 1.6244000000 0.0491000000
5.0043000000 1.6519000000 0.0712000000
5.0043000000 4.8521000000 0.2935000000
5.0040000000 5.0195000000 0.1927000000
5.0038000000 3.3410000000 1.0043000000
5.0035000000 2.4146000000 0.4480000000
5.0033000000 4.4483000000 0.5405000000
5.0030000000 2.2771000000 0.3679000000
5.0028000000 4.4269000000 0.5545000000
5.0021000000 5.3242000000 0.0853000000
5.0017000000 3.8230000000 0.9170000000
5.0013000000 2.4741000000 0.4852000000
5.0007000000 3.9379000000 0.8462000000
5.0005000000 1.6709000000 0.0768000000
5.0001000000 1.6649000000 0.0786000000
4.9998000000 1.8694000000 0.1310000000
4.9997000000 1.7378000000 0.1227000000
4.9988000000 2.4639000000 0.4841000000
4.9975000000 2.5730000000 0.5543000000
4.7626000000 1.1645000000 0.0251000000
4.7611000000 4.7821000000 0.5881000000
4.7600000000 1.7203000000 0.2852000000
4.7594000000 1.9735000000 0.4423000000
4.7590000000 2.5316000000 0.7811000000
4.7580000000 2.0626000000 0.4978000000
4.7579000000 4.0913000000 1.0143000000
4.7578000000 5.7793000000 0.0655000000
4.7568000000 4.5914000000 0.7117000000
4.7564000000 4.1447000000 0.9790000000
4.7560000000 2.6950000000 0.8800000000
4.7557000000 3.6368000000 1.2822000000
4.7555000000 4.7024000000 0.6467000000
4.7549000000 5.8391000000 0.0384000000
4.7545000000 3.2034000000 1.1841000000
4.7544000000 1.6801000000 0.2705000000
4.7542000000 5.9756000000 0.0334000000
4.7541000000 5.0949000000 0.4124000000
4.7540000000 4.4893000000 0.7735000000
4.7540000000 2.1600000000 0.5540000000
4.7537000000 2.3267000000 0.6525000000
4.7534000000 4.0119000000 1.0651000000
4.7533000000 4.1623000000 0.9740000000
4.7532000000 3.0098000000 1.0744000000
4.7530000000 1.7592000000 0.3088000000
4.7529000000 5.5571000000 0.1313000000
4.7525000000 3.4455000000 1.3340000000
4.7522000000 4.4796000000 0.7875000000
4.7520000000 4.8242000000 0.5782000000
4.7520000000 4.2841000000 0.9039000000
4.7516000000 3.3186000000 1.2594000000
4.7509000000 1.5991000000 0.2277000000
4.7506000000 1.6827000000 0.2724000000
4.7498000000 1.1693000000 0.0460000000
4.7495000000 4.7474000000 0.6228000000
4.7487000000 1.5947000000 0.2205000000
4.7477000000 1.2554000000 0.0906000000
4.7469000000 4.2552000000 0.9265000000
4.5155000000 6.2234000000 0.0493000000
4.5126000000 5.7322000000 0.2782000000
4.5101000000 0.9652000000 0.0945000000
4.5099000000 2.5363000000 1.0331000000
4.5097000000 3.7072000000 1.5011000000
4.5095000000 3.4952000000 1.5955000000
4.5089000000 4.1330000000 1.2459000000
4.5083000000 4.5137000000 1.0191000000
4.5081000000 5.7985000000 0.2459000000
4.5080000000 5.6433000000 0.3419000000
4.5073000000 4.9055000000 0.7782000000
4.5070000000 4.4569000000 1.0572000000
4.5068000000 5.6070000000 0.3599000000
4.5067000000 5.0391000000 0.7016000000
4.5064000000 4.7737000000 0.8659000000
4.5063000000 5.1411000000 0.6442000000
4.5059000000 5.0387000000 0.7082000000
4.5057000000 3.4090000000 1.5677000000
4.5055000000 4.7572000000 0.8772000000
4.5054000000 2.8039000000 1.2051000000
4.5048000000 3.9096000000 1.3879000000
4.5048000000 1.1758000000 0.2226000000
4.5046000000 6.4281000000 0.0219000000
4.5044000000 1.1423000000 0.2057000000
4.5042000000 5.1553000000 0.6355000000
4.5039000000 4.2179000000 1.2019000000
4.5038000000 5.2391000000 0.5870000000
4.5037000000 2.1744000000 0.8302000000
4.5035000000 1.1844000000 0.2323000000
4.5031000000 0.9389000000 0.0858000000
4.5028000000 2.1809000000 0.8372000000
4.5025000000 2.2253000000 0.8662000000
4.5020000000 1.2903000000 0.2949000000
4.5017000000 5.2744000000 0.5738000000
4.5015000000 4.6774000000 0.9283000000
4.5015000000 1.2180000000 0.2511000000
4.5009000000 4.1912000000 1.2193000000
4.5006000000 5.5069000000 0.4207000000
4.5001000000 1.5130000000 0.4341000000
4.5000000000 0.5738000000 0.0212000000
4.4999000000 1.3697000000 0.3465000000
4.4993000000 1.6596000000 0.5159000000
4.4983000000 4.3617000000 1.1193000000
4.4940000000 0.6802000000 0.0137000000
4.2650000000 4.4698000000 1.2964000000
4.2615000000 5.8274000000 0.4829000000
4.2606000000 0.9403000000 0.3407000000
4.2599000000 4.6853000000 1.1702000000
4.2593000000 3.7577000000 1.7315000000
4.2586000000 3.4891000000 1.8575000000
4.2585000000 1.5274000000 0.6933000000
4.2584000000 4.5284000000 1.2731000000
4.2581000000 6.5864000000 0.1074000000
4.2578000000 5.4565000000 0.7103000000
4.2574000000 0.5526000000 0.1121000000
4.2573000000 3.4998000000 1.8616000000
4.2570000000 0.3039000000 0.1060000000
4.2568000000 5.5406000000 0.6603000000
4.2567000000 6.6023000000 0.0979000000
4.2566000000 3.0231000000 1.5980000000
4.2564000000 5.4774000000 0.7004000000
4.2561000000 1.3017000000 0.5594000000
4.2558000000 2.9856000000 1.5689000000
4.2556000000 6.3649000000 0.1638000000
4.2555000000 2.1067000000 1.0462000000
4.2553000000 6.3403000000 0.1858000000
4.2551000000 3.6516000000 1.8023000000
4.2550000000 1.8928000000 0.9144000000
4.2548000000 2.9698000000 1.5667000000
4.2546000000 3.1798000000 1.6955000000
4.2545000000 4.2934000000 1.4221000000
4.2543000000 3.1818000000 1.6945000000
4.2540000000 1.3403000000 0.5845000000
4.2539000000 1.6781000000 0.7854000000
4.2535000000 4.2197000000 1.4647000000
4.2534000000 4.5604000000 1.2573000000
4.2532000000 1.5334000000 0.7001000000
4.2530000000 3.0147000000 1.5974000000
4.2529000000 3.7409000000 1.7490000000
4.2526000000 4.9302000000 1.0262000000
4.2522000000 5.1729000000 0.8870000000
4.2518000000 6.3553000000 0.1813000000
4.2515000000 5.3887000000 0.7603000000
4.2513000000 0.7123000000 0.2092000000
4.2510000000 5.0305000000 0.9756000000
4.2503000000 2.8441000000 1.4953000000
4.2497000000 0.5310000000 0.1043000000
4.2493000000 0.2682000000 0.0922000000
4.2491000000 0.4765000000 0.0719000000
4.2489000000 3.6989000000 1.7792000000
4.2482000000 6.0537000000 0.3585000000
4.2480000000 0.1323000000 0.0175000000
4.2473000000 0.5449000000 0.1119000000
4.2467000000 4.6992000000 1.1787000000
4.2450000000 0.2624000000 0.0986000000
4.0155000000 6.9139000000 0.0669000000
4.0116000000 6.5837000000 0.2881000000
4.0113000000 1.9741000000 1.2197000000
4.0109000000 5.7573000000 0.7871000000
4.0099000000 6.5139000000 0.3361000000
4.0096000000 4.0526000000 1.8160000000
4.0093000000 3.5800000000 2.0988000000
4.0089000000 6.7602000000 0.1917000000
4.0082000000 6.7644000000 0.1871000000
4.0080000000 1.9531000000 1.2088000000
4.0077000000 4.9957000000 1.2514000000
4.0075000000 6.7925000000 0.1630000000
4.0071000000 4.0574000000 1.8145000000
4.0067000000 2.5293000000 1.5564000000
4.0065000000 6.2634000000 0.4861000000
4.0063000000 0.2911000000 0.2144000000
4.0062000000 1.2323000000 0.7832000000
4.0060000000 4.3560000000 1.6293000000
4.0058000000 6.1355000000 0.5646000000
4.0056000000 4.3567000000 1.6374000000
4.0053000000 0.8047000000 0.5213000000
4.0052000000 5.4216000000 0.9897000000
4.0050000000 3.6302000000 2.0814000000
4.0046000000 2.4783000000 1.5341000000
4.0043000000 6.9540000000 0.0405000000
4.0041000000 1.7900000000 1.1192000000
4.0040000000 4.9095000000 1.3066000000
4.0039000000 2.7232000000 1.6803000000
4.0038000000 6.5114000000 0.3419000000
4.0035000000 1.4991000000 0.9462000000
4.0035000000 0.6129000000 0.4050000000
4.0031000000 2.2081000000 1.3743000000
4.0030000000 0.9857000000 0.6353000000
4.0028000000 3.5257000000 2.1236000000
4.0026000000 2.4127000000 1.4992000000
4.0023000000 2.3344000000 1.4445000000
4.0021000000 4.5026000000 1.5556000000
4.0018000000 1.1078000000 0.7107000000
4.0014000000 3.1134000000 1.9169000000
4.0011000000 2.7814000000 1.7135000000
4.0006000000 0.7674000000 0.5087000000
4.0001000000 3.5721000000 2.1132000000
4.0000000000 5.7391000000 0.8081000000
3.9994000000 4.9203000000 1.3072000000
3.9988000000 0.8008000000 0.5282000000
3.9984000000 5.1290000000 1.1839000000
3.9973000000 0.3672000000 0.2655000000
3.9964000000 1.6295000000 1.0268000000
3.9959000000 3.8287000000 1.9637000000
3.7644000000 1.6054000000 1.2565000000
3.7632000000 6.8295000000 0.2178000000
3.7617000000 4.1224000000 2.0329000000
3.7615000000 1.8975000000 1.4318000000
3.7597000000 7.0547000000 0.0883000000
3.7586000000 6.7476000000 0.3101000000
3.7583000000 1.7080000000 1.3237000000
3.7579000000 6.1508000000 0.8133000000
3.7577000000 3.9843000000 2.1277000000
3.7575000000 3.2000000000 2.2242000000
3.7573000000 6.4920000000 0.5857000000
3.7570000000 2.9711000000 2.0908000000
3.7569000000 1.9081000000 1.4489000000
3.7568000000 2.2469000000 1.6553000000
3.7563000000 6.2328000000 0.7716000000
3.7559000000 1.2399000000 1.0421000000
3.7558000000 0.1537000000 0.1753000000
3.7556000000 3.3644000000 2.3271000000
3.7553000000 0.8686000000 0.8206000000
3.7553000000 4.3507000000 1.9087000000
3.7550000000 4.4724000000 1.8334000000
3.7549000000 0.9795000000 0.8884000000
3.7547000000 0.7337000000 0.7348000000
3.7545000000 0.8614000000 0.8148000000
3.7542000000 0.7398000000 0.7560000000
3.7540000000 6.6757000000 0.4029000000
3.7538000000 3.4473000000 2.3640000000
3.7535000000 2.9149000000 2.0570000000
3.7535000000 4.9902000000 1.5203000000
3.7534000000 6.5770000000 0.5017000000
3.7532000000 6.2439000000 0.7626000000
3.7530000000 1.5621000000 1.2413000000
3.7529000000 0.5760000000 0.6296000000
3.7526000000 5.2375000000 1.3713000000
3.7524000000 3.2050000000 2.2313000000
3.7523000000 0.9567000000 0.8755000000
3.7521000000 7.0455000000 0.1047000000
3.7520000000 2.2495000000 1.6586000000
3.7518000000 1.4451000000 1.1720000000
3.7517000000 0.7249000000 0.7388000000
3.7515000000 3.4860000000 2.3764000000
3.7512000000 6.5019000000 0.5909000000
3.7509000000 0.5919000000 0.6421000000
3.7505000000 5.8125000000 1.0252000000
3.7504000000 1.3038000000 1.0961000000
3.7501000000 5.1814000000 1.4065000000
3.7499000000 1.7032000000 1.3312000000
3.7492000000 4.1741000000 2.0094000000
3.7490000000 6.5128000000 0.5767000000
3.7485000000 1.7840000000 1.3811000000
3.7485000000 2.4124000000 1.7633000000
3.7480000000 1.0181000000 0.9140000000
3.7478000000 2.0323000000 1.5314000000
3.7472000000 1.9455000000 1.4751000000
3.7456000000 4.1669000000 2.0236000000
3.5175000000 6.9226000000 0.0967000000
3.5128000000 6.6440000000 0.4353000000
3.5104000000 4.2158000000 2.2376000000
3.5100000000 4.3021000000 2.1874000000
3.5098000000 4.3453000000 2.1610000000
3.5095000000 6.4300000000 0.6950000000
3.5093000000 4.3085000000 2.1809000000
3.5090000000 1.3839000000 1.3888000000
3.5084000000 4.3881000000 2.1379000000
3.5082000000 6.0359000000 1.1285000000
3.5081000000 3.2374000000 2.5069000000
3.5079000000 2.0490000000 1.7877000000
3.5078000000 2.2785000000 1.9276000000
3.5077000000 3.0512000000 2.3960000000
3.5073000000 5.6391000000 1.3869000000
3.5071000000 0.7377000000 0.8863000000
3.5069000000 1.5940000000 1.5186000000
3.5065000000 1.6533000000 1.5529000000
3.5063000000 2.2917000000 1.9399000000
3.5061000000 4.3613000000 2.1598000000
3.5060000000 4.1744000000 2.2688000000
3.5058000000 4.4932000000 2.0718000000
3.5056000000 6.9621000000 0.1290000000
3.5054000000 0.4075000000 0.4871000000
3.5052000000 4.2784000000 2.2091000000
3.5049000000 2.3447000000 1.9699000000
3.5048000000 0.1823000000 0.2140000000
3.5047000000 2.4144000000 2.0141000000
3.5045000000 5.9983000000 1.1552000000
3.5044000000 4.3877000000 2.1426000000
3.5046000000 3.6405000000 2.5865000000
3.5040000000 4.8636000000 1.8616000000
3.5037000000 4.9744000000 1.7876000000
3.5034000000 2.7991000000 2.2486000000
3.5033000000 0.1341000000 0.1547000000
3.5030000000 4.6844000000 1.9648000000
3.5027000000 5.5806000000 1.4249000000
3.5025000000 6.4599000000 0.6580000000
3.5025000000 4.4348000000 2.1117000000
3.5021000000 2.7938000000 2.2489000000
3.5020000000 0.3955000000 0.4746000000
3.5015000000 2.2208000000 1.9035000000
3.5014000000 0.6099000000 0.7253000000
3.5008000000 4.3877000000 2.1448000000
3.5007000000 5.5378000000 1.4516000000
3.5005000000 1.7714000000 1.6308000000
3.5009000000 5.1634000000 1.6788000000
3.5002000000 3.1191000000 2.4459000000
3.4999000000 0.5575000000 0.6642000000
3.4996000000 4.5310000000 2.0595000000
3.4990000000 0.4978000000 0.5958000000
3.4988000000 5.3682000000 1.5534000000
3.4983000000 0.5450000000 0.6502000000
3.4981000000 4.3382000000 2.1719000000
3.4961000000 0.5526000000 0.6627000000
3.2598000000 5.0962000000 1.9699000000
3.2592000000 4.3237000000 2.4362000000
3.2584000000 4.7881000000 2.1540000000
3.2582000000 3.5091000000 2.9051000000
3.2581000000 0.7321000000 0.8783000000
3.2580000000 0.2368000000 0.2804000000
3.2577000000 5.0748000000 1.9847000000
3.2573000000 1.4592000000 1.6872000000
3.2569000000 2.0014000000 2.0227000000
3.2565000000 2.2313000000 2.1620000000
3.2560000000 6.4614000000 0.6641000000
3.2557000000 1.3498000000 1.6034000000
3.2554000000 1.0956000000 1.3174000000
3.2553000000 1.0594000000 1.2689000000
3.2551000000 3.1308000000 2.7032000000
3.2549000000 1.2263000000 1.4760000000
3.2546000000 5.9742000000 1.2425000000
3.2545000000 1.5693000000 1.7702000000
3.2544000000 3.2002000000 2.7444000000
3.2542000000 6.8028000000 0.2521000000
3.2541000000 4.0829000000 2.5872000000
3.2539000000 1.3759000000 1.6323000000
3.2538000000 0.3271000000 0.3932000000
3.2536000000 4.5704000000 2.2931000000
3.2534000000 6.4037000000 0.7284000000
3.2534000000 5.6822000000 1.5792000000
3.2532000000 1.7659000000 1.8880000000
3.2531000000 6.3661000000 0.7709000000
3.2529000000 1.1550000000 1.3903000000
3.2527000000 2.4111000000 2.2777000000
3.2525000000 1.6991000000 1.8437000000
3.2522000000 1.9989000000 2.0304000000
3.2519000000 1.7821000000 1.8990000000
3.2517000000 4.3665000000 2.4179000000
3.2512000000 0.5634000000 0.6719000000
3.2509000000 6.1430000000 1.0453000000
3.2508000000 2.5297000000 2.3484000000
3.2506000000 1.3479000000 1.5937000000
3.2503000000 0.5105000000 0.6056000000
3.2500000000 0.3987000000 0.4749000000
3.2498000000 0.3828000000 0.4529000000
3.2493000000 4.7517000000 2.1858000000
3.2489000000 3.0273000000 2.6447000000
3.2488000000 2.2278000000 2.1658000000
3.2485000000 1.1023000000 1.3258000000
3.2484000000 4.1120000000 2.5755000000
3.2455000000 0.0201000000 0.0932000000
3.0117000000 7.0486000000 0.0986000000
3.0099000000 5.3154000000 2.0283000000
3.0093000000 0.7299000000 0.8752000000
3.0092000000 3.4856000000 3.1594000000
3.0091000000 0.3665000000 0.4321000000
3.0088000000 6.6638000000 0.4136000000
3.0081000000 3.2369000000 3.0263000000
3.0080000000 1.2690000000 1.5276000000
3.0080000000 5.5160000000 1.7998000000
3.0077000000 1.1408000000 1.3669000000
3.0075000000 1.5022000000 1.8045000000
3.0072000000 5.2184000000 2.1328000000
3.0070000000 2.8096000000 2.7726000000
3.0069000000 0.4661000000 0.5552000000
3.0065000000 2.5327000000 2.6081000000
3.0065000000 5.9740000000 1.2481000000
3.0060000000 6.3343000000 0.8101000000
3.0059000000 5.3253000000 2.0262000000
3.0057000000 2.6139000000 2.6579000000
3.0055000000 6.3672000000 0.7740000000
3.0054000000 1.4068000000 1.6841000000
3.0050000000 4.2558000000 2.7388000000
3.0049000000 0.3265000000 0.3897000000
3.0048000000 2.6041000000 2.6485000000
3.0047000000 5.5004000000 1.8122000000
3.0044000000 2.4008000000 2.5282000000
3.0042000000 1.8100000000 2.1526000000
3.0042000000 6.4287000000 0.6940000000
3.0039000000 3.9457000000 2.9297000000
3.0037000000 3.1046000000 2.9512000000
3.0033000000 2.1293000000 2.3630000000
3.0030000000 4.0350000000 2.8811000000
3.0029000000 1.3221000000 1.5883000000
3.0028000000 2.3341000000 2.4854000000
3.0027000000 3.2070000000 3.0157000000
3.0025000000 1.7039000000 2.0421000000
3.0022000000 0.3707000000 0.4427000000
3.0019000000 3.4164000000 3.1407000000
3.0019000000 5.4959000000 1.8209000000
3.0017000000 5.4508000000 1.8689000000
3.0016000000 5.5317000000 1.7773000000
3.0014000000 5.1397000000 2.1920000000
3.0009000000 1.3846000000 1.6613000000
3.0008000000 3.2236000000 3.0276000000
3.0002000000 4.5308000000 2.5791000000
2.9997000000 3.6594000000 3.1056000000
2.9992000000 5.6627000000 1.6191000000
2.9988000000 0.3713000000 0.4412000000
2.9985000000 1.3347000000 1.6071000000
2.9977000000 2.0531000000 2.3215000000
2.9969000000 5.1389000000 2.1996000000
2.9961000000 4.2464000000 2.7574000000
2.9938000000 3.4609000000 3.1554000000
2.7616000000 6.1879000000 0.9938000000
2.7610000000 3.0236000000 3.1595000000
2.7601000000 6.0985000000 1.0973000000
2.7593000000 6.0812000000 1.1178000000
2.7588000000 2.7024000000 2.9661000000
2.7587000000 5.8308000000 1.4145000000
2.7583000000 4.0594000000 3.1200000000
2.7581000000 4.9536000000 2.4731000000
2.7579000000 3.7761000000 3.2888000000
2.7577000000 0.3832000000 0.4559000000
2.7575000000 6.0591000000 1.1406000000
2.7573000000 3.2990000000 3.3292000000
2.7569000000 5.4259000000 1.9016000000
2.7568000000 6.6913000000 0.3794000000
2.7566000000 2.6980000000 2.9684000000
2.7563000000 2.6475000000 2.9363000000
2.7562000000 4.4945000000 2.8542000000
2.7560000000 2.0517000000 2.4679000000
2.7558000000 0.2741000000 0.3250000000
2.7557000000 5.9020000000 1.3264000000
2.7555000000 6.0527000000 1.1497000000
2.7551000000 2.6726000000 2.9487000000
2.7550000000 2.2600000000 2.6840000000
2.7548000000 0.6508000000 0.7807000000
2.7547000000 2.5935000000 2.9086000000
2.7546000000 3.8404000000 3.2510000000
2.7544000000 3.1350000000 3.2326000000
2.7543000000 5.0146000000 2.4054000000
2.7541000000 2.4861000000 2.8399000000
2.7538000000 6.3337000000 0.8105000000
2.7537000000 2.8304000000 3.0506000000
2.7535000000 2.5572000000 2.8820000000
2.7534000000 2.7477000000 2.9993000000
2.7531000000 2.3770000000 2.7736000000
2.7530000000 1.2742000000 1.5225000000
2.7527000000 5.0620000000 2.3423000000
2.7525000000 3.2765000000 3.3202000000
2.7524000000 6.9423000000 0.0800000000
2.7522000000 4.5733000000 2.8154000000
2.7521000000 2.8032000000 3.0348000000
2.7517000000 6.3761000000 0.7603000000
2.7515000000 1.6986000000 2.0446000000
2.7514000000 0.6219000000 0.7416000000
2.7512000000 2.4147000000 2.8012000000
2.7506000000 5.6165000000 1.6758000000
2.7505000000 1.4164000000 1.6997000000
2.7504000000 6.2311000000 0.9394000000
2.7501000000 5.5003000000 1.8151000000
2.7493000000 0.1811000000 0.2127000000
2.7486000000 2.7087000000 2.9796000000
2.7475000000 1.0558000000 1.2647000000
2.7467000000 5.7537000000 1.5067000000
2.5103000000 6.7719000000 0.2852000000
2.5102000000 3.7609000000 3.5559000000
2.5096000000 0.5862000000 0.7041000000
2.5092000000 5.7847000000 1.4716000000
2.5088000000 6.7463000000 0.3161000000
2.5079000000 5.1354000000 2.2571000000
2.5078000000 5.7807000000 1.4796000000
2.5073000000 4.0580000000 3.3812000000
2.5070000000 1.5421000000 1.8543000000
2.5068000000 6.3475000000 0.7964000000
2.5067000000 4.2341000000 3.2664000000
2.5065000000 5.4534000000 1.8710000000
2.5064000000 1.4985000000 1.8023000000
2.5063000000 2.9436000000 3.3769000000
2.5060000000 3.4880000000 3.6847000000
2.5056000000 5.3659000000 1.9784000000
2.5054000000 2.9126000000 3.3570000000
2.5050000000 3.2856000000 3.5819000000
2.5048000000 6.7672000000 0.2894000000
2.5046000000 4.2190000000 3.2916000000
2.5045000000 1.7849000000 2.1449000000
2.5044000000 5.0143000000 2.3994000000
2.5041000000 2.5987000000 3.1079000000
2.5040000000 3.1339000000 3.4912000000
2.5039000000 5.1752000000 2.2031000000
2.5036000000 5.3343000000 2.0155000000
2.5035000000 0.1913000000 0.2249000000
2.5034000000 3.9280000000 3.4634000000
2.5033000000 5.2996000000 2.0560000000
2.5030000000 3.3617000000 3.6336000000
2.5028000000 4.8689000000 2.5772000000
2.5025000000 2.6471000000 3.1585000000
2.5022000000 4.8739000000 2.5695000000
2.5020000000 6.2811000000 0.8704000000
2.5018000000 0.0869000000 0.0993000000
2.5015000000 5.7873000000 1.4643000000
2.5014000000 4.6471000000 2.8429000000
2.5012000000 2.4591000000 2.9591000000
2.5011000000 1.4217000000 1.7047000000
2.5008000000 2.2048000000 2.6526000000
2.5007000000 1.6591000000 1.9977000000
2.5005000000 5.3381000000 2.0129000000
2.5003000000 2.1969000000 2.6440000000
2.5002000000 0.1081000000 0.1269000000
2.5001000000 6.0208000000 1.1885000000
2.4998000000 2.8394000000 3.3196000000
2.4990000000 2.8990000000 3.3531000000
2.4988000000 3.6597000000 3.6315000000
2.4983000000 3.0250000000 3.4378000000
2.4972000000 2.6733000000 3.1950000000
2.4963000000 2.7919000000 3.2915000000
2.4954000000 0.6805000000 0.8113000000
2.2627000000 5.2142000000 2.1592000000
2.2615000000 6.1275000000 1.0557000000
2.2600000000 6.9359000000 0.0905000000
2.2598000000 2.5686000000 3.0896000000
2.2589000000 3.7941000000 3.8024000000
2.2580000000 1.9266000000 2.3138000000
2.2578000000 4.4766000000 3.0490000000
2.2574000000 6.8667000000 0.1740000000
2.2572000000 4.0104000000 3.5926000000
2.2570000000 5.2907000000 2.0630000000
2.2566000000 6.7326000000 0.3298000000
2.2565000000 6.6056000000 0.4824000000
2.2560000000 6.3086000000 0.8457000000
2.2554000000 4.8376000000 2.6127000000
2.2553000000 2.1621000000 2.6049000000
2.2550000000 0.7893000000 0.9469000000
2.2548000000 6.9114000000 0.1129000000
2.2547000000 3.8646000000 3.7390000000
2.2546000000 5.5861000000 1.7163000000
2.2544000000 4.1104000000 3.4858000000
2.2543000000 1.3847000000 1.6651000000
2.2541000000 4.8900000000 2.5497000000
2.2540000000 2.1194000000 2.5506000000
2.2539000000 6.6901000000 0.3845000000
2.2538000000 0.0962000000 0.1107000000
2.2535000000 6.0984000000 1.0943000000
2.2534000000 3.9457000000 3.6658000000
2.2533000000 4.0548000000 3.5603000000
2.2530000000 5.7702000000 1.4914000000
2.2529000000 1.4179000000 1.7021000000
2.2527000000 5.4278000000 1.9015000000
2.2525000000 1.2357000000 1.4896000000
2.2523000000 4.3051000000 3.2560000000
2.2521000000 1.5782000000 1.8979000000
2.2520000000 0.3939000000 0.4707000000
2.2515000000 4.3449000000 3.2107000000
2.2510000000 2.0631000000 2.4800000000
2.2508000000 1.1678000000 1.4010000000
2.2506000000 1.2990000000 1.5552000000
2.2503000000 4.9082000000 2.5292000000
2.2502000000 3.5805000000 3.9321000000
2.2499000000 0.2862000000 0.3401000000
2.2496000000 5.3207000000 2.0334000000
2.2493000000 6.1150000000 1.0693000000
2.2492000000 0.7281000000 0.8681000000
2.2488000000 6.4120000000 0.7172000000
2.2487000000 2.2581000000 2.7230000000
2.2481000000 3.3366000000 3.8840000000
2.2473000000 5.5515000000 1.7568000000
2.2460000000 0.9300000000 1.1155000000
2.0125000000 5.5151000000 1.7977000000
2.0105000000 2.7962000000 3.3639000000
2.0101000000 5.9911000000 1.2263000000
2.0097000000 1.7927000000 2.1539000000
2.0093000000 6.4995000000 0.6103000000
2.0087000000 3.7147000000 3.9646000000
2.0086000000 3.6390000000 4.0448000000
2.0082000000 3.9251000000 3.7193000000
2.0079000000 6.0407000000 1.1706000000
2.0076000000 4.6383000000 2.8500000000
2.0074000000 6.0489000000 1.1574000000
2.0073000000 2.4233000000 2.9159000000
2.0072000000 4.4376000000 3.0987000000
2.0068000000 3.1555000000 3.7934000000
2.0065000000 4.5556000000 2.9525000000
2.0064000000 6.0133000000 1.1968000000
2.0063000000 3.9017000000 3.7407000000
2.0062000000 4.3873000000 3.1558000000
2.0060000000 3.7318000000 3.9504000000
2.0056000000 0.3831000000 0.4511000000
2.0053000000 7.0432000000 0.1069000000
2.0052000000 2.9279000000 3.5266000000
2.0051000000 1.2901000000 1.5456000000
2.0050000000 3.5176000000 4.1223000000
2.0045000000 3.9110000000 3.7299000000
2.0043000000 3.2962000000 3.9615000000
2.0040000000 5.1314000000 2.2585000000
2.0038000000 2.2304000000 2.6847000000
2.0037000000 5.1845000000 2.1965000000
2.0035000000 1.4755000000 1.7761000000
2.0034000000 0.8112000000 0.9743000000
2.0032000000 2.5689000000 3.0896000000
2.0030000000 0.1685000000 0.2018000000
2.0028000000 1.4141000000 1.6980000000
2.0028000000 4.7284000000 2.7466000000
2.0025000000 0.9522000000 1.1416000000
2.0024000000 1.3756000000 1.6517000000
2.0022000000 1.6844000000 2.0224000000
2.0021000000 4.7243000000 2.7437000000
2.0019000000 6.5276000000 0.5774000000
2.0016000000 2.3096000000 2.7765000000
2.0015000000 5.8208000000 1.4262000000
2.0013000000 4.4236000000 3.1133000000
2.0008000000 2.1708000000 2.6084000000
2.0006000000 2.1224000000 2.5517000000
2.0001000000 4.7863000000 2.6746000000
1.9999000000 4.7266000000 2.7436000000
1.9993000000 2.1807000000 2.6249000000
1.9988000000 0.7119000000 0.8544000000
1.9976000000 0.5552000000 0.6667000000
1.9966000000 0.9397000000 1.1254000000
1.9963000000 1.5607000000 1.8745000000
1.7636000000 6.6852000000 0.3892000000
1.7607000000 3.8498000000 3.7317000000
1.7604000000 4.7295000000 2.7427000000
1.7600000000 6.0870000000 1.1112000000
1.7597000000 6.5531000000 0.5520000000
1.7595000000 5.5507000000 1.7586000000
1.7588000000 6.7049000000 0.3648000000
1.7586000000 0.8404000000 1.0051000000
1.7579000000 0.4275000000 0.5030000000
1.7578000000 4.8855000000 2.5545000000
1.7574000000 1.7503000000 2.1047000000
1.7572000000 6.9304000000 0.0884000000
1.7570000000 1.3497000000 1.6170000000
1.7569000000 5.9009000000 1.3299000000
1.7567000000 6.8243000000 0.2226000000
1.7565000000 2.1802000000 2.6153000000
1.7563000000 5.2689000000 2.0939000000
1.7560000000 0.0958000000 0.1113000000
1.7558000000 4.0367000000 3.5566000000
1.7557000000 5.9147000000 1.3089000000
1.7554000000 2.5709000000 3.0927000000
1.7553000000 3.1429000000 3.7074000000
1.7551000000 2.7605000000 3.3219000000
1.7550000000 2.9528000000 3.5365000000
1.7545000000 1.4386000000 1.7236000000
1.7543000000 3.6573000000 3.8477000000
1.7540000000 4.0791000000 3.5171000000
1.7537000000 2.7031000000 3.2501000000
1.7535000000 4.6489000000 2.8418000000
1.7533000000 4.2326000000 3.3414000000
1.7532000000 6.3979000000 0.7284000000
1.7530000000 2.6552000000 3.1903000000
1.7527000000 6.2386000000 0.9281000000
1.7526000000 3.1777000000 3.7362000000
1.7525000000 6.2995000000 0.8599000000
1.7522000000 4.1864000000 3.3999000000
1.7521000000 3.2356000000 3.7733000000
1.7520000000 0.9034000000 1.0819000000
1.7518000000 0.0838000000 0.0973000000
1.7518000000 0.4766000000 0.5748000000
1.7517000000 2.3448000000 2.8188000000
1.7513000000 3.9260000000 3.6650000000
1.7512000000 4.6228000000 2.8752000000
1.7508000000 4.5545000000 2.9528000000
1.7507000000 2.0574000000 2.4736000000
1.7506000000 0.0105000000 0.0840000000
1.7504000000 3.1016000000 3.6712000000
1.7493000000 1.0422000000 1.2522000000
1.7488000000 2.3082000000 2.7769000000
1.7482000000 2.1302000000 2.5584000000
1.7472000000 2.4318000000 2.9245000000
1.7454000000 0.9801000000 1.1762000000
1.7441000000 3.4489000000 3.8891000000
1.5120000000 2.5220000000 3.0204000000
1.5108000000 3.1123000000 3.4466000000
1.5102000000 2.4708000000 2.9715000000
1.5098000000 6.1474000000 1.0345000000
1.5095000000 3.8781000000 3.4552000000
1.5092000000 6.4695000000 0.6466000000
1.5090000000 4.5795000000 2.9269000000
1.5085000000 5.9218000000 1.3104000000
1.5083000000 0.7123000000 0.8504000000
1.5080000000 5.6211000000 1.6744000000
1.5078000000 0.9655000000 1.1574000000
1.5076000000 4.3708000000 3.1350000000
1.5071000000 6.0976000000 1.0963000000
1.5070000000 4.1374000000 3.3000000000
1.5065000000 4.5179000000 2.9947000000
1.5065000000 2.5685000000 3.0712000000
1.5063000000 2.1718000000 2.6110000000
1.5059000000 5.2610000000 2.1019000000
1.5058000000 0.3441000000 0.4094000000
1.5057000000 4.8572000000 2.5909000000
1.5055000000 0.1156000000 0.1380000000
1.5054000000 5.7285000000 1.5422000000
1.5051000000 4.3197000000 3.1695000000
1.5049000000 5.5100000000 1.8026000000
1.5048000000 5.7630000000 1.5033000000
1.5047000000 0.6715000000 0.8029000000
1.5045000000 4.2560000000 3.2265000000
1.5042000000 0.2782000000 0.3293000000
1.5039000000 2.4355000000 2.9307000000
1.5038000000 5.2283000000 2.1460000000
1.5036000000 5.2089000000 2.1671000000
1.5035000000 4.0447000000 3.3529000000
1.5033000000 3.2159000000 3.5005000000
1.5029000000 1.6116000000 1.9377000000
1.5028000000 3.8844000000 3.4463000000
1.5026000000 1.2554000000 1.5066000000
1.5025000000 5.5204000000 1.7955000000
1.5022000000 5.3879000000 1.9519000000
1.5020000000 1.0779000000 1.2974000000
1.5019000000 0.8831000000 1.0582000000
1.5016000000 4.5932000000 2.9101000000
1.5015000000 3.8264000000 3.4873000000
1.5013000000 0.3567000000 0.4252000000
1.5009000000 3.4973000000 3.6447000000
1.5008000000 2.5718000000 3.0706000000
1.5006000000 4.2370000000 3.2357000000
1.5005000000 0.9255000000 1.1117000000
1.5003000000 2.0702000000 2.4933000000
1.4999000000 6.1241000000 1.0632000000
1.4998000000 5.3655000000 1.9756000000
1.4997000000 2.4003000000 2.8864000000
1.4991000000 1.5735000000 1.8921000000
1.4984000000 5.3290000000 2.0205000000
1.4974000000 2.8271000000 3.2601000000
1.4965000000 0.3968000000 0.4680000000
1.4925000000 4.5373000000 2.9633000000
1.2628000000 5.8891000000 1.3460000000
1.2618000000 4.2851000000 2.9520000000
1.2614000000 5.0245000000 2.3961000000
1.2607000000 0.1365000000 0.1617000000
1.2603000000 5.5817000000 1.7167000000
1.2591000000 6.6080000000 0.4855000000
1.2588000000 6.0346000000 1.1704000000
1.2583000000 6.5527000000 0.5440000000
1.2578000000 6.1530000000 1.0350000000
1.2571000000 3.9056000000 3.1783000000
1.2569000000 6.0277000000 1.1782000000
1.2565000000 3.1171000000 3.1851000000
1.2561000000 2.5503000000 2.8415000000
1.2559000000 4.0025000000 3.1224000000
1.2557000000 3.3261000000 3.3116000000
1.2555000000 5.4070000000 1.9302000000
1.2555000000 5.8994000000 1.3377000000
1.2553000000 6.0369000000 1.1681000000
1.2550000000 6.5324000000 0.5709000000
1.2549000000 2.2924000000 2.6881000000
1.2548000000 6.7276000000 0.3408000000
1.2546000000 2.9928000000 3.1075000000
1.2545000000 6.2770000000 0.8846000000
1.2542000000 4.6535000000 2.7219000000
1.2541000000 5.8360000000 1.4140000000
1.2539000000 2.8917000000 3.0453000000
1.2537000000 4.1349000000 3.0356000000
1.2536000000 1.9499000000 2.3501000000
1.2533000000 2.4410000000 2.7730000000
1.2532000000 6.5969000000 0.4889000000
1.2531000000 0.4104000000 0.4856000000
1.2530000000 3.4498000000 3.3718000000
1.2528000000 2.5295000000 2.8267000000
1.2525000000 4.7336000000 2.6646000000
1.2523000000 6.2854000000 0.8679000000
1.2519000000 6.4756000000 0.6399000000
1.2517000000 1.6714000000 2.0060000000
1.2513000000 2.7473000000 2.9489000000
1.2512000000 1.3383000000 1.6090000000
1.2510000000 0.1564000000 0.1798000000
1.2506000000 2.2830000000 2.6725000000
1.2505000000 0.0445000000 0.1212000000
1.2501000000 2.9281000000 3.0624000000
1.2499000000 0.3809000000 0.4499000000
1.2498000000 6.8168000000 0.2313000000
1.2496000000 6.0779000000 1.1223000000
1.2490000000 0.2285000000 0.2674000000
1.2488000000 1.7739000000 2.1300000000
1.2486000000 2.7732000000 2.9682000000
1.2485000000 0.8591000000 1.0295000000
1.2482000000 1.1758000000 1.4094000000
1.2472000000 0.2678000000 0.3217000000
1.2470000000 4.1574000000 3.0141000000
1.2462000000 5.0865000000 2.3160000000
1.2457000000 2.0635000000 2.4660000000
1.0129000000 5.4531000000 1.8743000000
1.0118000000 4.8214000000 2.3740000000
1.0102000000 3.4562000000 3.1163000000
1.0089000000 1.9354000000 2.2089000000
1.0088000000 4.9037000000 2.3208000000
1.0083000000 4.0143000000 2.8470000000
1.0077000000 6.6800000000 0.3958000000
1.0075000000 4.4805000000 2.5748000000
1.0071000000 6.9160000000 0.1121000000
1.0070000000 6.0841000000 1.1125000000
1.0068000000 5.4461000000 1.8832000000
1.0066000000 4.6327000000 2.4829000000
1.0065000000 2.6606000000 2.6466000000
1.0063000000 4.1624000000 2.7653000000
1.0062000000 5.6893000000 1.5866000000
1.0059000000 0.6120000000 0.7311000000
1.0058000000 3.2789000000 3.0203000000
1.0055000000 2.8115000000 2.7310000000
1.0051000000 5.9061000000 1.3232000000
1.0047000000 5.2468000000 2.0885000000
1.0043000000 4.6521000000 2.4642000000
1.0042000000 3.2303000000 2.9916000000
1.0040000000 1.4307000000 1.7112000000
1.0037000000 3.8260000000 2.9607000000
1.0035000000 1.5279000000 1.8322000000
1.0031000000 4.3735000000 2.6295000000
1.0030000000 0.9757000000 1.1742000000
1.0028000000 4.0981000000 2.7960000000
1.0024000000 3.6612000000 3.0584000000
1.0022000000 1.9926000000 2.2379000000
1.0021000000 2.9467000000 2.8127000000
1.0018000000 2.0774000000 2.2916000000
1.0018000000 6.1779000000 0.9997000000
1.0016000000 6.8227000000 0.2233000000
1.0011000000 5.8470000000 1.3984000000
1.0009000000 4.7654000000 2.3926000000
1.0008000000 1.9684000000 2.2227000000
1.0000000000 3.3208000000 3.0363000000
0.9998000000 0.6835000000 0.8199000000
0.9997000000 0.3874000000 0.4589000000
0.9986000000 4.6612000000 2.4545000000
0.9982000000 3.4646000000 3.1096000000
0.9974000000 3.0922000000 2.8951000000
0.9966000000 0.1151000000 0.1421000000
0.9955000000 1.2719000000 1.5266000000
0.9953000000 1.9138000000 2.1803000000
0.9932000000 2.3304000000 2.4364000000
0.7634000000 4.1233000000 2.5319000000
0.7611000000 6.7221000000 0.3427000000
0.7602000000 6.5538000000 0.5459000000
0.7592000000 2.8838000000 2.5255000000
0.7588000000 5.3078000000 1.8128000000
0.7584000000 2.0884000000 2.0422000000
0.7576000000 5.8811000000 1.3509000000
0.7573000000 6.0994000000 1.0893000000
0.7571000000 5.6778000000 1.5661000000
0.7570000000 6.6706000000 0.4036000000
0.7568000000 1.1583000000 1.3913000000
0.7566000000 5.8195000000 1.4300000000
0.7562000000 3.6381000000 2.8190000000
0.7560000000 4.7014000000 2.1756000000
0.7559000000 1.0461000000 1.2557000000
0.7555000000 1.7880000000 1.8614000000
0.7552000000 1.3590000000 1.5849000000
0.7550000000 3.7334000000 2.7539000000
0.7549000000 5.6288000000 1.5966000000
0.7548000000 3.4162000000 2.8408000000
0.7547000000 5.2723000000 1.8327000000
0.7545000000 4.3537000000 2.3794000000
0.7543000000 1.6403000000 1.7698000000
0.7541000000 2.9917000000 2.5899000000
0.7539000000 4.0453000000 2.5703000000
0.7537000000 4.0145000000 2.5857000000
0.7533000000 2.2260000000 2.1201000000
0.7532000000 2.8549000000 2.5051000000
0.7531000000 2.8193000000 2.4747000000
0.7529000000 1.7030000000 1.8058000000
0.7528000000 6.2307000000 0.9366000000
0.7525000000 1.7565000000 1.8406000000
0.7524000000 1.7520000000 1.8312000000
0.7523000000 1.4120000000 1.6234000000
0.7520000000 0.8931000000 1.0694000000
0.7519000000 5.5370000000 1.6693000000
0.7517000000 2.5775000000 2.3299000000
0.7516000000 4.8048000000 2.1052000000
0.7515000000 2.2931000000 2.1603000000
0.7511000000 0.5160000000 0.6163000000
0.7510000000 5.2558000000 1.8366000000
0.7509000000 5.0469000000 1.9574000000
0.7506000000 2.2862000000 2.1589000000
0.7505000000 0.4629000000 0.5557000000
0.7498000000 0.3021000000 0.3641000000
0.7495000000 3.4835000000 2.8533000000
0.7493000000 1.9503000000 1.9524000000
0.7490000000 0.4273000000 0.5118000000
0.7485000000 1.8491000000 1.8859000000
0.7483000000 6.6527000000 0.4265000000
0.7460000000 0.3141000000 0.3785000000
0.5129000000 1.9495000000 1.7067000000
0.5108000000 5.4151000000 1.4872000000
0.5107000000 5.7709000000 1.2774000000
0.5092000000 6.6532000000 0.4263000000
0.5087000000 2.2248000000 1.8712000000
0.5080000000 6.8087000000 0.2402000000
0.5080000000 5.0854000000 1.6850000000
0.5078000000 6.2166000000 0.9400000000
0.5075000000 4.7158000000 1.9113000000
0.5070000000 4.8913000000 1.8005000000
0.5069000000 5.0133000000 1.7285000000
0.5068000000 5.0158000000 1.7291000000
0.5067000000 5.5313000000 1.4161000000
0.5065000000 4.3520000000 2.1267000000
0.5063000000 0.8054000000 0.9510000000
0.5060000000 2.0552000000 1.7575000000
0.5059000000 2.6737000000 2.1368000000
0.5055000000 4.3573000000 2.1212000000
0.5054000000 4.8613000000 1.8154000000
0.5050000000 3.5258000000 2.6049000000
0.5048000000 6.8181000000 0.2302000000
0.5047000000 1.6559000000 1.5178000000
0.5045000000 0.5670000000 0.6809000000
0.5044000000 0.1409000000 0.1627000000
0.5043000000 2.3887000000 1.9616000000
0.5042000000 2.2137000000 1.8587000000
0.5040000000 6.3058000000 0.8501000000
0.5038000000 5.0750000000 1.6833000000
0.5035000000 1.0839000000 1.1745000000
0.5033000000 0.4725000000 0.5605000000
0.5032000000 0.4077000000 0.4842000000
0.5029000000 0.3015000000 0.3623000000
0.5028000000 3.4455000000 2.5956000000
0.5026000000 3.8728000000 2.4096000000
0.5025000000 4.4292000000 2.0746000000
0.5022000000 6.9152000000 0.1144000000
0.5020000000 1.9234000000 1.6769000000
0.5017000000 1.9940000000 1.7195000000
0.5013000000 4.1065000000 2.2687000000
0.5011000000 3.8432000000 2.4274000000
0.5010000000 5.7315000000 1.2829000000
0.5008000000 5.7528000000 1.2746000000
0.5006000000 1.7410000000 1.5613000000
0.5003000000 3.0412000000 2.3478000000
0.5000000000 4.3693000000 2.1097000000
0.4999000000 2.0636000000 1.7604000000
0.4995000000 4.3941000000 2.0954000000
0.4994000000 5.3061000000 1.5410000000
0.4993000000 1.5332000000 1.4398000000
0.4990000000 0.2729000000 0.3244000000
0.4986000000 0.0174000000 0.0929000000
0.4979000000 0.6063000000 0.7222000000
0.4978000000 5.7131000000 1.2921000000
0.4976000000 6.8477000000 0.1932000000
0.4967000000 0.2228000000 0.2634000000
0.2620000000 1.4601000000 1.1486000000
0.2610000000 6.8525000000 0.1897000000
0.2601000000 5.4882000000 1.1835000000
0.2588000000 4.7075000000 1.6635000000
0.2586000000 3.1959000000 2.1820000000
0.2580000000 4.0394000000 2.0546000000
0.2577000000 5.9063000000 0.9297000000
0.2575000000 1.9205000000 1.4243000000
0.2573000000 1.4690000000 1.1439000000
0.2571000000 4.5114000000 1.7714000000
0.2568000000 6.5874000000 0.4912000000
0.2563000000 4.1844000000 1.9605000000
0.2556000000 2.4824000000 1.7557000000
0.2553000000 5.8804000000 0.9409000000
0.2551000000 0.3395000000 0.3921000000
0.2549000000 6.3137000000 0.6815000000
0.2545000000 5.5959000000 1.1133000000
0.2545000000 1.7167000000 1.2911000000
0.2544000000 5.3162000000 1.2826000000
0.2541000000 3.6808000000 2.2672000000
0.2540000000 0.7050000000 0.6844000000
0.2538000000 6.1765000000 0.7622000000
0.2535000000 0.1579000000 0.1841000000
0.2533000000 0.8749000000 0.7861000000
0.2532000000 2.0704000000 1.5033000000
0.2529000000 5.7374000000 1.0262000000
0.2528000000 5.5795000000 1.1214000000
0.2525000000 1.5942000000 1.2194000000
0.2523000000 2.5807000000 1.8168000000
0.2522000000 5.4000000000 1.2314000000
0.2521000000 4.2787000000 1.9065000000
0.2520000000 6.3901000000 0.6362000000
0.2518000000 5.1686000000 1.3696000000
0.2514000000 1.4976000000 1.1551000000
0.2511000000 4.3455000000 1.8685000000
0.2508000000 3.6672000000 2.2706000000
0.2506000000 0.9493000000 0.8244000000
0.2505000000 4.5074000000 1.7675000000
0.2503000000 6.5920000000 0.4834000000
0.2501000000 5.5586000000 1.1388000000
0.2500000000 4.3209000000 1.8759000000
0.2497000000 0.0580000000 0.1395000000
0.2493000000 0.4189000000 0.4794000000
0.2489000000 0.9826000000 0.8500000000
0.2484000000 1.8556000000 1.3685000000
0.2480000000 1.9671000000 1.4337000000
0.2479000000 3.5155000000 2.3426000000
0.2475000000 1.1778000000 0.9622000000
0.2467000000 0.4627000000 0.5092000000
0.2461000000 1.4185000000 1.1052000000
0.2458000000 0.6635000000 0.6435000000
0.0134000000 6.2148000000 0.4871000000
0.0110000000 6.3928000000 0.3781000000
0.0104000000 0.5761000000 0.3544000000
0.0098000000 6.6728000000 0.2096000000
0.0090000000 2.9298000000 1.7710000000
0.0088000000 4.6133000000 1.4518000000
0.0082000000 5.5607000000 0.8730000000
0.0080000000 5.2556000000 1.0629000000
0.0079000000 6.9787000000 0.0775000000
0.0076000000 5.2622000000 1.0639000000
0.0074000000 3.9666000000 1.8325000000
0.0070000000 5.3123000000 1.0224000000
0.0069000000 3.2024000000 1.9328000000
0.0066000000 6.5577000000 0.2717000000
0.0065000000 3.1858000000 1.9225000000
0.0060000000 6.8262000000 0.1185000000
0.0063000000 6.4682000000 0.3268000000
0.0058000000 6.1238000000 0.5364000000
0.0055000000 2.0096000000 1.2104000000
0.0053000000 5.2455000000 1.0675000000
0.0051000000 1.1819000000 0.7129000000
0.0050000000 2.5011000000 1.5024000000
0.0048000000 6.4717000000 0.3289000000
0.0044000000 6.1645000000 0.5110000000
0.0042000000 1.7140000000 1.0316000000
0.0040000000 2.7753000000 1.6684000000
0.0038000000 3.3152000000 1.9953000000
0.0035000000 4.4786000000 1.5232000000
0.0033000000 1.9055000000 1.1456000000
0.0031000000 6.6047000000 0.2452000000
0.0029000000 4.4126000000 1.5655000000
0.0026000000 6.8191000000 0.1167000000
0.0023000000 1.8031000000 1.0860000000
0.0020000000 3.1270000000 1.8826000000
0.0019000000 5.9560000000 0.6297000000
0.0017000000 5.3891000000 0.9728000000
0.0014000000 3.2145000000 1.9373000000
0.0012000000 4.8812000000 1.2786000000
0.0011000000 6.0380000000 0.5813000000
0.0004000000 1.8346000000 1.0989000000
0.0002000000 0.1994000000 0.1166000000
-0.0000000000 1.8353000000 1.0993000000
-0.0002000000 3.6009000000 2.0461000000
-0.0006000000 4.1756000000 1.7020000000
-0.0009000000 2.4006000000 1.4382000000
-0.0011000000 2.9480000000 1.7710000000
-0.0013000000 0.8138000000 0.4858000000
-0.0016000000 4.9977000000 1.2079000000
-0.0020000000 2.5852000000 1.5505000000
-0.0026000000 1.1318000000 0.6720000000
-0.0039000000 4.8248000000 1.3107000000
-0.0057000000 3.5709000000 2.0594000000
-0.2388000000 2.2809000000 1.1208000000
-0.2396000000 2.9964000000 1.5493000000
-0.2408000000 5.5557000000 0.6222000000
-0.2412000000 4.5652000000 1.2178000000
-0.2416000000 3.7369000000 1.7152000000
-0.2422000000 3.0685000000 1.5899000000
-0.2425000000 4.1088000000 1.4953000000
-0.2426000000 6.6760000000 0.0161000000
-0.2429000000 5.8821000000 0.4208000000
-0.2435000000 2.4137000000 1.1955000000
-0.2439000000 1.5342000000 0.6654000000
-0.2444000000 0.3058000000 0.0745000000
-0.2447000000 5.8492000000 0.4367000000
-0.2448000000 3.1539000000 1.6407000000
-0.2450000000 4.8069000000 1.0643000000
-0.2451000000 4.5379000000 1.2290000000
-0.2454000000 2.4123000000 1.1955000000
-0.2461000000 5.1978000000 0.8293000000
-0.2465000000 6.0063000000 0.3452000000
-0.2466000000 0.4062000000 0.0573000000
-0.2470000000 1.7045000000 0.7631000000
-0.2471000000 2.1611000000 1.0380000000
-0.2474000000 0.3005000000 0.0704000000
-0.2476000000 6.7117000000 0.0667000000
-0.2477000000 2.1550000000 1.0360000000
-0.2477000000 2.1370000000 1.0177000000
-0.2479000000 4.0699000000 1.5067000000
-0.2480000000 6.2957000000 0.1693000000
-0.2484000000 3.8400000000 1.6492000000
-0.2487000000 6.6753000000 0.0895000000
-0.2489000000 6.1024000000 0.2813000000
-0.2490000000 0.2419000000 0.0247000000
-0.2493000000 0.4009000000 0.0503000000
-0.2494000000 6.2542000000 0.1890000000
-0.2495000000 3.2886000000 1.7115000000
-0.2497000000 6.5130000000 0.1074000000
-0.2499000000 1.9607000000 0.9137000000
-0.2501000000 0.4212000000 0.0653000000
-0.2505000000 0.5653000000 0.0761000000
-0.2506000000 2.5748000000 1.2888000000
-0.2510000000 1.7720000000 0.7962000000
-0.2512000000 1.7397000000 0.7818000000
-0.2519000000 1.1388000000 0.4209000000
-0.2522000000 3.7767000000 1.6830000000
-0.2535000000 4.1488000000 1.4527000000
-0.2565000000 2.9603000000 1.5093000000
-0.4861000000 5.0907000000 0.6450000000
-0.4890000000 5.2666000000 0.5386000000
-0.4901000000 6.0774000000 0.1195000000
-0.4903000000 6.0884000000 0.1123000000
-0.4913000000 2.9736000000 1.2746000000
-0.4922000000 4.6224000000 0.9215000000
-0.4923000000 3.6550000000 1.5042000000
-0.4926000000 2.2806000000 0.8554000000
-0.4930000000 4.8263000000 0.7968000000
-0.4935000000 1.0140000000 0.0908000000
-0.4938000000 6.0148000000 0.0819000000
-0.4940000000 4.4828000000 0.9978000000
-0.4947000000 3.7935000000 1.4119000000
-0.4950000000 3.0892000000 1.3365000000
-0.4952000000 1.1968000000 0.1965000000
-0.4954000000 5.4369000000 0.4319000000
-0.4956000000 1.1219000000 0.1514000000
-0.4957000000 2.9169000000 1.2349000000
-0.4962000000 2.1405000000 0.7641000000
-0.4963000000 1.9897000000 0.6753000000
-0.4967000000 6.3808000000 0.0035000000
-0.4968000000 1.2773000000 0.2464000000
-0.4971000000 4.2126000000 1.1592000000
-0.4975000000 3.1914000000 1.3987000000
-0.4977000000 2.2624000000 0.8369000000
-0.4979000000 3.6272000000 1.5115000000
-0.4981000000 5.6134000000 0.3157000000
-0.4984000000 2.8140000000 1.1724000000
-0.4985000000 2.5561000000 1.0161000000
-0.4987000000 1.8144000000 0.5661000000
-0.4988000000 5.1401000000 0.5986000000
-0.4990000000 3.2289000000 1.4166000000
-0.4993000000 3.9904000000 1.2973000000
-0.5000000000 3.0613000000 1.3198000000
-0.5004000000 3.2877000000 1.4520000000
-0.5005000000 3.2181000000 1.4100000000
-0.5007000000 1.2503000000 0.2245000000
-0.5009000000 3.6888000000 1.4742000000
-0.5015000000 5.1737000000 0.5776000000
-0.5019000000 0.9819000000 0.1343000000
-0.5024000000 4.1900000000 1.1672000000
-0.5049000000 2.2392000000 0.8167000000
-0.7382000000 5.9351000000 0.0173000000
-0.7403000000 5.4905000000 0.1401000000
-0.7409000000 4.3205000000 0.8379000000
-0.7416000000 5.5421000000 0.1104000000
-0.7419000000 5.2015000000 0.3106000000
-0.7425000000 5.7359000000 0.0642000000
-0.7429000000 1.7689000000 0.2869000000
-0.7433000000 5.2223000000 0.2991000000
-0.7439000000 5.6375000000 0.1211000000
-0.7446000000 3.8611000000 1.1145000000
-0.7452000000 3.1916000000 1.1403000000
-0.7455000000 3.8073000000 1.1481000000
-0.7457000000 1.6468000000 0.2027000000
-0.7458000000 4.1981000000 0.9127000000
-0.7460000000 2.6142000000 0.7952000000
-0.7463000000 2.6597000000 0.8199000000
-0.7466000000 5.8560000000 0.0631000000
-0.7467000000 5.7305000000 0.0638000000
-0.7470000000 4.3667000000 0.8044000000
-0.7471000000 4.9151000000 0.4761000000
-0.7473000000 2.3001000000 0.5982000000
-0.7475000000 5.4145000000 0.1803000000
-0.7480000000 4.3238000000 0.8330000000
-0.7493000000 3.2123000000 1.1488000000
-0.7498000000 2.7796000000 0.8863000000
-0.7516000000 3.7992000000 1.1436000000
-0.7530000000 2.4524000000 0.6852000000
-0.9900000000 1.6923000000 0.0535000000
-0.9921000000 3.4534000000 1.0312000000
-0.9930000000 3.4541000000 1.0238000000
-0.9932000000 3.6500000000 0.9827000000
-0.9940000000 4.8030000000 0.2856000000
-0.9944000000 2.4007000000 0.4020000000
-0.9951000000 2.0378000000 0.1832000000
-0.9952000000 3.8718000000 0.8452000000
-0.9955000000 5.2859000000 0.0676000000
-0.9960000000 5.2590000000 0.0895000000
-0.9962000000 3.7355000000 0.9264000000
-0.9965000000 2.5196000000 0.4680000000
-0.9968000000 5.0242000000 0.1547000000
-0.9971000000 3.1333000000 0.8488000000
-0.9973000000 5.4308000000 0.0572000000
-0.9982000000 3.3984000000 0.9999000000
-0.9986000000 2.7731000000 0.6276000000
-0.9995000000 3.2517000000 0.9097000000
-1.0000000000 4.0558000000 0.7345000000
-1.0012000000 2.9611000000 0.7339000000
-1.0018000000 3.3499000000 0.9664000000
-1.0036000000 4.3467000000 0.5523000000
-1.0060000000 2.2725000000 0.3128000000
-1.2387000000 4.6696000000 0.1124000000
-1.2405000000 4.6701000000 0.1159000000
-1.2412000000 4.0403000000 0.4946000000
-1.2416000000 3.5631000000 0.7738000000
-1.2427000000 2.7485000000 0.3530000000
-1.2432000000 3.6619000000 0.7103000000
-1.2435000000 4.6562000000 0.1158000000
-1.2440000000 4.3970000000 0.2707000000
-1.2443000000 4.9475000000 0.0136000000
-1.2444000000 3.7960000000 0.6254000000
-1.2452000000 4.6889000000 0.0948000000
-1.2454000000 2.6900000000 0.3130000000
-1.2456000000 2.5286000000 0.2186000000
-1.2462000000 3.0488000000 0.5307000000
-1.2459000000 4.2510000000 0.3570000000
-1.2465000000 4.1728000000 0.4051000000
-1.2470000000 4.5441000000 0.1813000000
-1.2471000000 4.1414000000 0.4202000000
-1.2474000000 3.8347000000 0.6028000000
-1.2477000000 4.0600000000 0.4767000000
-1.2479000000 2.2659000000 0.1327000000
