7.0107000000 4.0886000000 0.0416000000
7.0087000000 4.0522000000 0.0520000000
7.0060000000 3.7785000000 -0.0025000000
7.0037000000 4.2321000000 0.0584000000
7.0014000000 4.2528000000 0.0607000000
6.7592000000 4.1488000000 0.1720000000
6.7574000000 4.5745000000 0.0301000000
6.7561000000 3.5101000000 0.0801000000
6.7550000000 3.5653000000 0.0445000000
6.7543000000 3.4552000000 0.0610000000
6.7530000000 3.3736000000 0.0215000000
6.5125000000 3.4496000000 0.1227000000
6.5108000000 3.1325000000 0.0375000000
6.5080000000 4.6462000000 0.1365000000
6.5070000000 3.3780000000 0.0911000000
6.5054000000 4.1836000000 0.3862000000
6.5051000000 3.3581000000 0.0824000000
6.5048000000 4.0664000000 0.4221000000
6.5035000000 3.3023000000 0.0550000000
6.5030000000 3.2084000000 0.0821000000
6.5021000000 4.8901000000 0.0978000000
6.5009000000 3.8918000000 0.3567000000
6.4987000000 3.8571000000 0.3422000000
6.2608000000 5.3133000000 0.0927000000
6.2605000000 5.0946000000 0.1292000000
6.2583000000 3.5922000000 0.4179000000
6.2577000000 4.2683000000 0.5565000000
6.2565000000 4.9804000000 0.1878000000
6.2563000000 3.0104000000 0.1194000000
6.2559000000 2.6108000000 0.0689000000
6.2548000000 5.5609000000 0.0450000000
6.2533000000 5.0026000000 0.1802000000
6.2529000000 3.7911000000 0.5230000000
6.2521000000 3.9361000000 0.6027000000
6.2515000000 4.4646000000 0.4597000000
6.2508000000 4.1223000000 0.6306000000
6.2498000000 3.0047000000 0.1263000000
6.2485000000 2.8375000000 0.0403000000
6.0125000000 4.9506000000 0.4251000000
6.0108000000 5.3692000000 0.2062000000
6.0095000000 2.6096000000 0.1393000000
6.0081000000 5.9086000000 0.0889000000
6.0079000000 3.3488000000 0.5174000000
6.0074000000 5.9291000000 0.0784000000
6.0069000000 5.4294000000 0.1895000000
6.0063000000 4.7351000000 0.5375000000
6.0056000000 3.2017000000 0.4387000000
6.0051000000 3.2208000000 0.4493000000
6.0045000000 3.3046000000 0.4948000000
6.0040000000 5.0507000000 0.3811000000
6.0035000000 3.1656000000 0.4276000000
6.0031000000 3.9270000000 0.8158000000
6.0029000000 2.1984000000 0.0883000000
6.0018000000 3.8802000000 0.7916000000
6.0010000000 4.2794000000 0.7764000000
6.0005000000 6.0154000000 0.0340000000
5.9986000000 2.4386000000 0.0558000000
5.9972000000 5.2377000000 0.2867000000
5.7628000000 3.7504000000 0.9399000000
5.7607000000 3.7156000000 0.9247000000
5.7597000000 1.7519000000 0.0713000000
5.7593000000 5.8200000000 0.2043000000
5.7580000000 5.9532000000 0.1401000000
5.7578000000 2.0985000000 0.0991000000
5.7573000000 4.7423000000 0.7555000000
5.7568000000 2.8283000000 0.4697000000
5.7565000000 3.5618000000 0.8465000000
5.7560000000 3.2250000000 0.6761000000
5.7556000000 1.7794000000 0.0925000000
5.7555000000 3.3369000000 0.7349000000
5.7550000000 2.8767000000 0.5022000000
5.7546000000 4.4575000000 0.9004000000
5.7545000000 2.9093000000 0.5109000000
5.7542000000 2.4548000000 0.2830000000
5.7539000000 6.1215000000 0.0493000000
5.7535000000 2.2158000000 0.1632000000
5.7530000000 2.4661000000 0.2909000000
5.7526000000 2.7317000000 0.4242000000
5.7518000000 4.6074000000 0.8261000000
5.7517000000 2.2544000000 0.1837000000
5.7513000000 2.5172000000 0.3179000000
5.7503000000 3.3978000000 0.7640000000
5.7488000000 3.0154000000 0.5761000000
5.5138000000 6.6411000000 0.0771000000
5.5105000000 5.1482000000 0.7651000000
5.5098000000 2.9504000000 0.7493000000
5.5094000000 6.3008000000 0.1790000000
5.5090000000 2.4666000000 0.5084000000
5.5089000000 1.5746000000 0.0522000000
5.5085000000 2.3047000000 0.4207000000
5.5078000000 3.2067000000 0.8855000000
5.5075000000 5.3818000000 0.6512000000
5.5072000000 2.0287000000 0.2885000000
5.5070000000 1.5513000000 0.0400000000
5.5065000000 4.5150000000 1.0926000000
5.5062000000 4.9370000000 0.8794000000
5.5055000000 3.7748000000 1.1765000000
5.5052000000 4.0819000000 1.2976000000
5.5050000000 4.0137000000 1.2868000000
5.5048000000 5.4735000000 0.6061000000
5.5045000000 3.1552000000 0.8563000000
5.5042000000 3.8413000000 1.2092000000
5.5037000000 1.4251000000 0.0562000000
5.5034000000 3.2099000000 0.8911000000
5.5032000000 4.7630000000 0.9681000000
5.5028000000 1.7735000000 0.1601000000
5.5023000000 3.1996000000 0.8850000000
5.5020000000 3.8273000000 1.2082000000
5.5015000000 3.5993000000 1.0947000000
5.5013000000 3.1544000000 0.8589000000
5.5004000000 4.7809000000 0.9604000000
5.4994000000 2.2727000000 0.4206000000
5.4991000000 4.5821000000 1.0565000000
5.4986000000 2.7763000000 0.6770000000
5.4978000000 2.0907000000 0.3221000000
5.2622000000 5.6474000000 0.7326000000
5.2603000000 5.3302000000 0.8937000000
5.2594000000 1.9621000000 0.4674000000
5.2586000000 5.0136000000 1.0571000000
5.2578000000 4.3805000000 1.3804000000
5.2573000000 3.4788000000 1.2462000000
5.2565000000 5.9168000000 0.6004000000
5.2564000000 5.4053000000 0.8618000000
5.2560000000 5.7299000000 0.6901000000
5.2557000000 1.0182000000 0.0648000000
5.2550000000 6.1727000000 0.4671000000
5.2547000000 6.5509000000 0.2798000000
5.2545000000 1.7657000000 0.3739000000
5.2541000000 1.6239000000 0.2999000000
5.2538000000 2.3361000000 0.6678000000
5.2536000000 4.6795000000 1.2318000000
5.2529000000 2.7061000000 0.8585000000
5.2525000000 1.8131000000 0.4042000000
5.2523000000 3.0109000000 1.0056000000
5.2517000000 1.8036000000 0.3946000000
5.2514000000 3.9037000000 1.4658000000
5.2511000000 4.5764000000 1.2789000000
5.2507000000 6.1434000000 0.4828000000
5.2502000000 2.1355000000 0.5663000000
5.2499000000 6.8944000000 0.1037000000
5.2490000000 1.2896000000 0.1342000000
5.2485000000 6.0210000000 0.5518000000
5.2477000000 3.3551000000 1.1889000000
5.2467000000 3.8536000000 1.4401000000
5.0152000000 3.1788000000 1.3039000000
5.0123000000 5.2503000000 1.1560000000
5.0110000000 7.3676000000 0.0777000000
5.0105000000 5.0211000000 1.2746000000
5.0097000000 4.3506000000 1.6162000000
5.0089000000 6.8844000000 0.3184000000
5.0082000000 4.3509000000 1.6073000000
5.0077000000 6.3121000000 0.6162000000
5.0073000000 2.8898000000 1.1644000000
5.0071000000 1.4775000000 0.4433000000
5.0069000000 7.2406000000 0.1413000000
5.0065000000 3.1091000000 1.2783000000
5.0059000000 1.5969000000 0.5011000000
5.0056000000 2.7104000000 1.0717000000
5.0053000000 3.8773000000 1.6683000000
5.0050000000 6.3539000000 0.5961000000
5.0046000000 6.4498000000 0.5557000000
5.0044000000 0.4817000000 0.0866000000
5.0041000000 7.7477000000 0.0342000000
5.0038000000 3.9132000000 1.6845000000
5.0036000000 2.3890000000 0.9186000000
5.0032000000 7.8129000000 0.0017000000
5.0028000000 4.8476000000 1.3598000000
5.0025000000 7.8133000000 0.0078000000
5.0023000000 4.3712000000 1.6101000000
5.0019000000 2.8636000000 1.1605000000
5.0016000000 2.9114000000 1.1853000000
5.0013000000 0.8582000000 0.1367000000
5.0008000000 5.2061000000 1.1861000000
4.9999000000 5.7624000000 0.9032000000
4.9992000000 2.1631000000 0.8008000000
4.9986000000 2.9904000000 1.2225000000
4.9973000000 0.6178000000 0.0906000000
4.9957000000 4.3530000000 1.6270000000
4.7618000000 2.8321000000 1.3548000000
4.7609000000 0.0961000000 0.0350000000
4.7602000000 6.3445000000 0.8184000000
4.7593000000 1.5779000000 0.7189000000
4.7590000000 7.9062000000 0.0953000000
4.7584000000 1.3828000000 0.6122000000
4.7581000000 6.3850000000 0.7972000000
4.7578000000 3.3322000000 1.6091000000
4.7575000000 2.7049000000 1.2878000000
4.7573000000 1.8854000000 0.8761000000
4.7572000000 2.9994000000 1.4448000000
4.7570000000 7.4336000000 0.2727000000
4.7568000000 7.7308000000 0.1184000000
4.7567000000 1.2869000000 0.5683000000
4.7565000000 4.4401000000 1.7959000000
4.7563000000 7.5940000000 0.1860000000
4.7560000000 3.1600000000 1.5276000000
4.7559000000 2.5944000000 1.2406000000
4.7558000000 5.9905000000 1.0002000000
4.7555000000 5.2801000000 1.3668000000
4.7554000000 1.9308000000 0.8996000000
4.7551000000 7.0432000000 0.4728000000
4.7549000000 1.6251000000 0.7436000000
4.7544000000 7.0486000000 0.4603000000
4.7542000000 0.1684000000 0.0814000000
4.7541000000 6.7590000000 0.6127000000
4.7538000000 5.1326000000 1.4350000000
4.7536000000 0.8432000000 0.3500000000
4.7534000000 5.9320000000 1.0307000000
4.7532000000 1.8749000000 0.8712000000
4.7530000000 3.1425000000 1.5219000000
4.7528000000 3.9147000000 1.9097000000
4.7525000000 2.2185000000 1.0476000000
4.7522000000 1.1247000000 0.4876000000
4.7518000000 2.1495000000 1.0144000000
4.7516000000 5.5701000000 1.2184000000
4.7512000000 6.8656000000 0.5631000000
4.7510000000 4.8193000000 1.6072000000
4.7506000000 1.0401000000 0.4468000000
4.7497000000 5.8885000000 1.0590000000
4.7494000000 1.5128000000 0.6909000000
4.7485000000 2.3494000000 1.1198000000
4.7460000000 4.7749000000 1.6399000000
4.5118000000 0.6701000000 0.4717000000
4.5113000000 7.0933000000 0.6571000000
4.5110000000 4.5480000000 1.9548000000
4.5096000000 1.4762000000 0.8862000000
4.5090000000 2.9762000000 1.6552000000
4.5088000000 7.1057000000 0.6489000000
4.5083000000 2.3928000000 1.3477000000
4.5082000000 3.4076000000 1.8659000000
4.5080000000 4.0647000000 2.1853000000
4.5079000000 0.9288000000 0.6057000000
4.5075000000 1.8508000000 1.0806000000
4.5070000000 2.9889000000 1.6497000000
4.5068000000 5.2349000000 1.6123000000
4.5064000000 7.3104000000 0.5472000000
4.5057000000 6.3979000000 1.0175000000
4.5054000000 6.4713000000 0.9767000000
4.5050000000 4.4262000000 2.0185000000
4.5049000000 0.1733000000 0.1490000000
4.5046000000 8.0373000000 0.0626000000
4.5045000000 3.5159000000 1.9307000000
4.5043000000 0.6952000000 0.4892000000
4.5040000000 3.1276000000 1.7348000000
4.5036000000 4.4106000000 2.0313000000
4.5035000000 0.1239000000 0.0999000000
4.5033000000 5.4851000000 1.4864000000
4.5030000000 4.3299000000 2.0769000000
4.5028000000 1.7623000000 1.0382000000
4.5024000000 4.2642000000 2.1055000000
4.5022000000 5.8682000000 1.2885000000
4.5018000000 0.1233000000 0.0945000000
4.5013000000 5.4116000000 1.5260000000
4.5011000000 2.8294000000 1.5769000000
4.4999000000 2.6224000000 1.4778000000
4.4988000000 4.4232000000 2.0352000000
4.4975000000 2.6950000000 1.5161000000
4.2633000000 5.0767000000 1.9038000000
4.2615000000 7.2689000000 0.7838000000
4.2602000000 6.7748000000 1.0471000000
4.2594000000 5.2905000000 1.7981000000
4.2590000000 7.2049000000 0.8237000000
4.2584000000 4.5488000000 2.1766000000
4.2581000000 1.1510000000 0.9456000000
4.2575000000 6.3989000000 1.2344000000
4.2570000000 5.6385000000 1.6268000000
4.2568000000 5.1881000000 1.8564000000
4.2567000000 2.3326000000 1.5499000000
4.2565000000 5.3092000000 1.7928000000
4.2562000000 5.6255000000 1.6291000000
4.2560000000 4.3266000000 2.2947000000
4.2558000000 2.6124000000 1.6874000000
4.2554000000 6.0084000000 1.4384000000
4.2551000000 4.9088000000 1.9958000000
4.2549000000 1.1004000000 0.9201000000
4.2547000000 1.5195000000 1.1308000000
4.2542000000 3.6192000000 2.2027000000
4.2540000000 0.1499000000 0.1275000000
4.2538000000 3.5255000000 2.1569000000
4.2536000000 3.2692000000 2.0220000000
4.2532000000 3.0694000000 1.9235000000
4.2532000000 2.3716000000 1.5646000000
4.2529000000 5.4297000000 1.7335000000
4.2527000000 3.6404000000 2.2179000000
4.2525000000 2.5053000000 1.6323000000
4.2520000000 2.8362000000 1.8059000000
4.2518000000 3.9556000000 2.3767000000
4.2514000000 2.5275000000 1.6437000000
4.2508000000 2.8272000000 1.8015000000
4.2505000000 7.1440000000 0.8562000000
4.2502000000 2.2514000000 1.5093000000
4.2500000000 3.8470000000 2.3165000000
4.2498000000 0.9075000000 0.8248000000
4.2474000000 1.7874000000 1.2695000000
4.2405000000 1.0331000000 0.8984000000
4.0112000000 5.6392000000 1.8388000000
4.0110000000 2.1223000000 1.6594000000
4.0105000000 7.8162000000 0.2883000000
4.0100000000 7.6118000000 0.4954000000
4.0098000000 4.3372000000 2.5070000000
4.0093000000 6.3873000000 1.4637000000
4.0090000000 1.1719000000 1.1531000000
4.0084000000 3.7924000000 2.5037000000
4.0078000000 4.1042000000 2.6071000000
4.0072000000 3.8872000000 2.5572000000
4.0070000000 3.4883000000 2.3529000000
4.0068000000 2.7060000000 1.9526000000
4.0066000000 5.3421000000 1.9957000000
4.0060000000 4.8670000000 2.2358000000
4.0058000000 6.8509000000 1.2144000000
4.0055000000 5.7491000000 1.7882000000
4.0053000000 7.0922000000 1.0317000000
4.0050000000 1.6998000000 1.4398000000
4.0048000000 7.9930000000 0.1076000000
4.0045000000 1.7194000000 1.4527000000
4.0041000000 4.2174000000 2.5736000000
4.0036000000 6.0591000000 1.6342000000
4.0034000000 2.9068000000 2.0592000000
4.0031000000 2.0502000000 1.6276000000
4.0030000000 8.1072000000 0.0612000000
4.0027000000 2.5907000000 1.9033000000
4.0023000000 3.8734000000 2.5541000000
4.0020000000 0.0190000000 0.0668000000
4.0015000000 4.4170000000 2.4733000000
4.0011000000 5.6714000000 1.8299000000
4.0008000000 0.1656000000 0.1426000000
4.0005000000 7.3273000000 0.7862000000
3.9998000000 2.7018000000 1.9630000000
3.9995000000 1.0025000000 1.0039000000
3.9988000000 3.2946000000 2.2656000000
3.9985000000 1.5084000000 1.3553000000
3.9973000000 0.0763000000 0.0509000000
3.7623000000 7.1457000000 0.9694000000
3.7609000000 8.0601000000 0.0369000000
3.7595000000 3.0616000000 2.3520000000
3.7591000000 1.0068000000 0.9983000000
3.7588000000 7.2559000000 0.8651000000
3.7583000000 2.2962000000 1.9668000000
3.7578000000 2.4117000000 2.0222000000
3.7573000000 2.4801000000 2.0598000000
3.7570000000 6.9903000000 1.1299000000
3.7568000000 0.1577000000 0.1375000000
3.7565000000 8.1007000000 0.0732000000
3.7563000000 5.3283000000 2.2271000000
3.7560000000 2.9553000000 2.3080000000
3.7558000000 3.0971000000 2.3767000000
3.7556000000 6.0589000000 1.8533000000
3.7555000000 4.2791000000 2.7612000000
3.7552000000 3.1792000000 2.4155000000
3.7550000000 7.0880000000 1.0317000000
3.7548000000 7.1549000000 0.9654000000
3.7547000000 6.0267000000 1.8693000000
3.7544000000 6.3589000000 1.7069000000
3.7541000000 7.3052000000 0.8135000000
3.7539000000 3.1594000000 2.4065000000
3.7538000000 7.4557000000 0.6540000000
3.7535000000 7.9128000000 0.1879000000
3.7532000000 4.5914000000 2.6036000000
3.7528000000 7.8210000000 0.2845000000
3.7525000000 1.4511000000 1.4508000000
3.7524000000 5.2223000000 2.2829000000
3.7522000000 2.2441000000 1.9453000000
3.7519000000 2.1502000000 1.8996000000
3.7512000000 5.2293000000 2.2766000000
3.7507000000 4.8514000000 2.4740000000
3.7505000000 0.5607000000 0.5455000000
3.7501000000 0.2355000000 0.2142000000
3.7496000000 3.9556000000 2.8196000000
3.7488000000 0.4483000000 0.4306000000
3.7478000000 3.1734000000 2.4249000000
3.7468000000 2.7941000000 2.2303000000
3.5135000000 6.7653000000 1.3613000000
3.5109000000 6.1099000000 2.0131000000
3.5105000000 1.5094000000 1.5133000000
3.5100000000 2.6534000000 2.3661000000
3.5088000000 5.9100000000 2.1467000000
3.5084000000 3.4017000000 2.7480000000
3.5083000000 2.6744000000 2.3852000000
3.5078000000 7.4477000000 0.6657000000
3.5075000000 2.0025000000 1.9974000000
3.5073000000 7.2741000000 0.8356000000
3.5070000000 6.9378000000 1.1870000000
3.5067000000 0.5071000000 0.4944000000
3.5063000000 1.4165000000 1.4203000000
3.5058000000 0.8069000000 0.7935000000
3.5056000000 1.9596000000 1.9544000000
3.5055000000 1.1960000000 1.1956000000
3.5051000000 8.1735000000 0.0713000000
3.5048000000 6.0983000000 2.0218000000
3.5046000000 5.4696000000 2.3745000000
3.5043000000 0.8332000000 0.8248000000
3.5040000000 1.6444000000 1.6474000000
3.5038000000 0.6334000000 0.6141000000
3.5037000000 0.3829000000 0.3668000000
3.5034000000 4.1758000000 3.0302000000
3.5031000000 3.0965000000 2.6024000000
3.5025000000 4.3225000000 2.9609000000
3.5023000000 4.0102000000 3.0605000000
3.5017000000 1.5831000000 1.5872000000
3.5014000000 3.9920000000 3.0642000000
3.5012000000 0.4213000000 0.3995000000
3.5005000000 6.4299000000 1.7027000000
3.5001000000 0.1851000000 0.1598000000
3.4996000000 3.5064000000 2.8092000000
3.4990000000 2.9918000000 2.5500000000
3.4984000000 1.8718000000 1.8792000000
3.4978000000 4.0656000000 3.0826000000
3.4966000000 5.4548000000 2.3900000000
3.2628000000 6.5715000000 1.5530000000
3.2605000000 4.9375000000 2.8664000000
3.2600000000 4.5535000000 3.0597000000
3.2588000000 7.0003000000 1.1230000000
3.2585000000 4.1716000000 3.2571000000
3.2583000000 4.2237000000 3.2300000000
3.2579000000 7.5452000000 0.5743000000
3.2575000000 0.1611000000 0.1376000000
3.2573000000 3.4303000000 2.9866000000
3.2570000000 7.6160000000 0.4960000000
3.2568000000 3.4902000000 3.0205000000
3.2565000000 3.4754000000 3.0079000000
3.2563000000 4.3969000000 3.1418000000
3.2561000000 5.2267000000 2.7160000000
3.2558000000 7.1282000000 0.9875000000
3.2555000000 6.2231000000 1.9167000000
3.2552000000 3.4004000000 2.9747000000
3.2549000000 0.8997000000 0.8901000000
3.2548000000 5.3507000000 2.6613000000
3.2546000000 0.6643000000 0.6530000000
3.2544000000 2.8003000000 2.6720000000
3.2540000000 1.8018000000 1.8107000000
3.2539000000 1.8859000000 1.8982000000
3.2536000000 3.1345000000 2.8356000000
3.2534000000 7.4709000000 0.6413000000
3.2532000000 3.9045000000 3.2296000000
3.2528000000 2.8429000000 2.6899000000
3.2527000000 1.0717000000 1.0640000000
3.2524000000 4.1182000000 3.2843000000
3.2520000000 5.8562000000 2.2909000000
3.2518000000 3.5271000000 3.0372000000
3.2516000000 3.4676000000 3.0140000000
3.2514000000 0.5372000000 0.5225000000
3.2507000000 2.3106000000 2.3213000000
3.2503000000 0.5821000000 0.5675000000
3.2497000000 5.0686000000 2.8018000000
3.2490000000 0.2605000000 0.2369000000
3.2474000000 7.8424000000 0.2620000000
3.2429000000 0.7881000000 0.7763000000
3.0128000000 7.9778000000 0.1256000000
3.0122000000 5.2366000000 2.9009000000
3.0099000000 1.7472000000 1.7531000000
3.0095000000 4.7716000000 3.1709000000
3.0089000000 5.2907000000 2.8439000000
3.0087000000 7.7908000000 0.3143000000
3.0083000000 4.6981000000 3.2041000000
3.0081000000 3.3580000000 3.1728000000
3.0080000000 1.6607000000 1.6653000000
3.0074000000 7.7860000000 0.3189000000
3.0070000000 3.2329000000 3.1075000000
3.0068000000 7.7388000000 0.3627000000
3.0065000000 3.0143000000 2.9877000000
3.0061000000 3.9065000000 3.4522000000
3.0059000000 6.1471000000 1.9951000000
3.0056000000 4.3564000000 3.3873000000
3.0055000000 2.7250000000 2.7569000000
3.0053000000 5.0699000000 3.0168000000
3.0050000000 5.9250000000 2.2169000000
3.0047000000 2.0208000000 2.0348000000
3.0045000000 1.7186000000 1.7302000000
3.0041000000 6.0210000000 2.1153000000
3.0039000000 3.4304000000 3.2099000000
3.0038000000 2.9256000000 2.9334000000
3.0037000000 6.8191000000 1.3064000000
3.0032000000 2.3064000000 2.3300000000
3.0029000000 2.8934000000 2.9069000000
3.0027000000 4.0028000000 3.4993000000
3.0026000000 2.0645000000 2.0779000000
3.0024000000 2.6500000000 2.6763000000
3.0022000000 1.2295000000 1.2332000000
3.0020000000 0.4959000000 0.4779000000
3.0012000000 2.5269000000 2.5473000000
3.0010000000 6.2939000000 1.8429000000
3.0008000000 0.0234000000 0.0744000000
3.0001000000 2.7619000000 2.7904000000
2.9997000000 4.9977000000 3.0599000000
2.9992000000 1.3318000000 1.3351000000
2.9987000000 1.8314000000 1.8386000000
2.9980000000 0.2058000000 0.1722000000
2.9969000000 1.3892000000 1.3909000000
2.7639000000 3.8531000000 3.6418000000
2.7625000000 7.8606000000 0.2456000000
2.7616000000 7.8092000000 0.2986000000
2.7608000000 6.3122000000 1.8221000000
2.7605000000 3.3361000000 3.3648000000
2.7599000000 7.8840000000 0.2174000000
2.7592000000 5.0864000000 3.0786000000
2.7588000000 6.8236000000 1.3010000000
2.7583000000 2.8930000000 2.9179000000
2.7579000000 3.8272000000 3.6298000000
2.7576000000 2.9878000000 3.0242000000
2.7574000000 3.6842000000 3.5633000000
2.7572000000 5.4073000000 2.7513000000
2.7569000000 7.2255000000 0.8930000000
2.7564000000 2.8423000000 2.8686000000
2.7561000000 2.3636000000 2.3864000000
2.7559000000 1.0781000000 1.0751000000
2.7558000000 6.1298000000 2.0086000000
2.7552000000 4.1546000000 3.7093000000
2.7552000000 7.0123000000 1.1113000000
2.7550000000 4.8866000000 3.2759000000
2.7547000000 3.1931000000 3.2310000000
2.7545000000 2.6128000000 2.6374000000
2.7544000000 3.4692000000 3.4516000000
2.7538000000 5.4674000000 2.6870000000
2.7536000000 7.9997000000 0.0999000000
2.7534000000 1.8777000000 1.8847000000
2.7531000000 4.3579000000 3.6089000000
2.7530000000 5.3916000000 2.7589000000
2.7527000000 3.4750000000 3.4642000000
2.7523000000 5.4410000000 2.7086000000
2.7522000000 7.8113000000 0.2904000000
2.7515000000 4.3729000000 3.6010000000
2.7513000000 0.3098000000 0.2906000000
2.7510000000 5.9349000000 2.2067000000
2.7502000000 2.0705000000 2.0824000000
2.7499000000 2.2471000000 2.2692000000
2.7491000000 2.7372000000 2.7649000000
2.7478000000 7.6653000000 0.4405000000
2.7436000000 1.5989000000 1.6025000000
2.5131000000 4.2923000000 3.8345000000
2.5120000000 4.9717000000 3.1867000000
2.5101000000 6.3035000000 1.8325000000
2.5094000000 0.9261000000 0.9163000000
2.5084000000 7.0049000000 1.1122000000
2.5081000000 0.5756000000 0.5576000000
2.5076000000 5.8017000000 2.3472000000
2.5071000000 4.5028000000 3.6720000000
2.5068000000 2.4167000000 2.4381000000
2.5066000000 2.6963000000 2.7258000000
2.5057000000 3.2325000000 3.2689000000
2.5054000000 3.7764000000 3.8064000000
2.5050000000 5.6432000000 2.5083000000
2.5046000000 6.6689000000 1.4548000000
2.5043000000 0.1787000000 0.1484000000
2.5042000000 4.4957000000 3.6786000000
2.5038000000 6.5117000000 1.6194000000
2.5037000000 7.6845000000 0.4181000000
2.5035000000 7.8846000000 0.2243000000
2.5032000000 1.3209000000 1.3218000000
2.5030000000 6.4997000000 1.6350000000
2.5028000000 2.4542000000 2.4803000000
2.5023000000 2.1587000000 2.1705000000
2.5019000000 2.3970000000 2.4179000000
2.5015000000 4.5078000000 3.6661000000
2.5013000000 1.0169000000 1.0115000000
2.5008000000 2.7262000000 2.7519000000
2.4998000000 4.2386000000 3.8821000000
2.4996000000 0.4455000000 0.4259000000
2.4986000000 0.3317000000 0.3107000000
2.4974000000 2.7960000000 2.8265000000
2.4960000000 1.9326000000 1.9458000000
2.4934000000 3.7531000000 3.7859000000
2.2619000000 5.3273000000 2.8291000000
2.2603000000 6.7417000000 1.3815000000
2.2593000000 4.7431000000 3.4264000000
2.2590000000 7.2625000000 0.8543000000
2.2585000000 7.6477000000 0.4593000000
2.2583000000 3.2594000000 3.2920000000
2.2580000000 3.3189000000 3.3587000000
2.2576000000 0.2172000000 0.1915000000
2.2573000000 7.1398000000 0.9764000000
2.2572000000 4.8091000000 3.3611000000
2.2570000000 6.7859000000 1.3399000000
2.2568000000 3.2687000000 3.3061000000
2.2566000000 2.9320000000 2.9636000000
2.2563000000 5.3197000000 2.8356000000
2.2560000000 5.3460000000 2.8081000000
2.2558000000 2.0697000000 2.0854000000
2.2554000000 5.2954000000 2.8624000000
2.2552000000 1.9346000000 1.9395000000
2.2548000000 2.7265000000 2.7533000000
2.2545000000 3.3292000000 3.3716000000
2.2543000000 5.1003000000 3.0604000000
2.2541000000 0.2249000000 0.1984000000
2.2539000000 5.4948000000 2.6565000000
2.2538000000 2.8079000000 2.8383000000
2.2535000000 1.8330000000 1.8412000000
2.2527000000 4.6765000000 3.4941000000
2.2523000000 7.3286000000 0.7908000000
2.2521000000 7.3961000000 0.7138000000
2.2517000000 1.1696000000 1.1705000000
2.2513000000 4.2226000000 3.9330000000
2.2506000000 0.8103000000 0.8004000000
2.2500000000 0.7623000000 0.7504000000
2.2498000000 1.1360000000 1.1323000000
2.2493000000 0.8966000000 0.8861000000
2.2488000000 1.2958000000 1.3000000000
2.2479000000 6.4809000000 1.6489000000
2.2460000000 1.3151000000 1.3114000000
2.2455000000 1.3824000000 1.3861000000
2.0128000000 7.6539000000 0.4555000000
2.0118000000 7.4711000000 0.6390000000
2.0105000000 7.2365000000 0.8759000000
2.0097000000 3.8638000000 3.7203000000
2.0095000000 5.0014000000 3.1585000000
2.0085000000 6.0920000000 2.0426000000
2.0082000000 1.5614000000 1.5708000000
2.0076000000 0.3378000000 0.3165000000
2.0075000000 2.1875000000 2.2051000000
2.0073000000 3.7018000000 3.6336000000
2.0070000000 6.3893000000 1.7430000000
2.0068000000 4.9839000000 3.1826000000
2.0065000000 4.5384000000 3.5717000000
2.0064000000 7.0150000000 1.1085000000
2.0062000000 1.2630000000 1.2625000000
2.0060000000 3.8873000000 3.7323000000
2.0058000000 3.4972000000 3.5088000000
2.0053000000 6.8525000000 1.2692000000
2.0050000000 1.7215000000 1.7307000000
2.0048000000 7.7687000000 0.3409000000
2.0043000000 2.3150000000 2.3358000000
2.0041000000 6.1128000000 2.0228000000
2.0038000000 4.9374000000 3.2275000000
2.0033000000 3.6436000000 3.6052000000
2.0025000000 5.1663000000 2.9903000000
2.0023000000 3.2778000000 3.3125000000
2.0021000000 1.6781000000 1.6864000000
2.0018000000 8.0634000000 0.1066000000
2.0015000000 3.0214000000 3.0505000000
2.0012000000 2.2726000000 2.2921000000
2.0010000000 7.0738000000 1.0422000000
2.0004000000 1.0130000000 1.0087000000
2.0000000000 0.4114000000 0.3950000000
1.9993000000 0.9065000000 0.9045000000
1.9992000000 6.5893000000 1.5406000000
1.9978000000 0.5377000000 0.5199000000
1.9971000000 0.1597000000 0.1355000000
1.7624000000 6.6757000000 1.4529000000
1.7608000000 5.6820000000 2.4631000000
1.7603000000 7.4726000000 0.6367000000
1.7599000000 7.9818000000 0.1201000000
1.7593000000 7.2175000000 0.8990000000
1.7587000000 6.6976000000 1.4306000000
1.7582000000 5.5215000000 2.6220000000
1.7581000000 6.5094000000 1.6251000000
1.7578000000 7.0264000000 1.0906000000
1.7570000000 6.5695000000 1.5568000000
1.7568000000 6.0154000000 2.1267000000
1.7565000000 8.0090000000 0.0873000000
1.7563000000 3.7843000000 3.4515000000
1.7561000000 3.9467000000 3.5360000000
1.7558000000 3.7308000000 3.4250000000
1.7553000000 3.8123000000 3.4690000000
1.7550000000 4.3877000000 3.4270000000
1.7549000000 0.7532000000 0.7423000000
1.7546000000 6.6407000000 1.4904000000
1.7543000000 4.8091000000 3.2108000000
1.7540000000 7.4965000000 0.6161000000
1.7538000000 7.4775000000 0.6374000000
1.7534000000 1.9852000000 1.9993000000
1.7531000000 4.0490000000 3.5681000000
1.7530000000 5.8357000000 2.3085000000
1.7528000000 0.8379000000 0.8211000000
1.7525000000 7.2656000000 0.8509000000
1.7524000000 3.5182000000 3.3170000000
1.7522000000 2.3760000000 2.3968000000
1.7518000000 4.9665000000 3.1339000000
1.7514000000 1.7501000000 1.7596000000
1.7507000000 7.5560000000 0.5551000000
1.7502000000 0.9493000000 0.9438000000
1.7497000000 6.0287000000 2.1175000000
1.7495000000 0.2030000000 0.1795000000
1.7488000000 6.8872000000 1.2375000000
1.7473000000 6.2124000000 1.9321000000
1.7453000000 3.8040000000 3.4530000000
1.5125000000 6.5160000000 1.6114000000
1.5107000000 7.9846000000 0.1196000000
1.5100000000 2.6730000000 2.6535000000
1.5098000000 3.9750000000 3.3337000000
1.5094000000 7.8293000000 0.2729000000
1.5091000000 7.8521000000 0.2488000000
1.5085000000 3.6696000000 3.1789000000
1.5083000000 2.2078000000 2.2222000000
1.5079000000 5.1259000000 2.8317000000
1.5075000000 3.9979000000 3.3414000000
1.5072000000 5.9461000000 2.1950000000
1.5069000000 5.0213000000 2.8848000000
1.5068000000 8.0682000000 0.1065000000
1.5065000000 4.5232000000 3.1409000000
1.5063000000 1.2610000000 1.2567000000
1.5060000000 3.5422000000 3.1071000000
1.5059000000 3.7894000000 3.2370000000
1.5055000000 5.5194000000 2.6153000000
1.5054000000 7.8653000000 0.2420000000
1.5051000000 1.3682000000 1.3673000000
1.5048000000 7.9507000000 0.1532000000
1.5045000000 8.1372000000 0.0324000000
1.5043000000 7.7791000000 0.3235000000
1.5040000000 4.3485000000 3.2263000000
1.5038000000 7.5559000000 0.5575000000
1.5036000000 5.7965000000 2.3532000000
1.5033000000 0.0665000000 0.0440000000
1.5031000000 1.4555000000 1.4537000000
1.5030000000 6.6487000000 1.4737000000
1.5028000000 0.2143000000 0.1906000000
1.5026000000 4.1732000000 3.3140000000
1.5024000000 2.4141000000 2.4377000000
1.5022000000 5.9734000000 2.1682000000
1.5019000000 0.6608000000 0.6496000000
1.5018000000 3.8862000000 3.2813000000
1.5014000000 6.3601000000 1.7744000000
1.5011000000 2.3498000000 2.3676000000
1.5009000000 3.8067000000 3.2360000000
1.5004000000 0.7920000000 0.7812000000
1.4995000000 0.8170000000 0.8084000000
1.4988000000 2.2230000000 2.2416000000
1.4980000000 4.4766000000 3.1557000000
1.4972000000 3.0687000000 2.8614000000
1.4952000000 0.8114000000 0.7982000000
1.2634000000 8.0115000000 0.0855000000
1.2609000000 7.0460000000 1.0767000000
1.2605000000 4.8515000000 2.7568000000
1.2599000000 5.0517000000 2.6553000000
1.2596000000 0.2207000000 0.1997000000
1.2587000000 5.4615000000 2.4461000000
1.2584000000 6.4493000000 1.6759000000
1.2582000000 7.1895000000 0.9254000000
1.2580000000 3.9600000000 3.0974000000
1.2576000000 3.3499000000 2.7958000000
1.2573000000 0.9935000000 0.9854000000
1.2568000000 3.2784000000 2.7568000000
1.2566000000 5.4451000000 2.4555000000
1.2564000000 3.0257000000 2.6256000000
1.2561000000 0.1781000000 0.1520000000
1.2559000000 5.7588000000 2.2924000000
1.2555000000 3.8685000000 3.0534000000
1.2553000000 5.8010000000 2.2692000000
1.2550000000 5.0487000000 2.6466000000
1.2546000000 1.7767000000 1.7819000000
1.2542000000 4.9433000000 2.7069000000
1.2540000000 2.5251000000 2.3673000000
1.2539000000 7.5383000000 0.5630000000
1.2534000000 3.3124000000 2.7674000000
1.2531000000 2.9361000000 2.5755000000
1.2526000000 7.4101000000 0.7043000000
1.2524000000 4.7888000000 2.7759000000
1.2519000000 1.3731000000 1.3721000000
1.2518000000 6.0362000000 2.0892000000
1.2515000000 0.6671000000 0.6536000000
1.2513000000 4.9598000000 2.6884000000
1.2511000000 4.1340000000 3.1137000000
1.2508000000 4.2797000000 3.0391000000
1.2505000000 5.6604000000 2.3320000000
1.2500000000 5.6902000000 2.3216000000
1.2498000000 3.0808000000 2.6462000000
1.2494000000 3.3257000000 2.7717000000
1.2489000000 1.1498000000 1.1439000000
1.2482000000 0.4895000000 0.4788000000
1.2475000000 0.3516000000 0.3283000000
1.2461000000 1.3129000000 1.3116000000
1.0138000000 7.4737000000 0.6295000000
1.0122000000 7.9134000000 0.1931000000
1.0097000000 6.6270000000 1.5042000000
1.0097000000 6.2319000000 1.8275000000
1.0089000000 7.9192000000 0.1889000000
1.0084000000 4.9198000000 2.4977000000
1.0079000000 2.2945000000 2.0335000000
1.0073000000 5.4010000000 2.2564000000
1.0068000000 2.6845000000 2.2248000000
1.0065000000 1.4480000000 1.4523000000
1.0062000000 4.6591000000 2.6268000000
1.0059000000 2.0301000000 1.8942000000
1.0056000000 6.9718000000 1.1504000000
1.0054000000 5.2495000000 2.3229000000
1.0053000000 6.5385000000 1.5936000000
1.0050000000 4.5254000000 2.6911000000
1.0047000000 2.3295000000 2.0498000000
1.0044000000 3.6229000000 2.7039000000
1.0043000000 4.4128000000 2.7551000000
1.0040000000 3.2102000000 2.5003000000
1.0038000000 4.3087000000 2.8014000000
1.0036000000 6.8816000000 1.2427000000
1.0033000000 0.3457000000 0.3249000000
1.0030000000 4.1898000000 2.8677000000
1.0025000000 0.1870000000 0.1647000000
1.0022000000 3.2659000000 2.5260000000
1.0020000000 6.0576000000 1.9110000000
1.0015000000 0.1290000000 0.1012000000
1.0015000000 0.0028000000 0.0527000000
1.0012000000 7.6039000000 0.4984000000
1.0011000000 0.4385000000 0.4197000000
1.0005000000 0.7042000000 0.6925000000
1.0002000000 3.7794000000 2.7836000000
0.9998000000 3.9281000000 2.8591000000
0.9989000000 1.3132000000 1.3070000000
0.9979000000 1.5507000000 1.5572000000
0.9973000000 7.0500000000 1.0706000000
0.9963000000 0.8985000000 0.8826000000
0.7636000000 0.4807000000 0.4607000000
0.7608000000 7.6361000000 0.4777000000
0.7601000000 3.0074000000 2.1787000000
0.7589000000 2.1330000000 1.7331000000
0.7583000000 4.5159000000 2.4842000000
0.7578000000 7.5222000000 0.5925000000
0.7575000000 7.6762000000 0.4293000000
0.7571000000 7.9037000000 0.2012000000
0.7568000000 7.9848000000 0.1165000000
0.7565000000 2.4473000000 1.8866000000
0.7560000000 1.3014000000 1.2884000000
0.7558000000 4.6034000000 2.4388000000
0.7555000000 6.0824000000 1.6788000000
0.7552000000 2.1379000000 1.7228000000
0.7550000000 7.7078000000 0.4014000000
0.7546000000 5.1132000000 2.1792000000
0.7543000000 6.7882000000 1.3030000000
0.7540000000 2.9078000000 2.1247000000
0.7539000000 2.8406000000 2.0901000000
0.7537000000 2.9893000000 2.1652000000
0.7533000000 0.3933000000 0.3743000000
0.7529000000 6.1698000000 1.6382000000
0.7526000000 3.7037000000 2.5304000000
0.7523000000 2.8468000000 2.0864000000
0.7520000000 3.2516000000 2.2893000000
0.7513000000 5.7145000000 1.8701000000
0.7511000000 3.4224000000 2.3795000000
0.7507000000 1.1596000000 1.1619000000
0.7502000000 2.7068000000 2.0200000000
0.7494000000 5.5684000000 1.9422000000
0.7485000000 0.0965000000 0.0662000000
0.7481000000 1.2669000000 1.2526000000
0.7468000000 1.8537000000 1.5830000000
0.7461000000 4.8777000000 2.2888000000
0.5121000000 7.8578000000 0.2463000000
0.5113000000 6.6435000000 1.1748000000
0.5101000000 6.1516000000 1.4310000000
0.5091000000 4.0127000000 2.4618000000
0.5085000000 7.8829000000 0.2242000000
0.5081000000 7.0794000000 0.9588000000
0.5078000000 4.3914000000 2.3287000000
0.5072000000 6.3560000000 1.3256000000
0.5069000000 6.3472000000 1.3260000000
0.5066000000 7.2289000000 0.8605000000
0.5062000000 3.4156000000 2.1641000000
0.5060000000 4.3345000000 2.3515000000
0.5058000000 5.1534000000 1.9306000000
0.5056000000 6.6475000000 1.1726000000
0.5054000000 7.9053000000 0.1952000000
0.5053000000 2.9912000000 1.9431000000
0.5051000000 7.1646000000 0.8917000000
0.5048000000 7.7948000000 0.3131000000
0.5046000000 8.1367000000 0.0387000000
0.5045000000 0.4730000000 0.4566000000
0.5043000000 3.4551000000 2.1749000000
0.5040000000 0.6146000000 0.6011000000
0.5038000000 0.1127000000 0.0879000000
0.5034000000 5.9324000000 1.5424000000
0.5030000000 0.7859000000 0.7563000000
0.5029000000 6.7597000000 1.1153000000
0.5027000000 2.4729000000 1.6751000000
0.5025000000 5.7564000000 1.6281000000
0.5022000000 1.8783000000 1.3727000000
0.5020000000 4.1116000000 2.4535000000
0.5015000000 6.0873000000 1.4563000000
0.5032000000 1.2098000000 1.0309000000
0.5011000000 7.0367000000 0.9708000000
0.5008000000 1.4193000000 1.1432000000
0.5006000000 3.4199000000 2.1633000000
0.5000000000 0.7028000000 0.6901000000
0.4995000000 3.9485000000 2.4289000000
0.4993000000 6.4118000000 1.2913000000
0.4985000000 0.2067000000 0.1822000000
0.4978000000 0.9979000000 0.9201000000
0.2655000000 8.0707000000 0.1088000000
0.2618000000 3.0898000000 1.7831000000
0.2609000000 5.0472000000 1.7683000000
0.2599000000 2.1514000000 1.2988000000
0.2590000000 3.5606000000 2.0208000000
0.2585000000 6.0948000000 1.2385000000
0.2582000000 8.1015000000 0.0714000000
0.2577000000 5.6975000000 1.4395000000
0.2573000000 6.7170000000 0.9154000000
0.2570000000 1.4129000000 0.9202000000
0.2569000000 3.9445000000 2.2099000000
0.2565000000 6.2461000000 1.1582000000
0.2562000000 0.9610000000 0.6926000000
0.2561000000 5.0513000000 1.7688000000
0.2559000000 6.5298000000 1.0110000000
0.2556000000 6.3810000000 1.0874000000
0.2555000000 4.2067000000 2.1935000000
0.2552000000 3.9906000000 2.2344000000
0.2551000000 0.3336000000 0.3070000000
0.2549000000 6.6043000000 0.9748000000
0.2546000000 1.1311000000 0.7774000000
0.2544000000 2.9682000000 1.7098000000
0.2540000000 3.6240000000 2.0478000000
0.2538000000 4.4859000000 2.0551000000
0.2535000000 6.3321000000 1.1076000000
0.2533000000 6.5040000000 1.0314000000
0.2532000000 1.0413000000 0.7224000000
0.2530000000 1.7724000000 1.0991000000
0.2528000000 5.8105000000 1.3792000000
0.2526000000 7.7589000000 0.3303000000
0.2524000000 3.3478000000 1.9052000000
0.2521000000 3.4534000000 1.9553000000
0.2520000000 1.1096000000 0.7571000000
0.2517000000 1.5310000000 0.9764000000
0.2515000000 1.0841000000 0.7453000000
0.2513000000 5.1968000000 1.6821000000
0.2512000000 6.7999000000 0.8688000000
0.2508000000 0.1614000000 0.1338000000
0.2503000000 1.1585000000 0.7866000000
0.2500000000 2.2539000000 1.3439000000
0.2496000000 7.2471000000 0.6401000000
0.2488000000 0.6231000000 0.5084000000
0.2486000000 4.4474000000 2.0695000000
0.2483000000 0.4179000000 0.3822000000
0.2477000000 3.3044000000 1.8775000000
0.2465000000 2.4061000000 1.4162000000
0.2453000000 0.1911000000 0.1639000000
0.0138000000 8.1229000000 0.0389000000
0.0128000000 4.2634000000 1.9572000000
0.0109000000 7.7655000000 0.1640000000
0.0092000000 7.4165000000 0.3488000000
0.0085000000 4.0687000000 2.0323000000
0.0083000000 0.6724000000 0.3203000000
0.0080000000 6.3438000000 0.8944000000
0.0075000000 2.2313000000 1.1147000000
0.0070000000 6.0150000000 1.0559000000
0.0070000000 8.0103000000 0.1035000000
0.0067000000 3.3031000000 1.6645000000
0.0065000000 2.4861000000 1.2447000000
0.0062000000 1.3296000000 0.6542000000
0.0060000000 6.9022000000 0.6025000000
0.0058000000 4.1954000000 1.9882000000
0.0054000000 2.6311000000 1.3207000000
0.0051000000 1.7009000000 0.8462000000
0.0049000000 7.5580000000 0.2718000000
0.0046000000 1.9124000000 0.9532000000
0.0045000000 2.4794000000 1.2397000000
0.0043000000 4.8695000000 1.6364000000
0.0041000000 0.6277000000 0.2993000000
0.0036000000 3.0522000000 1.5344000000
0.0034000000 0.1370000000 0.0465000000
0.0033000000 6.6585000000 0.7245000000
0.0031000000 0.1866000000 0.0676000000
0.0028000000 5.2986000000 1.4143000000
0.0027000000 6.5515000000 0.7795000000
0.0025000000 2.9178000000 1.4667000000
0.0024000000 7.8304000000 0.1221000000
0.0022000000 5.7515000000 1.1874000000
0.0018000000 2.0148000000 1.0022000000
0.0015000000 3.2973000000 1.6532000000
0.0012000000 2.8325000000 1.4179000000
0.0009000000 7.4349000000 0.3290000000
0.0008000000 5.0691000000 1.5329000000
0.0006000000 6.2066000000 0.9548000000
0.0004000000 1.8935000000 0.9387000000
-0.0000000000 3.8807000000 1.9628000000
-0.0003000000 7.3400000000 0.3716000000
-0.0008000000 1.4202000000 0.6982000000
-0.0021000000 3.3964000000 1.7011000000
-0.0029000000 1.8917000000 0.9369000000
-0.0054000000 4.0567000000 2.0235000000
-0.0060000000 0.0007000000 0.0277000000
-0.2373000000 5.0941000000 1.3053000000
-0.2397000000 6.2039000000 0.7434000000
-0.2413000000 3.9498000000 1.7706000000
-0.2416000000 3.0846000000 1.3336000000
-0.2422000000 1.9443000000 0.7522000000
-0.2425000000 4.8181000000 1.4424000000
-0.2427000000 4.5448000000 1.5838000000
-0.2429000000 5.7452000000 0.9737000000
-0.2431000000 3.0634000000 1.3206000000
-0.2434000000 2.5999000000 1.0840000000
-0.2437000000 7.8098000000 0.0656000000
-0.2438000000 6.0110000000 0.8363000000
-0.2441000000 3.9250000000 1.7637000000
-0.2443000000 0.4127000000 0.0463000000
-0.2446000000 5.1896000000 1.2544000000
-0.2450000000 4.9705000000 1.3617000000
-0.2457000000 7.9065000000 0.0178000000
-0.2457000000 4.8397000000 1.4337000000
-0.2460000000 6.0395000000 0.8146000000
-0.2463000000 0.5250000000 0.0966000000
-0.2465000000 2.5771000000 1.0669000000
-0.2467000000 2.2313000000 0.8901000000
-0.2469000000 7.0108000000 0.3209000000
-0.2472000000 4.4984000000 1.6039000000
-0.2473000000 4.9835000000 1.3608000000
-0.2475000000 5.7201000000 0.9803000000
-0.2477000000 0.3358000000 0.0698000000
-0.2480000000 2.0740000000 0.8135000000
-0.2482000000 5.1719000000 1.2591000000
-0.2484000000 6.6206000000 0.5231000000
-0.2486000000 0.7774000000 0.1496000000
-0.2491000000 3.6762000000 1.6274000000
-0.2498000000 0.2149000000 0.0128000000
-0.2504000000 1.6702000000 0.5987000000
-0.2518000000 7.1241000000 0.2607000000
-0.2538000000 2.6195000000 1.0821000000
-0.4872000000 5.0579000000 1.1105000000
-0.4889000000 6.5354000000 0.3582000000
-0.4902000000 4.3431000000 1.4662000000
-0.4910000000 4.1009000000 1.5752000000
-0.4918000000 6.5556000000 0.3404000000
-0.4930000000 7.1686000000 0.0978000000
-0.4932000000 2.8207000000 0.9734000000
-0.4935000000 2.8823000000 1.0094000000
-0.4939000000 5.7467000000 0.7479000000
-0.4942000000 3.9791000000 1.5661000000
-0.4944000000 0.7888000000 0.0857000000
-0.4949000000 3.5290000000 1.3404000000
-0.4950000000 2.3235000000 0.7171000000
-0.4952000000 6.8178000000 0.2015000000
-0.4956000000 6.8882000000 0.1652000000
-0.4957000000 6.4020000000 0.4123000000
-0.4960000000 6.3112000000 0.4575000000
-0.4969000000 6.4270000000 0.4031000000
-0.4973000000 3.3334000000 1.2281000000
-0.4979000000 6.3275000000 0.4502000000
-0.4981000000 3.8586000000 1.5032000000
-0.4982000000 6.8766000000 0.1652000000
-0.4992000000 0.6553000000 0.0196000000
-0.4997000000 3.6602000000 1.3960000000
-0.4999000000 6.5386000000 0.3362000000
-0.5001000000 6.2104000000 0.5045000000
-0.5006000000 3.2771000000 1.2102000000
-0.5012000000 1.6553000000 0.3738000000
-0.5020000000 1.5699000000 0.3346000000
-0.5025000000 4.1520000000 1.5568000000
-0.5047000000 1.4518000000 0.2682000000
-0.7383000000 5.9488000000 0.4324000000
-0.7402000000 5.8190000000 0.4969000000
-0.7416000000 5.3651000000 0.7238000000
-0.7421000000 3.0915000000 0.8955000000
-0.7427000000 5.3882000000 0.7162000000
-0.7431000000 4.7103000000 1.0579000000
-0.7435000000 6.2795000000 0.2570000000
-0.7437000000 6.5538000000 0.1206000000
-0.7441000000 5.1222000000 0.8415000000
-0.7447000000 5.5856000000 0.6084000000
-0.7450000000 6.9379000000 0.0694000000
-0.7453000000 1.9948000000 0.3289000000
-0.7456000000 5.7985000000 0.4980000000
-0.7460000000 3.1345000000 0.9124000000
-0.7464000000 1.7771000000 0.2214000000
-0.7466000000 3.5945000000 1.1468000000
-0.7474000000 4.3720000000 1.2246000000
-0.7475000000 6.4179000000 0.1838000000
-0.7477000000 2.0506000000 0.3597000000
-0.7487000000 4.4627000000 1.1831000000
-0.7489000000 1.6593000000 0.1567000000
-0.7492000000 3.4162000000 1.0503000000
-0.7496000000 5.8741000000 0.4652000000
-0.7500000000 2.2899000000 0.4741000000
-0.7504000000 5.7044000000 0.5413000000
-0.7512000000 1.2578000000 0.0260000000
-0.7525000000 1.8611000000 0.2561000000
-0.9876000000 5.5802000000 0.3998000000
-0.9896000000 5.0282000000 0.6833000000
-0.9919000000 6.5005000000 0.0720000000
-0.9927000000 2.9483000000 0.6053000000
-0.9928000000 6.3764000000 0.0614000000
-0.9930000000 4.5553000000 0.9220000000
-0.9937000000 4.8308000000 0.7708000000
-0.9942000000 1.9863000000 0.1144000000
-0.9945000000 1.7707000000 0.0702000000
-0.9953000000 5.7940000000 0.2814000000
-0.9957000000 2.2150000000 0.2217000000
-0.9961000000 6.2338000000 0.0599000000
-0.9970000000 1.7054000000 0.0315000000
-0.9975000000 5.9385000000 0.2066000000
-0.9980000000 1.5689000000 0.0416000000
-0.9985000000 3.7911000000 1.0221000000
-0.9987000000 4.1928000000 1.0957000000
-1.0002000000 1.4962000000 0.0031000000
-1.0010000000 3.0495000000 0.6420000000
-1.0021000000 4.3747000000 0.9989000000
-1.2360000000 4.5552000000 0.7023000000
-1.2410000000 2.3552000000 0.0753000000
-1.2427000000 3.0021000000 0.4033000000
-1.2431000000 4.3046000000 0.8271000000
-1.2434000000 5.4153000000 0.2508000000
-1.2442000000 2.0534000000 0.0674000000
-1.2450000000 3.5931000000 0.7043000000
-1.2454000000 2.5692000000 0.1804000000
-1.2460000000 5.3966000000 0.2651000000
-1.2467000000 2.8832000000 0.3441000000
-1.2472000000 3.2923000000 0.5545000000
-1.2474000000 4.3205000000 0.8113000000
-1.2484000000 2.7593000000 0.2758000000
-1.2492000000 3.6107000000 0.7087000000
-1.2496000000 2.2032000000 0.0625000000
-1.2501000000 2.5612000000 0.1761000000
-1.2509000000 3.7138000000 0.7593000000
-1.2525000000 2.4981000000 0.1364000000
-1.2561000000 3.4174000000 0.6031000000
-1.4874000000 5.5046000000 0.0719000000
-1.4895000000 4.3766000000 0.5660000000
-1.4907000000 4.3984000000 0.5566000000
-1.4920000000 4.8469000000 0.3256000000
-1.4928000000 3.6085000000 0.4939000000
-1.4936000000 5.6198000000 0.0778000000
-1.4943000000 3.9863000000 0.6821000000
-1.4950000000 3.7394000000 0.5605000000
-1.4954000000 4.2972000000 0.6106000000
-1.4961000000 4.9751000000 0.2585000000
-1.4967000000 4.2350000000 0.6354000000
-1.4970000000 2.7177000000 0.0335000000
-1.4975000000 4.5022000000 0.5029000000
-1.4981000000 4.7653000000 0.3635000000
-1.4987000000 3.7872000000 0.5753000000
-1.4990000000 2.9499000000 0.1534000000
-1.4992000000 5.5460000000 0.0377000000
-1.5003000000 3.4560000000 0.4153000000
-1.5019000000 3.8035000000 0.5832000000
-1.5022000000 3.0397000000 0.1969000000
-1.5055000000 3.2535000000 0.2995000000
-1.7391000000 4.9914000000 0.1138000000
-1.7417000000 3.6369000000 0.2908000000
-1.7421000000 4.8039000000 0.1233000000
-1.7435000000 3.1273000000 0.1058000000
-1.7448000000 3.6897000000 0.3163000000
-1.7453000000 2.9068000000 0.0674000000
-1.7461000000 4.2224000000 0.4163000000
-1.7467000000 4.3219000000 0.3671000000
-1.7475000000 4.7991000000 0.1277000000
-1.7481000000 2.9745000000 0.0220000000
-1.7490000000 4.8555000000 0.0981000000
-1.7495000000 4.1794000000 0.4334000000
-1.7507000000 4.0593000000 0.4782000000
-1.7528000000 3.1368000000 0.0988000000
-1.7555000000 4.7764000000 0.1280000000
-1.9910000000 3.9571000000 0.2362000000
-1.9931000000 4.1439000000 0.2409000000
-1.9935000000 3.2166000000 -0.0018000000
-1.9958000000 4.3328000000 0.1411000000
-1.9970000000 3.4601000000 0.0434000000
-1.9984000000 3.3995000000 0.0145000000
