3.7548000000 0.8188000000 0.0656000000
3.7547000000 4.1744000000 0.5182000000
3.7545000000 5.2424000000 0.0080000000
3.7544000000 1.6266000000 0.5365000000
3.7543000000 1.7909000000 0.6495000000
3.7543000000 4.9387000000 0.0692000000
3.7539000000 0.8693000000 0.0986000000
3.7538000000 0.7931000000 0.0530000000
3.7531000000 0.9286000000 0.1369000000
3.7527000000 2.0631000000 0.8404000000
3.7526000000 1.1247000000 0.2012000000
3.7525000000 2.9039000000 1.4289000000
3.7523000000 4.0807000000 0.5762000000
3.7521000000 1.8368000000 0.6863000000
3.7520000000 3.4558000000 1.0053000000
3.7518000000 1.0817000000 0.1672000000
3.7516000000 3.1168000000 1.2378000000
3.7510000000 1.0874000000 0.1737000000
3.7505000000 0.8461000000 0.0879000000
3.7505000000 0.7171000000 0.0710000000
3.7504000000 4.2055000000 0.4936000000
3.7500000000 3.0485000000 1.2873000000
3.7497000000 4.6098000000 0.2259000000
3.7494000000 2.0641000000 0.8430000000
3.7493000000 4.6830000000 0.1732000000
3.7491000000 0.6740000000 0.0463000000
3.7489000000 1.3543000000 0.3591000000
3.7489000000 2.8497000000 1.4302000000
3.7488000000 0.7673000000 0.0390000000
3.7487000000 0.6120000000 0.0052000000
3.7485000000 1.5526000000 0.4980000000
3.7483000000 1.1570000000 0.2265000000
3.7482000000 2.6286000000 1.2296000000
3.7481000000 3.4592000000 1.0051000000
3.7473000000 4.4788000000 0.3125000000
3.7472000000 1.6439000000 0.5578000000
3.7463000000 1.9305000000 0.7548000000
3.7456000000 1.1222000000 0.2047000000
3.5110000000 3.9649000000 0.9431000000
3.5110000000 4.6170000000 0.5054000000
3.5103000000 3.9955000000 0.9208000000
3.5103000000 3.5951000000 1.1956000000
3.5103000000 2.8047000000 1.6256000000
3.5100000000 4.3683000000 0.6734000000
3.5100000000 3.7702000000 1.0706000000
3.5098000000 5.4703000000 0.0655000000
3.5096000000 4.8112000000 0.3691000000
3.5094000000 4.4198000000 0.6349000000
3.5093000000 4.2281000000 0.7662000000
3.5092000000 2.2714000000 1.2638000000
3.5090000000 5.4359000000 0.0195000000
3.5089000000 1.9885000000 1.0728000000
3.5088000000 5.0791000000 0.1942000000
3.5087000000 0.7864000000 0.2570000000
3.5084000000 5.3301000000 0.0899000000
3.5083000000 5.3194000000 0.0954000000
3.5082000000 2.6337000000 1.5153000000
3.5080000000 4.8900000000 0.3168000000
3.5077000000 3.0286000000 1.5843000000
3.5075000000 4.0401000000 0.8925000000
3.5074000000 3.6312000000 1.1727000000
3.5071000000 0.9000000000 0.3361000000
3.5070000000 1.2725000000 0.5924000000
3.5069000000 3.5705000000 1.2138000000
3.5069000000 3.8732000000 1.0106000000
3.5068000000 3.5202000000 1.2514000000
3.5067000000 2.3952000000 1.3504000000
3.5066000000 5.1916000000 0.1138000000
3.5065000000 3.3676000000 1.3541000000
3.5064000000 1.9078000000 1.0226000000
3.5063000000 2.2796000000 1.2773000000
3.5063000000 2.4754000000 1.4145000000
3.5061000000 3.7192000000 1.1124000000
3.5058000000 2.3087000000 1.2888000000
3.5057000000 5.4222000000 0.0296000000
3.5052000000 5.2225000000 0.1659000000
3.5051000000 1.7126000000 0.8882000000
3.5050000000 3.4866000000 1.2754000000
3.5049000000 1.4203000000 0.6908000000
3.5048000000 3.1459000000 1.5105000000
3.5047000000 3.8097000000 1.0559000000
3.5043000000 0.5251000000 0.1571000000
3.5042000000 4.4322000000 0.6381000000
3.5042000000 3.7314000000 1.1081000000
3.5041000000 5.3234000000 0.0987000000
3.5040000000 3.6470000000 1.1689000000
3.5040000000 2.9138000000 1.7194000000
3.5036000000 2.1722000000 1.2066000000
3.5033000000 0.8378000000 0.2939000000
3.5033000000 2.3790000000 1.3480000000
3.5033000000 1.3760000000 0.6688000000
3.5032000000 5.5016000000 0.0521000000
3.5031000000 2.5894000000 1.4934000000
3.5031000000 3.2575000000 1.4375000000
3.5030000000 5.0229000000 0.2287000000
3.5028000000 0.1216000000 0.0373000000
3.5028000000 5.6564000000 0.0238000000
3.5027000000 1.2600000000 0.5895000000
3.5025000000 2.8032000000 1.6351000000
3.5024000000 5.3990000000 0.0516000000
3.5024000000 0.6926000000 0.2008000000
3.5021000000 3.7024000000 1.1308000000
3.5020000000 1.1223000000 0.4929000000
3.5020000000 2.4251000000 1.3800000000
3.5019000000 0.2979000000 0.0823000000
3.5018000000 3.3090000000 1.3967000000
3.5017000000 4.0224000000 0.9201000000
3.5016000000 2.7331000000 1.5940000000
3.5017000000 0.7545000000 0.2423000000
3.5014000000 3.0438000000 1.5826000000
3.5010000000 0.8343000000 0.2936000000
3.5009000000 5.5554000000 0.0212000000
3.5007000000 2.3935000000 1.3595000000
3.5004000000 0.7816000000 0.2658000000
3.5002000000 3.0160000000 1.5948000000
3.5000000000 2.2028000000 1.2306000000
3.4999000000 3.3766000000 1.3571000000
3.4995000000 2.4790000000 1.4158000000
3.4993000000 5.4621000000 0.0846000000
3.4994000000 2.9973000000 1.6151000000
3.4991000000 0.2836000000 0.0702000000
3.4989000000 2.8307000000 1.7171000000
3.4988000000 0.7007000000 0.2125000000
3.4987000000 4.7343000000 0.4354000000
3.4986000000 3.6155000000 1.1931000000
3.4986000000 0.7215000000 0.2272000000
3.4983000000 2.8466000000 1.7328000000
3.4980000000 1.1258000000 0.4987000000
3.4978000000 2.5083000000 1.4400000000
3.4973000000 3.4580000000 1.2960000000
3.4967000000 2.2424000000 1.2610000000
3.4961000000 0.9528000000 0.3873000000
3.4925000000 2.2209000000 1.2519000000
3.2627000000 4.4459000000 0.9075000000
3.2607000000 5.3949000000 0.2660000000
3.2603000000 5.1648000000 0.4193000000
3.2595000000 2.0375000000 1.4041000000
3.2590000000 5.3095000000 0.3260000000
3.2588000000 4.6954000000 0.7435000000
3.2586000000 2.6140000000 1.7948000000
3.2585000000 4.7686000000 0.6944000000
3.2583000000 3.3610000000 1.6480000000
3.2581000000 4.7407000000 0.7143000000
3.2579000000 2.8154000000 1.9328000000
3.2578000000 4.8499000000 0.6416000000
3.2577000000 1.6468000000 1.1430000000
3.2576000000 1.9223000000 1.3307000000
3.2575000000 3.6832000000 1.4327000000
3.2568000000 1.7758000000 1.2273000000
3.2567000000 1.0026000000 0.7003000000
3.2566000000 5.6305000000 0.1665000000
3.2563000000 3.7940000000 1.3592000000
3.2563000000 5.6648000000 0.1200000000
3.2561000000 4.4230000000 0.9322000000
3.2560000000 1.1262000000 0.7848000000
3.2559000000 5.0226000000 0.5231000000
3.2559000000 4.4956000000 0.8780000000
3.2558000000 1.7927000000 1.2352000000
3.2558000000 4.6461000000 0.7858000000
3.2558000000 1.6628000000 1.1452000000
3.2557000000 5.4415000000 0.2365000000
3.2556000000 3.4830000000 1.5723000000
3.2556000000 0.5285000000 0.3858000000
3.2555000000 5.7333000000 0.1154000000
3.2555000000 1.6771000000 1.1635000000
3.2555000000 4.1471000000 1.1235000000
3.2553000000 0.1826000000 0.1970000000
3.2552000000 1.4202000000 0.9883000000
3.2551000000 4.7728000000 0.7016000000
3.2550000000 5.0781000000 0.4807000000
3.2550000000 3.3011000000 1.6962000000
3.2547000000 0.6351000000 0.4539000000
3.2546000000 4.3158000000 1.0021000000
3.2545000000 3.2928000000 1.6995000000
3.2544000000 2.6998000000 1.8572000000
3.2544000000 5.7532000000 0.0300000000
3.2543000000 3.5274000000 1.5444000000
3.2543000000 4.1694000000 1.1059000000
3.2542000000 3.3483000000 1.6709000000
3.2541000000 4.7236000000 0.7336000000
3.2540000000 1.7865000000 1.2389000000
3.2538000000 2.5796000000 1.7747000000
3.2537000000 1.8917000000 1.3066000000
3.2535000000 1.3685000000 0.9550000000
3.2530000000 1.1408000000 0.7974000000
3.2528000000 5.3347000000 0.3152000000
3.2528000000 1.6037000000 1.1160000000
3.2528000000 5.3102000000 0.3349000000
3.2525000000 2.9597000000 1.9270000000
3.2525000000 1.5164000000 1.0567000000
3.2524000000 5.5911000000 0.1969000000
3.2523000000 4.3728000000 0.9728000000
3.2521000000 4.5507000000 0.8414000000
3.2520000000 2.0137000000 1.3893000000
3.2519000000 4.0889000000 1.1628000000
3.2519000000 2.4349000000 1.6753000000
3.2515000000 2.8225000000 1.9387000000
3.2513000000 1.0332000000 0.7272000000
3.2513000000 4.9869000000 0.5491000000
3.2511000000 4.7144000000 0.7375000000
3.2509000000 0.0477000000 0.0611000000
3.2508000000 0.3874000000 0.2858000000
3.2508000000 3.3772000000 1.6469000000
3.2505000000 0.0964000000 0.1180000000
3.2501000000 2.9083000000 2.0210000000
3.2499000000 3.3945000000 1.6375000000
3.2498000000 4.5940000000 0.8229000000
3.2498000000 2.1830000000 1.5059000000
3.2497000000 0.0998000000 0.1239000000
3.2497000000 1.7664000000 1.2350000000
3.2495000000 0.0132000000 0.0335000000
3.2489000000 1.5611000000 1.0884000000
3.2488000000 5.7592000000 0.0916000000
3.2488000000 4.8287000000 0.6629000000
3.2487000000 1.2204000000 0.8567000000
3.2485000000 3.7243000000 1.4160000000
3.2480000000 2.3452000000 1.6231000000
3.2478000000 2.1644000000 1.5024000000
3.2476000000 1.1923000000 0.8418000000
3.2474000000 0.6569000000 0.4785000000
3.2472000000 0.4687000000 0.3506000000
3.2470000000 1.6196000000 1.1328000000
3.2468000000 0.8278000000 0.5948000000
3.2465000000 0.9053000000 0.6455000000
3.2461000000 0.3306000000 0.2597000000
3.0189000000 5.5199000000 0.2702000000
3.0114000000 2.3652000000 1.9216000000
3.0113000000 5.6137000000 0.1449000000
3.0106000000 3.9461000000 1.5429000000
3.0099000000 4.9761000000 0.8442000000
3.0098000000 1.3966000000 1.2507000000
3.0096000000 3.4824000000 1.8640000000
3.0094000000 0.9202000000 0.9446000000
3.0092000000 0.3318000000 0.3909000000
3.0090000000 4.9502000000 0.8659000000
3.0090000000 5.2810000000 0.6436000000
3.0089000000 4.2420000000 1.3510000000
3.0085000000 3.0556000000 2.1486000000
3.0084000000 3.9485000000 1.5460000000
3.0081000000 3.2005000000 2.0580000000
3.0073000000 1.0974000000 1.0576000000
3.0068000000 3.4326000000 1.9014000000
3.0066000000 2.5849000000 2.0654000000
3.0064000000 2.4090000000 1.9558000000
3.0063000000 3.4057000000 1.9168000000
3.0062000000 5.0878000000 0.7719000000
3.0060000000 3.0620000000 2.1495000000
3.0059000000 2.0605000000 1.7169000000
3.0059000000 0.6813000000 0.7792000000
3.0058000000 0.3860000000 0.4610000000
3.0058000000 0.7372000000 0.8174000000
3.0055000000 4.7094000000 1.0383000000
3.0055000000 4.6246000000 1.0853000000
3.0055000000 0.9831000000 0.9868000000
3.0053000000 2.3770000000 1.9356000000
3.0053000000 5.4050000000 0.4217000000
3.0053000000 3.8835000000 1.5909000000
3.0052000000 2.3570000000 1.9129000000
3.0051000000 3.5211000000 1.8408000000
3.0050000000 1.0745000000 1.0536000000
3.0050000000 1.2556000000 1.1637000000
3.0049000000 4.0233000000 1.4977000000
3.0049000000 3.8091000000 1.6420000000
3.0048000000 5.0180000000 0.8221000000
3.0048000000 1.0783000000 1.0464000000
3.0046000000 4.4800000000 1.1871000000
3.0045000000 2.6789000000 2.1393000000
3.0045000000 2.9883000000 2.1989000000
3.0044000000 4.6767000000 1.0587000000
3.0042000000 0.4948000000 0.6618000000
3.0040000000 3.7362000000 1.7009000000
3.0039000000 1.4824000000 1.3241000000
3.0039000000 4.6558000000 1.0703000000
3.0037000000 4.5777000000 1.1248000000
3.0033000000 3.8069000000 1.6507000000
3.0032000000 4.5461000000 1.1428000000
3.0030000000 2.4924000000 2.0137000000
3.0030000000 1.6707000000 1.4577000000
3.0028000000 2.9817000000 2.2049000000
3.0023000000 4.3955000000 1.2441000000
3.0023000000 2.9917000000 2.2048000000
3.0022000000 5.1371000000 0.7914000000
3.0021000000 1.1760000000 1.1167000000
3.0019000000 4.7935000000 0.9793000000
3.0019000000 3.6115000000 1.7859000000
3.0018000000 1.5131000000 1.3482000000
3.0018000000 4.0745000000 1.4672000000
3.0016000000 4.0222000000 1.4997000000
3.0013000000 0.4495000000 0.5425000000
3.0013000000 0.4602000000 0.6224000000
3.0013000000 2.0098000000 1.6876000000
3.0012000000 3.3759000000 1.9444000000
3.0011000000 2.1960000000 1.8127000000
3.0010000000 2.7641000000 2.1998000000
3.0008000000 0.9656000000 0.9755000000
3.0008000000 0.7344000000 0.8224000000
3.0007000000 0.6589000000 0.8267000000
3.0007000000 2.6366000000 2.1170000000
3.0004000000 4.4871000000 1.1961000000
3.0002000000 5.3463000000 0.5048000000
3.0002000000 5.2627000000 0.6718000000
2.9994000000 0.8841000000 0.9221000000
2.9993000000 1.9701000000 1.6639000000
2.9993000000 1.3203000000 1.2224000000
2.9990000000 1.7910000000 1.5419000000
2.9989000000 2.5294000000 2.0451000000
2.9987000000 0.9459000000 0.9668000000
2.9987000000 4.3645000000 1.2687000000
2.9986000000 4.1310000000 1.4365000000
2.9985000000 1.2445000000 1.1730000000
2.9980000000 3.3625000000 1.9556000000
2.9970000000 1.6133000000 1.4191000000
2.9967000000 0.6193000000 0.7982000000
2.9942000000 1.1990000000 1.1443000000
2.9939000000 3.1376000000 2.1137000000
2.9935000000 2.2818000000 1.8759000000
2.7615000000 5.0520000000 0.9068000000
2.7614000000 2.5859000000 2.3636000000
2.7600000000 0.5211000000 0.6491000000
2.7598000000 4.4120000000 1.5231000000
2.7595000000 4.3190000000 1.5897000000
2.7593000000 4.9069000000 1.1006000000
2.7587000000 4.2464000000 1.6369000000
2.7584000000 0.1505000000 0.1442000000
2.7583000000 5.7528000000 0.0255000000
2.7581000000 3.5959000000 2.0774000000
2.7580000000 0.3017000000 0.3481000000
2.7580000000 1.2625000000 1.4619000000
2.7580000000 5.7611000000 0.0879000000
2.7576000000 5.4584000000 0.3519000000
2.7575000000 3.9221000000 1.8642000000
2.7574000000 3.3659000000 2.2427000000
2.7570000000 5.3822000000 0.4538000000
2.7569000000 5.1602000000 0.7603000000
2.7568000000 5.3490000000 0.5046000000
2.7566000000 4.4103000000 1.5259000000
2.7565000000 0.6479000000 0.8228000000
2.7564000000 4.8969000000 1.1219000000
2.7563000000 5.3257000000 0.5311000000
2.7562000000 1.6585000000 1.7341000000
2.7559000000 1.7180000000 1.7762000000
2.7558000000 5.7740000000 0.0739000000
2.7556000000 4.6667000000 1.3476000000
2.7555000000 2.8461000000 2.6013000000
2.7554000000 3.2242000000 2.3370000000
2.7553000000 0.8905000000 1.2046000000
2.7551000000 2.5858000000 2.3698000000
2.7550000000 5.4205000000 0.4072000000
2.7550000000 3.3403000000 2.2552000000
2.7549000000 1.4219000000 1.5809000000
2.7547000000 2.2839000000 2.1626000000
2.7546000000 0.3691000000 0.4386000000
2.7545000000 1.3465000000 1.5296000000
2.7545000000 4.1676000000 1.6921000000
2.7543000000 3.1022000000 2.4167000000
2.7542000000 4.4511000000 1.4964000000
2.7542000000 0.7950000000 1.0180000000
2.7541000000 1.5763000000 1.6812000000
2.7540000000 0.3279000000 0.3876000000
2.7539000000 2.4602000000 2.2859000000
2.7538000000 3.2358000000 2.3287000000
2.7538000000 2.6638000000 2.4272000000
2.7536000000 3.5871000000 2.0924000000
2.7535000000 1.8618000000 1.8813000000
2.7534000000 1.8966000000 1.9022000000
2.7534000000 1.3767000000 1.5495000000
2.7531000000 2.0252000000 1.9876000000
2.7530000000 4.4793000000 1.4865000000
2.7529000000 1.5229000000 1.6488000000
2.7528000000 2.1135000000 2.0476000000
2.7525000000 2.4371000000 2.2721000000
2.7525000000 4.3421000000 1.5829000000
2.7525000000 4.4910000000 1.4782000000
2.7524000000 4.1087000000 1.7357000000
2.7523000000 1.0059000000 1.3532000000
2.7522000000 2.2402000000 2.1337000000
2.7519000000 4.5414000000 1.4520000000
2.7518000000 4.6281000000 1.3882000000
2.7517000000 1.7919000000 1.8360000000
2.7515000000 3.8808000000 1.8943000000
2.7514000000 2.4637000000 2.2895000000
2.7513000000 2.8956000000 2.6151000000
2.7512000000 0.4856000000 0.5965000000
2.7511000000 3.5197000000 2.1416000000
2.7511000000 3.5047000000 2.1503000000
2.7510000000 3.8721000000 1.9017000000
2.7509000000 2.2314000000 2.1294000000
2.7507000000 0.9354000000 1.2646000000
2.7505000000 0.0280000000 0.0495000000
2.7505000000 3.3455000000 2.2590000000
2.7504000000 0.3867000000 0.4585000000
2.7501000000 0.6836000000 0.8700000000
2.7499000000 0.0060000000 0.0203000000
2.7492000000 2.7968000000 2.5200000000
2.7491000000 1.7781000000 1.8249000000
2.7485000000 2.2185000000 2.1240000000
2.7481000000 1.5487000000 1.6734000000
2.7478000000 0.4914000000 0.6069000000
2.7478000000 0.9106000000 1.2284000000
2.7475000000 3.7046000000 2.0213000000
2.7473000000 3.4516000000 2.1910000000
2.7473000000 1.2493000000 1.4678000000
2.7472000000 0.2844000000 0.3297000000
2.7443000000 1.5107000000 1.6512000000
2.7441000000 3.4454000000 2.1995000000
2.5119000000 1.9666000000 2.2336000000
2.5109000000 3.4079000000 2.4990000000
2.5103000000 3.8950000000 2.1676000000
2.5100000000 4.8217000000 1.2186000000
2.5096000000 2.0831000000 2.3174000000
2.5090000000 0.1391000000 0.1232000000
2.5088000000 3.7905000000 2.2369000000
2.5084000000 3.2251000000 2.6248000000
2.5083000000 5.5452000000 0.2346000000
2.5081000000 0.7490000000 0.9588000000
2.5077000000 0.4777000000 0.5924000000
2.5078000000 1.2386000000 1.6229000000
2.5069000000 5.0988000000 0.8382000000
2.5070000000 2.9552000000 2.8126000000
2.5069000000 0.8734000000 1.1263000000
2.5068000000 4.4627000000 1.7116000000
2.5067000000 2.2464000000 2.4288000000
2.5066000000 4.0337000000 2.0829000000
2.5064000000 5.0967000000 0.8384000000
2.5061000000 5.0377000000 0.9236000000
2.5061000000 1.3784000000 1.8682000000
2.5060000000 4.8197000000 1.2196000000
2.5058000000 1.9524000000 2.2322000000
2.5057000000 5.0043000000 0.9692000000
2.5057000000 3.6444000000 2.3438000000
2.5056000000 2.3043000000 2.4704000000
2.5055000000 4.2069000000 1.9644000000
2.5055000000 2.8468000000 2.8952000000
2.5054000000 1.6721000000 2.0437000000
2.5053000000 2.9749000000 2.7996000000
2.5053000000 1.9681000000 2.2470000000
2.5052000000 0.5768000000 0.7234000000
2.5051000000 5.7202000000 0.0754000000
2.5050000000 2.9321000000 2.8224000000
2.5048000000 2.6461000000 2.7139000000
2.5047000000 4.3725000000 1.8093000000
2.5046000000 1.8533000000 2.1670000000
2.5045000000 5.7949000000 0.0444000000
2.5043000000 4.4658000000 1.7008000000
2.5043000000 5.4619000000 0.3499000000
2.5041000000 0.7380000000 0.9492000000
2.5041000000 1.8566000000 2.1727000000
2.5040000000 4.1958000000 1.9725000000
2.5039000000 2.3243000000 2.4888000000
2.5038000000 2.8775000000 2.9236000000
2.5038000000 4.2207000000 1.9512000000
2.5037000000 1.7473000000 2.0959000000
2.5035000000 3.0858000000 2.7251000000
2.5034000000 0.8311000000 1.0657000000
2.5033000000 0.2544000000 0.2878000000
2.5032000000 1.7251000000 2.0814000000
2.5032000000 3.1823000000 2.6619000000
2.5031000000 4.5253000000 1.6201000000
2.5031000000 1.1206000000 1.4576000000
2.5030000000 0.3830000000 0.4555000000
2.5028000000 1.1346000000 1.4814000000
2.5026000000 3.4738000000 2.4623000000
2.5025000000 5.2011000000 0.7013000000
2.5025000000 0.7801000000 0.9915000000
2.5024000000 2.9262000000 2.8960000000
2.5023000000 2.7536000000 2.7810000000
2.5023000000 2.9931000000 2.7879000000
2.5022000000 5.2059000000 0.6960000000
2.5020000000 1.1823000000 1.5469000000
2.5019000000 0.7928000000 1.0138000000
2.5019000000 5.2556000000 0.6324000000
2.5018000000 0.9630000000 1.2433000000
2.5014000000 1.9543000000 2.2390000000
2.5010000000 2.3735000000 2.5256000000
2.5009000000 0.8975000000 1.1607000000
2.5008000000 1.0676000000 1.3908000000
2.5008000000 0.7646000000 0.9843000000
2.5006000000 2.2739000000 2.4552000000
2.5003000000 3.1948000000 2.6585000000
2.5002000000 0.2010000000 0.2098000000
2.4999000000 0.9168000000 1.1913000000
2.4994000000 1.9345000000 2.2272000000
2.4993000000 4.3492000000 1.9142000000
2.4993000000 0.8429000000 1.0871000000
2.4992000000 2.1533000000 2.3751000000
2.4991000000 0.3857000000 0.4570000000
2.4990000000 1.8254000000 2.1581000000
2.4988000000 0.1641000000 0.1625000000
2.4987000000 2.1487000000 2.3697000000
2.4986000000 0.1103000000 0.1624000000
2.4969000000 1.4641000000 1.9664000000
2.4968000000 2.3980000000 2.5415000000
2.4950000000 0.2634000000 0.2982000000
2.4946000000 0.1863000000 0.1897000000
2.4936000000 1.1853000000 1.5526000000
2.2616000000 5.5481000000 0.2293000000
2.2614000000 4.7798000000 1.2754000000
2.2608000000 4.7067000000 1.3751000000
2.2595000000 4.9318000000 1.0682000000
2.2593000000 5.6606000000 0.1481000000
2.2592000000 3.0020000000 3.0746000000
2.2588000000 5.5699000000 0.1979000000
2.2578000000 0.2118000000 0.2267000000
2.2576000000 5.0008000000 0.9742000000
2.2572000000 4.9746000000 1.0104000000
2.2571000000 0.4188000000 0.5112000000
2.2571000000 4.5165000000 1.6323000000
2.2570000000 1.3071000000 1.7136000000
2.2570000000 3.3319000000 2.8509000000
2.2568000000 5.1423000000 0.7844000000
2.2567000000 2.2302000000 2.7116000000
2.2563000000 5.3517000000 0.5015000000
2.2562000000 3.9479000000 2.3862000000
2.2560000000 3.2837000000 2.8799000000
2.2559000000 1.9768000000 2.5412000000
2.2558000000 1.2658000000 1.6566000000
2.2557000000 0.6741000000 0.8567000000
2.2557000000 0.6506000000 0.8239000000
2.2556000000 0.6882000000 0.8720000000
2.2554000000 5.4153000000 0.4083000000
2.2554000000 2.4465000000 2.8619000000
2.2553000000 5.5884000000 0.1771000000
2.2549000000 0.4456000000 0.5468000000
2.2546000000 1.0805000000 1.4075000000
2.2545000000 2.7677000000 3.0827000000
2.2542000000 4.1863000000 2.0790000000
2.2542000000 0.6401000000 0.8084000000
2.2541000000 5.4603000000 0.3456000000
2.2539000000 4.7949000000 1.2558000000
2.2539000000 4.7601000000 1.2992000000
2.2538000000 5.1090000000 0.8264000000
2.2537000000 5.1796000000 0.7287000000
2.2535000000 4.4297000000 1.7497000000
2.2534000000 0.7534000000 0.9612000000
2.2533000000 0.6021000000 0.7586000000
2.2532000000 2.7244000000 3.0515000000
2.2531000000 3.2165000000 2.9333000000
2.2530000000 4.3400000000 1.8720000000
2.2528000000 0.1025000000 0.1528000000
2.2526000000 4.5463000000 1.5897000000
2.2525000000 2.6832000000 3.0245000000
2.2525000000 4.2044000000 2.0533000000
2.2524000000 2.5590000000 2.9458000000
2.2524000000 4.8438000000 1.1953000000
2.2523000000 4.5264000000 1.6194000000
2.2522000000 5.4753000000 0.3309000000
2.2519000000 0.3591000000 0.4289000000
2.2518000000 5.3294000000 0.5307000000
2.2517000000 2.6697000000 3.0214000000
2.2514000000 2.1771000000 2.6821000000
2.2510000000 2.1016000000 2.6324000000
2.2510000000 1.3075000000 1.7136000000
2.2508000000 4.8164000000 1.2249000000
2.2505000000 1.5125000000 1.9992000000
2.2504000000 0.1857000000 0.1929000000
2.2499000000 0.2674000000 0.3031000000
2.2495000000 4.4425000000 1.7354000000
2.2493000000 4.6896000000 1.3984000000
2.2490000000 3.4872000000 2.7578000000
2.2488000000 1.8163000000 2.4656000000
2.2480000000 0.7960000000 1.0244000000
2.2477000000 2.9482000000 3.1208000000
2.2477000000 2.2919000000 2.7649000000
2.2476000000 4.6548000000 1.4423000000
2.2464000000 4.1407000000 2.1438000000
2.2445000000 4.0495000000 2.2692000000
2.0130000000 3.8457000000 2.5475000000
2.0118000000 5.0315000000 0.9340000000
2.0118000000 3.3941000000 3.1510000000
2.0109000000 5.7600000000 0.0853000000
2.0104000000 4.9714000000 1.0128000000
2.0098000000 2.8850000000 3.5032000000
2.0093000000 2.0041000000 2.6619000000
2.0091000000 2.4832000000 3.1761000000
2.0087000000 4.2078000000 2.0468000000
2.0083000000 2.8244000000 3.4044000000
2.0083000000 5.3735000000 0.4659000000
2.0082000000 5.1081000000 0.8258000000
2.0080000000 2.0169000000 2.6817000000
2.0079000000 4.0395000000 2.2807000000
2.0077000000 1.2522000000 1.6512000000
2.0077000000 2.6650000000 3.3051000000
2.0076000000 0.9209000000 1.1904000000
2.0075000000 2.1978000000 2.9857000000
2.0074000000 2.9652000000 3.3930000000
2.0073000000 2.2702000000 3.0843000000
2.0073000000 1.2519000000 1.6412000000
2.0069000000 2.0508000000 2.7269000000
2.0068000000 4.2555000000 1.9874000000
2.0066000000 4.0365000000 2.2869000000
2.0065000000 1.7771000000 2.3557000000
2.0065000000 3.3359000000 3.1421000000
2.0063000000 2.9692000000 3.3865000000
2.0060000000 5.4228000000 0.4025000000
2.0058000000 3.3990000000 3.1590000000
2.0058000000 3.3504000000 3.1351000000
2.0056000000 0.3212000000 0.3797000000
2.0056000000 2.1384000000 2.8502000000
2.0054000000 4.5201000000 1.6277000000
2.0054000000 1.9764000000 2.6258000000
2.0053000000 5.3659000000 0.4713000000
2.0053000000 1.7046000000 2.2576000000
2.0053000000 5.0691000000 0.8811000000
2.0052000000 1.3246000000 1.7418000000
2.0051000000 3.2427000000 3.2059000000
2.0048000000 0.8374000000 1.0763000000
2.0049000000 4.1250000000 2.1684000000
2.0048000000 3.1084000000 3.3025000000
2.0046000000 5.7006000000 0.0928000000
2.0045000000 5.1705000000 0.7490000000
2.0045000000 1.2711000000 1.6655000000
2.0044000000 5.4303000000 0.3897000000
2.0043000000 2.3015000000 3.1138000000
2.0042000000 1.0370000000 1.3521000000
2.0040000000 0.8292000000 1.0683000000
2.0037000000 2.5161000000 3.2025000000
2.0035000000 1.0181000000 1.3275000000
2.0035000000 4.1266000000 2.1607000000
2.0034000000 5.6879000000 0.1208000000
2.0033000000 2.7266000000 3.3476000000
2.0033000000 0.2785000000 0.3168000000
2.0032000000 2.1945000000 2.9783000000
2.0032000000 5.3712000000 0.4714000000
2.0028000000 3.0997000000 3.3084000000
2.0026000000 0.2272000000 0.2476000000
2.0024000000 2.7734000000 3.3816000000
2.0023000000 4.1944000000 2.0687000000
2.0023000000 0.4786000000 0.5915000000
2.0022000000 1.3916000000 1.8323000000
2.0021000000 1.8870000000 2.5004000000
2.0021000000 4.3106000000 1.9063000000
2.0020000000 4.0744000000 2.2336000000
2.0019000000 3.7916000000 2.6167000000
2.0018000000 2.3706000000 3.1630000000
2.0015000000 4.2555000000 1.9866000000
2.0013000000 4.4226000000 1.7561000000
2.0013000000 4.3510000000 1.8555000000
2.0011000000 0.3908000000 0.4718000000
2.0010000000 2.6947000000 3.3299000000
2.0010000000 2.7985000000 3.4045000000
2.0009000000 1.4922000000 1.9718000000
2.0007000000 4.1572000000 2.1231000000
2.0003000000 1.9436000000 2.5842000000
2.0002000000 2.5432000000 3.2255000000
2.0000000000 0.4580000000 0.5684000000
2.0000000000 4.5237000000 1.6249000000
2.0000000000 5.7873000000 0.0507000000
1.9996000000 0.3688000000 0.4387000000
1.9994000000 0.9122000000 1.1810000000
1.9994000000 2.5854000000 3.2601000000
1.9993000000 4.1021000000 2.1976000000
1.9974000000 0.1755000000 0.1790000000
1.9973000000 1.2647000000 1.6613000000
1.9972000000 0.1112000000 0.1682000000
1.9955000000 0.3838000000 0.4605000000
1.9934000000 1.3467000000 1.7706000000
1.7637000000 3.0733000000 3.6468000000
1.7635000000 5.2245000000 0.6697000000
1.7615000000 0.1549000000 0.1439000000
1.7604000000 3.5284000000 2.9786000000
1.7600000000 1.8222000000 2.4157000000
1.7593000000 3.7140000000 2.7229000000
1.7591000000 3.4173000000 3.1263000000
1.7583000000 4.0826000000 2.2221000000
1.7582000000 3.0466000000 3.6823000000
1.7578000000 2.6444000000 3.5805000000
1.7577000000 5.3115000000 0.5535000000
1.7570000000 1.1996000000 1.5622000000
1.7569000000 0.0133000000 0.0354000000
1.7565000000 2.4404000000 3.2536000000
1.7564000000 5.7549000000 0.0184000000
1.7563000000 3.7225000000 2.7161000000
1.7562000000 1.9158000000 2.5430000000
1.7561000000 4.2667000000 1.9752000000
1.7561000000 5.5184000000 0.2724000000
1.7558000000 5.3989000000 0.4291000000
1.7558000000 2.3631000000 3.1549000000
1.7550000000 1.7711000000 2.3448000000
1.7548000000 4.4230000000 1.7598000000
1.7548000000 0.6447000000 0.8182000000
1.7545000000 5.3686000000 0.4750000000
1.7545000000 5.7556000000 0.0212000000
1.7544000000 2.0503000000 2.7287000000
1.7544000000 0.4494000000 0.5475000000
1.7543000000 0.6888000000 0.8751000000
1.7543000000 3.6105000000 2.8669000000
1.7543000000 2.3502000000 3.1335000000
1.7542000000 1.9090000000 2.5369000000
1.7541000000 3.6928000000 2.7531000000
1.7540000000 3.7617000000 2.6556000000
1.7537000000 0.4614000000 0.5644000000
1.7536000000 0.8534000000 1.1022000000
1.7536000000 2.4570000000 3.2800000000
1.7535000000 3.3028000000 3.2822000000
1.7535000000 0.3537000000 0.4197000000
1.7533000000 4.4387000000 1.7369000000
1.7531000000 0.5984000000 0.7495000000
1.7531000000 1.1338000000 1.4826000000
1.7530000000 1.7476000000 2.3152000000
1.7528000000 3.7939000000 2.6158000000
1.7528000000 3.2690000000 3.3351000000
1.7523000000 5.5536000000 0.2258000000
1.7523000000 2.2801000000 3.0372000000
1.7522000000 2.2947000000 3.0585000000
1.7521000000 4.1931000000 2.0715000000
1.7521000000 0.3116000000 0.3565000000
1.7520000000 3.0290000000 3.6994000000
1.7519000000 5.5235000000 0.2647000000
1.7518000000 2.4600000000 3.2837000000
1.7518000000 2.8821000000 3.8018000000
1.7517000000 0.2318000000 0.2516000000
1.7515000000 1.1870000000 1.5483000000
1.7510000000 4.0892000000 2.2107000000
1.7508000000 5.2897000000 0.5819000000
1.7506000000 0.0037000000 0.0215000000
1.7505000000 3.9239000000 2.4393000000
1.7502000000 1.5582000000 2.0608000000
1.7501000000 4.8574000000 1.1727000000
1.7501000000 2.1654000000 2.8796000000
1.7500000000 0.9053000000 1.1653000000
1.7500000000 3.6184000000 2.8560000000
1.7499000000 1.3586000000 1.7866000000
1.7498000000 3.8715000000 2.5093000000
1.7498000000 3.6242000000 2.8438000000
1.7496000000 3.9380000000 2.4186000000
1.7493000000 5.2587000000 0.6249000000
1.7488000000 2.3942000000 3.1968000000
1.7487000000 1.3645000000 1.7927000000
1.7486000000 2.5926000000 3.4602000000
1.7483000000 1.8457000000 2.4464000000
1.7475000000 4.0667000000 2.2426000000
1.7472000000 2.8663000000 3.8000000000
1.7461000000 4.1089000000 2.1848000000
1.7425000000 3.2470000000 3.3563000000
1.5122000000 5.7031000000 0.0908000000
1.5114000000 3.1456000000 3.5455000000
1.5111000000 5.2604000000 0.6225000000
1.5104000000 1.9085000000 2.5321000000
1.5097000000 2.5607000000 3.4719000000
1.5096000000 3.4765000000 3.0475000000
1.5095000000 4.7663000000 1.2943000000
1.5093000000 4.6157000000 1.4952000000
1.5084000000 3.6865000000 2.7679000000
1.5081000000 4.3858000000 1.8128000000
1.5079000000 4.1872000000 2.0795000000
1.5077000000 4.6936000000 1.3896000000
1.5074000000 0.7512000000 0.9627000000
1.5069000000 1.9142000000 2.5403000000
1.5068000000 2.9288000000 3.6935000000
1.5067000000 3.2721000000 3.3260000000
1.5066000000 1.0618000000 1.3830000000
1.5065000000 3.2386000000 3.4228000000
1.5060000000 2.1789000000 2.8982000000
1.5060000000 2.9387000000 3.6312000000
1.5060000000 1.7099000000 2.2678000000
1.5059000000 0.8643000000 1.1141000000
1.5058000000 4.1805000000 2.0873000000
1.5057000000 5.1477000000 0.7753000000
1.5055000000 3.1229000000 3.5646000000
1.5054000000 4.0201000000 2.3093000000
1.5053000000 0.1452000000 0.1401000000
1.5053000000 3.4213000000 3.1247000000
1.5051000000 4.3692000000 1.8355000000
1.5052000000 1.4935000000 1.9682000000
1.5050000000 5.6640000000 0.1487000000
1.5050000000 1.0368000000 1.3502000000
1.5049000000 2.5563000000 3.4730000000
1.5049000000 5.6465000000 0.1710000000
1.5048000000 4.3652000000 1.8413000000
1.5046000000 3.6064000000 2.8703000000
1.5046000000 4.7896000000 1.2689000000
1.5045000000 4.6300000000 1.4763000000
1.5042000000 4.5524000000 1.5921000000
1.5040000000 1.0105000000 1.3136000000
1.5037000000 2.7850000000 3.6041000000
1.5036000000 2.4873000000 3.3241000000
1.5034000000 0.5059000000 0.6265000000
1.5033000000 1.5910000000 2.1015000000
1.5034000000 4.7838000000 1.2655000000
1.5033000000 1.0075000000 1.3128000000
1.5033000000 4.6198000000 1.4967000000
1.5032000000 2.6153000000 3.5438000000
1.5031000000 0.1559000000 0.1524000000
1.5030000000 2.5589000000 3.4661000000
1.5029000000 1.3833000000 1.8198000000
1.5028000000 2.6105000000 3.5411000000
1.5027000000 1.4472000000 1.9015000000
1.5026000000 1.2233000000 1.6047000000
1.5025000000 4.2441000000 2.0092000000
1.5025000000 5.7830000000 0.0604000000
1.5023000000 3.4195000000 3.1244000000
1.5023000000 2.8599000000 3.7025000000
1.5022000000 0.9631000000 1.2475000000
1.5021000000 3.3389000000 3.2354000000
1.5021000000 2.5713000000 3.4830000000
1.5020000000 5.6682000000 0.1410000000
1.5019000000 2.4098000000 3.2155000000
1.5017000000 4.5315000000 1.6118000000
1.5016000000 2.4677000000 3.2968000000
1.5015000000 3.7803000000 2.6335000000
1.5015000000 0.1576000000 0.1549000000
1.5013000000 0.2442000000 0.2714000000
1.5010000000 3.8205000000 2.5779000000
1.5007000000 0.9108000000 1.1811000000
1.5006000000 5.7516000000 0.0255000000
1.5001000000 4.5969000000 1.5241000000
1.5001000000 1.3666000000 1.7930000000
1.5000000000 4.3974000000 1.8001000000
1.4995000000 1.1886000000 1.5562000000
1.4994000000 4.8020000000 1.2484000000
1.4990000000 3.2783000000 3.3150000000
1.4990000000 1.0597000000 1.3796000000
1.4988000000 0.3588000000 0.4248000000
1.4984000000 0.2249000000 0.2467000000
1.4980000000 1.2858000000 1.6830000000
1.4977000000 1.2930000000 1.6940000000
1.4975000000 1.7725000000 2.3505000000
1.4973000000 1.8791000000 2.4976000000
1.4973000000 0.4275000000 0.5254000000
1.4963000000 3.4573000000 3.0805000000
1.4955000000 4.7784000000 1.2763000000
1.4952000000 3.9472000000 2.4041000000
1.2633000000 0.1854000000 0.1895000000
1.2625000000 4.7768000000 1.2759000000
1.2618000000 5.7821000000 0.0599000000
1.2617000000 5.2277000000 0.6641000000
1.2614000000 5.5776000000 0.1835000000
1.2603000000 0.4194000000 0.5139000000
1.2599000000 2.1139000000 2.8635000000
1.2598000000 4.3045000000 1.9286000000
1.2595000000 4.4392000000 1.7397000000
1.2589000000 4.3347000000 1.8838000000
1.2583000000 2.9934000000 3.3073000000
1.2580000000 1.2231000000 1.5993000000
1.2575000000 0.8335000000 1.0721000000
1.2574000000 0.8449000000 1.0894000000
1.2571000000 1.1115000000 1.4490000000
1.2570000000 4.0839000000 2.2222000000
1.2570000000 4.9040000000 1.1104000000
1.2565000000 0.6628000000 0.8422000000
1.2562000000 5.7490000000 0.0310000000
1.2561000000 4.8822000000 1.1310000000
1.2560000000 2.5839000000 3.1743000000
1.2557000000 3.0450000000 3.2599000000
1.2556000000 0.9914000000 1.2859000000
1.2555000000 2.4099000000 3.0601000000
1.2555000000 1.5002000000 1.9778000000
1.2554000000 3.3567000000 3.0527000000
1.2553000000 5.0157000000 0.9578000000
1.2552000000 0.5070000000 0.6314000000
1.2550000000 2.9002000000 3.4120000000
1.2550000000 0.4054000000 0.4871000000
1.2549000000 5.5084000000 0.2801000000
1.2549000000 3.8054000000 2.6028000000
1.2546000000 2.4319000000 3.0690000000
1.2545000000 3.6194000000 2.9095000000
1.2540000000 5.0628000000 0.8886000000
1.2537000000 5.7185000000 0.0727000000
1.2535000000 3.9074000000 2.4623000000
1.2535000000 0.6273000000 0.7866000000
1.2534000000 2.2974000000 2.9743000000
1.2533000000 2.5777000000 3.1682000000
1.2533000000 3.8084000000 2.5978000000
1.2532000000 1.1411000000 1.4932000000
1.2531000000 3.7541000000 2.6694000000
1.2530000000 2.7720000000 3.2975000000
1.2530000000 2.1874000000 2.9518000000
1.2530000000 4.3789000000 1.8223000000
1.2529000000 1.5610000000 2.0660000000
1.2529000000 1.8075000000 2.3933000000
1.2528000000 0.5869000000 0.7359000000
1.2527000000 2.5103000000 3.1231000000
1.2528000000 1.7806000000 2.3634000000
1.2527000000 1.6769000000 2.2167000000
1.2525000000 0.8651000000 1.1176000000
1.2523000000 3.1420000000 3.1985000000
1.2522000000 4.4718000000 1.6928000000
1.2518000000 0.3926000000 0.4715000000
1.2518000000 2.4106000000 3.0527000000
1.2515000000 2.2556000000 3.0009000000
1.2508000000 5.1331000000 0.7902000000
1.2507000000 5.6538000000 0.1623000000
1.2502000000 1.3875000000 1.8243000000
1.2500000000 3.9952000000 2.3413000000
1.2498000000 2.0694000000 2.8119000000
1.2497000000 2.4153000000 3.0562000000
1.2496000000 0.9761000000 1.2664000000
1.2490000000 0.2294000000 0.2513000000
1.2489000000 1.7679000000 2.3375000000
1.2487000000 4.7731000000 1.2817000000
1.2479000000 5.7735000000 0.0708000000
1.2474000000 3.4453000000 2.9827000000
1.2473000000 1.7429000000 2.3137000000
1.2472000000 0.1540000000 0.1477000000
1.2465000000 0.3838000000 0.4682000000
1.2458000000 0.4839000000 0.5985000000
1.2449000000 0.0783000000 0.1206000000
1.0112000000 4.2946000000 1.9361000000
1.0106000000 3.5001000000 2.6662000000
1.0099000000 2.5028000000 2.8312000000
1.0093000000 4.0408000000 2.2603000000
1.0093000000 0.0293000000 0.0513000000
1.0085000000 4.3460000000 1.8609000000
1.0082000000 3.1335000000 2.9175000000
1.0079000000 3.7184000000 2.5172000000
1.0077000000 1.4285000000 1.8837000000
1.0076000000 5.6362000000 0.1079000000
1.0073000000 0.7008000000 0.8922000000
1.0072000000 5.1581000000 0.7638000000
1.0071000000 0.0013000000 0.0164000000
1.0070000000 0.2184000000 0.2336000000
1.0070000000 3.7126000000 2.5192000000
1.0066000000 5.3294000000 0.5280000000
1.0064000000 1.5635000000 2.0646000000
1.0063000000 3.2217000000 2.8516000000
1.0056000000 3.2784000000 2.8094000000
1.0055000000 0.8661000000 1.1166000000
1.0057000000 3.5836000000 2.6060000000
1.0055000000 3.1231000000 2.9188000000
1.0054000000 5.6225000000 0.1265000000
1.0050000000 0.3998000000 0.4854000000
1.0049000000 2.4963000000 2.8212000000
1.0047000000 2.2599000000 2.6622000000
1.0045000000 1.5751000000 2.0797000000
1.0045000000 4.2594000000 1.9751000000
1.0044000000 1.5075000000 1.9929000000
1.0043000000 0.7009000000 0.8913000000
1.0043000000 2.1162000000 2.5657000000
1.0042000000 1.4137000000 1.8597000000
1.0041000000 2.5671000000 2.8682000000
1.0040000000 0.0617000000 0.0899000000
1.0038000000 2.5396000000 2.8480000000
1.0039000000 1.8199000000 2.4133000000
1.0038000000 2.2825000000 2.6699000000
1.0036000000 0.9790000000 1.2647000000
1.0035000000 4.6945000000 1.3841000000
1.0035000000 3.8635000000 2.4117000000
1.0033000000 0.3948000000 0.4750000000
1.0031000000 0.2957000000 0.3377000000
1.0030000000 5.5827000000 0.1855000000
1.0029000000 1.6243000000 2.1474000000
1.0027000000 3.6912000000 2.5297000000
1.0026000000 2.4847000000 2.8095000000
1.0025000000 2.5560000000 2.8589000000
1.0024000000 0.8249000000 1.0588000000
1.0023000000 1.2721000000 1.6624000000
1.0023000000 1.6074000000 2.1349000000
1.0021000000 1.3499000000 1.7724000000
1.0020000000 0.2362000000 0.2596000000
1.0020000000 1.4811000000 1.9514000000
1.0019000000 3.5556000000 2.6157000000
1.0017000000 2.8488000000 3.1114000000
1.0014000000 0.1647000000 0.1659000000
1.0012000000 4.5512000000 1.5869000000
1.0008000000 0.2138000000 0.2350000000
1.0007000000 1.9704000000 2.4591000000
1.0006000000 2.1097000000 2.5580000000
1.0005000000 0.3897000000 0.4693000000
1.0005000000 3.6180000000 2.5778000000
1.0004000000 0.4837000000 0.6005000000
1.0003000000 3.7328000000 2.4965000000
1.0002000000 1.5441000000 2.0369000000
1.0001000000 0.4156000000 0.5090000000
0.9999000000 4.1859000000 2.0832000000
0.9996000000 4.3614000000 1.8433000000
0.9991000000 2.4581000000 2.7857000000
0.9991000000 3.9921000000 2.3684000000
0.9986000000 0.5302000000 0.6638000000
0.9985000000 2.1134000000 2.5516000000
0.9984000000 0.9948000000 1.2883000000
0.9980000000 3.2935000000 2.7862000000
0.9966000000 2.5939000000 2.8757000000
0.9909000000 0.0374000000 0.0625000000
0.7630000000 5.7011000000 0.0929000000
0.7607000000 2.3535000000 2.4339000000
0.7594000000 5.2161000000 0.6888000000
0.7593000000 5.1183000000 0.8153000000
0.7593000000 2.1541000000 2.3019000000
0.7584000000 0.2358000000 0.2582000000
0.7584000000 3.4560000000 2.4009000000
0.7582000000 0.4397000000 0.5350000000
0.7581000000 3.6805000000 2.2482000000
0.7580000000 1.7778000000 2.0379000000
0.7572000000 3.3531000000 2.4685000000
0.7571000000 2.6643000000 2.6416000000
0.7567000000 4.9967000000 0.9744000000
0.7567000000 1.6801000000 1.9675000000
0.7566000000 2.1877000000 2.3207000000
0.7566000000 4.6764000000 1.4225000000
0.7565000000 4.6654000000 1.4325000000
0.7565000000 1.8525000000 2.0874000000
0.7561000000 5.0185000000 0.9472000000
0.7559000000 5.6526000000 0.1564000000
0.7558000000 5.6427000000 0.1799000000
0.7555000000 3.9526000000 2.0507000000
0.7554000000 1.7545000000 2.0228000000
0.7550000000 0.7763000000 0.9947000000
0.7544000000 1.6071000000 1.9190000000
0.7542000000 1.8560000000 2.0886000000
0.7542000000 3.6921000000 2.2392000000
0.7538000000 3.1387000000 2.6095000000
0.7537000000 3.3823000000 2.4444000000
0.7537000000 2.3571000000 2.4299000000
0.7536000000 1.3949000000 1.8287000000
0.7535000000 0.3616000000 0.4291000000
0.7535000000 5.4558000000 0.3582000000
0.7534000000 2.3715000000 2.4394000000
0.7533000000 1.9119000000 2.1230000000
0.7532000000 0.0057000000 0.0259000000
0.7531000000 3.2454000000 2.5408000000
0.7530000000 0.0101000000 0.0250000000
0.7528000000 3.7442000000 2.1976000000
0.7527000000 1.8807000000 2.1024000000
0.7527000000 1.6595000000 1.9535000000
0.7526000000 3.2511000000 2.5299000000
0.7524000000 3.1726000000 2.5844000000
0.7522000000 2.5411000000 2.5536000000
0.7522000000 2.3707000000 2.4385000000
0.7519000000 4.4416000000 1.7747000000
0.7519000000 2.6527000000 2.6260000000
0.7517000000 3.2563000000 2.5383000000
0.7516000000 2.1554000000 2.2928000000
0.7515000000 1.9368000000 2.1403000000
0.7514000000 0.8094000000 1.0366000000
0.7513000000 3.2084000000 2.5577000000
0.7511000000 5.0433000000 0.9187000000
0.7509000000 2.4643000000 2.5034000000
0.7508000000 0.3993000000 0.4830000000
0.7505000000 4.4865000000 1.6508000000
0.7503000000 2.7819000000 2.7164000000
0.7502000000 4.4651000000 1.6830000000
0.7499000000 0.1825000000 0.1891000000
0.7500000000 5.1843000000 0.7298000000
0.7499000000 0.0368000000 0.0582000000
0.7498000000 2.8596000000 2.8259000000
0.7495000000 2.7783000000 2.7107000000
0.7494000000 2.5999000000 2.5908000000
0.7493000000 5.6453000000 0.1740000000
0.7490000000 0.0198000000 0.0395000000
0.7488000000 0.0663000000 0.1001000000
0.7486000000 1.2766000000 1.7297000000
0.7486000000 5.3778000000 0.4599000000
0.7484000000 1.7563000000 2.0121000000
0.7474000000 4.5366000000 1.6592000000
0.7436000000 1.4470000000 1.8006000000
0.5138000000 5.4219000000 0.4009000000
0.5121000000 3.1154000000 2.3400000000
0.5108000000 5.2957000000 0.5750000000
0.5095000000 4.4276000000 1.4409000000
0.5094000000 5.1607000000 0.7566000000
0.5093000000 4.7738000000 1.2065000000
0.5088000000 5.5218000000 0.2684000000
0.5082000000 1.7616000000 1.7377000000
0.5080000000 3.9248000000 1.7882000000
0.5075000000 5.3780000000 0.4632000000
0.5071000000 0.9028000000 1.2009000000
0.5065000000 3.6005000000 2.0017000000
0.5063000000 0.0640000000 0.1013000000
0.5061000000 4.1981000000 1.6032000000
0.5060000000 0.9282000000 1.2201000000
0.5060000000 1.0146000000 1.2252000000
0.5060000000 2.4380000000 2.1909000000
0.5059000000 2.3398000000 2.1276000000
0.5058000000 4.9253000000 1.0552000000
0.5055000000 3.5156000000 2.0591000000
0.5054000000 5.1930000000 0.7133000000
0.5053000000 4.0311000000 1.7126000000
0.5050000000 4.9083000000 1.0766000000
0.5046000000 5.1173000000 0.8189000000
0.5045000000 2.4799000000 2.2255000000
0.5045000000 1.6610000000 1.6623000000
0.5043000000 3.0275000000 2.3988000000
0.5039000000 5.1217000000 0.8105000000
0.5034000000 3.5725000000 2.0210000000
0.5033000000 5.7914000000 0.0445000000
0.5032000000 0.0440000000 0.0738000000
0.5033000000 1.5948000000 1.6101000000
0.5031000000 5.3169000000 0.5491000000
0.5029000000 2.5295000000 2.2527000000
0.5025000000 4.1890000000 1.6032000000
0.5024000000 0.5661000000 0.7103000000
0.5021000000 4.4154000000 1.4428000000
0.5020000000 3.0523000000 2.3745000000
0.5018000000 0.3372000000 0.4045000000
0.5017000000 0.2281000000 0.2476000000
0.5015000000 0.3012000000 0.3480000000
0.5015000000 1.1736000000 1.3265000000
0.5012000000 2.3449000000 2.1210000000
0.5011000000 2.6719000000 2.3419000000
0.5010000000 4.4514000000 1.4251000000
0.5010000000 2.4384000000 2.1858000000
0.5010000000 0.1429000000 0.1322000000
0.5009000000 3.6851000000 1.9414000000
0.5009000000 3.2194000000 2.2569000000
0.5007000000 2.7692000000 2.4135000000
0.5005000000 1.5712000000 1.5994000000
0.5001000000 2.3331000000 2.1125000000
0.4997000000 1.5829000000 1.6077000000
0.4996000000 1.0491000000 1.2424000000
0.4993000000 3.2691000000 2.2223000000
0.4993000000 1.2190000000 1.3608000000
0.4990000000 0.4483000000 0.5424000000
0.4986000000 1.1648000000 1.3201000000
0.4983000000 4.4350000000 1.4261000000
0.4982000000 0.3833000000 0.4614000000
0.4979000000 5.5761000000 0.1921000000
0.4978000000 4.8610000000 1.1914000000
0.4974000000 1.8308000000 1.7713000000
0.4971000000 1.3765000000 1.4574000000
0.4939000000 2.6308000000 2.3138000000
0.2633000000 4.1338000000 1.3537000000
0.2619000000 4.9025000000 0.8284000000
0.2613000000 5.6627000000 0.1470000000
0.2609000000 5.4654000000 0.3377000000
0.2594000000 3.6485000000 1.6780000000
0.2590000000 4.3607000000 1.1989000000
0.2590000000 1.8200000000 1.4794000000
0.2588000000 2.4604000000 1.9163000000
0.2584000000 5.5500000000 0.2287000000
0.2583000000 4.8552000000 0.8601000000
0.2582000000 5.6838000000 0.1173000000
0.2581000000 1.9076000000 1.5421000000
0.2579000000 2.3966000000 1.8698000000
0.2577000000 1.8493000000 1.5006000000
0.2573000000 2.1239000000 1.6839000000
0.2572000000 4.6561000000 0.9943000000
0.2573000000 5.5949000000 0.1681000000
0.2565000000 1.0457000000 0.9565000000
0.2564000000 5.6105000000 0.1480000000
0.2563000000 1.4369000000 1.2169000000
0.2562000000 1.0424000000 0.9497000000
0.2557000000 3.4496000000 1.8115000000
0.2555000000 0.1731000000 0.1737000000
0.2553000000 1.4149000000 1.1964000000
0.2553000000 1.8986000000 1.5229000000
0.2552000000 5.6549000000 0.1635000000
0.2551000000 4.8684000000 0.8491000000
0.2546000000 4.9381000000 0.7966000000
0.2545000000 1.5047000000 1.2613000000
0.2543000000 2.2698000000 1.7812000000
0.2541000000 1.5306000000 1.2746000000
0.2540000000 5.6826000000 0.1220000000
0.2538000000 0.9570000000 0.8846000000
0.2538000000 2.8508000000 2.2326000000
0.2537000000 4.9178000000 0.8057000000
0.2536000000 3.6103000000 1.6983000000
0.2534000000 0.4491000000 0.6006000000
0.2533000000 3.5699000000 1.7272000000
0.2532000000 4.8114000000 0.8806000000
0.2531000000 2.8502000000 2.2286000000
0.2530000000 5.2224000000 0.5932000000
0.2529000000 4.1195000000 1.3610000000
0.2529000000 0.2433000000 0.2696000000
0.2528000000 2.4114000000 1.8758000000
0.2525000000 1.2737000000 1.0994000000
0.2524000000 2.3563000000 1.8346000000
0.2523000000 5.7223000000 0.0641000000
0.2522000000 3.2928000000 1.9135000000
0.2522000000 0.9859000000 0.9055000000
0.2518000000 1.2418000000 1.0761000000
0.2517000000 4.8639000000 0.8440000000
0.2516000000 5.5531000000 0.2216000000
0.2514000000 3.6610000000 1.6660000000
0.2513000000 2.1059000000 1.6634000000
0.2511000000 5.3658000000 0.4618000000
0.2510000000 1.0987000000 0.9790000000
0.2508000000 4.6263000000 1.0090000000
0.2508000000 3.7043000000 1.6377000000
0.2507000000 0.1383000000 0.1255000000
0.2506000000 4.7186000000 0.9592000000
0.2505000000 0.2135000000 0.2320000000
0.2504000000 0.2199000000 0.2404000000
0.2501000000 4.8632000000 0.8496000000
0.2499000000 4.0608000000 1.3952000000
0.2498000000 1.1505000000 1.0165000000
0.2493000000 3.7180000000 1.6226000000
0.2491000000 0.2717000000 0.3090000000
0.2493000000 5.1812000000 0.6248000000
0.2490000000 2.1014000000 1.6641000000
0.2490000000 5.5865000000 0.1770000000
0.2489000000 3.9169000000 1.4842000000
0.2486000000 4.6646000000 0.9810000000
0.2481000000 2.5476000000 1.9639000000
0.2478000000 1.4762000000 1.2328000000
0.2470000000 3.1964000000 1.9734000000
0.2450000000 0.2565000000 0.2876000000
0.0141000000 2.8250000000 1.8661000000
0.0120000000 5.3564000000 0.2199000000
0.0114000000 5.0068000000 0.4656000000
0.0100000000 3.8159000000 1.2737000000
0.0100000000 3.8559000000 1.2485000000
0.0098000000 2.0884000000 1.3723000000
0.0097000000 3.6537000000 1.3782000000
0.0085000000 0.9758000000 0.6134000000
0.0081000000 5.3535000000 0.2222000000
0.0078000000 1.4082000000 0.9049000000
0.0073000000 2.9730000000 1.8449000000
0.0072000000 0.2759000000 0.1323000000
0.0070000000 3.9380000000 1.1839000000
0.0065000000 1.8951000000 1.2353000000
0.0062000000 3.3175000000 1.6038000000
0.0060000000 4.5662000000 0.7567000000
0.0056000000 5.5724000000 0.1488000000
0.0056000000 3.6971000000 1.3499000000
0.0054000000 3.5918000000 1.4170000000
0.0053000000 2.3073000000 1.5162000000
0.0048000000 2.3276000000 1.5255000000
0.0048000000 2.1245000000 1.3942000000
0.0046000000 2.6473000000 1.7466000000
0.0045000000 2.1479000000 1.4023000000
0.0044000000 1.1476000000 0.7272000000
0.0044000000 5.7776000000 0.0499000000
0.0043000000 3.6741000000 1.3648000000
0.0043000000 4.5682000000 0.7580000000
0.0042000000 2.3060000000 1.5110000000
0.0042000000 2.9395000000 1.8595000000
0.0040000000 3.6396000000 1.3871000000
0.0040000000 4.8399000000 0.5715000000
0.0039000000 4.9903000000 0.4709000000
0.0038000000 3.1533000000 1.7131000000
0.0037000000 1.7226000000 1.1112000000
0.0033000000 4.5094000000 0.7958000000
0.0033000000 5.4497000000 0.1573000000
0.0031000000 2.5713000000 1.6890000000
0.0030000000 1.9295000000 1.2583000000
0.0029000000 4.8874000000 0.5324000000
0.0029000000 4.6969000000 0.6656000000
0.0028000000 2.8724000000 1.9504000000
0.0028000000 4.1638000000 1.0266000000
0.0025000000 5.4095000000 0.1792000000
