6.7509000000 4.8004000000 0.4789000000
6.7505000000 3.5678000000 0.3067000000
6.5110000000 5.2814000000 0.4328000000
6.5102000000 5.9218000000 0.1244000000
6.5093000000 3.9737000000 0.8039000000
6.5086000000 6.2445000000 0.0070000000
6.5083000000 4.2904000000 0.9795000000
6.5076000000 4.4459000000 0.9454000000
6.5070000000 3.9360000000 0.7832000000
6.5067000000 5.9358000000 0.1185000000
6.5060000000 3.9675000000 0.8054000000
6.5055000000 3.9863000000 0.8193000000
6.5053000000 3.8736000000 0.7489000000
6.5050000000 5.8627000000 0.0973000000
6.5047000000 4.6502000000 0.8209000000
6.5042000000 4.2900000000 0.9840000000
6.5032000000 3.3844000000 0.4562000000
6.5024000000 2.9210000000 0.1833000000
6.5021000000 2.9088000000 0.1698000000
6.5007000000 3.1819000000 0.3330000000
6.4990000000 4.0239000000 0.8475000000
6.4947000000 2.7102000000 0.1390000000
6.2628000000 5.0664000000 0.8282000000
6.2603000000 6.0405000000 0.2410000000
6.2594000000 4.8910000000 0.9357000000
6.2590000000 5.8902000000 0.3342000000
6.2582000000 4.8171000000 0.9842000000
6.2575000000 4.2557000000 1.2400000000
6.2571000000 3.3992000000 0.7224000000
6.2567000000 6.5182000000 0.1066000000
6.2565000000 3.9525000000 1.0588000000
6.2560000000 2.3451000000 0.0827000000
6.2557000000 3.6413000000 0.8767000000
6.2554000000 6.5146000000 0.0365000000
6.2552000000 2.5622000000 0.2226000000
6.2550000000 4.2585000000 1.2477000000
6.2545000000 6.6211000000 0.0454000000
6.2541000000 2.7558000000 0.3401000000
6.2535000000 4.4854000000 1.1896000000
6.2517000000 4.4880000000 1.1895000000
6.2498000000 2.7391000000 0.3311000000
6.2492000000 2.0701000000 0.0051000000
6.0149000000 7.0932000000 0.0077000000
6.0112000000 4.2619000000 1.5050000000
6.0088000000 5.4590000000 0.8594000000
6.0083000000 5.4576000000 0.8580000000
6.0077000000 2.8081000000 0.6260000000
6.0075000000 5.3221000000 0.9400000000
6.0070000000 6.6582000000 0.1317000000
6.0068000000 2.0497000000 0.1715000000
6.0064000000 5.0627000000 1.1018000000
6.0059000000 2.1515000000 0.2353000000
6.0055000000 3.1833000000 0.8539000000
6.0054000000 6.4197000000 0.2806000000
6.0052000000 1.8221000000 0.1146000000
6.0048000000 3.8505000000 1.2607000000
6.0044000000 2.7454000000 0.5932000000
6.0038000000 4.2208000000 1.4810000000
6.0035000000 4.4014000000 1.5026000000
6.0032000000 6.5986000000 0.1735000000
6.0029000000 3.5515000000 1.0815000000
6.0024000000 4.2991000000 1.5150000000
6.0023000000 3.7686000000 1.2131000000
6.0018000000 4.7818000000 1.2727000000
6.0017000000 4.5676000000 1.4036000000
6.0015000000 2.1526000000 0.2361000000
6.0011000000 2.1109000000 0.2163000000
5.9995000000 3.6179000000 1.1284000000
5.9988000000 5.9547000000 0.5603000000
5.7635000000 1.4516000000 0.1392000000
5.7614000000 6.0864000000 0.7362000000
5.7605000000 4.3433000000 1.7714000000
5.7601000000 6.7060000000 0.3617000000
5.7597000000 5.1846000000 1.2806000000
5.7592000000 2.4202000000 0.6484000000
5.7588000000 5.7555000000 0.9350000000
5.7583000000 6.6746000000 0.3836000000
5.7579000000 1.6689000000 0.2000000000
5.7574000000 6.1821000000 0.6821000000
5.7572000000 2.8332000000 0.9053000000
5.7568000000 5.5715000000 1.0466000000
5.7564000000 6.6411000000 0.4111000000
5.7562000000 1.9873000000 0.3928000000
5.7560000000 1.1796000000 0.0569000000
5.7551000000 5.3160000000 1.2137000000
5.7550000000 1.2825000000 0.0418000000
5.7548000000 2.8373000000 0.9060000000
5.7543000000 4.0284000000 1.6303000000
5.7541000000 5.0524000000 1.3681000000
5.7539000000 5.5522000000 1.0675000000
5.7535000000 3.9168000000 1.5649000000
5.7533000000 2.3636000000 0.6232000000
5.7531000000 6.4675000000 0.5138000000
5.7525000000 5.9013000000 0.8618000000
5.7519000000 5.2657000000 1.2412000000
5.7516000000 1.0918000000 0.0092000000
5.7507000000 2.5724000000 0.7567000000
5.7504000000 2.9984000000 1.0118000000
5.7489000000 5.5221000000 1.0930000000
5.5139000000 7.5399000000 0.1146000000
5.5125000000 7.8749000000 0.0612000000
5.5112000000 6.4253000000 0.7949000000
5.5109000000 7.8482000000 0.0098000000
5.5098000000 6.6908000000 0.6323000000
5.5090000000 5.8815000000 1.1227000000
5.5084000000 7.3784000000 0.2215000000
5.5081000000 6.2170000000 0.9284000000
5.5080000000 3.5168000000 1.5764000000
5.5076000000 7.0788000000 0.3992000000
5.5073000000 7.1320000000 0.3743000000
5.5072000000 6.8985000000 0.5111000000
5.5069000000 3.6042000000 1.6351000000
5.5067000000 3.4789000000 1.5657000000
5.5065000000 3.0489000000 1.3005000000
5.5062000000 5.9684000000 1.0741000000
5.5060000000 4.2052000000 1.9982000000
5.5057000000 0.9573000000 0.1099000000
5.5053000000 1.8434000000 0.5695000000
5.5050000000 4.3124000000 2.0449000000
5.5049000000 2.6594000000 1.0643000000
5.5047000000 5.5097000000 1.3551000000
5.5044000000 6.2211000000 0.9260000000
5.5040000000 1.7503000000 0.5202000000
5.5038000000 6.5954000000 0.7009000000
5.5036000000 5.0612000000 1.6234000000
5.5032000000 1.7218000000 0.4991000000
5.5029000000 6.3113000000 0.8710000000
5.5022000000 7.2652000000 0.2897000000
5.5019000000 2.7184000000 1.1030000000
5.5015000000 2.4696000000 0.9515000000
5.5013000000 2.2447000000 0.8173000000
5.5004000000 3.8584000000 1.7902000000
5.4990000000 0.7253000000 0.0513000000
5.4980000000 4.0180000000 1.8979000000
5.2618000000 6.6506000000 0.9181000000
5.2603000000 8.1821000000 0.0658000000
5.2602000000 7.2250000000 0.5711000000
5.2598000000 7.6389000000 0.3212000000
5.2592000000 6.4845000000 1.0223000000
5.2587000000 5.2063000000 1.7898000000
5.2585000000 8.1508000000 0.0927000000
5.2583000000 7.2212000000 0.5734000000
5.2580000000 1.9007000000 0.8642000000
5.2575000000 4.6118000000 2.1543000000
5.2573000000 1.8459000000 0.8288000000
5.2569000000 5.4544000000 1.6383000000
5.2567000000 1.6631000000 0.7198000000
5.2565000000 5.1126000000 1.8468000000
5.2563000000 7.6421000000 0.3208000000
5.2558000000 4.7536000000 2.0694000000
5.2556000000 3.8777000000 2.0647000000
5.2554000000 5.4621000000 1.6432000000
5.2551000000 0.3778000000 0.0966000000
5.2547000000 7.6260000000 0.3368000000
5.2546000000 7.8648000000 0.1905000000
5.2542000000 7.8989000000 0.1747000000
5.2539000000 1.0850000000 0.3740000000
5.2536000000 8.2086000000 0.0584000000
5.2533000000 4.2604000000 2.2959000000
5.2531000000 2.0761000000 0.9712000000
5.2530000000 0.9988000000 0.3240000000
5.2527000000 5.3830000000 1.6983000000
5.2524000000 5.4909000000 1.6294000000
5.2518000000 5.4228000000 1.6699000000
5.2513000000 0.5091000000 0.1042000000
5.2511000000 5.2269000000 1.7862000000
5.2505000000 1.2898000000 0.5035000000
5.2501000000 1.2188000000 0.4611000000
5.2498000000 0.9411000000 0.2916000000
5.2493000000 2.2232000000 1.0663000000
5.2479000000 0.5365000000 0.1244000000
5.2443000000 1.0812000000 0.3841000000
5.0152000000 8.5318000000 0.1081000000
5.0134000000 5.1072000000 2.1133000000
5.0127000000 5.7916000000 1.6972000000
5.0115000000 5.9058000000 1.6302000000
5.0106000000 8.4234000000 0.1101000000
5.0104000000 4.7183000000 2.3486000000
5.0098000000 6.5922000000 1.2179000000
5.0093000000 7.5054000000 0.6586000000
5.0089000000 2.5521000000 1.5163000000
5.0087000000 7.4220000000 0.7146000000
5.0083000000 1.2040000000 0.7058000000
5.0080000000 5.9160000000 1.6285000000
5.0078000000 7.4359000000 0.7083000000
5.0075000000 2.3673000000 1.4142000000
5.0073000000 0.6811000000 0.3903000000
5.0071000000 4.3499000000 2.5571000000
5.0067000000 6.8381000000 1.0748000000
5.0064000000 7.7909000000 0.4984000000
5.0062000000 0.6378000000 0.3619000000
5.0060000000 7.3586000000 0.7546000000
5.0058000000 1.8570000000 1.1049000000
5.0056000000 4.7964000000 2.3062000000
5.0054000000 2.9301000000 1.7543000000
5.0051000000 4.6039000000 2.4242000000
5.0050000000 3.3574000000 2.0130000000
5.0049000000 3.1523000000 1.8833000000
5.0046000000 4.0793000000 2.4416000000
5.0044000000 3.7382000000 2.2394000000
5.0042000000 1.6688000000 0.9942000000
5.0040000000 6.6445000000 1.1930000000
5.0037000000 3.8137000000 2.2829000000
5.0035000000 1.0807000000 0.6363000000
5.0033000000 2.2053000000 1.3100000000
5.0028000000 1.5620000000 0.9250000000
5.0028000000 0.4191000000 0.2358000000
5.0024000000 5.7863000000 1.7092000000
5.0021000000 3.3924000000 2.0319000000
5.0019000000 2.9582000000 1.7719000000
5.0015000000 2.6761000000 1.6052000000
5.0013000000 1.4190000000 0.8370000000
5.0007000000 0.6863000000 0.3988000000
5.0004000000 2.9967000000 1.7961000000
5.0002000000 5.4558000000 1.9117000000
5.0000000000 2.2952000000 1.3702000000
4.9994000000 1.6933000000 1.0051000000
4.9988000000 3.8682000000 2.3265000000
4.9979000000 0.8786000000 0.5154000000
4.9968000000 4.8160000000 2.3035000000
4.7646000000 8.0237000000 0.6123000000
4.7624000000 5.0161000000 2.4259000000
4.7615000000 4.1779000000 2.7613000000
4.7598000000 8.5555000000 0.1033000000
4.7593000000 3.5745000000 2.4039000000
4.7589000000 8.3397000000 0.3494000000
4.7586000000 6.7287000000 1.3981000000
4.7583000000 3.0380000000 2.0767000000
4.7580000000 7.7342000000 0.7922000000
4.7574000000 6.2218000000 1.7051000000
4.7573000000 4.9975000000 2.4488000000
4.7571000000 3.4025000000 2.2963000000
4.7570000000 2.3450000000 1.6575000000
4.7566000000 6.5482000000 1.5091000000
4.7563000000 4.4915000000 2.7496000000
4.7561000000 7.0159000000 1.2240000000
4.7559000000 2.1372000000 1.5327000000
4.7558000000 0.4690000000 0.5086000000
4.7556000000 7.3380000000 1.0334000000
4.7553000000 6.9289000000 1.2830000000
4.7551000000 7.5637000000 0.8956000000
4.7549000000 2.6216000000 1.8266000000
4.7545000000 2.2544000000 1.6010000000
4.7544000000 5.7663000000 1.9834000000
4.7542000000 1.2310000000 0.9866000000
4.7539000000 3.3952000000 2.2966000000
4.7538000000 1.1939000000 0.9665000000
4.7536000000 5.2583000000 2.2921000000
4.7533000000 2.2600000000 1.6071000000
4.7530000000 6.7565000000 1.3843000000
4.7529000000 6.1269000000 1.7659000000
4.7527000000 4.8216000000 2.5559000000
4.7525000000 0.2306000000 0.2713000000
4.7522000000 0.4591000000 0.5053000000
4.7518000000 1.5959000000 1.2060000000
4.7514000000 5.8054000000 1.9646000000
4.7511000000 5.9882000000 1.8564000000
4.7506000000 3.8286000000 2.5552000000
4.7503000000 6.3618000000 1.6273000000
4.7498000000 2.1836000000 1.5647000000
4.7491000000 3.6605000000 2.4594000000
4.7481000000 6.7577000000 1.3905000000
4.7472000000 1.6366000000 1.2407000000
4.5154000000 6.2553000000 1.9370000000
4.5133000000 4.9041000000 2.7587000000
4.5117000000 8.1684000000 0.5743000000
4.5103000000 7.9986000000 0.7803000000
4.5100000000 2.5985000000 2.0687000000
4.5093000000 3.1212000000 2.3914000000
4.5092000000 7.4934000000 1.1968000000
4.5090000000 5.3181000000 2.5057000000
4.5087000000 6.2111000000 1.9725000000
4.5082000000 3.9256000000 2.8662000000
4.5079000000 5.6268000000 2.3279000000
4.5076000000 6.8135000000 1.6087000000
4.5073000000 4.9704000000 2.7197000000
4.5071000000 6.9149000000 1.5558000000
4.5068000000 6.7320000000 1.6630000000
4.5065000000 5.4398000000 2.4368000000
4.5063000000 8.0416000000 0.7271000000
4.5061000000 6.8338000000 1.5979000000
4.5060000000 5.9684000000 2.1259000000
4.5058000000 7.0451000000 1.4700000000
4.5056000000 2.9395000000 2.2760000000
4.5055000000 2.2998000000 1.8961000000
4.5052000000 2.3241000000 1.9113000000
4.5051000000 1.1629000000 1.2076000000
4.5049000000 1.8716000000 1.6338000000
4.5045000000 0.5055000000 0.6037000000
4.5041000000 4.4473000000 3.0402000000
4.5039000000 0.1167000000 0.1348000000
4.5037000000 6.6625000000 1.7049000000
4.5035000000 4.7197000000 2.8777000000
4.5033000000 2.2000000000 1.8355000000
4.5030000000 3.2958000000 2.4980000000
4.5028000000 1.3387000000 1.3137000000
4.5025000000 4.8496000000 2.8083000000
4.5023000000 1.9452000000 1.6809000000
4.5018000000 8.2653000000 0.4531000000
4.5015000000 2.6046000000 2.0820000000
4.5013000000 2.5226000000 2.0347000000
4.5010000000 0.6193000000 0.7441000000
4.5005000000 2.1593000000 1.8168000000
4.4998000000 1.2355000000 1.2527000000
4.4995000000 4.9472000000 2.7485000000
4.4980000000 2.7787000000 2.1843000000
4.4949000000 0.7841000000 0.9237000000
4.2627000000 8.4613000000 0.2160000000
4.2618000000 5.6000000000 2.6007000000
4.2605000000 3.3350000000 2.7761000000
4.2602000000 7.5808000000 1.2816000000
4.2595000000 5.3608000000 2.7478000000
4.2590000000 7.9246000000 0.8671000000
4.2583000000 4.6909000000 3.1589000000
4.2580000000 7.7020000000 1.1388000000
4.2577000000 3.1482000000 2.6669000000
4.2575000000 6.6832000000 1.9456000000
4.2572000000 6.0011000000 2.3631000000
4.2575000000 2.2612000000 2.1348000000
4.2568000000 4.5592000000 3.2408000000
4.2565000000 7.5381000000 1.3396000000
4.2562000000 8.2889000000 0.4266000000
4.2557000000 4.7817000000 3.1018000000
4.2555000000 1.5166000000 1.6831000000
4.2553000000 3.1443000000 2.6623000000
4.2551000000 6.0287000000 2.3484000000
4.2549000000 2.5159000000 2.2899000000
4.2548000000 1.4151000000 1.6276000000
4.2545000000 5.1452000000 2.8812000000
4.2543000000 7.4783000000 1.3983000000
4.2540000000 7.0339000000 1.7405000000
4.2538000000 1.8294000000 1.8761000000
4.2531000000 1.1454000000 1.3784000000
4.2530000000 6.7099000000 1.9331000000
4.2527000000 5.9197000000 2.4121000000
4.2523000000 1.4470000000 1.6449000000
4.2522000000 3.2467000000 2.7264000000
4.2520000000 2.2443000000 2.1217000000
4.2515000000 6.8392000000 1.8647000000
4.2511000000 1.9008000000 1.9172000000
4.2508000000 6.8268000000 1.8780000000
4.2506000000 3.0099000000 2.5913000000
4.2503000000 0.5772000000 0.6948000000
4.2498000000 7.2887000000 1.5754000000
4.2492000000 0.8416000000 1.0108000000
4.2488000000 1.5580000000 1.7182000000
4.2478000000 2.6854000000 2.3978000000
4.2473000000 6.1282000000 2.2974000000
4.2438000000 0.8969000000 1.0823000000
4.0127000000 8.0126000000 0.7603000000
4.0121000000 7.4735000000 1.4161000000
4.0113000000 2.3262000000 2.4255000000
4.0102000000 6.5733000000 2.2720000000
4.0097000000 8.0362000000 0.7360000000
4.0093000000 8.3287000000 0.3767000000
4.0084000000 2.2568000000 2.3937000000
4.0081000000 4.6642000000 3.4296000000
4.0079000000 3.3191000000 3.0312000000
4.0076000000 5.2433000000 3.0824000000
4.0074000000 5.2797000000 3.0543000000
4.0073000000 3.4144000000 3.0893000000
4.0071000000 2.9764000000 2.8202000000
4.0069000000 1.3282000000 1.6017000000
4.0065000000 6.6492000000 2.2352000000
4.0060000000 7.6687000000 1.1778000000
4.0059000000 6.8613000000 2.0853000000
4.0056000000 0.8033000000 0.9690000000
4.0054000000 8.0298000000 0.7422000000
4.0051000000 3.6958000000 3.2615000000
4.0050000000 7.7777000000 1.0418000000
4.0047000000 6.5357000000 2.3007000000
4.0045000000 3.0695000000 2.8797000000
4.0043000000 4.5977000000 3.4784000000
4.0041000000 4.9434000000 3.2651000000
4.0039000000 4.5874000000 3.4851000000
4.0038000000 5.8192000000 2.7418000000
4.0034000000 1.4358000000 1.7308000000
4.0033000000 2.4306000000 2.4980000000
4.0029000000 1.9484000000 2.2084000000
4.0026000000 8.4828000000 0.1941000000
4.0025000000 1.7551000000 2.0738000000
4.0023000000 3.1567000000 2.9401000000
4.0020000000 0.4504000000 0.5396000000
4.0015000000 2.3679000000 2.4601000000
4.0013000000 8.3307000000 0.3725000000
4.0008000000 0.6011000000 0.7205000000
4.0005000000 1.4656000000 1.7646000000
4.0002000000 6.1119000000 2.5675000000
3.9998000000 2.9821000000 2.8369000000
3.9990000000 5.5533000000 2.9019000000
3.9982000000 2.0759000000 2.2867000000
3.7634000000 7.1016000000 1.8663000000
3.7620000000 7.1396000000 1.8146000000
3.7615000000 7.9223000000 0.8673000000
3.7608000000 7.1950000000 1.7576000000
3.7600000000 8.1345000000 0.6156000000
3.7595000000 5.7829000000 3.0175000000
3.7592000000 2.1574000000 2.5693000000
3.7588000000 2.5538000000 2.8309000000
3.7585000000 7.6746000000 1.1696000000
3.7582000000 3.8119000000 3.5871000000
3.7578000000 6.4137000000 2.6235000000
3.7575000000 5.8045000000 3.0077000000
3.7572000000 6.4352000000 2.6062000000
3.7570000000 4.2258000000 3.8382000000
3.7569000000 5.0497000000 3.4608000000
3.7567000000 5.3474000000 3.2822000000
3.7565000000 5.5680000000 3.1486000000
3.7563000000 2.4483000000 2.7651000000
3.7561000000 3.3096000000 3.2905000000
3.7558000000 4.3814000000 3.8624000000
3.7555000000 1.5006000000 1.8092000000
3.7553000000 5.0880000000 3.4463000000
3.7551000000 5.7649000000 3.0350000000
3.7548000000 2.6885000000 2.9165000000
3.7545000000 0.9096000000 1.0974000000
3.7542000000 7.8890000000 0.9103000000
3.7540000000 8.3958000000 0.2970000000
3.7538000000 6.0278000000 2.8733000000
3.7537000000 2.8404000000 3.0107000000
3.7534000000 8.5053000000 0.1680000000
3.7533000000 7.6430000000 1.2056000000
3.7530000000 8.3509000000 0.3562000000
3.7525000000 0.3490000000 0.4227000000
3.7521000000 5.9228000000 2.9377000000
3.7519000000 4.5029000000 3.7938000000
3.7516000000 8.6477000000 0.0653000000
3.7513000000 7.3247000000 1.5905000000
3.7508000000 2.3407000000 2.7082000000
3.7501000000 1.4859000000 1.7905000000
3.7497000000 4.0617000000 3.7457000000
3.7491000000 4.3410000000 3.8792000000
3.7486000000 0.9983000000 1.2030000000
3.7466000000 4.8476000000 3.5920000000
3.5151000000 8.5076000000 0.1589000000
3.5119000000 7.5065000000 1.3701000000
3.5108000000 1.0559000000 1.2690000000
3.5106000000 8.4871000000 0.1874000000
3.5103000000 4.4575000000 4.0773000000
3.5101000000 4.8992000000 3.8109000000
3.5095000000 5.6193000000 3.3741000000
3.5091000000 3.2124000000 3.4885000000
3.5087000000 2.6510000000 3.1312000000
3.5083000000 6.2257000000 2.9215000000
3.5081000000 6.0140000000 3.1192000000
3.5075000000 3.0170000000 3.3703000000
3.5072000000 7.5429000000 1.3302000000
3.5070000000 1.3156000000 1.5878000000
3.5068000000 2.3283000000 2.8087000000
3.5064000000 8.1291000000 0.6221000000
3.5060000000 2.2420000000 2.7055000000
3.5059000000 4.3556000000 4.1248000000
3.5057000000 7.8527000000 0.9578000000
3.5056000000 1.1327000000 1.3668000000
3.5054000000 3.6487000000 3.7611000000
3.5051000000 8.4505000000 0.2285000000
3.5046000000 6.7625000000 2.2768000000
3.5044000000 2.3689000000 2.8643000000
3.5042000000 0.1814000000 0.2087000000
3.5040000000 3.6410000000 3.7483000000
3.5038000000 4.8659000000 3.8376000000
3.5036000000 8.4225000000 0.2667000000
3.5033000000 0.4872000000 0.5805000000
3.5031000000 1.1579000000 1.3917000000
3.5030000000 1.3832000000 1.6641000000
3.5027000000 5.4776000000 3.4669000000
3.5025000000 1.6928000000 2.0395000000
3.5024000000 0.9250000000 1.1070000000
3.5022000000 0.1860000000 0.2203000000
3.5020000000 2.0280000000 2.4450000000
3.5016000000 7.8836000000 0.9135000000
3.5015000000 1.5989000000 1.9304000000
3.5010000000 4.7270000000 3.9200000000
3.5008000000 0.2457000000 0.2944000000
3.5002000000 4.2122000000 4.1016000000
3.4997000000 3.0394000000 3.3910000000
3.4992000000 0.8016000000 0.9631000000
3.4986000000 4.0648000000 4.0126000000
3.4979000000 1.2337000000 1.4813000000
3.4977000000 7.3874000000 1.5142000000
3.4966000000 7.4783000000 1.4047000000
3.4959000000 5.3480000000 3.5518000000
3.4942000000 1.7564000000 2.1240000000
3.2638000000 5.4273000000 3.7473000000
3.2629000000 7.8752000000 0.9361000000
3.2628000000 5.3108000000 3.8211000000
3.2620000000 5.4381000000 3.7419000000
3.2611000000 5.4390000000 3.7427000000
3.2605000000 4.3206000000 4.3992000000
3.2592000000 4.0384000000 4.2464000000
3.2590000000 4.8241000000 4.1191000000
3.2584000000 6.3707000000 2.7466000000
3.2580000000 8.5116000000 0.1570000000
3.2577000000 5.6648000000 3.5819000000
3.2575000000 0.1620000000 0.1962000000
3.2571000000 3.8659000000 4.1452000000
3.2569000000 8.3213000000 0.3851000000
3.2568000000 7.0236000000 1.9572000000
3.2565000000 1.6843000000 2.0259000000
3.2564000000 3.8219000000 4.1241000000
3.2562000000 6.9272000000 2.0775000000
3.2560000000 0.7800000000 0.9364000000
3.2557000000 0.2203000000 0.2635000000
3.2555000000 3.5561000000 3.9622000000
3.2554000000 6.4575000000 2.6445000000
3.2552000000 1.2129000000 1.4586000000
3.2550000000 1.5326000000 1.8435000000
3.2548000000 5.7738000000 3.4718000000
3.2546000000 0.7925000000 0.9551000000
3.2543000000 1.1017000000 1.3266000000
3.2542000000 4.3434000000 4.3946000000
3.2536000000 0.5486000000 0.6584000000
3.2535000000 2.4461000000 2.9508000000
3.2532000000 4.2218000000 4.3675000000
3.2528000000 0.6535000000 0.7874000000
3.2527000000 0.6803000000 0.8172000000
3.2523000000 1.9682000000 2.3669000000
3.2521000000 8.1080000000 0.6456000000
3.2517000000 2.1046000000 2.5394000000
3.2515000000 4.7699000000 4.1615000000
3.2512000000 3.9678000000 4.2152000000
3.2509000000 1.3000000000 1.5717000000
3.2504000000 1.3826000000 1.6611000000
3.2498000000 8.1940000000 0.5414000000
3.2496000000 0.7666000000 0.9221000000
3.2493000000 3.1177000000 3.6965000000
3.2488000000 1.2486000000 1.5017000000
3.0125000000 8.3039000000 0.4084000000
3.0112000000 6.8886000000 2.1212000000
3.0103000000 4.1672000000 4.5855000000
3.0098000000 1.1217000000 1.3544000000
3.0095000000 7.1987000000 1.7456000000
3.0092000000 3.1422000000 3.7932000000
3.0088000000 0.8746000000 1.0499000000
3.0085000000 3.9244000000 4.4439000000
3.0079000000 6.8885000000 2.1185000000
3.0078000000 0.8015000000 0.9634000000
3.0074000000 7.0594000000 1.9160000000
3.0070000000 1.6334000000 1.9666000000
3.0068000000 6.7691000000 2.2668000000
3.0063000000 8.0806000000 0.6822000000
3.0062000000 5.4645000000 3.8413000000
3.0058000000 1.7475000000 2.1084000000
3.0055000000 4.4080000000 4.6368000000
3.0054000000 8.2330000000 0.4914000000
3.0052000000 5.2939000000 4.0345000000
3.0048000000 6.8976000000 2.1105000000
3.0045000000 2.9886000000 3.6091000000
3.0042000000 7.0376000000 1.9388000000
3.0041000000 4.2376000000 4.6345000000
3.0038000000 5.8204000000 3.4072000000
3.0036000000 3.3788000000 4.0583000000
3.0034000000 2.5795000000 3.1131000000
3.0032000000 3.1786000000 3.8388000000
3.0027000000 8.2977000000 0.4195000000
3.0023000000 5.5654000000 3.7192000000
3.0020000000 7.6028000000 1.2574000000
3.0017000000 4.1998000000 4.6193000000
3.0015000000 6.9436000000 2.0570000000
3.0011000000 5.9789000000 3.2206000000
3.0010000000 3.8943000000 4.4370000000
3.0006000000 2.2075000000 2.6606000000
3.0002000000 1.2303000000 1.4800000000
3.0000000000 1.0131000000 1.2172000000
2.9997000000 0.2374000000 0.2834000000
2.9989000000 0.1102000000 0.1284000000
2.9981000000 4.1247000000 4.5748000000
2.9970000000 1.4193000000 1.7094000000
2.7662000000 6.9995000000 1.9847000000
2.7624000000 8.2379000000 0.4918000000
2.7620000000 7.2316000000 1.7062000000
2.7608000000 5.8104000000 3.4207000000
2.7597000000 5.3514000000 3.9809000000
2.7595000000 7.0395000000 1.9360000000
2.7584000000 8.4484000000 0.2430000000
2.7581000000 8.3706000000 0.3337000000
2.7577000000 6.7519000000 2.2860000000
2.7574000000 7.6710000000 1.1765000000
2.7570000000 0.1690000000 0.1994000000
2.7568000000 2.5736000000 3.1073000000
2.7565000000 7.2891000000 1.6354000000
2.7563000000 4.6968000000 4.6999000000
2.7561000000 5.4687000000 3.8402000000
2.7559000000 3.2816000000 3.9595000000
2.7557000000 7.0380000000 1.9359000000
2.7554000000 3.4872000000 4.2112000000
2.7553000000 1.6954000000 2.0453000000
2.7550000000 0.6367000000 0.7633000000
2.7549000000 3.1996000000 3.8618000000
2.7546000000 3.8925000000 4.6707000000
2.7545000000 4.8185000000 4.6031000000
2.7541000000 6.8235000000 2.1982000000
2.7540000000 7.6485000000 1.1991000000
2.7537000000 4.8798000000 4.5470000000
2.7535000000 1.6566000000 1.9977000000
2.7534000000 3.6889000000 4.4567000000
2.7530000000 4.7870000000 4.6395000000
2.7527000000 6.0428000000 3.1484000000
2.7524000000 3.9926000000 4.7491000000
2.7516000000 2.1381000000 2.5843000000
2.7513000000 0.2992000000 0.3613000000
2.7508000000 7.3910000000 1.5116000000
2.7504000000 2.8302000000 3.4158000000
2.7500000000 0.0581000000 0.1409000000
2.7496000000 0.3759000000 0.4501000000
2.7490000000 0.7654000000 0.9151000000
2.7483000000 0.8355000000 1.0052000000
2.7474000000 0.0877000000 0.1050000000
2.5131000000 8.4081000000 0.2866000000
2.5123000000 7.8682000000 0.9382000000
2.5109000000 0.4951000000 0.5909000000
2.5103000000 7.0072000000 1.9795000000
2.5099000000 7.9102000000 0.8877000000
2.5096000000 1.2826000000 1.5443000000
2.5090000000 3.7985000000 4.5879000000
2.5088000000 6.8002000000 2.2264000000
2.5085000000 8.0641000000 0.7026000000
2.5081000000 7.6565000000 1.1949000000
2.5074000000 7.9976000000 0.7860000000
2.5070000000 3.9210000000 4.7335000000
2.5069000000 4.2443000000 5.1284000000
2.5068000000 5.4249000000 3.8921000000
2.5065000000 5.7943000000 3.4441000000
2.5061000000 1.4263000000 1.7227000000
2.5060000000 3.0763000000 3.7179000000
2.5058000000 2.7208000000 3.2793000000
2.5056000000 5.8049000000 3.4292000000
2.5054000000 1.3822000000 1.6660000000
2.5051000000 4.5877000000 4.9079000000
2.5048000000 7.6157000000 1.2418000000
2.5045000000 6.6138000000 2.4558000000
2.5044000000 5.1350000000 4.2428000000
2.5041000000 8.4165000000 0.2796000000
2.5038000000 3.2948000000 3.9756000000
2.5035000000 2.3792000000 2.8679000000
2.5033000000 0.9175000000 1.1005000000
2.5031000000 1.0512000000 1.2622000000
2.5028000000 0.5877000000 0.7010000000
2.5026000000 0.0238000000 0.1017000000
2.5023000000 4.4575000000 5.0584000000
2.5020000000 2.4580000000 2.9652000000
2.5017000000 7.1256000000 1.8317000000
2.5014000000 4.8669000000 4.5633000000
2.5008000000 0.4046000000 0.4827000000
2.5006000000 5.5820000000 3.7015000000
2.5000000000 3.5769000000 4.3167000000
2.4998000000 2.8597000000 3.4577000000
2.4995000000 3.3414000000 4.0387000000
2.4991000000 6.5646000000 2.5120000000
2.4976000000 2.6197000000 3.1648000000
2.4965000000 4.3375000000 5.1329000000
2.2646000000 8.3003000000 0.4101000000
2.2623000000 2.5393000000 3.0646000000
2.2610000000 5.9665000000 3.2395000000
2.2605000000 5.5801000000 3.7023000000
2.2589000000 7.4854000000 1.3972000000
2.2586000000 3.5336000000 4.2716000000
2.2582000000 8.3748000000 0.3239000000
2.2580000000 6.5483000000 2.5285000000
2.2577000000 5.2586000000 4.0894000000
2.2575000000 1.2543000000 1.5127000000
2.2571000000 6.6278000000 2.4374000000
2.2566000000 1.5893000000 1.9124000000
2.2564000000 5.7088000000 3.5512000000
2.2563000000 6.5492000000 2.5343000000
2.2561000000 4.4969000000 4.8709000000
2.2560000000 4.2491000000 4.9276000000
2.2557000000 7.4600000000 1.4275000000
2.2553000000 1.6153000000 1.9457000000
2.2550000000 2.4927000000 3.0118000000
2.2548000000 3.3593000000 4.0548000000
2.2546000000 2.9938000000 3.6160000000
2.2545000000 2.1623000000 2.6075000000
2.2544000000 0.9549000000 1.1505000000
2.2541000000 8.1036000000 0.6558000000
2.2539000000 1.4081000000 1.6984000000
2.2535000000 5.7626000000 3.4802000000
2.2534000000 0.2252000000 0.2665000000
2.2533000000 6.0574000000 3.1284000000
2.2529000000 5.5444000000 3.7484000000
2.2528000000 6.5189000000 2.5650000000
2.2526000000 5.6452000000 3.6253000000
2.2524000000 0.8258000000 0.9971000000
2.2523000000 5.2793000000 4.0678000000
2.2520000000 1.0673000000 1.2846000000
2.2517000000 3.6365000000 4.3944000000
2.2514000000 1.4460000000 1.7403000000
2.2513000000 3.1624000000 3.8144000000
2.2512000000 0.6047000000 0.7331000000
2.2510000000 7.7764000000 1.0501000000
2.2509000000 0.8623000000 1.0333000000
2.2501000000 5.6801000000 3.5798000000
2.2498000000 5.6594000000 3.6020000000
2.2494000000 5.7624000000 3.4876000000
2.2475000000 3.1021000000 3.7427000000
2.2451000000 6.0080000000 3.1836000000
2.2446000000 1.4505000000 1.7558000000
2.0127000000 6.4929000000 2.6019000000
2.0115000000 3.7647000000 4.3758000000
2.0110000000 7.2241000000 1.7186000000
2.0095000000 8.6758000000 0.0348000000
2.0091000000 1.9983000000 2.4100000000
2.0086000000 5.5485000000 3.7405000000
2.0081000000 6.4935000000 2.5963000000
2.0076000000 3.7377000000 4.3555000000
2.0074000000 6.8910000000 2.1158000000
2.0070000000 3.5013000000 4.1904000000
2.0065000000 2.3727000000 2.8649000000
2.0062000000 5.3059000000 4.0408000000
2.0060000000 0.9027000000 1.0834000000
2.0057000000 5.9137000000 3.2986000000
2.0055000000 1.7506000000 2.1097000000
2.0052000000 0.0233000000 0.0968000000
2.0050000000 1.7440000000 2.1020000000
2.0048000000 4.3377000000 4.6833000000
2.0046000000 2.6295000000 3.1720000000
2.0044000000 8.0517000000 0.7141000000
2.0041000000 8.5892000000 0.1396000000
2.0037000000 0.7889000000 0.9526000000
2.0035000000 8.0290000000 0.7387000000
2.0034000000 4.3170000000 4.6866000000
2.0032000000 2.2593000000 2.7246000000
2.0029000000 2.3901000000 2.8817000000
2.0025000000 7.5556000000 1.3177000000
2.0022000000 1.4709000000 1.7746000000
2.0018000000 3.4370000000 4.1295000000
2.0015000000 7.2784000000 1.6520000000
2.0011000000 6.8244000000 2.1915000000
2.0009000000 0.4688000000 0.5683000000
2.0004000000 2.1081000000 2.5440000000
2.0001000000 7.0509000000 1.9226000000
1.9998000000 3.1268000000 3.7737000000
1.9995000000 6.4774000000 2.6209000000
1.9992000000 3.1268000000 3.7730000000
1.9986000000 1.9495000000 2.3496000000
1.9966000000 3.9160000000 4.4517000000
1.9949000000 0.7576000000 0.9103000000
1.7635000000 6.7442000000 2.2928000000
1.7618000000 4.4946000000 4.3498000000
1.7609000000 2.5073000000 3.0312000000
1.7603000000 6.7046000000 2.3385000000
1.7601000000 6.5051000000 2.5854000000
1.7595000000 4.8537000000 4.1256000000
1.7590000000 6.1233000000 3.0457000000
1.7584000000 7.5604000000 1.3109000000
1.7581000000 3.3182000000 3.8464000000
1.7575000000 3.3602000000 3.8683000000
1.7574000000 7.6949000000 1.1456000000
1.7572000000 7.7053000000 1.1305000000
1.7570000000 3.9575000000 4.2268000000
1.7567000000 6.5770000000 2.4968000000
1.7564000000 3.7584000000 4.1018000000
1.7562000000 1.4797000000 1.7848000000
1.7560000000 0.0923000000 0.1084000000
1.7558000000 8.4089000000 0.2825000000
1.7556000000 6.4784000000 2.6183000000
1.7550000000 7.7573000000 1.0694000000
1.7548000000 7.0568000000 1.9174000000
1.7545000000 6.3978000000 2.7155000000
1.7542000000 1.6456000000 1.9829000000
1.7540000000 2.6083000000 3.1488000000
1.7536000000 3.8878000000 4.1830000000
1.7534000000 2.1474000000 2.5890000000
1.7531000000 2.9141000000 3.5185000000
1.7529000000 4.1894000000 4.3660000000
1.7526000000 4.8657000000 4.1219000000
1.7523000000 0.4681000000 0.5658000000
1.7520000000 5.1574000000 3.9377000000
1.7515000000 0.7601000000 0.9115000000
1.7512000000 0.6093000000 0.7283000000
1.7505000000 0.2137000000 0.2528000000
1.7501000000 0.6828000000 0.8160000000
1.7498000000 0.1617000000 0.1916000000
1.7486000000 0.0501000000 0.1297000000
1.7484000000 1.5934000000 1.9196000000
1.7475000000 2.3973000000 2.8934000000
1.7466000000 0.5940000000 0.7169000000
1.5145000000 7.5231000000 1.3547000000
1.5121000000 8.1633000000 0.5819000000
1.5114000000 4.5521000000 4.0514000000
1.5098000000 4.9397000000 3.8146000000
1.5088000000 7.1484000000 1.8098000000
1.5087000000 5.9104000000 3.2288000000
1.5084000000 7.8469000000 0.9628000000
1.5080000000 6.5685000000 2.5072000000
1.5076000000 7.3755000000 1.5325000000
1.5074000000 7.9261000000 0.8732000000
1.5073000000 4.2884000000 4.1429000000
1.5068000000 3.5016000000 3.6907000000
1.5067000000 0.3233000000 0.3890000000
1.5064000000 4.5068000000 4.0728000000
1.5061000000 4.8878000000 3.8414000000
1.5058000000 2.8335000000 3.2874000000
1.5057000000 7.8317000000 0.9839000000
1.5055000000 6.6462000000 2.4102000000
1.5053000000 7.4543000000 1.4390000000
1.5051000000 3.3864000000 3.6219000000
1.5046000000 2.7149000000 3.2072000000
1.5044000000 7.7610000000 1.0674000000
1.5042000000 2.9625000000 3.3649000000
1.5040000000 5.2351000000 3.6339000000
1.5036000000 2.1334000000 2.5705000000
1.5033000000 5.1724000000 3.6735000000
1.5028000000 2.0813000000 2.5077000000
1.5027000000 2.0736000000 2.5061000000
1.5023000000 4.8274000000 3.8796000000
1.5021000000 5.9163000000 3.2198000000
1.5020000000 1.2792000000 1.5466000000
1.5013000000 3.9473000000 3.9504000000
1.5007000000 3.2408000000 3.5255000000
1.5003000000 1.0403000000 1.2536000000
1.5001000000 3.9385000000 3.9426000000
1.4990000000 1.5694000000 1.8910000000
1.4983000000 0.8310000000 1.0013000000
1.4972000000 0.1610000000 0.1837000000
1.4963000000 5.8555000000 3.2522000000
1.2616000000 8.2579000000 0.4637000000
1.2600000000 6.2165000000 2.7876000000
1.2593000000 5.2965000000 3.3420000000
1.2590000000 1.2998000000 1.5661000000
1.2585000000 5.5212000000 3.1996000000
1.2581000000 1.5077000000 1.8150000000
1.2578000000 3.7821000000 3.6015000000
1.2575000000 4.0708000000 3.7752000000
1.2573000000 7.6038000000 1.2560000000
1.2570000000 5.4108000000 3.2648000000
1.2568000000 4.8896000000 3.5841000000
1.2564000000 4.2600000000 3.8848000000
1.2562000000 7.7090000000 1.1286000000
1.2560000000 5.9138000000 2.9660000000
1.2558000000 8.2781000000 0.4431000000
1.2555000000 7.6827000000 1.1633000000
1.2552000000 5.1220000000 3.4432000000
1.2550000000 5.6498000000 3.1195000000
1.2548000000 8.4479000000 0.2371000000
1.2546000000 7.1262000000 1.8308000000
1.2543000000 2.5785000000 2.8656000000
1.2541000000 4.4192000000 3.8653000000
1.2539000000 3.4945000000 3.4189000000
1.2538000000 5.5704000000 3.1686000000
1.2536000000 6.1594000000 2.8149000000
1.2534000000 4.9634000000 3.5319000000
1.2532000000 3.0303000000 3.1397000000
1.2530000000 0.5559000000 0.6650000000
1.2525000000 1.1924000000 1.4356000000
1.2522000000 4.1364000000 3.8131000000
1.2521000000 3.4505000000 3.3885000000
1.2518000000 1.2449000000 1.5086000000
1.2514000000 2.5341000000 2.8369000000
1.2509000000 4.0404000000 3.7528000000
1.2506000000 1.6115000000 1.9480000000
1.2499000000 0.6751000000 0.8126000000
1.2493000000 1.2312000000 1.4886000000
1.2485000000 2.3223000000 2.7070000000
1.2472000000 7.8394000000 0.9687000000
1.2403000000 1.4673000000 1.7715000000
1.0124000000 5.7723000000 2.7963000000
1.0103000000 3.0555000000 2.9018000000
1.0098000000 6.7621000000 2.1896000000
1.0094000000 5.4382000000 2.9937000000
1.0089000000 4.2334000000 3.6150000000
1.0082000000 7.6940000000 1.1461000000
1.0080000000 4.3305000000 3.6429000000
1.0074000000 5.6633000000 2.8530000000
1.0070000000 8.4501000000 0.2336000000
1.0068000000 8.1441000000 0.5983000000
1.0065000000 6.6645000000 2.2472000000
1.0062000000 7.0037000000 1.9647000000
1.0060000000 3.9051000000 3.4095000000
1.0059000000 3.4704000000 3.1445000000
1.0055000000 7.5606000000 1.3064000000
1.0053000000 0.9352000000 1.1321000000
1.0050000000 5.1871000000 3.1364000000
1.0047000000 7.3323000000 1.5845000000
1.0045000000 4.2930000000 3.6186000000
1.0043000000 5.4887000000 2.9561000000
1.0042000000 4.5360000000 3.5320000000
1.0040000000 4.2151000000 3.5955000000
1.0039000000 3.9895000000 3.4600000000
1.0037000000 4.4307000000 3.5924000000
1.0035000000 6.2588000000 2.4876000000
1.0034000000 3.1501000000 2.9522000000
1.0033000000 8.1609000000 0.5796000000
1.0029000000 1.7531000000 2.0846000000
1.0028000000 6.0221000000 2.6291000000
1.0025000000 4.4399000000 3.5912000000
1.0022000000 6.0041000000 2.6440000000
1.0019000000 3.8564000000 3.3758000000
1.0017000000 5.6146000000 2.8741000000
1.0014000000 6.0991000000 2.5855000000
1.0011000000 1.7458000000 2.0817000000
1.0008000000 2.8672000000 2.7750000000
1.0000000000 1.2066000000 1.4494000000
0.9993000000 6.3679000000 2.4201000000
0.9988000000 0.7096000000 0.8498000000
0.9985000000 1.5809000000 1.9085000000
0.9968000000 1.5816000000 1.9118000000
0.7629000000 6.8171000000 1.8994000000
0.7613000000 8.6780000000 0.1036000000
0.7609000000 5.5568000000 2.6621000000
0.7603000000 7.9632000000 0.8213000000
0.7593000000 8.2407000000 0.4896000000
0.7590000000 5.5617000000 2.6474000000
0.7586000000 5.9474000000 2.4168000000
0.7580000000 6.6263000000 2.0097000000
0.7576000000 4.9742000000 3.0139000000
0.7575000000 6.0439000000 2.3646000000
0.7573000000 8.4417000000 0.2441000000
0.7570000000 6.7427000000 1.9415000000
0.7568000000 8.2723000000 0.4455000000
0.7563000000 5.3261000000 2.7909000000
0.7560000000 1.7925000000 1.8690000000
0.7557000000 5.7096000000 2.5674000000
0.7554000000 3.2723000000 2.7606000000
0.7553000000 5.5640000000 2.6468000000
0.7550000000 0.1333000000 0.1557000000
0.7548000000 8.0819000000 0.6771000000
0.7545000000 6.7244000000 1.9424000000
0.7543000000 5.8565000000 2.4669000000
0.7541000000 2.9715000000 2.5803000000
0.7540000000 3.9343000000 3.1621000000
0.7538000000 4.2769000000 3.3561000000
0.7535000000 6.0134000000 2.3738000000
0.7533000000 5.0344000000 2.9637000000
0.7530000000 8.5399000000 0.1268000000
0.7525000000 2.0076000000 1.9998000000
0.7521000000 0.7146000000 0.8619000000
0.7518000000 7.7605000000 1.0690000000
0.7512000000 0.6418000000 0.7722000000
0.7507000000 2.4566000000 2.2576000000
0.7502000000 0.0764000000 0.0916000000
0.7501000000 3.8844000000 3.1246000000
0.7496000000 0.0840000000 0.0972000000
0.7494000000 0.1270000000 0.1468000000
0.7490000000 0.2804000000 0.3323000000
0.7483000000 1.5686000000 1.7294000000
0.7467000000 3.7905000000 3.0659000000
0.5151000000 4.6200000000 2.9745000000
0.5123000000 6.4846000000 1.8396000000
0.5112000000 7.5566000000 1.1889000000
0.5098000000 6.5922000000 1.7697000000
0.5085000000 6.2536000000 1.9714000000
0.5084000000 8.6633000000 0.0552000000
0.5080000000 5.8579000000 2.2123000000
0.5077000000 1.0975000000 1.1853000000
0.5074000000 6.1140000000 2.0608000000
0.5073000000 2.6722000000 2.1403000000
0.5068000000 7.9440000000 0.8460000000
0.5067000000 7.4472000000 1.2538000000
0.5065000000 7.2664000000 1.3591000000
0.5062000000 3.0873000000 2.3912000000
0.5059000000 5.1167000000 2.6600000000
0.5058000000 4.9635000000 2.7495000000
0.5055000000 4.1119000000 3.0109000000
0.5053000000 4.7782000000 2.8627000000
0.5050000000 3.6341000000 2.7219000000
0.5046000000 5.3736000000 2.5033000000
0.5044000000 7.6056000000 1.1539000000
0.5040000000 7.5655000000 1.1785000000
0.5038000000 2.5796000000 2.0782000000
0.5036000000 4.3202000000 3.1173000000
0.5034000000 0.8420000000 0.9939000000
0.5032000000 5.7943000000 2.2446000000
0.5029000000 1.3249000000 1.3245000000
0.5026000000 1.3750000000 1.3528000000
0.5025000000 0.3816000000 0.4579000000
0.5022000000 1.9211000000 1.6846000000
0.5019000000 0.7397000000 0.8885000000
0.5017000000 2.0511000000 1.7585000000
0.5015000000 4.2530000000 3.0903000000
0.5013000000 2.7996000000 2.2130000000
0.5011000000 5.3446000000 2.5142000000
0.5008000000 4.7859000000 2.8569000000
0.5004000000 1.9829000000 1.7182000000
0.4990000000 3.4307000000 2.5922000000
0.4982000000 2.2131000000 1.8508000000
0.4974000000 7.2027000000 1.3874000000
0.4968000000 0.4134000000 0.4872000000
0.4945000000 4.3887000000 3.0874000000
0.2625000000 2.9382000000 2.0450000000
0.2613000000 3.6442000000 2.4746000000
0.2609000000 5.7193000000 2.0338000000
0.2604000000 8.6187000000 0.0981000000
0.2598000000 3.0397000000 2.1049000000
0.2590000000 8.6040000000 0.1221000000
0.2585000000 3.6338000000 2.4587000000
0.2579000000 5.0768000000 2.4199000000
0.2574000000 0.4072000000 0.4605000000
0.2571000000 4.4802000000 2.7844000000
0.2569000000 2.4370000000 1.7339000000
0.2564000000 0.1031000000 0.1186000000
0.2560000000 2.5304000000 1.7973000000
0.2559000000 4.9185000000 2.5191000000
0.2558000000 1.8484000000 1.3815000000
0.2555000000 7.2803000000 1.0917000000
0.2552000000 2.5846000000 1.8189000000
0.2549000000 4.3341000000 2.8546000000
0.2548000000 7.3906000000 1.0260000000
0.2546000000 0.6198000000 0.6361000000
0.2544000000 5.9003000000 1.9245000000
0.2542000000 7.1911000000 1.1503000000
0.2539000000 7.2604000000 1.0955000000
0.2538000000 2.1417000000 1.5583000000
0.2534000000 3.6203000000 2.4495000000
0.2531000000 5.4374000000 2.2010000000
0.2528000000 8.0946000000 0.5883000000
0.2526000000 3.2194000000 2.2092000000
0.2525000000 0.7147000000 0.6925000000
0.2523000000 2.1301000000 1.5467000000
0.2522000000 4.3399000000 2.8441000000
0.2520000000 5.7962000000 1.9857000000
0.2518000000 6.2285000000 1.7220000000
0.2513000000 5.1447000000 2.3771000000
0.2510000000 3.4468000000 2.3439000000
0.2509000000 7.6735000000 0.8451000000
0.2508000000 4.1558000000 2.7694000000
0.2503000000 1.6859000000 1.2764000000
0.2500000000 4.4547000000 2.7925000000
0.2496000000 1.5802000000 1.2055000000
0.2495000000 8.4874000000 0.1861000000
0.2491000000 4.6164000000 2.7005000000
0.2485000000 2.8958000000 2.0045000000
0.2479000000 0.6905000000 0.6751000000
0.2457000000 2.1007000000 1.5255000000
0.0140000000 7.0229000000 0.9943000000
0.0128000000 8.7091000000 0.0503000000
0.0098000000 5.6872000000 1.7943000000
0.0093000000 4.9192000000 2.2557000000
0.0088000000 3.3457000000 2.0260000000
0.0085000000 6.3317000000 1.4020000000
0.0083000000 6.0527000000 1.5754000000
0.0079000000 5.1066000000 2.1439000000
0.0075000000 8.6390000000 0.0640000000
0.0071000000 0.4735000000 0.2857000000
0.0068000000 6.0410000000 1.5759000000
0.0062000000 3.9854000000 2.4186000000
0.0060000000 7.0828000000 0.9506000000
0.0058000000 3.3838000000 2.0479000000
0.0057000000 7.9079000000 0.4485000000
0.0053000000 8.4801000000 0.0972000000
0.0050000000 3.1685000000 1.9158000000
0.0048000000 2.0294000000 1.2214000000
0.0046000000 8.1688000000 0.2886000000
0.0043000000 4.9997000000 2.1998000000
0.0042000000 2.0511000000 1.2457000000
0.0039000000 1.4683000000 0.8889000000
0.0037000000 2.7216000000 1.6464000000
0.0035000000 6.5926000000 1.2457000000
0.0033000000 8.5679000000 0.0247000000
0.0031000000 3.4811000000 2.1016000000
0.0028000000 4.4249000000 2.5530000000
0.0025000000 0.3988000000 0.2374000000
0.0022000000 0.2267000000 0.1382000000
0.0018000000 1.9715000000 1.1834000000
0.0016000000 1.0691000000 0.6448000000
0.0014000000 5.6677000000 1.7950000000
0.0013000000 7.3888000000 0.7556000000
0.0010000000 8.1404000000 0.2985000000
0.0005000000 1.5819000000 0.9552000000
0.0003000000 5.2621000000 2.0437000000
-0.0006000000 1.1659000000 0.7007000000
-0.0011000000 7.8359000000 0.4861000000
-0.0014000000 1.4881000000 0.8958000000
-0.0021000000 1.9528000000 1.1774000000
-0.0031000000 0.1690000000 0.0941000000
-0.0045000000 0.9426000000 0.5552000000
-0.2363000000 6.0737000000 1.3023000000
-0.2392000000 6.9166000000 0.7937000000
-0.2400000000 5.0104000000 1.9463000000
-0.2407000000 5.7446000000 1.5004000000
-0.2412000000 7.5844000000 0.3855000000
-0.2418000000 8.2264000000 0.0688000000
-0.2426000000 5.9612000000 1.3653000000
-0.2427000000 2.8907000000 1.4869000000
-0.2430000000 7.3050000000 0.5536000000
-0.2433000000 2.4102000000 1.1998000000
-0.2435000000 5.1173000000 1.8746000000
-0.2437000000 8.1849000000 0.0933000000
-0.2439000000 4.7053000000 2.1188000000
-0.2441000000 3.4156000000 1.8031000000
-0.2445000000 5.5451000000 1.6099000000
-0.2450000000 3.4594000000 1.8266000000
-0.2453000000 6.8794000000 0.8084000000
-0.2454000000 6.2686000000 1.1738000000
-0.2460000000 6.0640000000 1.2995000000
-0.2461000000 0.8789000000 0.2631000000
-0.2463000000 3.9562000000 2.1263000000
-0.2468000000 4.0095000000 2.1598000000
-0.2471000000 3.7979000000 2.0331000000
-0.2472000000 5.5585000000 1.6004000000
-0.2477000000 3.9550000000 2.1269000000
-0.2479000000 8.4398000000 0.0096000000
-0.2480000000 2.0269000000 0.9593000000
-0.2484000000 6.6143000000 0.9605000000
-0.2487000000 5.9588000000 1.3617000000
-0.2488000000 3.9862000000 2.1420000000
-0.2493000000 3.3514000000 1.7584000000
-0.2499000000 1.5832000000 0.6928000000
-0.2500000000 0.6023000000 0.0987000000
-0.2506000000 1.0089000000 0.3385000000
-0.2512000000 0.3226000000 0.0849000000
-0.2519000000 1.7088000000 0.7644000000
-0.2540000000 1.5636000000 0.6765000000
-0.4872000000 5.4655000000 1.4100000000
-0.4902000000 7.9828000000 0.0357000000
-0.4910000000 6.9162000000 0.5270000000
-0.4915000000 2.2430000000 0.8368000000
-0.4919000000 6.3382000000 0.8769000000
-0.4924000000 5.4136000000 1.4310000000
-0.4930000000 7.0872000000 0.4226000000
-0.4932000000 5.0303000000 1.6657000000
-0.4935000000 5.8141000000 1.1990000000
-0.4937000000 7.2657000000 0.3140000000
-0.4940000000 1.5955000000 0.4448000000
-0.4944000000 4.9504000000 1.7120000000
-0.4947000000 7.6181000000 0.0971000000
-0.4952000000 1.5093000000 0.3901000000
-0.4956000000 3.3510000000 1.4981000000
-0.4959000000 5.6542000000 1.2813000000
-0.4961000000 4.6746000000 1.8747000000
-0.4963000000 7.2185000000 0.3383000000
-0.4965000000 4.8925000000 1.7475000000
-0.4967000000 3.2218000000 1.4196000000
-0.4971000000 3.8364000000 1.7937000000
-0.4977000000 5.0380000000 1.6589000000
-0.4978000000 3.5323000000 1.6042000000
-0.4982000000 2.4357000000 0.9497000000
-0.4985000000 1.1620000000 0.1754000000
-0.4987000000 4.8173000000 1.7914000000
-0.4991000000 1.9252000000 0.6366000000
-0.4997000000 1.8243000000 0.5748000000
-0.5003000000 3.9194000000 1.8429000000
-0.5007000000 4.5961000000 1.9192000000
-0.5019000000 1.5271000000 0.3915000000
-0.5026000000 1.7311000000 0.5178000000
-0.5037000000 2.7777000000 1.1453000000
-0.7339000000 7.3725000000 0.0715000000
-0.7378000000 6.4355000000 0.5570000000
-0.7390000000 7.0946000000 0.1625000000
-0.7405000000 5.4282000000 1.1666000000
-0.7417000000 2.3593000000 0.6438000000
-0.7421000000 1.1320000000 0.0542000000
-0.7430000000 5.2167000000 1.2939000000
-0.7436000000 4.9490000000 1.4520000000
-0.7442000000 6.9087000000 0.2669000000
-0.7443000000 7.3525000000 0.0659000000
-0.7445000000 1.5778000000 0.1653000000
-0.7447000000 2.5336000000 0.7422000000
-0.7451000000 6.5090000000 0.5126000000
-0.7456000000 3.9483000000 1.5998000000
-0.7460000000 2.2314000000 0.5573000000
-0.7466000000 2.2691000000 0.5859000000
-0.7469000000 5.2341000000 1.2779000000
-0.7470000000 1.0892000000 0.0227000000
-0.7473000000 2.6224000000 0.7985000000
-0.7477000000 6.5979000000 0.4549000000
-0.7479000000 3.0965000000 1.0879000000
-0.7481000000 2.3343000000 0.6162000000
-0.7485000000 5.6931000000 0.9969000000
-0.7486000000 2.3075000000 0.6036000000
-0.7489000000 1.5481000000 0.1448000000
-0.7494000000 5.9490000000 0.8404000000
-0.7497000000 3.2025000000 1.1449000000
-0.7501000000 3.9182000000 1.5781000000
-0.7510000000 6.1617000000 0.7091000000
-0.7514000000 7.0515000000 0.1744000000
-0.7527000000 2.8741000000 0.9448000000
-0.7541000000 1.3458000000 0.0899000000
-0.9898000000 7.0503000000 0.0695000000
-0.9908000000 4.7422000000 1.3190000000
-0.9916000000 2.9776000000 0.7526000000
-0.9920000000 3.9257000000 1.3298000000
-0.9921000000 1.7503000000 0.0943000000
-0.9925000000 2.3303000000 0.3630000000
-0.9928000000 3.4631000000 1.0524000000
-0.9933000000 5.4551000000 0.8791000000
-0.9939000000 6.7730000000 0.0825000000
-0.9942000000 2.9366000000 0.7287000000
-0.9945000000 2.8014000000 0.6427000000
-0.9947000000 3.8879000000 1.3019000000
-0.9950000000 4.2548000000 1.5191000000
-0.9954000000 1.9091000000 0.1087000000
-0.9957000000 5.4512000000 0.8850000000
-0.9960000000 6.7432000000 0.1013000000
-0.9962000000 4.8922000000 1.2201000000
-0.9967000000 1.8879000000 0.0944000000
-0.9970000000 6.5398000000 0.2268000000
-0.9978000000 3.0623000000 0.8038000000
-0.9984000000 3.1710000000 0.8590000000
-0.9985000000 3.2040000000 0.8941000000
-0.9987000000 1.5662000000 0.0500000000
-0.9992000000 3.9611000000 1.3398000000
-0.9995000000 4.7766000000 1.2830000000
-1.0006000000 3.2085000000 0.8874000000
-1.2370000000 2.0723000000 0.0981000000
-1.2397000000 6.5043000000 0.0616000000
-1.2407000000 4.5690000000 1.1537000000
-1.2415000000 5.0210000000 0.8868000000
-1.2419000000 5.6486000000 0.5051000000
-1.2430000000 4.6784000000 1.0902000000
-1.2433000000 3.6652000000 0.9045000000
-1.2435000000 4.9067000000 0.9544000000
-1.2441000000 3.2782000000 0.6736000000
-1.2444000000 3.1659000000 0.6021000000
-1.2447000000 3.0725000000 0.5467000000
-1.2448000000 3.0972000000 0.5685000000
-1.2451000000 5.2105000000 0.7664000000
-1.2457000000 2.8685000000 0.4234000000
-1.2461000000 2.7089000000 0.3286000000
-1.2466000000 2.7894000000 0.3756000000
-1.2470000000 4.6427000000 1.1108000000
-1.2474000000 2.6842000000 0.3130000000
-1.2483000000 2.7068000000 0.3177000000
-1.2490000000 6.0146000000 0.2851000000
-1.2498000000 2.8923000000 0.4314000000
-1.2505000000 4.4134000000 1.2426000000
-1.2511000000 4.5988000000 1.1340000000
-1.2536000000 3.8494000000 1.0087000000
-1.4880000000 4.3881000000 1.0087000000
-1.4915000000 4.9869000000 0.6446000000
-1.4923000000 6.2918000000 0.0082000000
-1.4931000000 5.9938000000 0.1107000000
-1.4939000000 2.3690000000 0.0089000000
-1.4943000000 4.4504000000 0.9638000000
-1.4949000000 5.6295000000 0.2461000000
-1.4957000000 3.4720000000 0.5264000000
