7.0117000000 3.6712000000 0.0050000000
7.0091000000 4.2276000000 0.0647000000
7.0078000000 4.0058000000 0.0588000000
7.0068000000 4.5586000000 0.0148000000
7.0045000000 3.9308000000 0.0360000000
7.0001000000 4.5942000000 0.0066000000
6.7588000000 3.4714000000 0.0244000000
6.7575000000 3.4122000000 0.0747000000
6.7563000000 4.7930000000 0.0193000000
6.7554000000 4.0223000000 0.2240000000
6.7543000000 4.1530000000 0.2428000000
6.7532000000 4.3684000000 0.1707000000
6.7523000000 4.8332000000 0.0781000000
6.7496000000 3.9885000000 0.2127000000
6.5111000000 3.1122000000 0.0417000000
6.5103000000 3.3670000000 0.1384000000
6.5095000000 4.1549000000 0.3998000000
6.5084000000 3.1458000000 0.0623000000
6.5076000000 5.0355000000 0.0847000000
6.5071000000 4.7805000000 0.1828000000
6.5061000000 4.6046000000 0.2473000000
6.5059000000 3.1231000000 0.0534000000
6.5051000000 3.4164000000 0.1662000000
6.5044000000 4.6573000000 0.2291000000
6.5035000000 5.3254000000 0.0590000000
6.5025000000 3.9847000000 0.3767000000
6.5017000000 4.4770000000 0.3016000000
6.4990000000 4.3771000000 0.3376000000
6.2633000000 4.8042000000 0.3295000000
6.2606000000 5.4671000000 0.0870000000
6.2596000000 5.3542000000 0.1269000000
6.2586000000 5.6765000000 0.0853000000
6.2580000000 4.8614000000 0.3147000000
6.2569000000 3.1657000000 0.2237000000
6.2565000000 2.4636000000 0.0397000000
6.2555000000 5.5339000000 0.0624000000
6.2547000000 2.9683000000 0.1543000000
6.2543000000 3.0724000000 0.1986000000
6.2539000000 4.1311000000 0.5727000000
6.2529000000 3.0529000000 0.1917000000
6.2526000000 4.6920000000 0.3745000000
6.2519000000 2.4365000000 0.0361000000
6.2513000000 2.3900000000 0.0206000000
6.2507000000 2.7562000000 0.0802000000
6.2503000000 5.5563000000 0.0618000000
6.2468000000 2.8320000000 0.1133000000
6.0140000000 5.3977000000 0.2634000000
6.0114000000 2.5122000000 0.1444000000
6.0102000000 2.1679000000 0.0181000000
6.0093000000 4.7047000000 0.5310000000
6.0090000000 3.0640000000 0.3480000000
6.0082000000 4.9305000000 0.4500000000
6.0074000000 5.9873000000 0.0538000000
6.0070000000 3.8700000000 0.6520000000
6.0068000000 4.2102000000 0.7129000000
6.0064000000 3.1773000000 0.3932000000
6.0062000000 4.4791000000 0.6142000000
6.0060000000 4.2615000000 0.6924000000
6.0056000000 4.7962000000 0.4962000000
6.0051000000 2.0936000000 0.0726000000
6.0048000000 4.5063000000 0.6064000000
6.0043000000 3.0140000000 0.3335000000
6.0040000000 4.0666000000 0.7210000000
6.0037000000 2.7807000000 0.2459000000
6.0034000000 3.2027000000 0.4056000000
6.0026000000 2.2104000000 0.0377000000
6.0017000000 2.7462000000 0.2344000000
6.0010000000 1.9081000000 0.0000000000
6.0001000000 2.9160000000 0.3023000000
5.9983000000 2.2203000000 0.0384000000
5.9963000000 2.5149000000 0.1555000000
5.7608000000 6.2466000000 0.1092000000
5.7587000000 5.1303000000 0.5330000000
5.7578000000 4.3703000000 0.8117000000
5.7576000000 3.1288000000 0.5380000000
5.7573000000 5.5983000000 0.3573000000
5.7566000000 4.1474000000 0.8860000000
5.7563000000 2.3516000000 0.2490000000
5.7555000000 4.3636000000 0.8251000000
5.7552000000 6.7459000000 0.0112000000
5.7550000000 2.8384000000 0.4274000000
5.7549000000 5.2652000000 0.4865000000
5.7546000000 3.8956000000 0.8246000000
5.7544000000 4.2025000000 0.8804000000
5.7540000000 5.6938000000 0.3266000000
5.7538000000 1.6170000000 0.0579000000
5.7532000000 4.5778000000 0.7433000000
5.7527000000 3.6542000000 0.7363000000
5.7524000000 2.5765000000 0.3309000000
5.7517000000 4.6654000000 0.7088000000
5.7513000000 3.9808000000 0.8530000000
5.7501000000 5.3614000000 0.4528000000
5.7491000000 1.4831000000 0.0050000000
5.7474000000 2.3678000000 0.2534000000
5.5143000000 6.2892000000 0.2589000000
5.5114000000 4.9002000000 0.7752000000
5.5093000000 2.0160000000 0.2799000000
5.5091000000 5.7235000000 0.4736000000
5.5083000000 4.8166000000 0.8115000000
5.5078000000 7.0574000000 0.0548000000
5.5077000000 4.8779000000 0.7858000000
5.5075000000 4.2030000000 1.0348000000
5.5072000000 5.3622000000 0.6061000000
5.5070000000 7.0605000000 0.0554000000
5.5065000000 4.3711000000 0.9790000000
5.5063000000 4.6918000000 0.8628000000
5.5060000000 4.1491000000 1.0500000000
5.5058000000 4.6705000000 0.8673000000
5.5054000000 1.5799000000 0.1252000000
5.5051000000 3.9168000000 0.9907000000
5.5048000000 2.8644000000 0.5957000000
5.5044000000 4.8605000000 0.7912000000
5.5040000000 1.7522000000 0.1922000000
5.5037000000 2.9199000000 0.6203000000
5.5037000000 2.0725000000 0.3045000000
5.5032000000 2.7607000000 0.5594000000
5.5029000000 1.1725000000 0.0475000000
5.5024000000 3.8900000000 0.9840000000
5.5016000000 4.6587000000 0.8742000000
5.5009000000 6.3742000000 0.2383000000
5.5007000000 4.8345000000 0.8107000000
5.5000000000 2.8465000000 0.5985000000
5.4992000000 1.2744000000 0.0894000000
5.2632000000 4.2333000000 1.1868000000
5.2623000000 2.9974000000 0.8079000000
5.2609000000 7.1040000000 0.1218000000
5.2600000000 2.6040000000 0.6612000000
5.2595000000 5.6282000000 0.6684000000
5.2590000000 6.6163000000 0.3042000000
5.2585000000 6.0274000000 0.5219000000
5.2585000000 7.0651000000 0.1407000000
5.2580000000 5.1632000000 0.8396000000
5.2578000000 6.6032000000 0.3111000000
5.2573000000 4.4787000000 1.0949000000
5.2572000000 1.3600000000 0.2017000000
5.2569000000 4.5602000000 1.0649000000
5.2568000000 3.1623000000 0.8672000000
5.2566000000 3.0267000000 0.8142000000
5.2562000000 6.1227000000 0.4888000000
5.2558000000 6.6302000000 0.2980000000
5.2553000000 2.0415000000 0.4560000000
5.2548000000 7.0747000000 0.1320000000
5.2546000000 2.3806000000 0.5774000000
5.2542000000 2.8803000000 0.7690000000
5.2539000000 1.6598000000 0.3124000000
5.2536000000 2.6832000000 0.6932000000
5.2532000000 1.9077000000 0.4084000000
5.2530000000 3.1292000000 0.8591000000
5.2528000000 2.3499000000 0.5665000000
5.2526000000 3.2305000000 0.8984000000
5.2520000000 6.2979000000 0.4259000000
5.2517000000 1.5295000000 0.2709000000
5.2514000000 0.9999000000 0.0693000000
5.2511000000 5.1688000000 0.8460000000
5.2508000000 5.5743000000 0.6916000000
5.2501000000 0.8192000000 0.0783000000
5.2497000000 1.8698000000 0.3982000000
5.2494000000 2.6632000000 0.6878000000
5.2470000000 1.6424000000 0.3120000000
5.0123000000 7.3128000000 0.2009000000
5.0111000000 3.6089000000 1.1981000000
5.0095000000 3.6236000000 1.1917000000
5.0095000000 2.3010000000 0.7048000000
5.0093000000 7.6769000000 0.0661000000
5.0090000000 5.9359000000 0.7174000000
5.0087000000 5.0168000000 1.0550000000
5.0082000000 5.7888000000 0.7699000000
5.0080000000 2.3321000000 0.7191000000
5.0076000000 2.9458000000 0.9519000000
5.0073000000 1.9914000000 0.5985000000
5.0070000000 8.0095000000 0.0202000000
5.0066000000 3.1453000000 1.0209000000
5.0064000000 1.2006000000 0.3024000000
5.0061000000 4.3595000000 1.3045000000
5.0058000000 2.1824000000 0.6674000000
5.0055000000 5.8853000000 0.7398000000
5.0050000000 0.5408000000 0.0619000000
5.0049000000 7.9338000000 0.0490000000
5.0046000000 7.2365000000 0.2342000000
5.0043000000 8.0540000000 0.0072000000
5.0041000000 4.5669000000 1.2231000000
5.0039000000 1.7943000000 0.5251000000
5.0038000000 4.7916000000 1.1394000000
5.0035000000 0.6449000000 0.1016000000
5.0034000000 6.6017000000 0.4677000000
5.0033000000 6.5444000000 0.4934000000
5.0030000000 6.4881000000 0.5090000000
5.0026000000 2.4705000000 0.7765000000
5.0025000000 0.2758000000 0.0396000000
5.0023000000 1.2163000000 0.3103000000
5.0021000000 5.3698000000 0.9251000000
5.0018000000 3.7114000000 1.2326000000
5.0017000000 2.1976000000 0.6802000000
5.0011000000 2.6740000000 0.8485000000
5.0004000000 0.5392000000 0.0550000000
4.9998000000 1.7248000000 0.5026000000
4.9992000000 1.1737000000 0.2991000000
4.7637000000 6.4011000000 0.6971000000
4.7622000000 6.9760000000 0.4897000000
4.7605000000 2.7601000000 1.0405000000
4.7595000000 7.2541000000 0.3856000000
4.7589000000 1.7727000000 0.6735000000
4.7586000000 3.2478000000 1.2228000000
4.7584000000 3.6036000000 1.3601000000
4.7582000000 4.2665000000 1.4982000000
4.7579000000 5.3918000000 1.0782000000
4.7576000000 7.3500000000 0.3591000000
4.7573000000 6.8832000000 0.5266000000
4.7569000000 6.0593000000 0.8307000000
4.7567000000 4.9454000000 1.2412000000
4.7563000000 5.9784000000 0.8659000000
4.7558000000 1.9064000000 0.7260000000
4.7557000000 1.6613000000 0.6357000000
4.7556000000 0.8172000000 0.3239000000
4.7549000000 0.1606000000 0.0818000000
4.7548000000 3.5988000000 1.3544000000
4.7546000000 5.6157000000 0.9992000000
4.7545000000 3.9405000000 1.4803000000
4.7543000000 3.7832000000 1.4258000000
4.7540000000 1.1492000000 0.4402000000
4.7539000000 0.5509000000 0.2279000000
4.7538000000 3.2915000000 1.2396000000
4.7533000000 0.1730000000 0.0840000000
4.7532000000 6.4353000000 0.6916000000
4.7530000000 5.0662000000 1.2054000000
4.7528000000 6.1897000000 0.7914000000
4.7524000000 1.8772000000 0.7146000000
4.7522000000 5.0652000000 1.2077000000
4.7515000000 4.2115000000 1.5240000000
4.7511000000 0.4889000000 0.2042000000
4.7509000000 4.1081000000 1.5372000000
4.7505000000 1.4391000000 0.5544000000
4.7502000000 1.1620000000 0.4510000000
4.7495000000 4.3758000000 1.4601000000
4.7455000000 1.8508000000 0.7086000000
4.5160000000 7.0467000000 0.6185000000
4.5134000000 5.0496000000 1.3681000000
4.5116000000 8.1946000000 0.0573000000
4.5106000000 5.8869000000 1.0540000000
4.5095000000 2.3471000000 1.0434000000
4.5093000000 5.6330000000 1.1464000000
4.5092000000 1.7703000000 0.8309000000
4.5090000000 7.3400000000 0.5151000000
4.5086000000 6.0737000000 0.9881000000
4.5084000000 5.2827000000 1.2837000000
4.5082000000 7.4238000000 0.4878000000
4.5078000000 2.3483000000 1.0468000000
4.5074000000 8.0829000000 0.1348000000
4.5070000000 2.6191000000 1.1464000000
4.5067000000 5.0327000000 1.3711000000
4.5065000000 2.3681000000 1.0603000000
4.5064000000 3.1665000000 1.3512000000
4.5061000000 4.7071000000 1.4920000000
4.5058000000 6.2170000000 0.9378000000
4.5055000000 5.8851000000 1.0600000000
4.5053000000 1.4470000000 0.7176000000
4.5051000000 1.5273000000 0.7519000000
4.5048000000 6.3958000000 0.8732000000
4.5046000000 1.6574000000 0.7924000000
4.5043000000 0.7451000000 0.4588000000
4.5035000000 1.5396000000 0.7550000000
4.5031000000 6.2008000000 0.9406000000
4.5029000000 3.4844000000 1.4713000000
4.5024000000 1.0007000000 0.5610000000
4.5018000000 5.9271000000 1.0424000000
4.5015000000 4.9893000000 1.3948000000
4.5011000000 1.3463000000 0.6833000000
4.5008000000 0.2292000000 0.1879000000
4.5003000000 2.6028000000 1.1528000000
4.5000000000 4.8608000000 1.4446000000
4.4996000000 2.4795000000 1.1016000000
4.4987000000 0.7609000000 0.4671000000
4.4980000000 1.5150000000 0.7499000000
4.4945000000 1.1343000000 0.6046000000
4.2608000000 7.0809000000 0.7728000000
4.2602000000 4.6424000000 1.6737000000
4.2595000000 6.6698000000 0.9233000000
4.2590000000 6.2671000000 1.0787000000
4.2584000000 7.3345000000 0.6717000000
4.2578000000 6.4774000000 0.9964000000
4.2579000000 3.8514000000 1.7677000000
4.2575000000 6.9877000000 0.8076000000
4.2571000000 0.1965000000 0.1643000000
4.2568000000 0.5262000000 0.4059000000
4.2566000000 1.7122000000 0.9684000000
4.2565000000 5.7266000000 1.2747000000
4.2560000000 6.0658000000 1.1483000000
4.2556000000 5.8076000000 1.2428000000
4.2553000000 1.5818000000 0.9290000000
4.2549000000 4.4708000000 1.7447000000
4.2547000000 1.7572000000 0.9926000000
4.2545000000 1.7493000000 0.9862000000
4.2543000000 3.2035000000 1.5266000000
4.2541000000 2.7293000000 1.3536000000
4.2539000000 8.1952000000 0.0561000000
4.2537000000 4.3177000000 1.8081000000
4.2534000000 6.5712000000 0.9702000000
4.2531000000 0.3614000000 0.2860000000
4.2526000000 3.7219000000 1.7275000000
4.2525000000 0.6769000000 0.5188000000
4.2521000000 3.5500000000 1.6572000000
4.2517000000 3.1209000000 1.4989000000
4.2515000000 1.6464000000 0.9548000000
4.2511000000 4.2038000000 1.8456000000
4.2504000000 1.6748000000 0.9658000000
4.2499000000 4.3260000000 1.8016000000
4.2488000000 2.4540000000 1.2498000000
4.2485000000 1.9131000000 1.0584000000
4.2470000000 5.5604000000 1.3453000000
4.0130000000 7.9676000000 0.2242000000
4.0105000000 7.4811000000 0.5881000000
4.0095000000 2.7821000000 1.5242000000
4.0089000000 1.5710000000 1.0823000000
4.0085000000 5.5418000000 1.5052000000
4.0080000000 1.1657000000 0.8800000000
4.0073000000 3.4945000000 1.7966000000
4.0071000000 7.2724000000 0.7420000000
4.0070000000 7.5191000000 0.5552000000
4.0068000000 1.2201000000 0.9041000000
4.0066000000 8.0174000000 0.1858000000
4.0064000000 4.5841000000 1.8590000000
4.0063000000 4.2122000000 2.0028000000
4.0058000000 6.1515000000 1.2814000000
4.0053000000 8.0471000000 0.1716000000
4.0051000000 0.5393000000 0.4168000000
4.0048000000 4.8891000000 1.7479000000
4.0047000000 4.6219000000 1.8434000000
4.0043000000 3.8745000000 1.9383000000
4.0042000000 1.0441000000 0.7905000000
4.0039000000 3.3073000000 1.7291000000
4.0036000000 1.6137000000 1.0984000000
4.0033000000 4.5022000000 1.8919000000
4.0030000000 0.6466000000 0.4967000000
4.0025000000 1.4966000000 1.0543000000
4.0023000000 1.1887000000 0.8936000000
4.0021000000 3.0953000000 1.6499000000
4.0018000000 3.6158000000 1.8485000000
4.0014000000 4.2192000000 1.9943000000
4.0009000000 7.5329000000 0.5475000000
4.0004000000 7.7898000000 0.3552000000
4.0002000000 0.9037000000 0.6841000000
3.9997000000 1.3936000000 1.0054000000
3.9982000000 0.5265000000 0.4077000000
3.9973000000 0.5315000000 0.4056000000
3.9954000000 1.8126000000 1.1776000000
3.7643000000 4.9110000000 1.8958000000
3.7615000000 5.0232000000 1.8567000000
3.7611000000 6.9647000000 0.9734000000
3.7603000000 5.8802000000 1.5435000000
3.7596000000 0.3220000000 0.2552000000
3.7594000000 7.1666000000 0.8244000000
3.7590000000 6.8343000000 1.0699000000
3.7588000000 5.1462000000 1.8122000000
3.7585000000 7.7578000000 0.3727000000
3.7580000000 5.3103000000 1.7451000000
3.7575000000 3.0565000000 1.7900000000
3.7573000000 5.7645000000 1.5855000000
3.7570000000 1.3776000000 1.0363000000
3.7566000000 2.3809000000 1.5422000000
3.7563000000 6.1446000000 1.4414000000
3.7559000000 6.0304000000 1.4904000000
3.7558000000 2.8843000000 1.7273000000
3.7556000000 4.3174000000 2.1209000000
3.7555000000 2.0752000000 1.4332000000
3.7553000000 3.2028000000 1.8511000000
3.7551000000 7.3174000000 0.7058000000
3.7548000000 5.4639000000 1.6953000000
3.7545000000 4.2247000000 2.1565000000
3.7543000000 2.3100000000 1.5166000000
3.7539000000 2.5863000000 1.6218000000
3.7538000000 2.1231000000 1.4505000000
3.7536000000 3.9089000000 2.1175000000
3.7534000000 2.4020000000 1.5529000000
3.7530000000 0.6076000000 0.4670000000
3.7528000000 7.4209000000 0.6306000000
3.7525000000 2.0316000000 1.4173000000
3.7520000000 4.3249000000 2.1236000000
3.7515000000 2.5754000000 1.6171000000
3.7509000000 4.8842000000 1.9142000000
3.7505000000 7.4171000000 0.6344000000
3.7503000000 3.5005000000 1.9705000000
3.7498000000 1.6882000000 1.2568000000
3.7491000000 0.2912000000 0.2333000000
3.7488000000 4.8428000000 1.9327000000
3.7474000000 1.5450000000 1.1549000000
3.5141000000 7.3434000000 0.6916000000
3.5119000000 7.4194000000 0.6375000000
3.5109000000 0.5144000000 0.3936000000
3.5102000000 5.8012000000 1.7303000000
3.5096000000 4.0529000000 2.3242000000
3.5090000000 8.1734000000 0.0697000000
3.5086000000 3.1345000000 1.9855000000
3.5082000000 2.8761000000 1.8895000000
3.5078000000 2.4494000000 1.7273000000
3.5075000000 7.6805000000 0.4405000000
3.5072000000 6.2557000000 1.4972000000
3.5069000000 6.8127000000 1.0855000000
3.5066000000 0.1465000000 0.1210000000
3.5062000000 6.7134000000 1.1539000000
3.5060000000 4.0069000000 2.3109000000
3.5058000000 5.8577000000 1.7195000000
3.5057000000 1.3242000000 0.9936000000
3.5055000000 5.4271000000 1.8689000000
3.5050000000 2.3640000000 1.6967000000
3.5049000000 0.9272000000 0.7053000000
3.5047000000 6.1473000000 1.5700000000
3.5045000000 4.5366000000 2.2029000000
3.5044000000 7.7615000000 0.3838000000
3.5041000000 5.2382000000 1.9459000000
3.5039000000 3.0895000000 1.9704000000
3.5035000000 2.1224000000 1.5768000000
3.5032000000 2.0859000000 1.5501000000
3.5029000000 1.4732000000 1.1025000000
3.5025000000 1.5392000000 1.1571000000
3.5019000000 2.0578000000 1.5391000000
3.5018000000 0.2351000000 0.1890000000
3.5015000000 7.9747000000 0.2184000000
3.5011000000 0.7022000000 0.5328000000
3.5008000000 3.0897000000 1.9674000000
3.5006000000 1.0136000000 0.7704000000
3.5003000000 6.9874000000 0.9476000000
3.5001000000 6.2837000000 1.4789000000
3.4998000000 1.4637000000 1.1005000000
3.4992000000 0.9726000000 0.7348000000
3.4983000000 0.4306000000 0.3314000000
3.4940000000 3.5325000000 2.1423000000
3.2630000000 8.1105000000 0.1174000000
3.2618000000 7.0657000000 0.8934000000
3.2605000000 5.5113000000 1.9962000000
3.2602000000 3.9662000000 2.4505000000
3.2598000000 5.5170000000 1.9951000000
3.2597000000 7.2009000000 0.7985000000
3.2594000000 5.7965000000 1.8349000000
3.2590000000 0.7124000000 0.5397000000
3.2583000000 4.2168000000 2.4759000000
3.2580000000 7.8553000000 0.3103000000
3.2578000000 2.0574000000 1.5417000000
3.2577000000 6.3657000000 1.4134000000
3.2573000000 0.1789000000 0.1417000000
3.2570000000 7.6971000000 0.4266000000
3.2568000000 3.9178000000 2.4359000000
3.2563000000 3.3980000000 2.2397000000
3.2561000000 2.8416000000 2.0369000000
3.2558000000 0.2534000000 0.2064000000
3.2556000000 2.2642000000 1.6932000000
3.2553000000 4.9383000000 2.2124000000
3.2552000000 4.7514000000 2.2823000000
3.2550000000 3.4883000000 2.2781000000
3.2547000000 4.2108000000 2.4892000000
3.2544000000 4.5029000000 2.3711000000
3.2540000000 3.9105000000 2.4360000000
3.2538000000 3.1422000000 2.1506000000
3.2534000000 7.1179000000 0.8536000000
3.2532000000 5.0723000000 2.1619000000
3.2529000000 1.2686000000 0.9543000000
3.2527000000 0.7920000000 0.6075000000
3.2525000000 0.9174000000 0.6967000000
3.2521000000 1.8629000000 1.3970000000
3.2518000000 2.2798000000 1.7060000000
3.2514000000 0.4194000000 0.3256000000
3.2513000000 0.6274000000 0.4805000000
3.2508000000 2.3266000000 1.7432000000
3.2504000000 4.7525000000 2.2796000000
3.2499000000 4.5964000000 2.3423000000
3.2490000000 0.9429000000 0.7126000000
3.2485000000 3.1771000000 2.1629000000
3.2483000000 2.5854000000 1.9214000000
3.2476000000 3.2936000000 2.2122000000
3.0134000000 6.1458000000 1.5768000000
3.0113000000 4.5496000000 2.5153000000
3.0108000000 2.7763000000 2.0726000000
3.0102000000 8.1216000000 0.1132000000
3.0094000000 5.2862000000 2.2011000000
3.0088000000 4.6654000000 2.4705000000
3.0081000000 3.3572000000 2.3812000000
3.0077000000 4.8564000000 2.4030000000
3.0075000000 7.7398000000 0.3916000000
3.0070000000 7.0327000000 0.9234000000
3.0066000000 6.6674000000 1.1930000000
3.0064000000 7.5268000000 0.5519000000
3.0060000000 6.1190000000 1.5922000000
3.0058000000 0.5800000000 0.4472000000
3.0056000000 6.4655000000 1.3400000000
3.0055000000 7.9369000000 0.2462000000
3.0054000000 4.1001000000 2.6522000000
3.0050000000 5.0891000000 2.3112000000
3.0047000000 0.8829000000 0.6689000000
3.0046000000 4.3925000000 2.5752000000
3.0043000000 6.7951000000 1.0907000000
3.0043000000 1.4504000000 1.0854000000
3.0041000000 1.3439000000 1.0114000000
3.0038000000 4.7767000000 2.4344000000
3.0035000000 1.4571000000 1.1013000000
3.0032000000 3.2512000000 2.3494000000
3.0030000000 6.3579000000 1.4209000000
3.0025000000 4.3376000000 2.6007000000
3.0024000000 2.0356000000 1.5222000000
3.0020000000 3.8647000000 2.5763000000
3.0017000000 0.6855000000 0.5214000000
3.0012000000 1.6915000000 1.2721000000
3.0010000000 4.4775000000 2.5505000000
3.0000000000 6.6393000000 1.2074000000
2.9996000000 6.7053000000 1.1611000000
2.9993000000 2.2090000000 1.6554000000
2.9991000000 5.1884000000 2.2693000000
2.9972000000 0.0736000000 0.0699000000
2.9959000000 0.8928000000 0.6761000000
2.7648000000 7.2942000000 0.7241000000
2.7612000000 5.5597000000 2.0144000000
2.7602000000 7.7064000000 0.4267000000
2.7596000000 5.7124000000 1.8981000000
2.7588000000 4.4014000000 2.7282000000
2.7586000000 4.8364000000 2.5358000000
2.7581000000 1.5489000000 1.1649000000
2.7579000000 2.1030000000 1.5757000000
2.7574000000 4.6045000000 2.6559000000
2.7571000000 7.7498000000 0.3890000000
2.7569000000 2.9682000000 2.2204000000
2.7566000000 5.5905000000 1.9919000000
2.7562000000 2.1790000000 1.6337000000
2.7560000000 4.9383000000 2.4736000000
2.7559000000 3.9128000000 2.7594000000
2.7555000000 1.4077000000 1.0597000000
2.7553000000 3.2826000000 2.4494000000
2.7550000000 6.1869000000 1.5474000000
2.7547000000 5.6155000000 1.9674000000
2.7545000000 0.8404000000 0.6396000000
2.7542000000 4.6341000000 2.6475000000
2.7538000000 5.3775000000 2.1425000000
2.7535000000 7.6509000000 0.4670000000
2.7533000000 3.3076000000 2.4733000000
2.7530000000 5.9181000000 1.7437000000
2.7529000000 4.7645000000 2.5868000000
2.7527000000 4.1764000000 2.8123000000
2.7525000000 2.5029000000 1.8702000000
2.7524000000 2.6861000000 2.0098000000
2.7523000000 1.7996000000 1.3528000000
2.7521000000 1.1055000000 0.8379000000
2.7517000000 2.7506000000 2.0552000000
2.7513000000 7.8402000000 0.3270000000
2.7510000000 0.4677000000 0.3604000000
2.7502000000 6.5387000000 1.2865000000
2.7499000000 2.2946000000 1.7180000000
2.7495000000 7.9837000000 0.2121000000
2.7485000000 2.2882000000 1.7074000000
2.7480000000 0.2975000000 0.2325000000
2.7456000000 2.0368000000 1.5274000000
2.5141000000 7.9666000000 0.2267000000
2.5122000000 3.7788000000 2.8176000000
2.5113000000 6.5421000000 1.2844000000
2.5100000000 6.4751000000 1.3343000000
2.5086000000 8.2691000000 0.0767000000
2.5082000000 0.2160000000 0.1728000000
2.5080000000 3.8663000000 2.8772000000
2.5077000000 6.4942000000 1.3252000000
2.5073000000 7.7244000000 0.4072000000
2.5069000000 4.6447000000 2.6939000000
2.5065000000 7.4648000000 0.5968000000
2.5063000000 2.4416000000 1.8265000000
2.5061000000 3.4604000000 2.5787000000
2.5058000000 7.2489000000 0.7564000000
2.5055000000 2.3146000000 1.7303000000
2.5052000000 5.5055000000 2.0480000000
2.5050000000 7.9426000000 0.2439000000
2.5049000000 6.5837000000 1.2585000000
2.5044000000 1.5091000000 1.1346000000
2.5041000000 6.0142000000 1.6747000000
2.5036000000 7.6951000000 0.4295000000
2.5035000000 2.3799000000 1.7798000000
2.5032000000 3.0271000000 2.2633000000
2.5028000000 5.6678000000 1.9313000000
2.5025000000 3.7150000000 2.7654000000
2.5022000000 5.1337000000 2.3271000000
2.5019000000 2.3689000000 1.7708000000
2.5016000000 3.3849000000 2.5239000000
2.5013000000 0.4192000000 0.3276000000
2.5010000000 3.8138000000 2.8373000000
2.5004000000 3.3157000000 2.4773000000
2.5000000000 3.6729000000 2.7415000000
2.4995000000 4.0366000000 2.9661000000
2.4983000000 4.9739000000 2.4491000000
2.4906000000 3.2245000000 2.4032000000
2.2633000000 5.8134000000 1.8286000000
2.2625000000 7.9617000000 0.2321000000
2.2615000000 7.1817000000 0.8080000000
2.2605000000 7.5411000000 0.5465000000
2.2602000000 3.7946000000 2.8273000000
2.2596000000 4.2938000000 2.9230000000
2.2590000000 8.1583000000 0.0882000000
2.2584000000 7.6645000000 0.4579000000
2.2580000000 8.1949000000 0.0604000000
2.2577000000 4.6598000000 2.6809000000
2.2575000000 5.9790000000 1.7025000000
2.2573000000 7.7549000000 0.3827000000
2.2571000000 8.1358000000 0.0971000000
2.2567000000 7.7658000000 0.3807000000
2.2565000000 2.8849000000 2.1544000000
2.2562000000 0.9100000000 0.6896000000
2.2559000000 2.7418000000 2.0491000000
2.2557000000 8.0313000000 0.1786000000
2.2555000000 7.3116000000 0.7103000000
2.2553000000 3.6576000000 2.7325000000
2.2549000000 0.4950000000 0.3869000000
2.2547000000 6.6446000000 1.2078000000
2.2544000000 3.2157000000 2.3955000000
2.2542000000 1.0775000000 0.8117000000
2.2540000000 0.8156000000 0.6149000000
2.2537000000 6.0942000000 1.6183000000
2.2535000000 2.0656000000 1.5481000000
2.2533000000 2.3145000000 1.7285000000
2.2530000000 3.8001000000 2.8304000000
2.2528000000 3.2529000000 2.4274000000
2.2523000000 2.3779000000 1.7760000000
2.2518000000 3.4125000000 2.5448000000
2.2515000000 7.4334000000 0.6200000000
2.2511000000 1.0324000000 0.7762000000
2.2505000000 0.8626000000 0.6569000000
2.2498000000 2.7026000000 2.0164000000
2.2485000000 0.8276000000 0.6259000000
2.2475000000 8.1464000000 0.1017000000
2.2458000000 2.8012000000 2.0896000000
2.0141000000 6.5192000000 1.2956000000
2.0108000000 5.8855000000 1.7679000000
2.0101000000 7.0624000000 0.8990000000
2.0093000000 0.4430000000 0.3416000000
2.0085000000 7.0452000000 0.9119000000
2.0083000000 7.1773000000 0.8155000000
2.0080000000 6.0952000000 1.6161000000
2.0076000000 6.8658000000 1.0448000000
2.0074000000 5.3603000000 2.1583000000
2.0069000000 5.0293000000 2.4059000000
2.0067000000 3.3069000000 2.4658000000
2.0064000000 6.0687000000 1.6326000000
2.0063000000 3.6790000000 2.6706000000
2.0060000000 1.4503000000 1.0922000000
2.0059000000 3.8855000000 2.7398000000
2.0058000000 6.2191000000 1.5270000000
2.0055000000 7.9434000000 0.2455000000
2.0053000000 4.3227000000 2.7559000000
2.0051000000 1.3701000000 1.0291000000
2.0049000000 2.0603000000 1.5411000000
2.0048000000 3.4077000000 2.5322000000
2.0045000000 4.0396000000 2.7941000000
2.0040000000 3.8264000000 2.7191000000
2.0038000000 2.4985000000 1.8677000000
2.0037000000 4.7315000000 2.5929000000
2.0033000000 6.5821000000 1.2551000000
2.0030000000 0.4207000000 0.3261000000
2.0029000000 7.9936000000 0.2050000000
2.0025000000 0.5220000000 0.3974000000
2.0022000000 4.4128000000 2.7279000000
2.0017000000 3.3416000000 2.4927000000
2.0015000000 3.2739000000 2.4436000000
2.0012000000 2.5798000000 1.9303000000
2.0004000000 3.1058000000 2.3204000000
2.0002000000 0.0350000000 0.0357000000
2.0000000000 6.7856000000 1.1024000000
1.9997000000 3.4284000000 2.5468000000
1.9990000000 4.2760000000 2.7699000000
1.9983000000 0.3304000000 0.2616000000
1.9975000000 6.2700000000 1.4876000000
1.9968000000 0.9946000000 0.7549000000
1.9948000000 0.0372000000 0.0405000000
1.7629000000 8.2775000000 0.0651000000
1.7610000000 5.9066000000 1.7604000000
1.7608000000 5.0290000000 2.3390000000
1.7594000000 5.9067000000 1.7587000000
1.7590000000 7.7559000000 0.3789000000
1.7586000000 3.7079000000 2.5191000000
1.7580000000 7.4829000000 0.5850000000
1.7573000000 7.0664000000 0.9006000000
1.7570000000 0.4191000000 0.3270000000
1.7569000000 1.6738000000 1.2607000000
1.7566000000 8.2183000000 0.0400000000
1.7561000000 6.5671000000 1.2642000000
1.7559000000 1.6370000000 1.2300000000
1.7555000000 5.8731000000 1.7813000000
1.7552000000 3.2429000000 2.3478000000
1.7549000000 4.8346000000 2.4114000000
1.7547000000 7.5845000000 0.5160000000
1.7544000000 7.2436000000 0.7649000000
1.7541000000 4.9026000000 2.3879000000
1.7538000000 2.9233000000 2.1818000000
1.7536000000 3.2058000000 2.3268000000
1.7535000000 5.3654000000 2.1561000000
1.7532000000 3.1386000000 2.2989000000
1.7528000000 5.4118000000 2.1223000000
1.7525000000 6.7421000000 1.1348000000
1.7524000000 5.9446000000 1.7210000000
1.7520000000 8.1182000000 0.1106000000
1.7518000000 3.8110000000 2.5527000000
1.7512000000 3.3024000000 2.3709000000
1.7508000000 3.8492000000 2.5645000000
1.7505000000 7.6759000000 0.4354000000
1.7502000000 3.4662000000 2.4221000000
1.7496000000 4.2315000000 2.6253000000
1.7492000000 1.0554000000 0.7985000000
1.7489000000 1.2380000000 0.9361000000
1.7482000000 1.6544000000 1.2439000000
1.7473000000 0.2039000000 0.1646000000
1.7463000000 0.1448000000 0.1230000000
1.5132000000 2.3634000000 1.7704000000
1.5113000000 7.5297000000 0.5497000000
1.5105000000 7.5297000000 0.5507000000
1.5098000000 4.4556000000 2.3947000000
1.5095000000 3.2530000000 2.1917000000
1.5092000000 4.8085000000 2.2596000000
1.5089000000 8.1755000000 0.0730000000
1.5086000000 7.3787000000 0.6656000000
1.5083000000 6.9784000000 0.9619000000
1.5081000000 2.6470000000 1.9556000000
1.5075000000 3.4757000000 2.2684000000
1.5072000000 6.3072000000 1.4593000000
1.5070000000 4.9828000000 2.2001000000
1.5061000000 5.5291000000 1.9837000000
1.5060000000 4.6711000000 2.3087000000
1.5057000000 6.4277000000 1.3712000000
1.5053000000 5.7186000000 1.8817000000
1.5052000000 5.4540000000 2.0168000000
1.5051000000 3.3273000000 2.2207000000
1.5047000000 0.6838000000 0.5197000000
1.5044000000 7.0044000000 0.9343000000
1.5042000000 2.3691000000 1.7746000000
1.5039000000 1.3852000000 1.0400000000
1.5035000000 6.7438000000 1.1312000000
1.5034000000 0.4565000000 0.3557000000
1.5032000000 7.7508000000 0.3861000000
1.5030000000 0.7462000000 0.5682000000
1.5028000000 1.3073000000 0.9833000000
1.5027000000 0.5677000000 0.4334000000
1.5025000000 5.1739000000 2.1244000000
1.5023000000 1.1181000000 0.8447000000
1.5020000000 1.7163000000 1.2909000000
1.5018000000 2.0585000000 1.5420000000
1.5015000000 5.6233000000 1.9445000000
1.5012000000 3.0722000000 2.1182000000
1.5002000000 2.2737000000 1.7035000000
1.5000000000 1.9203000000 1.4430000000
1.4996000000 1.1650000000 0.8800000000
1.4994000000 5.0841000000 2.1543000000
1.4988000000 2.6073000000 1.9350000000
1.4985000000 0.8179000000 0.6209000000
1.4966000000 4.3238000000 2.4319000000
1.2610000000 6.5891000000 1.2478000000
1.2598000000 8.2494000000 0.0906000000
1.2595000000 0.7355000000 0.5575000000
1.2592000000 7.0398000000 0.9083000000
1.2588000000 7.2926000000 0.7275000000
1.2581000000 6.1304000000 1.5822000000
1.2578000000 5.0402000000 2.0132000000
1.2574000000 6.2128000000 1.5258000000
1.2572000000 0.4418000000 0.3412000000
1.2569000000 6.1134000000 1.5896000000
1.2568000000 7.5200000000 0.5616000000
1.2565000000 3.3870000000 2.0772000000
1.2561000000 0.3902000000 0.3059000000
1.2560000000 0.2760000000 0.2243000000
1.2556000000 4.9539000000 2.0426000000
1.2553000000 1.8274000000 1.3642000000
1.2550000000 2.4257000000 1.7216000000
1.2548000000 2.9508000000 1.9104000000
1.2545000000 0.4101000000 0.3221000000
1.2543000000 3.0146000000 1.9376000000
1.2542000000 4.5421000000 2.1961000000
1.2535000000 5.4815000000 1.8477000000
1.2533000000 2.1962000000 1.6234000000
1.2528000000 2.1751000000 1.6158000000
1.2526000000 1.9517000000 1.4620000000
1.2524000000 4.4324000000 2.2379000000
1.2522000000 2.4655000000 1.7364000000
1.2516000000 3.5674000000 2.1426000000
1.2513000000 2.3117000000 1.6794000000
1.2510000000 3.6501000000 2.1728000000
1.2508000000 6.6896000000 1.1778000000
1.2507000000 5.1573000000 1.9657000000
1.2506000000 3.1119000000 1.9714000000
1.2502000000 8.2209000000 0.0388000000
1.2495000000 4.3730000000 2.2604000000
1.2493000000 4.4757000000 2.2184000000
1.2477000000 3.3304000000 2.0545000000
1.2455000000 0.1177000000 0.1003000000
1.0125000000 7.1324000000 0.8411000000
1.0109000000 4.2522000000 2.1456000000
1.0099000000 7.4694000000 0.5923000000
1.0095000000 1.1314000000 0.8549000000
1.0091000000 5.4393000000 1.7077000000
1.0087000000 6.5344000000 1.2805000000
1.0084000000 7.3169000000 0.7070000000
1.0080000000 1.3264000000 0.9980000000
1.0070000000 8.1190000000 0.1169000000
1.0065000000 4.0024000000 2.1469000000
1.0064000000 3.1256000000 1.8233000000
1.0062000000 4.3083000000 2.1188000000
1.0058000000 0.9991000000 0.7551000000
1.0055000000 4.4897000000 2.0521000000
1.0053000000 3.1384000000 1.8247000000
1.0052000000 5.0490000000 1.8429000000
1.0049000000 7.7455000000 0.3938000000
1.0046000000 7.7666000000 0.3762000000
1.0043000000 8.1627000000 0.0761000000
1.0041000000 8.0139000000 0.1964000000
1.0032000000 5.9541000000 1.5050000000
1.0030000000 5.6000000000 1.6388000000
1.0028000000 5.7931000000 1.5731000000
1.0025000000 5.0862000000 1.8330000000
1.0023000000 6.8661000000 1.0482000000
1.0021000000 2.9342000000 1.7469000000
1.0019000000 1.2095000000 0.9133000000
1.0016000000 1.8056000000 1.3125000000
1.0011000000 7.8876000000 0.2831000000
1.0008000000 4.5428000000 2.0312000000
1.0003000000 3.9151000000 2.1131000000
1.0000000000 7.1854000000 0.8061000000
0.9997000000 4.6082000000 2.0099000000
0.9993000000 3.5411000000 1.9661000000
0.9987000000 2.9440000000 1.7471000000
0.9974000000 0.1065000000 0.0924000000
0.9955000000 0.7339000000 0.5577000000
0.7620000000 0.5585000000 0.4289000000
0.7608000000 2.1365000000 1.2949000000
0.7603000000 5.6513000000 1.4719000000
0.7600000000 7.1964000000 0.7971000000
0.7592000000 7.8363000000 0.3243000000
0.7590000000 6.0724000000 1.3103000000
0.7584000000 5.4953000000 1.5280000000
0.7581000000 5.9015000000 1.3722000000
0.7579000000 2.7596000000 1.5298000000
0.7575000000 4.1065000000 2.0123000000
0.7573000000 5.9698000000 1.3479000000
0.7571000000 5.9993000000 1.3377000000
0.7566000000 1.9744000000 1.2325000000
0.7563000000 1.6573000000 1.1234000000
0.7560000000 3.1462000000 1.6689000000
0.7557000000 3.7511000000 1.8949000000
0.7554000000 6.6117000000 1.1110000000
0.7551000000 1.2507000000 0.9261000000
0.7550000000 5.0017000000 1.7034000000
0.7545000000 3.3857000000 1.7524000000
0.7544000000 4.9211000000 1.7312000000
0.7543000000 4.2501000000 1.9844000000
0.7541000000 0.3055000000 0.2375000000
0.7538000000 4.9443000000 1.7288000000
0.7535000000 1.8546000000 1.1854000000
0.7533000000 4.8752000000 1.7518000000
0.7530000000 2.9184000000 1.5825000000
0.7527000000 4.1146000000 2.0092000000
0.7525000000 2.3820000000 1.3882000000
0.7523000000 2.1743000000 1.3092000000
0.7518000000 5.4990000000 1.5184000000
0.7515000000 5.5493000000 1.5001000000
0.7511000000 3.6451000000 1.8497000000
0.7509000000 0.7205000000 0.5446000000
0.7505000000 0.8590000000 0.6517000000
0.7499000000 0.4794000000 0.3722000000
0.7492000000 1.2785000000 0.9510000000
0.7482000000 3.2811000000 1.7180000000
0.7478000000 3.2039000000 1.6798000000
0.7471000000 4.4812000000 1.8921000000
0.7464000000 1.3566000000 0.9824000000
0.7459000000 0.8281000000 0.6306000000
0.7454000000 5.3059000000 1.5855000000
0.5131000000 7.8114000000 0.3423000000
0.5113000000 3.5359000000 1.6507000000
0.5105000000 8.2448000000 0.0185000000
0.5096000000 5.7378000000 1.2813000000
0.5091000000 5.6429000000 1.3087000000
0.5086000000 7.5479000000 0.5416000000
0.5080000000 2.9520000000 1.4292000000
0.5077000000 8.0273000000 0.1827000000
0.5074000000 4.0807000000 1.8492000000
0.5070000000 5.2143000000 1.4675000000
0.5065000000 1.2539000000 0.8055000000
0.5063000000 7.3479000000 0.6635000000
0.5060000000 7.9871000000 0.2138000000
0.5055000000 2.8175000000 1.3807000000
0.5054000000 3.2897000000 1.5592000000
0.5050000000 7.1514000000 0.7491000000
0.5047000000 6.8075000000 0.8742000000
0.5046000000 6.2587000000 1.0745000000
0.5044000000 8.0671000000 0.1503000000
0.5042000000 0.2860000000 0.2240000000
0.5040000000 0.1812000000 0.1490000000
0.5037000000 3.4213000000 1.6087000000
0.5035000000 8.0159000000 0.1914000000
0.5030000000 4.3741000000 1.7755000000
0.5028000000 7.0853000000 0.7660000000
0.5025000000 5.8088000000 1.2476000000
0.5023000000 3.5120000000 1.6371000000
0.5022000000 2.0574000000 1.1037000000
0.5018000000 6.2796000000 1.0699000000
0.5016000000 2.4018000000 1.2285000000
0.5015000000 6.4475000000 1.0066000000
0.5009000000 1.6687000000 0.9577000000
0.5003000000 0.5447000000 0.4199000000
0.4999000000 1.2613000000 0.7993000000
0.4997000000 5.8237000000 1.2371000000
0.4991000000 4.9126000000 1.5784000000
0.4988000000 2.1203000000 1.1198000000
0.4983000000 3.7395000000 1.7186000000
0.4972000000 2.6653000000 1.3244000000
0.4951000000 0.7241000000 0.5530000000
0.2644000000 4.8273000000 1.4573000000
0.2623000000 7.4830000000 0.4695000000
0.2604000000 7.1695000000 0.5856000000
0.2599000000 6.2302000000 0.9338000000
0.2594000000 6.1892000000 0.9506000000
0.2589000000 8.1904000000 0.0567000000
0.2586000000 3.0414000000 1.3148000000
0.2585000000 3.7350000000 1.5643000000
0.2583000000 4.4179000000 1.5992000000
0.2581000000 6.6695000000 0.7618000000
0.2578000000 4.1922000000 1.6900000000
0.2575000000 1.9832000000 0.9221000000
0.2570000000 7.6448000000 0.4049000000
0.2568000000 2.9495000000 1.2700000000
0.2566000000 5.7022000000 1.1224000000
0.2562000000 3.9896000000 1.6617000000
0.2558000000 1.8738000000 0.8753000000
0.2556000000 3.2777000000 1.3912000000
0.2553000000 2.0532000000 0.9396000000
0.2550000000 4.7906000000 1.4628000000
0.2549000000 4.6708000000 1.5113000000
0.2546000000 5.8382000000 1.0790000000
0.2545000000 2.9043000000 1.2541000000
0.2544000000 0.0735000000 0.0692000000
0.2542000000 5.4939000000 1.2009000000
0.2540000000 3.0518000000 1.3094000000
0.2538000000 4.5724000000 1.5460000000
0.2535000000 3.8696000000 1.6090000000
0.2530000000 3.2399000000 1.3810000000
0.2528000000 2.9549000000 1.2707000000
0.2523000000 0.3507000000 0.2606000000
0.2520000000 1.7945000000 0.8416000000
0.2518000000 3.3729000000 1.4258000000
0.2515000000 7.8235000000 0.3233000000
0.2512000000 0.1730000000 0.1390000000
0.2511000000 1.5482000000 0.7541000000
0.2509000000 4.5549000000 1.5524000000
0.2502000000 1.6065000000 0.7733000000
0.2500000000 2.2435000000 1.0130000000
0.2494000000 1.3203000000 0.6624000000
0.2488000000 1.2486000000 0.6348000000
0.2483000000 0.3380000000 0.2541000000
0.2465000000 2.1436000000 0.9675000000
0.2459000000 3.6577000000 1.5271000000
0.2432000000 4.5882000000 1.5291000000
0.0117000000 7.1095000000 0.4466000000
0.0114000000 7.4199000000 0.3270000000
0.0105000000 6.4891000000 0.6751000000
0.0103000000 7.5639000000 0.2794000000
0.0094000000 6.7541000000 0.5779000000
0.0090000000 4.8707000000 1.2724000000
0.0086000000 0.4674000000 0.1869000000
0.0080000000 3.1133000000 1.1733000000
0.0078000000 8.2874000000 0.0426000000
0.0075000000 5.7321000000 0.9565000000
0.0074000000 5.2600000000 1.1293000000
0.0070000000 6.8325000000 0.5464000000
0.0066000000 7.4539000000 0.3153000000
0.0062000000 2.7935000000 1.0542000000
0.0060000000 4.0716000000 1.5298000000
0.0059000000 3.9177000000 1.4679000000
0.0058000000 3.4249000000 1.2861000000
0.0053000000 7.4071000000 0.3304000000
0.0051000000 7.7409000000 0.2120000000
0.0049000000 7.9267000000 0.1364000000
0.0046000000 8.1629000000 0.0424000000
0.0045000000 7.3662000000 0.3455000000
0.0043000000 6.2386000000 0.7618000000
0.0040000000 2.3068000000 0.8733000000
0.0035000000 6.5588000000 0.6472000000
0.0031000000 5.3906000000 1.0796000000
0.0030000000 6.9040000000 0.5149000000
0.0026000000 5.4002000000 1.0721000000
0.0024000000 3.7585000000 1.4109000000
0.0020000000 0.5991000000 0.2392000000
0.0016000000 1.6868000000 0.6409000000
0.0012000000 0.2575000000 0.1090000000
0.0009000000 0.3433000000 0.1394000000
0.0005000000 5.7721000000 0.9319000000
0.0000000000 3.8992000000 1.4579000000
-0.0005000000 4.2994000000 1.4806000000
-0.0007000000 1.4172000000 0.5401000000
-0.0010000000 2.1735000000 0.8224000000
-0.0014000000 0.7522000000 0.2922000000
-0.0019000000 8.0354000000 0.0915000000
-0.0026000000 0.1948000000 0.0816000000
-0.0064000000 1.8055000000 0.6833000000
-0.2382000000 7.1875000000 0.2579000000
-0.2407000000 7.7304000000 0.0589000000
-0.2411000000 6.8686000000 0.3716000000
-0.2415000000 1.4751000000 0.4044000000
-0.2426000000 7.2004000000 0.2467000000
-0.2429000000 6.7261000000 0.4212000000
-0.2432000000 7.1869000000 0.2522000000
-0.2434000000 4.1035000000 1.3696000000
-0.2435000000 4.4311000000 1.2805000000
-0.2439000000 6.3009000000 0.5790000000
-0.2443000000 6.0300000000 0.6812000000
-0.2445000000 0.4142000000 0.0817000000
-0.2447000000 5.2462000000 0.9767000000
-0.2448000000 6.7333000000 0.4195000000
-0.2450000000 0.7558000000 0.1364000000
-0.2452000000 7.7384000000 0.0476000000
-0.2455000000 4.4847000000 1.2498000000
-0.2457000000 7.6531000000 0.0791000000
-0.2460000000 3.2853000000 1.0746000000
-0.2461000000 6.1195000000 0.6493000000
-0.2464000000 6.8492000000 0.3755000000
-0.2469000000 6.8674000000 0.3699000000
-0.2471000000 1.6714000000 0.4752000000
-0.2473000000 0.4580000000 0.0257000000
-0.2476000000 6.6422000000 0.4481000000
-0.2477000000 3.7952000000 1.2638000000
-0.2488000000 1.6275000000 0.4531000000
-0.2493000000 3.9695000000 1.3303000000
-0.2497000000 3.3689000000 1.1052000000
-0.2501000000 2.7207000000 0.8619000000
-0.2506000000 0.7013000000 0.1133000000
-0.2513000000 1.4270000000 0.3807000000
-0.2518000000 0.7955000000 0.1514000000
-0.2522000000 0.9487000000 0.2086000000
-0.2533000000 3.6824000000 1.2201000000
-0.2584000000 0.4862000000 0.0235000000
-0.4896000000 5.1381000000 0.8534000000
-0.4900000000 6.5119000000 0.3469000000
-0.4906000000 1.1816000000 0.1419000000
-0.4914000000 5.1578000000 0.8470000000
-0.4919000000 1.5041000000 0.2562000000
-0.4921000000 4.4109000000 1.1271000000
-0.4925000000 6.1518000000 0.4782000000
-0.4929000000 2.3119000000 0.5616000000
-0.4935000000 4.1374000000 1.2152000000
-0.4938000000 2.8435000000 0.7571000000
-0.4944000000 6.1687000000 0.4643000000
-0.4945000000 6.9390000000 0.1855000000
-0.4947000000 4.2907000000 1.1681000000
-0.4951000000 7.3810000000 0.0145000000
-0.4953000000 6.2324000000 0.4490000000
-0.4955000000 4.3954000000 1.1295000000
-0.4957000000 3.8438000000 1.1200000000
-0.4960000000 7.1944000000 0.0885000000
-0.4961000000 6.8241000000 0.2252000000
-0.4964000000 2.0490000000 0.4601000000
-0.4965000000 1.3302000000 0.1871000000
-0.4969000000 3.6216000000 1.0341000000
-0.4972000000 1.1814000000 0.1330000000
-0.4977000000 4.0833000000 1.1979000000
-0.4978000000 6.2272000000 0.4467000000
-0.4983000000 6.7007000000 0.2707000000
-0.4986000000 5.4233000000 0.7463000000
-0.4988000000 0.6768000000 0.0202000000
-0.4990000000 7.6045000000 0.0119000000
-0.4996000000 3.7665000000 1.0940000000
-0.5001000000 2.5437000000 0.6399000000
-0.5006000000 1.1148000000 0.1070000000
-0.5009000000 2.3091000000 0.5461000000
-0.5015000000 5.7722000000 0.6139000000
-0.5021000000 1.8900000000 0.3925000000
-0.5046000000 5.7244000000 0.6258000000
-0.5056000000 1.5085000000 0.2491000000
-0.7347000000 4.8124000000 0.8178000000
-0.7387000000 6.7361000000 0.1033000000
-0.7393000000 5.6695000000 0.5003000000
-0.7412000000 4.6148000000 0.8930000000
-0.7421000000 6.3302000000 0.2492000000
-0.7427000000 6.4977000000 0.1908000000
-0.7430000000 3.6759000000 0.8996000000
-0.7434000000 6.9469000000 0.0187000000
-0.7438000000 3.9078000000 0.9860000000
-0.7441000000 6.2181000000 0.2950000000
-0.7445000000 4.5560000000 0.9124000000
-0.7445000000 5.6271000000 0.5118000000
-0.7448000000 5.3395000000 0.6160000000
-0.7452000000 5.5065000000 0.5555000000
-0.7456000000 6.1226000000 0.3245000000
-0.7458000000 6.3736000000 0.2318000000
-0.7464000000 6.8859000000 0.0427000000
-0.7466000000 4.2759000000 1.0108000000
-0.7470000000 4.9572000000 0.7512000000
-0.7473000000 2.6321000000 0.5096000000
-0.7476000000 2.2318000000 0.3661000000
-0.7480000000 1.5630000000 0.1099000000
-0.7487000000 6.1506000000 0.3115000000
-0.7491000000 3.4938000000 0.8265000000
-0.7493000000 2.3586000000 0.4093000000
-0.7498000000 2.4902000000 0.4624000000
-0.7503000000 6.1378000000 0.3154000000
-0.7512000000 4.5629000000 0.8992000000
-0.7519000000 1.4514000000 0.0730000000
-0.9874000000 4.4502000000 0.7880000000
-0.9889000000 1.6736000000 0.0747000000
-0.9912000000 6.7062000000 0.0231000000
-0.9918000000 3.4010000000 0.6453000000
-0.9931000000 5.6646000000 0.3351000000
-0.9940000000 4.0525000000 0.8831000000
-0.9945000000 3.5448000000 0.6886000000
-0.9952000000 4.6408000000 0.7094000000
-0.9960000000 2.2123000000 0.2005000000
-0.9965000000 4.2028000000 0.8763000000
-0.9969000000 2.6016000000 0.3425000000
-0.9974000000 6.4289000000 0.0510000000
-0.9976000000 5.7576000000 0.2999000000
-0.9977000000 2.8824000000 0.4433000000
-0.9981000000 3.4138000000 0.6430000000
-0.9989000000 3.0968000000 0.5187000000
-0.9994000000 1.7600000000 0.0263000000
-1.0005000000 6.6762000000 0.0290000000
-1.0025000000 2.2786000000 0.2154000000
-1.2367000000 5.5653000000 0.2152000000
-1.2396000000 5.1426000000 0.3734000000
-1.2416000000 6.2761000000 0.0237000000
-1.2425000000 4.9261000000 0.4533000000
-1.2430000000 5.3670000000 0.2899000000
-1.2437000000 5.4446000000 0.2527000000
-1.2445000000 2.7977000000 0.2483000000
-1.2455000000 4.2938000000 0.6839000000
-1.2460000000 5.3848000000 0.2799000000
-1.2462000000 5.9063000000 0.0831000000
-1.2468000000 5.4736000000 0.2507000000
-1.2472000000 2.9601000000 0.3081000000
-1.2475000000 5.6826000000 0.1664000000
-1.2477000000 2.1588000000 0.0870000000
-1.2484000000 2.5593000000 0.1643000000
-1.2487000000 4.3810000000 0.6503000000
-1.2490000000 4.5298000000 0.5958000000
-1.2497000000 3.8288000000 0.6261000000
-1.2502000000 4.8454000000 0.4770000000
-1.2512000000 3.4184000000 0.4778000000
-1.2535000000 2.5035000000 0.1375000000
-1.2560000000 3.6206000000 0.5520000000
-1.4889000000 5.3470000000 0.1298000000
-1.4925000000 3.6057000000 0.3937000000
-1.4928000000 3.7139000000 0.4337000000
-1.4933000000 4.5012000000 0.4438000000
-1.4939000000 4.5684000000 0.4267000000
-1.4945000000 2.7934000000 0.0809000000
-1.4960000000 2.8210000000 0.1020000000
-1.4969000000 4.0823000000 0.5517000000
-1.4973000000 5.2974000000 0.1472000000
-1.4977000000 3.5979000000 0.3868000000
-1.4985000000 3.8543000000 0.4858000000
-1.4995000000 5.0691000000 0.2293000000
-1.5007000000 5.1793000000 0.1874000000
-1.5012000000 5.3354000000 0.1275000000
-1.5045000000 2.4065000000 0.0203000000
-1.7428000000 2.7988000000 0.0023000000
-1.7437000000 5.3046000000 0.0628000000
-1.7442000000 3.7532000000 0.2889000000
-1.7447000000 5.4315000000 0.0147000000
-1.7452000000 3.3488000000 0.1333000000
-1.7459000000 3.3047000000 0.1162000000
-1.7465000000 3.7769000000 0.2954000000
-1.7477000000 5.4604000000 0.0071000000
-1.7484000000 4.7100000000 0.2096000000
-1.7488000000 5.1744000000 0.0327000000
-1.7493000000 4.6385000000 0.2337000000
-1.7498000000 4.3236000000 0.3456000000
-1.7505000000 5.1522000000 0.0370000000
-1.7522000000 5.0736000000 0.0649000000
-1.9929000000 5.0260000000 0.0051000000
-1.9944000000 4.9054000000 0.0516000000
-1.9955000000 4.1743000000 0.2335000000
-1.9960000000 4.6725000000 0.0568000000
-1.9977000000 4.9092000000 0.0442000000
