7.2625000000 4.0741000000 0.1037000000
7.2574000000 4.2716000000 0.1290000000
7.2542000000 4.0709000000 0.1101000000
7.2531000000 3.7271000000 0.0037000000
7.0110000000 4.1625000000 0.3102000000
7.0093000000 5.1555000000 0.0844000000
7.0090000000 5.0948000000 0.0420000000
7.0075000000 5.2459000000 0.0360000000
7.0063000000 4.7489000000 0.1563000000
7.0055000000 3.8853000000 0.1690000000
7.0051000000 3.7534000000 0.0939000000
7.0044000000 4.5441000000 0.2650000000
7.0035000000 4.9852000000 0.1067000000
7.0025000000 4.9409000000 0.0527000000
7.0005000000 3.3298000000 0.0259000000
7.0002000000 3.7472000000 0.0977000000
6.9989000000 3.8525000000 0.1566000000
6.7613000000 3.9761000000 0.4388000000
6.7585000000 3.6349000000 0.2599000000
6.7573000000 5.0569000000 0.2177000000
6.7559000000 3.4849000000 0.1879000000
6.7551000000 4.2353000000 0.5837000000
6.7547000000 4.6148000000 0.4565000000
6.7542000000 3.3583000000 0.1122000000
6.7537000000 4.1415000000 0.5316000000
6.7532000000 3.3151000000 0.0994000000
6.7523000000 4.7638000000 0.3797000000
6.7515000000 3.5729000000 0.2369000000
6.7485000000 5.4059000000 0.1097000000
6.5121000000 4.9017000000 0.5308000000
6.5093000000 6.0518000000 0.0692000000
6.5090000000 4.4325000000 0.7815000000
6.5082000000 4.1927000000 0.7831000000
6.5075000000 2.7145000000 0.0818000000
6.5073000000 3.3015000000 0.3121000000
6.5070000000 3.8716000000 0.6201000000
6.5063000000 4.2734000000 0.8192000000
6.5058000000 2.4696000000 0.0263000000
6.5050000000 5.2692000000 0.3401000000
6.5045000000 5.4394000000 0.2406000000
6.5041000000 4.4980000000 0.7464000000
6.5035000000 2.9061000000 0.1129000000
6.5025000000 5.2898000000 0.3320000000
6.5021000000 5.6171000000 0.1508000000
6.5008000000 2.6211000000 0.0310000000
6.5002000000 5.0676000000 0.4518000000
6.4999000000 2.4902000000 0.0432000000
6.4981000000 2.6189000000 0.0321000000
6.2618000000 4.4648000000 0.9929000000
6.2604000000 3.1322000000 0.4501000000
6.2600000000 2.3854000000 0.0582000000
6.2593000000 5.4578000000 0.4630000000
6.2584000000 6.0511000000 0.1475000000
6.2580000000 3.4638000000 0.6435000000
6.2575000000 3.9847000000 0.9104000000
6.2571000000 5.5117000000 0.4338000000
6.2568000000 5.2137000000 0.5964000000
6.2564000000 4.8885000000 0.7706000000
6.2561000000 4.6975000000 0.8747000000
6.2553000000 4.2976000000 1.0625000000
6.2545000000 5.3532000000 0.5192000000
6.2543000000 6.5460000000 0.0383000000
6.2541000000 2.4267000000 0.0821000000
6.2535000000 3.8543000000 0.8436000000
6.2531000000 6.5859000000 0.0214000000
6.2526000000 1.9904000000 -0.0002000000
6.2519000000 3.7686000000 0.7988000000
6.2515000000 5.1534000000 0.6308000000
6.2506000000 4.4212000000 1.0252000000
6.2491000000 3.8757000000 0.8635000000
6.0128000000 4.4694000000 1.2227000000
6.0116000000 2.2439000000 0.2088000000
6.0111000000 5.2056000000 0.8277000000
6.0100000000 5.8053000000 0.5091000000
6.0097000000 6.2053000000 0.2947000000
6.0089000000 4.1875000000 1.2483000000
6.0087000000 5.4773000000 0.6893000000
6.0078000000 6.4172000000 0.1855000000
6.0075000000 4.5320000000 1.1888000000
6.0072000000 5.8819000000 0.4735000000
6.0068000000 3.3990000000 0.8305000000
6.0066000000 4.0705000000 1.1894000000
6.0064000000 3.1148000000 0.6801000000
6.0059000000 2.8653000000 0.5462000000
6.0058000000 2.1621000000 0.1724000000
6.0055000000 6.3996000000 0.1943000000
6.0053000000 6.9282000000 0.0644000000
6.0049000000 2.4890000000 0.3478000000
6.0046000000 3.7991000000 1.0488000000
6.0042000000 2.4751000000 0.3402000000
6.0039000000 6.1151000000 0.3499000000
6.0037000000 6.6576000000 0.0621000000
6.0033000000 3.0687000000 0.6532000000
6.0028000000 3.2488000000 0.7566000000
6.0023000000 6.2292000000 0.2850000000
6.0014000000 3.0551000000 0.6463000000
6.0009000000 2.5309000000 0.3666000000
5.9995000000 3.1026000000 0.6773000000
5.9986000000 1.8475000000 0.0831000000
5.7670000000 4.5021000000 1.4315000000
5.7613000000 5.7967000000 0.7450000000
5.7597000000 5.9458000000 0.6661000000
5.7590000000 1.6979000000 0.1481000000
5.7582000000 1.6788000000 0.1445000000
5.7578000000 3.0872000000 0.8888000000
5.7574000000 6.5029000000 0.3749000000
5.7568000000 7.2098000000 0.0653000000
5.7564000000 3.2148000000 0.9582000000
5.7565000000 5.7691000000 0.7620000000
5.7561000000 7.0404000000 0.0843000000
5.7558000000 2.3769000000 0.5132000000
5.7556000000 4.9075000000 1.2203000000
5.7554000000 1.2335000000 0.0557000000
5.7551000000 3.5709000000 1.1534000000
5.7547000000 1.5726000000 0.0905000000
5.7544000000 3.1535000000 0.9303000000
5.7542000000 4.9787000000 1.1851000000
5.7540000000 5.8492000000 0.7199000000
5.7537000000 5.1593000000 1.0908000000
5.7534000000 6.2868000000 0.4891000000
5.7529000000 7.0238000000 0.0950000000
5.7519000000 3.3214000000 1.0216000000
5.7515000000 2.2407000000 0.4446000000
5.7510000000 5.3204000000 1.0098000000
5.7505000000 2.3418000000 0.4994000000
5.7499000000 4.2211000000 1.5051000000
5.7486000000 2.2739000000 0.4716000000
5.7479000000 1.5171000000 0.0643000000
5.7457000000 2.6360000000 0.6655000000
5.5103000000 6.5826000000 0.5589000000
5.5099000000 6.7015000000 0.4945000000
5.5094000000 5.5313000000 1.1169000000
5.5090000000 1.1226000000 0.0757000000
5.5084000000 7.0717000000 0.2931000000
5.5080000000 3.7091000000 1.4562000000
5.5078000000 2.3914000000 0.7540000000
5.5075000000 2.9360000000 1.0412000000
5.5073000000 2.7601000000 0.9511000000
5.5067000000 0.8461000000 0.0827000000
5.5064000000 4.5487000000 1.6427000000
5.5062000000 2.6316000000 0.8870000000
5.5059000000 1.1302000000 0.0822000000
5.5057000000 3.2492000000 1.2130000000
5.5055000000 6.7503000000 0.4688000000
5.5053000000 4.7629000000 1.5325000000
5.5052000000 3.6670000000 1.4325000000
5.5050000000 2.3887000000 0.7499000000
5.5047000000 3.0352000000 1.1001000000
5.5044000000 4.2470000000 1.7421000000
5.5042000000 4.5357000000 1.6499000000
5.5040000000 1.9108000000 0.4978000000
5.5038000000 1.4497000000 0.2516000000
5.5035000000 1.7515000000 0.4206000000
5.5035000000 1.1142000000 0.0793000000
5.5031000000 5.0799000000 1.3621000000
5.5026000000 3.5060000000 1.3544000000
5.5023000000 1.0124000000 0.1000000000
5.5019000000 0.9508000000 0.0657000000
5.5018000000 6.8339000000 0.4339000000
5.5013000000 5.1364000000 1.3396000000
5.5005000000 2.9958000000 1.0797000000
5.5001000000 7.2768000000 0.1968000000
5.4994000000 6.8922000000 0.3965000000
5.4988000000 5.5137000000 1.1337000000
5.4980000000 2.3798000000 0.7577000000
5.2664000000 7.2788000000 0.4049000000
5.2605000000 6.4191000000 0.8772000000
5.2599000000 6.6061000000 0.7756000000
5.2595000000 5.9643000000 1.1195000000
5.2590000000 4.7410000000 1.7667000000
5.2587000000 6.9239000000 0.6064000000
5.2581000000 6.3327000000 0.9213000000
5.2575000000 1.5867000000 0.5569000000
5.2575000000 3.5777000000 1.6150000000
5.2573000000 6.8821000000 0.6289000000
5.2570000000 3.0455000000 1.3328000000
5.2566000000 3.7731000000 1.7190000000
5.2565000000 4.1399000000 1.9215000000
5.2561000000 6.8796000000 0.6254000000
5.2560000000 5.2583000000 1.4976000000
5.2555000000 2.5310000000 1.0632000000
5.2554000000 5.4234000000 1.4034000000
5.2552000000 8.2715000000 0.0393000000
5.2549000000 1.3384000000 0.4164000000
5.2547000000 5.0724000000 1.6005000000
5.2545000000 1.5276000000 0.5276000000
5.2544000000 7.2637000000 0.4266000000
5.2543000000 0.8489000000 0.1635000000
5.2541000000 7.8348000000 0.1288000000
5.2539000000 4.5593000000 1.8750000000
5.2537000000 4.7147000000 1.7903000000
5.2535000000 0.8467000000 0.1617000000
5.2532000000 0.5888000000 0.1091000000
5.2528000000 7.6377000000 0.2351000000
5.2525000000 0.6448000000 0.0620000000
5.2523000000 6.7335000000 0.7135000000
5.2521000000 2.6225000000 1.1150000000
5.2517000000 3.3241000000 1.4881000000
5.2513000000 0.3199000000 0.0393000000
5.2508000000 5.1422000000 1.5630000000
5.2502000000 2.7982000000 1.2122000000
5.2464000000 4.1081000000 1.9111000000
5.0141000000 5.1413000000 1.7832000000
5.0115000000 7.6109000000 0.4677000000
5.0109000000 8.0757000000 0.2269000000
5.0105000000 7.4001000000 0.5852000000
5.0098000000 2.8840000000 1.4778000000
5.0095000000 2.9146000000 1.4991000000
5.0089000000 4.1779000000 2.1671000000
5.0085000000 8.1829000000 0.1645000000
5.0079000000 3.2999000000 1.7038000000
5.0078000000 5.7472000000 1.4638000000
5.0075000000 3.4244000000 1.7685000000
5.0072000000 5.7825000000 1.4437000000
5.0068000000 0.9622000000 0.4638000000
5.0066000000 4.0342000000 2.0894000000
5.0063000000 3.0424000000 1.5639000000
5.0060000000 4.5173000000 2.1261000000
5.0059000000 8.1253000000 0.1918000000
5.0056000000 2.1483000000 1.0885000000
5.0053000000 8.1776000000 0.1675000000
5.0049000000 5.7431000000 1.4687000000
5.0046000000 2.8421000000 1.4527000000
5.0043000000 2.2967000000 1.1694000000
5.0041000000 0.1025000000 0.0703000000
5.0038000000 6.5868000000 1.0264000000
5.0037000000 6.0683000000 1.2964000000
5.0035000000 7.7593000000 0.3990000000
5.0031000000 1.1573000000 0.5584000000
5.0027000000 0.4399000000 0.1815000000
5.0025000000 2.1230000000 1.0817000000
5.0023000000 4.7043000000 2.0254000000
5.0018000000 1.3901000000 0.6934000000
5.0013000000 0.9851000000 0.4716000000
5.0010000000 0.0264000000 0.0165000000
5.0008000000 4.3414000000 2.1957000000
5.0000000000 6.9572000000 0.8295000000
4.9995000000 0.3235000000 0.1222000000
4.9986000000 0.4298000000 0.1785000000
4.9976000000 0.5996000000 0.2698000000
4.7640000000 3.3338000000 1.9402000000
4.7618000000 7.3801000000 0.8227000000
4.7608000000 4.1800000000 2.3963000000
4.7602000000 7.1913000000 0.9272000000
4.7595000000 7.8108000000 0.5932000000
4.7588000000 7.9506000000 0.5148000000
4.7584000000 6.2614000000 1.4250000000
4.7582000000 5.8435000000 1.6466000000
4.7579000000 7.2476000000 0.8948000000
4.7575000000 2.2041000000 1.3445000000
4.7571000000 8.1934000000 0.3783000000
4.7569000000 5.7222000000 1.7098000000
4.7565000000 6.4685000000 1.3135000000
4.7563000000 5.4912000000 1.8344000000
4.7560000000 4.4635000000 2.3818000000
4.7558000000 5.9091000000 1.6120000000
4.7556000000 2.2018000000 1.3489000000
4.7554000000 0.3980000000 0.3698000000
4.7553000000 7.1100000000 0.9743000000
4.7550000000 2.3623000000 1.4344000000
4.7547000000 2.0723000000 1.2834000000
4.7544000000 1.9990000000 1.2395000000
4.7542000000 3.9178000000 2.2637000000
4.7539000000 4.6813000000 2.2665000000
4.7536000000 4.0686000000 2.3474000000
4.7534000000 0.5139000000 0.4494000000
4.7531000000 5.3479000000 1.9133000000
4.7529000000 1.3295000000 0.8817000000
4.7526000000 2.2060000000 1.3471000000
4.7521000000 4.8123000000 2.1981000000
4.7516000000 1.3923000000 0.9138000000
4.7511000000 7.4852000000 0.7704000000
4.7508000000 2.8790000000 1.7107000000
4.7504000000 0.5926000000 0.4973000000
4.7498000000 1.5507000000 1.0070000000
4.7486000000 1.2433000000 0.8414000000
4.7481000000 3.6488000000 2.1213000000
4.7456000000 3.8192000000 2.2196000000
4.5116000000 3.3114000000 2.1632000000
4.5108000000 7.1567000000 1.1674000000
4.5098000000 7.8538000000 0.7637000000
4.5095000000 5.2887000000 2.1686000000
4.5092000000 5.6594000000 1.9709000000
4.5090000000 3.0155000000 2.0097000000
4.5087000000 1.9675000000 1.4464000000
4.5083000000 8.3404000000 0.2648000000
4.5077000000 1.3462000000 1.1229000000
4.5073000000 5.8372000000 1.8836000000
4.5071000000 2.1237000000 1.5320000000
4.5069000000 7.4123000000 1.0397000000
4.5066000000 7.1070000000 1.2068000000
4.5064000000 2.4881000000 1.7330000000
4.5062000000 5.7596000000 1.9198000000
4.5058000000 2.1483000000 1.5473000000
4.5055000000 4.2449000000 2.6663000000
4.5053000000 3.1201000000 2.0695000000
4.5050000000 6.0114000000 1.7887000000
4.5049000000 6.9046000000 1.3169000000
4.5046000000 7.2615000000 1.1167000000
4.5044000000 7.3261000000 1.0841000000
4.5043000000 7.6682000000 0.9063000000
4.5034000000 6.6707000000 1.4394000000
4.5030000000 6.8491000000 1.3427000000
4.5028000000 1.1658000000 1.0253000000
4.5027000000 2.4136000000 1.6944000000
4.5025000000 1.1593000000 1.0276000000
4.5023000000 4.3790000000 2.6553000000
4.5020000000 1.9149000000 1.4237000000
4.5018000000 7.4597000000 1.0219000000
4.5016000000 2.6287000000 1.8145000000
4.5014000000 1.8297000000 1.3798000000
4.5010000000 6.6380000000 1.4588000000
4.5009000000 1.3553000000 1.1298000000
4.5003000000 0.5332000000 0.5444000000
4.4999000000 1.7072000000 1.3197000000
4.4988000000 0.6538000000 0.6798000000
4.4984000000 5.9302000000 1.8348000000
4.4978000000 4.2396000000 2.6735000000
4.4973000000 0.4301000000 0.4410000000
4.4955000000 1.1361000000 1.0198000000
4.2638000000 5.2156000000 2.4377000000
4.2619000000 6.6092000000 1.6935000000
4.2610000000 7.5581000000 1.1023000000
4.2606000000 8.2218000000 0.3883000000
4.2601000000 8.2348000000 0.3727000000
4.2597000000 4.5816000000 2.7732000000
4.2595000000 3.7677000000 2.6396000000
4.2591000000 1.8162000000 1.6062000000
4.2589000000 8.4726000000 0.1207000000
4.2583000000 0.6168000000 0.6377000000
4.2578000000 8.3226000000 0.2849000000
4.2574000000 -0.0003000000 0.0536000000
4.2572000000 8.0244000000 0.6033000000
4.2569000000 5.0961000000 2.5091000000
4.2565000000 4.9966000000 2.5572000000
4.2563000000 3.0856000000 2.2729000000
4.2561000000 1.3524000000 1.3557000000
4.2560000000 7.1934000000 1.3916000000
4.2556000000 5.8509000000 2.1079000000
4.2554000000 4.2796000000 2.9035000000
4.2551000000 1.7572000000 1.5728000000
4.2549000000 6.2150000000 1.9177000000
4.2547000000 4.7711000000 2.6835000000
4.2545000000 3.0688000000 2.2683000000
4.2543000000 3.4665000000 2.4869000000
4.2539000000 7.9853000000 0.6433000000
4.2535000000 3.7448000000 2.6277000000
4.2533000000 3.6571000000 2.5896000000
4.2530000000 4.9888000000 2.5693000000
4.2529000000 8.4871000000 0.1053000000
4.2525000000 2.4404000000 1.9361000000
4.2524000000 1.8342000000 1.6163000000
4.2522000000 1.1178000000 1.1708000000
4.2520000000 6.3591000000 1.8377000000
4.2514000000 1.3994000000 1.3825000000
4.2512000000 0.0081000000 0.0621000000
4.2510000000 2.2243000000 1.8264000000
4.2505000000 0.0576000000 0.1178000000
4.2502000000 2.9307000000 2.2032000000
4.2499000000 4.3479000000 2.9004000000
4.2491000000 1.8772000000 1.6447000000
4.2487000000 1.1180000000 1.1714000000
4.2474000000 0.0288000000 0.0848000000
4.2465000000 3.7910000000 2.6590000000
4.0125000000 8.2759000000 0.3351000000
4.0109000000 8.5202000000 0.0697000000
4.0106000000 5.5321000000 2.5014000000
4.0101000000 7.8284000000 0.8124000000
4.0094000000 2.0483000000 1.9633000000
4.0092000000 7.5308000000 1.1255000000
4.0085000000 7.9296000000 0.7021000000
4.0083000000 3.8827000000 2.9368000000
4.0079000000 8.3697000000 0.2316000000
4.0075000000 5.2697000000 2.6408000000
4.0073000000 3.9575000000 2.9704000000
4.0069000000 4.3580000000 3.1196000000
4.0065000000 7.7814000000 0.8558000000
4.0063000000 6.5623000000 1.9573000000
4.0060000000 6.8673000000 1.7753000000
4.0057000000 8.6063000000 0.0497000000
4.0052000000 0.0314000000 0.0871000000
4.0051000000 5.0750000000 2.7505000000
4.0046000000 5.0421000000 2.7675000000
4.0045000000 5.2469000000 2.6589000000
4.0043000000 7.6443000000 1.0046000000
4.0041000000 0.4590000000 0.4619000000
4.0038000000 8.6628000000 0.0707000000
4.0037000000 1.6002000000 1.6662000000
4.0033000000 3.4636000000 2.7141000000
4.0032000000 2.7351000000 2.3255000000
4.0028000000 0.5058000000 0.5163000000
4.0025000000 3.4421000000 2.7061000000
4.0018000000 1.7263000000 1.7764000000
4.0015000000 5.3352000000 2.6138000000
4.0013000000 3.0054000000 2.4698000000
4.0009000000 1.4030000000 1.4717000000
4.0006000000 8.4424000000 0.1541000000
4.0000000000 2.0332000000 1.9545000000
3.9994000000 2.9316000000 2.4360000000
3.9962000000 1.9096000000 1.8934000000
3.7613000000 5.7661000000 2.6036000000
3.7606000000 6.4308000000 2.2323000000
3.7602000000 6.0493000000 2.4620000000
3.7599000000 8.3537000000 0.2492000000
3.7593000000 6.3522000000 2.2974000000
3.7588000000 4.1556000000 3.3084000000
3.7585000000 4.0858000000 3.2768000000
3.7584000000 6.1187000000 2.4233000000
3.7582000000 7.2524000000 1.4182000000
3.7575000000 5.2145000000 2.9086000000
3.7573000000 8.1227000000 0.4925000000
3.7570000000 8.0984000000 0.5204000000
3.7567000000 7.4105000000 1.2550000000
3.7564000000 3.8012000000 3.1170000000
3.7562000000 1.4067000000 1.4830000000
3.7560000000 0.8755000000 0.9086000000
3.7558000000 4.6642000000 3.1989000000
3.7557000000 5.7281000000 2.6286000000
3.7554000000 6.9473000000 1.7447000000
3.7551000000 4.7411000000 3.1570000000
3.7550000000 6.3446000000 2.3026000000
3.7544000000 5.4961000000 2.7600000000
3.7542000000 6.4747000000 2.2188000000
3.7540000000 8.1082000000 0.5062000000
3.7539000000 6.2136000000 2.3809000000
3.7536000000 7.1836000000 1.4986000000
3.7534000000 2.7048000000 2.5392000000
3.7532000000 3.4145000000 2.9182000000
3.7530000000 0.0885000000 0.0749000000
3.7529000000 3.3802000000 2.9038000000
3.7525000000 1.9663000000 2.0731000000
3.7522000000 1.6055000000 1.6882000000
3.7520000000 1.7364000000 1.8291000000
3.7518000000 4.2066000000 3.3397000000
3.7515000000 4.6787000000 3.1900000000
3.7513000000 3.4875000000 2.9525000000
3.7510000000 4.8142000000 3.1264000000
3.7507000000 4.0399000000 3.2555000000
3.7502000000 1.6327000000 1.7197000000
3.7496000000 2.0072000000 2.1050000000
3.7490000000 2.5188000000 2.4508000000
3.7485000000 1.3179000000 1.3834000000
3.7478000000 0.2817000000 0.2777000000
3.7459000000 2.4976000000 2.4378000000
3.5108000000 7.2957000000 1.3763000000
3.5100000000 8.0972000000 0.5234000000
3.5095000000 8.3717000000 0.2280000000
3.5089000000 8.1278000000 0.4913000000
3.5085000000 3.8372000000 3.3699000000
3.5078000000 5.4381000000 3.0164000000
3.5075000000 7.7825000000 0.8571000000
3.5073000000 3.0633000000 2.9627000000
3.5070000000 1.7787000000 1.8798000000
3.5068000000 6.4056000000 2.3300000000
3.5067000000 6.4297000000 2.2996000000
3.5064000000 8.3235000000 0.2840000000
3.5062000000 3.6887000000 3.2984000000
3.5061000000 3.5081000000 3.2039000000
3.5059000000 5.7957000000 2.8283000000
3.5057000000 7.0822000000 1.6010000000
3.5054000000 3.7191000000 3.3120000000
3.5051000000 2.7477000000 2.7887000000
3.5048000000 4.1609000000 3.5454000000
3.5046000000 6.0457000000 2.6841000000
3.5045000000 6.0132000000 2.6940000000
3.5043000000 2.8303000000 2.8415000000
3.5039000000 7.3411000000 1.3276000000
3.5037000000 4.8559000000 3.3301000000
3.5035000000 5.3474000000 3.0680000000
3.5033000000 4.4008000000 3.5732000000
3.5030000000 3.5279000000 3.2099000000
3.5028000000 8.3595000000 0.2403000000
3.5025000000 2.4038000000 2.5403000000
3.5024000000 4.5616000000 3.4888000000
3.5023000000 3.7914000000 3.3523000000
3.5021000000 4.7835000000 3.3665000000
3.5020000000 2.7057000000 2.7749000000
3.5018000000 0.8962000000 0.9311000000
3.5014000000 2.9763000000 2.9193000000
3.5010000000 2.6300000000 2.7176000000
3.5005000000 1.7251000000 1.8136000000
3.4998000000 3.9505000000 3.4399000000
3.4995000000 0.0772000000 0.0557000000
3.4991000000 0.0768000000 0.0628000000
3.4989000000 0.6612000000 0.6785000000
3.4982000000 0.0139000000 0.0639000000
3.4975000000 0.2594000000 0.2534000000
3.2618000000 6.1138000000 2.6369000000
3.2605000000 4.5588000000 3.7150000000
3.2589000000 0.3130000000 0.3131000000
3.2586000000 2.2005000000 2.3241000000
3.2580000000 4.3599000000 3.8236000000
3.2575000000 0.0908000000 0.0741000000
3.2571000000 6.7191000000 1.9933000000
3.2567000000 3.5695000000 3.4575000000
3.2565000000 6.3169000000 2.4217000000
3.2563000000 6.1403000000 2.6041000000
3.2557000000 2.2836000000 2.4085000000
3.2555000000 1.6327000000 1.7179000000
3.2552000000 8.4819000000 0.1141000000
3.2550000000 6.7321000000 1.9806000000
3.2547000000 1.4691000000 1.5394000000
3.2543000000 6.1920000000 2.5496000000
3.2541000000 6.1209000000 2.6360000000
3.2540000000 1.1422000000 1.1945000000
3.2538000000 6.7846000000 1.9247000000
3.2535000000 6.1319000000 2.6180000000
3.2533000000 2.3355000000 2.4680000000
3.2529000000 6.7680000000 1.9377000000
3.2528000000 2.1937000000 2.3160000000
3.2524000000 7.3730000000 1.2983000000
3.2523000000 4.7762000000 3.6008000000
3.2521000000 8.6564000000 0.0727000000
3.2518000000 5.1609000000 3.3997000000
3.2513000000 2.1130000000 2.2322000000
3.2511000000 1.1701000000 1.2288000000
3.2508000000 4.9582000000 3.5095000000
3.2505000000 4.7111000000 3.6400000000
3.2501000000 2.0391000000 2.1525000000
3.2493000000 3.5566000000 3.4614000000
3.2490000000 5.8569000000 2.9120000000
3.2487000000 1.2686000000 1.3327000000
3.2480000000 7.7767000000 0.8626000000
3.2473000000 4.8480000000 3.5753000000
3.2453000000 0.3717000000 0.3715000000
3.0123000000 6.6024000000 2.1148000000
3.0108000000 7.8704000000 0.7611000000
3.0100000000 6.4536000000 2.2749000000
3.0093000000 3.1894000000 3.3784000000
3.0091000000 8.3120000000 0.2958000000
3.0086000000 5.3286000000 3.4722000000
3.0080000000 7.7173000000 0.9279000000
3.0079000000 5.3036000000 3.4839000000
3.0076000000 6.8728000000 1.8244000000
3.0074000000 5.3572000000 3.4452000000
3.0071000000 5.1566000000 3.6128000000
3.0069000000 7.3254000000 1.3480000000
3.0066000000 3.8668000000 3.8491000000
3.0065000000 7.5776000000 1.0727000000
3.0063000000 5.2416000000 3.5452000000
3.0061000000 1.5603000000 1.6365000000
3.0059000000 3.6173000000 3.7200000000
3.0057000000 0.9050000000 0.9433000000
3.0054000000 6.8671000000 1.8310000000
3.0052000000 2.1712000000 2.2933000000
3.0050000000 8.6620000000 0.0707000000
3.0048000000 7.6546000000 0.9937000000
3.0045000000 8.4917000000 0.1017000000
3.0044000000 7.9583000000 0.6691000000
3.0042000000 6.7946000000 1.9097000000
3.0039000000 0.9716000000 1.0151000000
3.0034000000 1.7506000000 1.8444000000
3.0032000000 7.4456000000 1.2135000000
3.0029000000 6.5583000000 2.1646000000
3.0028000000 6.4300000000 2.3020000000
3.0026000000 4.5122000000 3.9761000000
3.0019000000 5.6446000000 3.1333000000
3.0014000000 0.5376000000 0.5482000000
3.0011000000 1.5410000000 1.6197000000
3.0010000000 1.8938000000 1.9954000000
3.0000000000 3.7717000000 3.8091000000
2.9992000000 2.3341000000 2.4657000000
2.9984000000 3.3605000000 3.5414000000
2.9968000000 4.6593000000 3.9015000000
2.9943000000 6.6799000000 2.0301000000
2.7648000000 7.4729000000 1.1930000000
2.7621000000 1.3628000000 1.4329000000
2.7609000000 7.0189000000 1.6630000000
2.7589000000 4.6730000000 4.1078000000
2.7590000000 6.5631000000 2.1529000000
2.7583000000 4.6490000000 4.1288000000
2.7578000000 7.4035000000 1.2645000000
2.7577000000 6.0868000000 2.6612000000
2.7575000000 8.1895000000 0.4189000000
2.7572000000 7.1434000000 1.5369000000
2.7566000000 8.2608000000 0.3480000000
2.7563000000 7.1561000000 1.5272000000
2.7560000000 1.4969000000 1.5752000000
2.7558000000 8.3581000000 0.2445000000
2.7551000000 1.2980000000 1.3577000000
2.7550000000 3.4993000000 3.7080000000
2.7548000000 3.9031000000 4.0777000000
2.7546000000 1.3513000000 1.4232000000
2.7544000000 0.7751000000 0.8038000000
2.7540000000 4.2444000000 4.2819000000
2.7539000000 6.9476000000 1.7473000000
2.7535000000 0.8147000000 0.8498000000
2.7533000000 1.8466000000 1.9490000000
2.7531000000 7.9267000000 0.6992000000
2.7528000000 3.9686000000 4.1387000000
2.7525000000 2.4678000000 2.6086000000
2.7522000000 4.2172000000 4.2712000000
2.7518000000 6.9651000000 1.7265000000
2.7511000000 0.3779000000 0.3745000000
2.7506000000 3.1474000000 3.3365000000
2.7504000000 0.5195000000 0.5329000000
2.7494000000 3.4225000000 3.6248000000
2.7487000000 1.8703000000 1.9754000000
2.7482000000 2.2192000000 2.3468000000
2.7447000000 0.7037000000 0.7288000000
2.5145000000 8.3875000000 0.2133000000
2.5122000000 6.8646000000 1.8358000000
2.5109000000 5.6992000000 3.0758000000
2.5098000000 7.2220000000 1.4573000000
2.5094000000 4.0249000000 4.2714000000
2.5091000000 6.0898000000 2.6600000000
2.5085000000 7.3826000000 1.2834000000
2.5083000000 1.8555000000 1.9573000000
2.5078000000 3.5955000000 3.8077000000
2.5075000000 5.5339000000 3.2581000000
2.5070000000 4.2994000000 4.4927000000
2.5068000000 1.7892000000 1.8892000000
2.5065000000 0.8001000000 0.8369000000
2.5063000000 8.2855000000 0.3222000000
2.5059000000 7.1399000000 1.5406000000
2.5057000000 6.4622000000 2.2641000000
2.5052000000 6.9397000000 1.7521000000
2.5051000000 1.3611000000 1.4371000000
2.5049000000 7.8174000000 0.8210000000
2.5047000000 2.0891000000 2.2022000000
2.5046000000 3.0372000000 3.2148000000
2.5045000000 0.0641000000 0.0467000000
2.5041000000 4.1977000000 4.4818000000
2.5039000000 5.3666000000 3.4322000000
2.5038000000 2.1398000000 2.2605000000
2.5036000000 6.5295000000 2.1914000000
2.5034000000 7.5918000000 1.0608000000
2.5029000000 6.4007000000 2.3318000000
2.5025000000 4.9318000000 3.8971000000
2.5021000000 6.3364000000 2.4010000000
2.5018000000 8.4084000000 0.1891000000
2.5015000000 5.2438000000 3.5603000000
2.5013000000 7.7986000000 0.8352000000
2.5012000000 4.0592000000 4.3047000000
2.5010000000 2.8453000000 3.0071000000
2.5007000000 8.0486000000 0.5752000000
2.5005000000 6.4167000000 2.3122000000
2.5003000000 2.3215000000 2.4573000000
2.5000000000 2.1436000000 2.2646000000
2.4996000000 0.8077000000 0.8407000000
2.4991000000 0.3712000000 0.3719000000
2.4989000000 5.0839000000 3.7373000000
2.4980000000 1.7703000000 1.8609000000
2.4963000000 4.0280000000 4.2699000000
2.4947000000 0.5735000000 0.5902000000
2.2635000000 5.6582000000 3.1197000000
2.2611000000 7.4061000000 1.2570000000
2.2605000000 6.4815000000 2.2521000000
2.2602000000 5.0830000000 3.7295000000
2.2596000000 4.1154000000 4.2562000000
2.2585000000 7.6269000000 1.0247000000
2.2583000000 5.3423000000 3.4569000000
2.2579000000 1.6263000000 1.7144000000
2.2577000000 7.3786000000 1.2884000000
2.2573000000 5.0488000000 3.7710000000
2.2571000000 6.7117000000 1.9950000000
2.2569000000 8.0739000000 0.5502000000
2.2567000000 8.6511000000 0.0804000000
2.2565000000 8.2931000000 0.3131000000
2.2563000000 6.5014000000 2.2220000000
2.2559000000 7.3434000000 1.3262000000
2.2555000000 3.6654000000 3.8873000000
2.2553000000 7.4330000000 1.2310000000
2.2551000000 6.8765000000 1.8252000000
2.2549000000 6.9309000000 1.7652000000
2.2547000000 5.6782000000 3.1011000000
2.2545000000 4.7731000000 4.0475000000
2.2542000000 1.2538000000 1.3108000000
2.2540000000 8.2520000000 0.3531000000
2.2538000000 6.8703000000 1.8314000000
2.2536000000 7.6996000000 0.9502000000
2.2533000000 4.3538000000 4.3126000000
2.2533000000 4.8273000000 4.0104000000
2.2529000000 1.3998000000 1.4737000000
2.2523000000 5.4228000000 3.3724000000
2.2519000000 2.5260000000 2.6772000000
2.2516000000 1.4364000000 1.5103000000
2.2515000000 4.0826000000 4.2324000000
2.2509000000 3.8668000000 4.0814000000
2.2500000000 0.5458000000 0.5588000000
2.2494000000 1.6343000000 1.7149000000
2.2486000000 0.4354000000 0.4377000000
2.2482000000 0.6552000000 0.6824000000
2.2474000000 4.2144000000 4.2978000000
2.2472000000 0.0079000000 0.0611000000
2.2449000000 1.8051000000 1.9024000000
2.0126000000 4.4279000000 4.0626000000
2.0114000000 8.0147000000 0.6096000000
2.0101000000 4.8528000000 3.8361000000
2.0096000000 7.9721000000 0.6620000000
2.0089000000 6.3004000000 2.4371000000
2.0082000000 2.7777000000 2.9411000000
2.0080000000 7.6551000000 0.9926000000
2.0077000000 4.6002000000 3.9714000000
2.0075000000 6.7887000000 1.9157000000
2.0072000000 6.3672000000 2.3649000000
2.0068000000 7.7260000000 0.9199000000
2.0065000000 5.8593000000 2.9105000000
2.0062000000 6.1896000000 2.5555000000
2.0059000000 5.9345000000 2.8265000000
2.0054000000 0.2098000000 0.2026000000
2.0052000000 4.0477000000 3.9901000000
2.0048000000 6.5549000000 2.1691000000
2.0045000000 4.6995000000 3.9063000000
2.0042000000 1.3632000000 1.4354000000
2.0041000000 3.3789000000 3.5659000000
2.0040000000 4.7809000000 3.8694000000
2.0038000000 4.1675000000 4.0458000000
2.0033000000 7.7526000000 0.8877000000
2.0031000000 0.3187000000 0.3210000000
2.0028000000 1.5352000000 1.6162000000
2.0025000000 7.2754000000 1.3934000000
2.0022000000 1.7909000000 1.8906000000
2.0018000000 8.5002000000 0.0932000000
2.0015000000 7.6272000000 1.0257000000
2.0013000000 0.1065000000 0.0912000000
2.0011000000 4.0915000000 4.0034000000
2.0006000000 6.9671000000 1.7307000000
2.0005000000 5.2246000000 3.5703000000
2.0001000000 1.8939000000 1.9966000000
1.9993000000 4.9595000000 3.7640000000
1.9984000000 0.5451000000 0.5590000000
1.9966000000 1.6908000000 1.7826000000
1.9934000000 0.3620000000 0.3667000000
1.7610000000 8.2031000000 0.4099000000
1.7599000000 0.4389000000 0.4429000000
1.7593000000 7.2592000000 1.4135000000
1.7593000000 6.2893000000 2.4469000000
1.7585000000 1.5363000000 1.6126000000
1.7583000000 3.6187000000 3.5240000000
1.7575000000 6.2264000000 2.5117000000
1.7573000000 6.2687000000 2.4688000000
1.7571000000 6.8585000000 1.8436000000
1.7568000000 3.9391000000 3.7026000000
1.7565000000 6.1292000000 2.6211000000
1.7562000000 1.3017000000 1.3647000000
1.7558000000 5.6363000000 3.1307000000
1.7556000000 4.4707000000 3.8046000000
1.7552000000 7.2915000000 1.3811000000
1.7550000000 6.7809000000 1.9286000000
1.7548000000 1.3059000000 1.3691000000
1.7543000000 7.5488000000 1.1103000000
1.7542000000 8.0820000000 0.5377000000
1.7540000000 6.1948000000 2.5494000000
1.7538000000 2.5765000000 2.7211000000
1.7535000000 6.5583000000 2.1615000000
1.7533000000 4.2699000000 3.8554000000
1.7529000000 4.3488000000 3.8497000000
1.7527000000 4.4274000000 3.8243000000
1.7522000000 3.1210000000 3.2420000000
1.7520000000 1.9694000000 2.0771000000
1.7518000000 7.5146000000 1.1406000000
1.7515000000 5.1069000000 3.4660000000
1.7511000000 6.7030000000 2.0103000000
1.7510000000 6.0612000000 2.6927000000
1.7508000000 0.6273000000 0.6455000000
1.7506000000 8.3657000000 0.2372000000
1.7487000000 7.8591000000 0.7726000000
1.7483000000 1.6589000000 1.7474000000
1.7475000000 3.0166000000 3.1738000000
1.7451000000 7.1921000000 1.4841000000
1.7443000000 0.0132000000 0.0633000000
1.5108000000 6.4255000000 2.3027000000
1.5099000000 4.3585000000 3.6361000000
1.5095000000 3.9753000000 3.4898000000
1.5086000000 8.6073000000 0.0499000000
1.5083000000 7.2475000000 1.4253000000
1.5076000000 3.5074000000 3.2392000000
1.5072000000 8.6616000000 0.0683000000
1.5071000000 3.9659000000 3.4792000000
1.5068000000 4.9552000000 3.3143000000
1.5066000000 6.8667000000 1.8331000000
1.5064000000 4.1081000000 3.5585000000
1.5061000000 0.0913000000 0.0732000000
1.5059000000 1.2178000000 1.2806000000
1.5057000000 2.4478000000 2.5890000000
1.5058000000 6.3803000000 2.3550000000
1.5053000000 2.1064000000 2.2286000000
1.5049000000 6.0309000000 2.7072000000
1.5044000000 5.1561000000 3.2065000000
1.5043000000 0.2993000000 0.2929000000
1.5041000000 0.8044000000 0.8339000000
1.5038000000 5.2364000000 3.1652000000
1.5036000000 5.0072000000 3.2847000000
1.5033000000 3.5759000000 3.2701000000
1.5029000000 5.3313000000 3.1144000000
1.5027000000 7.3423000000 1.3241000000
1.5024000000 4.3126000000 3.6389000000
1.5020000000 0.1546000000 0.1428000000
1.5018000000 0.6060000000 0.6323000000
1.5015000000 0.8219000000 0.8530000000
1.5012000000 0.0245000000 0.0774000000
1.5010000000 0.2104000000 0.2027000000
1.5005000000 0.9317000000 0.9700000000
1.4998000000 4.5324000000 3.5358000000
1.4984000000 3.4146000000 3.1778000000
1.4974000000 0.3131000000 0.3139000000
1.4966000000 0.1218000000 0.1096000000
1.2630000000 7.8836000000 0.7536000000
1.2612000000 6.5214000000 2.1941000000
1.2606000000 4.7914000000 3.1811000000
1.2602000000 5.8927000000 2.5876000000
1.2594000000 8.5914000000 0.0724000000
1.2589000000 7.6301000000 1.0196000000
1.2584000000 7.6366000000 1.0141000000
1.2578000000 2.3723000000 2.4027000000
1.2575000000 0.8760000000 0.9123000000
1.2567000000 5.7720000000 2.6483000000
1.2562000000 7.3182000000 1.3577000000
1.2560000000 7.8428000000 0.7886000000
1.2558000000 0.8218000000 0.8532000000
1.2557000000 4.0524000000 3.2928000000
1.2555000000 5.4047000000 2.8501000000
1.2553000000 2.6772000000 2.5596000000
1.2552000000 5.6593000000 2.7088000000
1.2549000000 2.5994000000 2.5206000000
1.2547000000 2.5170000000 2.4751000000
1.2545000000 6.3968000000 2.2973000000
1.2543000000 0.6255000000 0.6502000000
1.2542000000 3.7755000000 3.1449000000
1.2539000000 2.6794000000 2.5676000000
1.2538000000 7.6781000000 0.9660000000
1.2535000000 2.0762000000 2.1791000000
1.2533000000 6.6129000000 2.1060000000
1.2530000000 0.1350000000 0.1278000000
1.2524000000 5.2210000000 2.9395000000
1.2522000000 0.5715000000 0.5872000000
1.2517000000 1.4509000000 1.5251000000
1.2510000000 2.4421000000 2.4402000000
1.2507000000 5.7102000000 2.6792000000
1.2505000000 5.9319000000 2.5651000000
1.2503000000 1.1279000000 1.1849000000
1.2500000000 1.4952000000 1.5695000000
1.2496000000 2.8739000000 2.6625000000
1.2494000000 4.4238000000 3.3644000000
1.2491000000 0.5839000000 0.6040000000
1.2484000000 1.7281000000 1.8277000000
1.2468000000 1.5366000000 1.6156000000
1.2460000000 5.6180000000 2.7252000000
1.0135000000 5.8769000000 2.3687000000
1.0113000000 4.9167000000 2.8799000000
1.0099000000 3.1175000000 2.5680000000
1.0093000000 7.8694000000 0.7677000000
1.0091000000 5.6771000000 2.4728000000
1.0085000000 7.6537000000 0.9963000000
1.0079000000 5.8682000000 2.3675000000
1.0078000000 7.3763000000 1.2891000000
1.0074000000 4.4894000000 3.1034000000
1.0069000000 5.0155000000 2.8221000000
1.0065000000 8.2125000000 0.4020000000
1.0064000000 5.6415000000 2.4891000000
1.0061000000 5.4866000000 2.5669000000
1.0057000000 2.9401000000 2.4688000000
1.0055000000 6.1696000000 2.2046000000
1.0054000000 8.5365000000 0.0522000000
1.0051000000 0.0896000000 0.0781000000
1.0048000000 1.3657000000 1.4294000000
1.0047000000 5.2150000000 2.7144000000
1.0043000000 6.5521000000 1.9958000000
1.0040000000 1.5572000000 1.6424000000
1.0035000000 0.8760000000 0.9093000000
1.0034000000 1.2721000000 1.3323000000
1.0035000000 0.1280000000 0.1168000000
1.0032000000 3.4123000000 2.7257000000
1.0030000000 6.1247000000 2.2238000000
1.0028000000 3.4320000000 2.7357000000
1.0025000000 3.6314000000 2.8384000000
1.0022000000 0.9265000000 0.9671000000
1.0020000000 5.0035000000 2.8197000000
1.0019000000 5.1143000000 2.7617000000
1.0017000000 0.6088000000 0.6268000000
1.0014000000 4.7622000000 2.9529000000
1.0011000000 0.6970000000 0.7235000000
1.0011000000 3.1481000000 2.5766000000
1.0008000000 3.1516000000 2.5804000000
1.0003000000 1.2388000000 1.2935000000
1.0002000000 3.5564000000 2.8039000000
0.9998000000 1.9700000000 1.9510000000
0.9993000000 0.3768000000 0.3790000000
0.9992000000 7.9702000000 0.6589000000
0.9985000000 1.7507000000 1.8178000000
0.9974000000 4.9839000000 2.8318000000
0.7655000000 8.4193000000 0.1831000000
0.7630000000 7.4379000000 1.2217000000
0.7616000000 6.4471000000 1.8264000000
0.7612000000 7.1189000000 1.4755000000
0.7605000000 6.8402000000 1.6197000000
0.7602000000 6.0681000000 2.0378000000
0.7595000000 7.9983000000 0.6287000000
0.7589000000 0.2244000000 0.2177000000
0.7586000000 6.4594000000 1.8227000000
0.7583000000 5.6037000000 2.2762000000
0.7579000000 1.8395000000 1.6577000000
0.7577000000 6.5144000000 1.7899000000
0.7574000000 3.6010000000 2.5887000000
0.7572000000 5.4445000000 2.3615000000
0.7565000000 6.3022000000 1.9034000000
0.7563000000 1.7878000000 1.6273000000
0.7562000000 5.9447000000 2.0921000000
0.7560000000 8.5502000000 0.1112000000
0.7557000000 5.7519000000 2.1970000000
0.7554000000 5.0772000000 2.5596000000
0.7554000000 5.1427000000 2.5263000000
0.7551000000 1.7696000000 1.6254000000
0.7550000000 1.6038000000 1.5267000000
0.7544000000 8.4539000000 0.1384000000
0.7544000000 5.6043000000 2.2759000000
0.7539000000 5.5307000000 2.3161000000
0.7535000000 5.3666000000 2.3957000000
0.7534000000 5.4074000000 2.3773000000
0.7530000000 3.1446000000 2.3487000000
0.7527000000 0.9269000000 0.9671000000
0.7525000000 4.0686000000 2.8391000000
0.7523000000 3.1454000000 2.3487000000
0.7520000000 7.8353000000 0.7992000000
0.7518000000 5.2229000000 2.4785000000
0.7516000000 6.1654000000 1.9715000000
0.7515000000 5.7052000000 2.2166000000
0.7510000000 2.1782000000 1.8296000000
0.7506000000 5.6366000000 2.2522000000
0.7503000000 6.4166000000 1.8350000000
0.7500000000 1.5890000000 1.5219000000
0.7498000000 3.2252000000 2.3920000000
0.7492000000 8.1129000000 0.5092000000
0.7488000000 2.5616000000 2.0315000000
0.7481000000 0.4041000000 0.4081000000
0.7473000000 5.2479000000 2.4541000000
0.7461000000 2.5697000000 2.0307000000
0.7452000000 2.2586000000 1.8692000000
0.7441000000 0.2167000000 0.2082000000
0.5137000000 4.3849000000 2.7052000000
0.5111000000 6.3457000000 1.6552000000
0.5108000000 7.7540000000 0.8718000000
0.5103000000 6.6072000000 1.5186000000
0.5097000000 8.4036000000 0.1939000000
0.5093000000 3.8883000000 2.5250000000
0.5090000000 8.5156000000 0.0761000000
0.5088000000 7.8861000000 0.7431000000
0.5083000000 6.7349000000 1.4476000000
0.5081000000 1.0985000000 1.0418000000
0.5078000000 8.6190000000 0.0406000000
0.5070000000 8.0857000000 0.5319000000
0.5067000000 6.0952000000 1.7843000000
0.5063000000 4.2500000000 2.7046000000
0.5058000000 0.7719000000 0.7914000000
0.5055000000 2.1321000000 1.5841000000
0.5053000000 6.3214000000 1.6655000000
0.5049000000 7.2453000000 1.1735000000
0.5047000000 3.9783000000 2.5654000000
0.5044000000 2.4536000000 1.7493000000
0.5043000000 7.9716000000 0.6591000000
0.5040000000 6.8925000000 1.3605000000
0.5038000000 5.5903000000 2.0513000000
0.5036000000 2.1026000000 1.5656000000
0.5035000000 2.8184000000 1.9480000000
0.5031000000 0.3077000000 0.3087000000
0.5029000000 7.2469000000 1.1700000000
0.5026000000 6.1165000000 1.7670000000
0.5025000000 4.1313000000 2.6402000000
0.5023000000 5.7839000000 1.9454000000
0.5019000000 6.5942000000 1.5133000000
0.5018000000 0.9464000000 0.9313000000
0.5014000000 0.6984000000 0.7209000000
0.5013000000 0.6605000000 0.6826000000
0.5011000000 4.8184000000 2.4648000000
0.5006000000 3.1894000000 2.1406000000
0.5000000000 8.2572000000 0.3509000000
0.4991000000 1.3755000000 1.1698000000
0.4988000000 0.7300000000 0.7599000000
0.4983000000 0.3121000000 0.3137000000
0.4979000000 0.6209000000 0.6383000000
0.4973000000 0.6644000000 0.6883000000
0.2627000000 6.0500000000 1.5840000000
0.2611000000 8.0392000000 0.5211000000
0.2603000000 3.6895000000 2.1812000000
0.2600000000 6.9562000000 1.0957000000
0.2595000000 0.1334000000 0.1280000000
0.2591000000 2.1202000000 1.3475000000
0.2588000000 7.3852000000 0.8663000000
0.2582000000 7.8259000000 0.6326000000
0.2580000000 7.0994000000 1.0247000000
0.2575000000 6.7121000000 1.2239000000
0.2573000000 4.9564000000 2.1595000000
0.2571000000 4.9254000000 2.1781000000
0.2569000000 7.0273000000 1.0529000000
0.2564000000 3.0935000000 1.8612000000
0.2563000000 1.5131000000 1.0236000000
0.2561000000 5.8697000000 1.6713000000
0.2558000000 5.2228000000 2.0209000000
0.2556000000 0.3695000000 0.3614000000
0.2551000000 6.3776000000 1.4028000000
0.2548000000 6.9200000000 1.1149000000
0.2545000000 2.5352000000 1.5625000000
0.2543000000 1.5770000000 1.0512000000
0.2540000000 4.4313000000 2.4391000000
0.2538000000 7.1818000000 0.9697000000
0.2535000000 6.0745000000 1.5579000000
0.2534000000 6.5950000000 1.2880000000
0.2532000000 7.8690000000 0.6063000000
0.2526000000 6.6898000000 1.2297000000
0.2523000000 7.9943000000 0.5377000000
0.2520000000 0.2950000000 0.2923000000
0.2518000000 3.4429000000 2.0456000000
0.2509000000 0.8794000000 0.6813000000
0.2505000000 8.0226000000 0.5270000000
0.2500000000 0.4718000000 0.4409000000
0.2496000000 0.6491000000 0.5474000000
0.2489000000 1.6711000000 1.0954000000
0.2484000000 8.5852000000 0.0768000000
0.2479000000 1.8979000000 1.2187000000
0.2463000000 5.0576000000 2.0977000000
0.0125000000 8.5215000000 0.0950000000
0.0110000000 7.4389000000 0.6130000000
0.0091000000 6.2902000000 1.2190000000
0.0085000000 5.7299000000 1.5172000000
0.0081000000 8.6088000000 0.0327000000
0.0071000000 5.6511000000 1.5588000000
0.0066000000 2.9829000000 1.5729000000
0.0064000000 7.4189000000 0.6209000000
0.0062000000 7.5324000000 0.5565000000
0.0058000000 4.8843000000 1.9633000000
0.0055000000 1.6385000000 0.8611000000
0.0051000000 5.8119000000 1.4815000000
0.0050000000 2.8435000000 1.4969000000
0.0047000000 8.3558000000 0.1201000000
0.0045000000 6.4347000000 1.1426000000
0.0043000000 0.3609000000 0.1785000000
0.0041000000 3.6049000000 1.9028000000
0.0040000000 5.7728000000 1.4950000000
0.0038000000 0.4767000000 0.2331000000
0.0034000000 7.2591000000 0.7013000000
0.0030000000 7.2414000000 0.7116000000
0.0028000000 1.6642000000 0.8629000000
0.0025000000 7.1826000000 0.7383000000
0.0022000000 3.2620000000 1.7176000000
0.0017000000 0.1661000000 0.0634000000
0.0014000000 2.5317000000 1.3257000000
0.0013000000 5.0395000000 1.8810000000
0.0007000000 2.7895000000 1.4658000000
0.0002000000 0.5164000000 0.2522000000
-0.0002000000 6.9582000000 0.8565000000
-0.0005000000 2.3661000000 1.2409000000
-0.0014000000 1.7299000000 0.9002000000
-0.0021000000 0.6089000000 0.2995000000
-0.0028000000 1.4308000000 0.7431000000
-0.0039000000 0.2892000000 0.1270000000
-0.0062000000 0.4472000000 0.2055000000
-0.2369000000 5.8184000000 1.2481000000
-0.2405000000 1.7011000000 0.6602000000
-0.2410000000 8.3617000000 0.0302000000
-0.2421000000 0.2046000000 0.0078000000
-0.2426000000 6.9925000000 0.6143000000
-0.2432000000 4.6056000000 1.8878000000
-0.2436000000 5.5958000000 1.3683000000
-0.2438000000 6.8168000000 0.7080000000
-0.2442000000 7.3477000000 0.4252000000
-0.2446000000 5.6322000000 1.3386000000
-0.2449000000 3.3896000000 1.5559000000
-0.2450000000 4.9120000000 1.7253000000
-0.2452000000 3.8345000000 1.7930000000
-0.2457000000 1.5726000000 0.5880000000
-0.2458000000 2.6972000000 1.1864000000
-0.2462000000 3.4314000000 1.5791000000
-0.2466000000 1.7293000000 0.6732000000
-0.2470000000 8.0097000000 0.0666000000
-0.2475000000 1.6856000000 0.6501000000
-0.2477000000 0.7235000000 0.1386000000
-0.2478000000 0.2915000000 0.0573000000
-0.2480000000 2.0874000000 0.8640000000
-0.2483000000 2.5101000000 1.0858000000
-0.2488000000 3.7381000000 1.7415000000
-0.2492000000 0.3716000000 0.0239000000
-0.2497000000 0.9512000000 0.2530000000
-0.2504000000 0.4978000000 0.0892000000
-0.2507000000 3.1910000000 1.4476000000
-0.2510000000 7.9282000000 0.1115000000
-0.2519000000 0.4653000000 0.0611000000
-0.2528000000 4.5082000000 1.9272000000
-0.2540000000 0.8449000000 0.1941000000
-0.2557000000 2.1111000000 0.8675000000
-0.4892000000 6.4195000000 0.6886000000
-0.4907000000 6.3099000000 0.7499000000
-0.4921000000 6.6998000000 0.5414000000
-0.4922000000 4.1939000000 1.7531000000
-0.4927000000 5.5972000000 1.1320000000
-0.4930000000 7.6640000000 0.0955000000
-0.4931000000 3.3042000000 1.2904000000
-0.4933000000 6.1861000000 0.8124000000
-0.4938000000 6.8212000000 0.4696000000
-0.4942000000 5.0216000000 1.4373000000
-0.4945000000 7.2663000000 0.2382000000
-0.4947000000 3.0409000000 1.1360000000
-0.4950000000 4.9213000000 1.4890000000
-0.4953000000 2.9983000000 1.1167000000
-0.4957000000 4.1960000000 1.7546000000
-0.4960000000 2.4721000000 0.8339000000
-0.4962000000 0.9423000000 0.1008000000
-0.4965000000 4.6755000000 1.6183000000
-0.4967000000 7.1722000000 0.2869000000
-0.4970000000 5.8354000000 0.9950000000
-0.4971000000 6.0417000000 0.8875000000
-0.4969000000 1.6790000000 0.4124000000
-0.4979000000 7.5547000000 0.0812000000
-0.4980000000 3.9659000000 1.6294000000
-0.4984000000 6.3815000000 0.7022000000
-0.4988000000 1.5009000000 0.3160000000
-0.4990000000 2.8481000000 1.0322000000
-0.4993000000 2.4547000000 0.8232000000
-0.4996000000 1.1885000000 0.1482000000
-0.5000000000 2.1890000000 0.6891000000
-0.5007000000 4.7745000000 1.5580000000
-0.5019000000 1.8102000000 0.4800000000
-0.5024000000 3.4049000000 1.3281000000
-0.7356000000 6.9465000000 0.1836000000
-0.7389000000 4.8267000000 1.3088000000
-0.7405000000 4.0767000000 1.4699000000
-0.7410000000 5.3076000000 1.0540000000
-0.7413000000 3.9317000000 1.3879000000
-0.7421000000 4.6153000000 1.4199000000
-0.7425000000 4.1797000000 1.5160000000
-0.7428000000 6.2101000000 0.5722000000
-0.7432000000 2.4057000000 0.5723000000
-0.7435000000 2.8903000000 0.8338000000
-0.7439000000 6.9504000000 0.1778000000
-0.7443000000 1.1749000000 0.0724000000
-0.7446000000 6.2931000000 0.5225000000
-0.7447000000 2.4827000000 0.6142000000
-0.7450000000 2.4332000000 0.5892000000
-0.7456000000 7.5249000000 0.0145000000
-0.7458000000 3.2508000000 1.0172000000
-0.7462000000 4.5671000000 1.4424000000
-0.7465000000 4.1344000000 1.4887000000
-0.7470000000 1.2203000000 0.0878000000
-0.7474000000 2.1094000000 0.4121000000
-0.7475000000 3.4334000000 1.1237000000
-0.7481000000 4.0528000000 1.4491000000
-0.7483000000 1.9799000000 0.3421000000
-0.7485000000 3.2650000000 1.0266000000
-0.7487000000 2.5336000000 0.6381000000
-0.7490000000 1.1860000000 0.0769000000
-0.7492000000 2.8677000000 0.8138000000
-0.7497000000 3.7172000000 1.2658000000
-0.7509000000 1.8556000000 0.2715000000
-0.7520000000 3.4289000000 1.1088000000
-0.7530000000 1.9620000000 0.3269000000
-0.7554000000 2.8427000000 0.7990000000
-0.9873000000 3.5572000000 0.9593000000
-0.9900000000 5.4555000000 0.7452000000
-0.9909000000 3.0183000000 0.6731000000
-0.9913000000 1.5566000000 0.0391000000
-0.9916000000 6.3748000000 0.2511000000
-0.9927000000 3.1206000000 0.7246000000
-0.9933000000 2.5276000000 0.4052000000
-0.9937000000 6.2342000000 0.3288000000
-0.9941000000 1.8529000000 0.0539000000
-0.9944000000 3.7992000000 1.0830000000
-0.9951000000 5.1529000000 0.8996000000
-0.9954000000 4.0397000000 1.2140000000
-0.9958000000 3.3019000000 0.8201000000
-0.9960000000 6.1792000000 0.3453000000
-0.9964000000 6.5067000000 0.1727000000
-0.9967000000 6.6766000000 0.0925000000
-0.9970000000 1.7617000000 0.0722000000
-0.9977000000 4.2303000000 1.3065000000
-0.9981000000 2.6808000000 0.4873000000
-0.9985000000 5.2487000000 0.8463000000
-0.9987000000 4.1833000000 1.2897000000
-0.9989000000 2.2077000000 0.2335000000
-0.9998000000 3.1257000000 0.7222000000
-1.0000000000 4.7081000000 1.1328000000
-1.0008000000 2.0912000000 0.1658000000
-1.0015000000 2.0077000000 0.1320000000
-1.0027000000 1.8689000000 0.0486000000
-1.0054000000 3.3200000000 0.8186000000
-1.2369000000 5.7539000000 0.3615000000
-1.2394000000 5.4043000000 0.5402000000
-1.2410000000 2.3516000000 0.0863000000
-1.2415000000 6.5173000000 0.0977000000
-1.2421000000 6.3017000000 0.0561000000
-1.2425000000 6.2360000000 0.0958000000
-1.2428000000 5.1212000000 0.6890000000
-1.2435000000 3.4971000000 0.6909000000
-1.2437000000 4.1469000000 1.0354000000
-1.2443000000 6.5819000000 0.0554000000
-1.2454000000 4.0606000000 0.9970000000
-1.2460000000 6.1530000000 0.1360000000
-1.2462000000 5.1239000000 0.6819000000
-1.2466000000 5.6746000000 0.3874000000
-1.2469000000 5.9493000000 0.2420000000
-1.2472000000 2.9725000000 0.4076000000
-1.2477000000 3.4238000000 0.6476000000
-1.2483000000 5.6870000000 0.3860000000
-1.2489000000 5.6308000000 0.4108000000
-1.2497000000 3.6991000000 0.7937000000
-1.2508000000 2.1884000000 0.0687000000
-1.2517000000 4.3357000000 1.0823000000
-1.2530000000 3.5605000000 0.7197000000
-1.2536000000 3.3824000000 0.6235000000
-1.4892000000 6.0826000000 0.0193000000
-1.4913000000 5.6907000000 0.1520000000
-1.4923000000 3.9970000000 0.7318000000
-1.4929000000 2.9320000000 0.1627000000
-1.4932000000 4.3452000000 0.8539000000
-1.4940000000 5.2099000000 0.4114000000
-1.4955000000 3.7442000000 0.5931000000
-1.4957000000 3.2654000000 0.3367000000
-1.4962000000 5.7056000000 0.1432000000
-1.4967000000 3.6094000000 0.5197000000
-1.4969000000 3.4281000000 0.4228000000
-1.4972000000 2.8608000000 0.1152000000
-1.4981000000 5.5709000000 0.2086000000
-1.4985000000 2.9850000000 0.1842000000
-1.4990000000 4.9227000000 0.5549000000
-1.5004000000 4.1853000000 0.8254000000
-1.5022000000 3.4652000000 0.4401000000
-1.5029000000 4.7766000000 0.6345000000
-1.5055000000 4.7962000000 0.6134000000
-1.7410000000 3.0049000000 0.0432000000
-1.7426000000 5.5890000000 0.0540000000
-1.7437000000 2.9575000000 0.0976000000
-1.7450000000 5.2566000000 0.1495000000
-1.7453000000 5.3717000000 0.0918000000
-1.7455000000 3.4187000000 0.1874000000
-1.7457000000 2.9622000000 0.0992000000
-1.7462000000 4.5097000000 0.5463000000
