3.0046000000 2.5061000000 1.4511000000
3.0042000000 1.8674000000 1.0939000000
3.0038000000 4.1728000000 0.7057000000
3.0038000000 4.0910000000 0.7511000000
3.0036000000 0.6441000000 0.4153000000
3.0036000000 0.2424000000 0.1897000000
3.0035000000 2.0634000000 1.2025000000
3.0033000000 0.5591000000 0.3687000000
3.0033000000 1.7022000000 1.0049000000
3.0032000000 0.5788000000 0.3734000000
3.0031000000 0.1945000000 0.1467000000
3.0031000000 4.3746000000 0.5978000000
3.0030000000 3.7973000000 0.9202000000
3.0030000000 1.1187000000 0.6807000000
3.0029000000 3.6719000000 0.9851000000
3.0028000000 5.2226000000 0.0975000000
3.0026000000 3.4473000000 1.1114000000
3.0024000000 3.5805000000 1.0359000000
3.0023000000 1.5156000000 0.9037000000
3.0022000000 1.3143000000 0.7887000000
3.0019000000 0.6929000000 0.4480000000
3.0018000000 3.2639000000 1.2122000000
3.0018000000 4.0565000000 0.7729000000
3.0015000000 0.9030000000 0.5623000000
3.0015000000 3.5223000000 1.0715000000
3.0015000000 3.3533000000 1.1630000000
3.0014000000 1.3260000000 0.7935000000
3.0013000000 2.4154000000 1.4010000000
3.0012000000 3.0231000000 1.3505000000
3.0009000000 4.6393000000 0.4551000000
3.0006000000 3.9616000000 0.8287000000
3.0005000000 0.7036000000 0.4542000000
3.0003000000 4.5832000000 0.4904000000
3.0000000000 0.7320000000 0.4730000000
3.0000000000 2.9693000000 1.3774000000
2.9997000000 2.3923000000 1.3907000000
2.9996000000 1.5565000000 0.9284000000
2.9992000000 5.0581000000 0.2278000000
2.9990000000 2.7694000000 1.4921000000
2.9987000000 4.9064000000 0.3038000000
2.9987000000 0.7919000000 0.5061000000
2.9986000000 1.6870000000 0.9960000000
2.9985000000 3.3230000000 1.1862000000
2.9981000000 3.4623000000 1.1037000000
2.9979000000 0.2832000000 0.2239000000
2.9969000000 3.4538000000 1.1060000000
2.7618000000 2.6484000000 1.7419000000
2.7608000000 0.8428000000 0.7586000000
2.7605000000 3.1493000000 1.5071000000
2.7605000000 3.3051000000 1.4175000000
2.7605000000 3.6198000000 1.2504000000
2.7598000000 0.4260000000 0.4524000000
2.7593000000 2.7341000000 1.7337000000
2.7590000000 2.3841000000 1.6155000000
2.7584000000 3.6031000000 1.2563000000
2.7583000000 1.2473000000 0.9833000000
2.7583000000 2.1650000000 1.4928000000
2.7581000000 1.9379000000 1.3669000000
2.7579000000 2.8109000000 1.7010000000
2.7578000000 4.9883000000 0.3727000000
2.7577000000 0.5512000000 0.5763000000
2.7571000000 1.8542000000 1.3239000000
2.7570000000 2.8973000000 1.6531000000
2.7568000000 0.8358000000 0.7580000000
2.7567000000 3.7939000000 1.1567000000
2.7567000000 3.4194000000 1.3572000000
2.7565000000 3.3893000000 1.3761000000
2.7565000000 4.8409000000 0.5173000000
2.7564000000 0.7065000000 0.6933000000
2.7560000000 4.7049000000 0.6325000000
2.7559000000 1.2193000000 0.9710000000
2.7555000000 4.6715000000 0.6593000000
2.7553000000 3.1974000000 1.4882000000
2.7552000000 1.9660000000 1.3869000000
2.7550000000 4.2385000000 0.9077000000
2.7548000000 3.5409000000 1.2995000000
2.7548000000 2.2755000000 1.5556000000
2.7548000000 0.0187000000 0.0770000000
2.7547000000 4.4417000000 0.8007000000
2.7546000000 5.1771000000 0.1731000000
2.7546000000 0.8338000000 0.7570000000
2.7544000000 3.7475000000 1.1787000000
2.7545000000 4.5329000000 0.7465000000
2.7544000000 1.6794000000 1.2314000000
2.7543000000 0.3666000000 0.3896000000
2.7540000000 0.3533000000 0.3731000000
2.7539000000 4.3568000000 0.8480000000
2.7535000000 1.5792000000 1.1753000000
2.7533000000 0.6003000000 0.6145000000
2.7533000000 4.7791000000 0.5836000000
2.7532000000 2.9430000000 1.6334000000
2.7531000000 3.1105000000 1.5328000000
2.7529000000 3.7201000000 1.2030000000
2.7529000000 0.9348000000 0.8236000000
2.7528000000 3.5013000000 1.3189000000
2.7527000000 3.2100000000 1.4839000000
2.7525000000 3.9813000000 1.0549000000
2.7524000000 3.7542000000 1.1814000000
2.7524000000 3.8807000000 1.1074000000
2.7523000000 3.1622000000 1.5098000000
2.7521000000 2.1592000000 1.4976000000
2.7521000000 4.4612000000 0.7904000000
2.7520000000 1.1879000000 0.9586000000
2.7518000000 0.8834000000 0.7909000000
2.7517000000 3.2237000000 1.4822000000
2.7515000000 2.6488000000 1.7549000000
2.7514000000 4.5677000000 0.7259000000
2.7514000000 1.4171000000 1.0872000000
2.7512000000 1.9838000000 1.4093000000
2.7510000000 3.2723000000 1.4507000000
2.7506000000 4.5789000000 0.7288000000
2.7504000000 1.7461000000 1.2688000000
2.7501000000 1.4186000000 1.0931000000
2.7500000000 1.1553000000 0.9384000000
2.7495000000 4.9980000000 0.3657000000
2.7489000000 0.2789000000 0.2929000000
2.7486000000 1.4284000000 1.0957000000
2.7484000000 4.7059000000 0.6442000000
2.7477000000 1.6461000000 1.2154000000
2.7476000000 1.5650000000 1.1722000000
2.7475000000 2.2954000000 1.5804000000
2.7470000000 4.2404000000 0.9166000000
2.7462000000 0.1077000000 0.1012000000
2.5117000000 2.9513000000 1.8587000000
2.5094000000 1.4500000000 1.3419000000
2.5094000000 2.7859000000 1.9480000000
2.5090000000 1.3687000000 1.2974000000
2.5087000000 5.2996000000 0.1074000000
2.5085000000 4.4866000000 0.9331000000
2.5083000000 4.2204000000 1.1553000000
2.5078000000 2.6355000000 1.9773000000
2.5076000000 2.3007000000 1.8152000000
2.5075000000 2.4262000000 1.8832000000
2.5073000000 3.9453000000 1.3118000000
2.5072000000 3.7655000000 1.4098000000
2.5072000000 2.3759000000 1.8555000000
2.5068000000 2.4940000000 1.9152000000
2.5066000000 1.6120000000 1.4280000000
2.5065000000 3.5355000000 1.5381000000
2.5065000000 2.3656000000 1.8456000000
2.5060000000 3.3795000000 1.6240000000
2.5060000000 0.6430000000 0.6974000000
2.5055000000 4.9889000000 0.3740000000
2.5050000000 1.9244000000 1.6054000000
2.5049000000 0.7455000000 0.8068000000
2.5049000000 0.6504000000 0.7044000000
2.5048000000 1.0559000000 1.1049000000
2.5048000000 3.1943000000 1.7311000000
2.5047000000 1.3633000000 1.2913000000
2.5047000000 2.6229000000 1.9773000000
2.5046000000 4.4182000000 0.9935000000
2.5046000000 4.9674000000 0.4005000000
2.5045000000 4.6836000000 0.7174000000
2.5043000000 4.2523000000 1.1252000000
2.5043000000 2.7513000000 1.9756000000
2.5042000000 3.1581000000 1.7504000000
2.5042000000 3.3389000000 1.6493000000
2.5039000000 0.0233000000 0.0866000000
2.5037000000 4.6557000000 0.7448000000
2.5033000000 0.6987000000 0.7548000000
2.5032000000 1.4004000000 1.3176000000
2.5032000000 3.6718000000 1.4670000000
2.5031000000 3.4108000000 1.6090000000
2.5029000000 0.2300000000 0.2362000000
2.5028000000 3.0404000000 1.8190000000
2.5025000000 2.8153000000 1.9420000000
2.5025000000 3.9934000000 1.2883000000
2.5024000000 5.0694000000 0.2828000000
2.5023000000 0.9209000000 0.9868000000
2.5023000000 0.7384000000 0.8004000000
2.5020000000 3.2167000000 1.7227000000
2.5020000000 4.3365000000 1.0768000000
2.5019000000 4.1213000000 1.2183000000
2.5018000000 1.6230000000 1.4406000000
2.5018000000 0.5817000000 0.6297000000
2.5016000000 1.6777000000 1.4724000000
2.5014000000 1.4195000000 1.3333000000
2.5013000000 1.9533000000 1.6276000000
2.5013000000 3.1878000000 1.7357000000
2.5010000000 1.1835000000 1.1979000000
2.5009000000 2.7804000000 1.9627000000
2.5008000000 0.2226000000 0.2315000000
2.5007000000 2.4884000000 1.9227000000
2.5005000000 3.3464000000 1.6473000000
2.5004000000 3.3837000000 1.6273000000
2.5004000000 1.9684000000 1.6350000000
2.5003000000 2.3384000000 1.8340000000
2.5000000000 3.7387000000 1.4331000000
2.4998000000 3.8886000000 1.3510000000
2.4998000000 4.8520000000 0.5256000000
2.4996000000 1.5903000000 1.4286000000
2.4995000000 4.9674000000 0.4011000000
2.4987000000 2.1693000000 1.7514000000
2.4986000000 2.1140000000 1.7150000000
2.4983000000 1.4494000000 1.3443000000
2.4975000000 0.6499000000 0.7095000000
2.4974000000 2.2076000000 1.7666000000
2.4958000000 1.1594000000 1.1900000000
2.4936000000 3.0041000000 1.8454000000
2.2624000000 3.6712000000 1.6949000000
2.2589000000 2.3175000000 2.0595000000
2.2585000000 2.4308000000 2.1241000000
2.2584000000 5.1100000000 0.2467000000
2.2579000000 1.5890000000 1.6581000000
2.2578000000 2.7816000000 2.1895000000
2.2578000000 3.0538000000 2.0453000000
2.2576000000 1.2995000000 1.4236000000
2.2575000000 3.2835000000 1.9168000000
2.2570000000 2.0699000000 1.9265000000
2.2570000000 4.7072000000 0.6894000000
2.2569000000 2.9406000000 2.1052000000
2.2570000000 4.2069000000 1.2409000000
2.2568000000 3.7175000000 1.6807000000
2.2566000000 2.0514000000 1.9132000000
2.2566000000 2.5235000000 2.1731000000
2.2565000000 1.5510000000 1.6320000000
2.2565000000 4.2854000000 1.1525000000
2.2565000000 2.7744000000 2.1944000000
2.2564000000 3.9734000000 1.4874000000
2.2562000000 3.8100000000 1.6096000000
2.2562000000 0.8783000000 0.9584000000
2.2560000000 3.9798000000 1.4754000000
2.2559000000 4.8190000000 0.5640000000
2.2559000000 2.0323000000 1.9052000000
2.2558000000 2.1373000000 1.9581000000
2.2556000000 5.2399000000 0.1002000000
2.2553000000 5.3022000000 0.1037000000
2.2553000000 5.0884000000 0.2649000000
2.2553000000 0.2332000000 0.2409000000
2.2550000000 4.1194000000 1.3336000000
2.2550000000 3.3753000000 1.8677000000
2.2548000000 0.9131000000 0.9934000000
2.2545000000 3.0045000000 2.0794000000
2.2543000000 0.9073000000 0.9872000000
2.2543000000 2.9612000000 2.0973000000
2.2541000000 1.9410000000 1.8496000000
2.2542000000 2.5926000000 2.2209000000
2.2540000000 4.8966000000 0.4770000000
2.2536000000 1.2883000000 1.4117000000
2.2536000000 4.5752000000 0.8309000000
2.2535000000 4.5058000000 0.9142000000
2.2535000000 4.9042000000 0.4672000000
2.2533000000 4.7084000000 0.6858000000
2.2533000000 0.5194000000 0.5591000000
2.2531000000 0.0319000000 0.0894000000
2.2531000000 3.4698000000 1.8158000000
2.2530000000 1.7906000000 1.7712000000
2.2529000000 1.9626000000 1.8646000000
2.2528000000 3.5182000000 1.7954000000
2.2523000000 3.3392000000 1.8937000000
2.2523000000 4.5633000000 0.8495000000
2.2520000000 3.5689000000 1.7669000000
2.2519000000 5.2720000000 0.0628000000
2.2518000000 0.8123000000 0.8812000000
2.2516000000 1.3389000000 1.4543000000
2.2514000000 4.6937000000 0.6993000000
2.2513000000 3.6630000000 1.7105000000
2.2511000000 1.6264000000 1.6794000000
2.2510000000 0.5561000000 0.5970000000
2.2509000000 0.8132000000 0.8907000000
2.2508000000 4.3774000000 1.0521000000
2.2508000000 5.2526000000 0.0844000000
2.2506000000 0.4399000000 0.4697000000
2.2505000000 2.1051000000 1.9492000000
2.2504000000 1.8023000000 1.7803000000
2.2503000000 0.3120000000 0.3230000000
2.2502000000 4.7837000000 0.6014000000
2.2500000000 2.3643000000 2.0936000000
2.2499000000 1.8239000000 1.7998000000
2.2497000000 3.3878000000 1.8727000000
2.2491000000 1.9484000000 1.8641000000
2.2490000000 3.2483000000 1.9464000000
2.2489000000 1.0910000000 1.1902000000
2.2488000000 3.4931000000 1.8095000000
2.2482000000 1.8712000000 1.8257000000
2.2479000000 3.3446000000 1.8889000000
2.2479000000 1.0347000000 1.1281000000
2.2472000000 0.5380000000 0.5833000000
2.2471000000 1.8559000000 1.8158000000
2.2459000000 1.2410000000 1.3625000000
2.2458000000 1.4705000000 1.5858000000
2.2406000000 1.2067000000 1.3172000000
2.0145000000 2.4241000000 2.3509000000
2.0132000000 4.3506000000 1.0792000000
2.0130000000 2.6511000000 2.4621000000
2.0101000000 4.8917000000 0.4819000000
2.0100000000 1.3725000000 1.5048000000
2.0100000000 3.9411000000 1.5380000000
2.0092000000 2.5979000000 2.4522000000
2.0088000000 3.7141000000 1.7898000000
2.0086000000 2.0788000000 2.1654000000
2.0086000000 2.9076000000 2.3640000000
2.0081000000 4.0860000000 1.3693000000
2.0080000000 4.9701000000 0.3935000000
2.0078000000 1.1499000000 1.2577000000
2.0077000000 2.5582000000 2.4289000000
2.0076000000 2.9286000000 2.3509000000
2.0072000000 5.2675000000 0.0630000000
2.0071000000 4.4022000000 1.0239000000
2.0069000000 2.0423000000 2.1516000000
2.0068000000 3.2150000000 2.1954000000
2.0068000000 3.2197000000 2.1913000000
2.0067000000 0.9471000000 1.0398000000
2.0067000000 2.8611000000 2.3868000000
2.0065000000 3.4300000000 2.0634000000
2.0065000000 0.2379000000 0.2505000000
2.0064000000 0.2382000000 0.2454000000
2.0063000000 4.3701000000 1.0624000000
2.0062000000 5.2854000000 0.1243000000
2.0060000000 2.1025000000 2.1778000000
2.0058000000 2.4511000000 2.3741000000
2.0058000000 1.1877000000 1.2971000000
2.0058000000 4.9776000000 0.3826000000
2.0057000000 4.7994000000 0.5799000000
2.0056000000 1.1748000000 1.2831000000
2.0054000000 2.6669000000 2.4786000000
2.0051000000 4.8037000000 0.5788000000
2.0052000000 3.8277000000 1.6640000000
2.0048000000 5.2275000000 0.1055000000
2.0045000000 1.8754000000 2.0389000000
2.0045000000 5.0745000000 0.2755000000
2.0043000000 3.1321000000 2.2488000000
2.0043000000 3.4127000000 2.0682000000
2.0040000000 0.7851000000 0.8568000000
2.0039000000 2.3613000000 2.3275000000
2.0038000000 1.0706000000 1.1729000000
2.0035000000 3.2401000000 2.1840000000
2.0035000000 2.5348000000 2.4212000000
2.0035000000 4.4884000000 0.9352000000
2.0034000000 1.8223000000 1.9873000000
2.0033000000 3.5550000000 1.9468000000
2.0031000000 0.9274000000 1.0173000000
2.0030000000 2.4828000000 2.4008000000
2.0029000000 3.5295000000 1.9779000000
2.0028000000 3.1939000000 2.2151000000
2.0024000000 3.9034000000 1.5782000000
2.0023000000 4.5375000000 0.8752000000
2.0023000000 5.2140000000 0.1242000000
2.0022000000 1.8107000000 1.9721000000
2.0021000000 2.1721000000 2.2226000000
2.0020000000 0.7030000000 0.7604000000
2.0019000000 2.2143000000 2.2437000000
2.0019000000 4.0757000000 1.3860000000
2.0018000000 0.6962000000 0.7562000000
2.0018000000 1.5878000000 1.7404000000
2.0017000000 1.3512000000 1.4834000000
2.0016000000 0.3727000000 0.3970000000
2.0013000000 2.4883000000 2.3958000000
2.0013000000 2.0465000000 2.1576000000
2.0011000000 0.5001000000 0.5356000000
2.0009000000 1.3984000000 1.5304000000
2.0006000000 1.2920000000 1.4161000000
2.0005000000 1.1445000000 1.2490000000
2.0004000000 1.5646000000 1.7178000000
2.0000000000 0.1258000000 0.1300000000
1.9999000000 0.6907000000 0.7457000000
1.9998000000 3.0766000000 2.2753000000
1.9992000000 2.5133000000 2.4135000000
1.9990000000 3.1791000000 2.2164000000
1.9987000000 1.9600000000 2.0879000000
1.9981000000 0.7760000000 0.8456000000
1.9978000000 1.6176000000 1.7741000000
1.9975000000 2.2184000000 2.2501000000
1.9962000000 1.3277000000 1.4523000000
1.9947000000 2.0771000000 2.1795000000
1.7623000000 4.2030000000 1.2444000000
1.7613000000 3.9061000000 1.5732000000
1.7599000000 4.1841000000 1.2644000000
1.7595000000 3.0396000000 2.5100000000
1.7595000000 1.0565000000 1.1544000000
1.7591000000 3.9492000000 1.5254000000
1.7589000000 3.3068000000 2.2331000000
1.7587000000 3.0470000000 2.5068000000
1.7582000000 5.3343000000 0.0661000000
1.7582000000 3.5095000000 2.0117000000
1.7580000000 2.3540000000 2.5372000000
1.7572000000 4.5806000000 0.8289000000
1.7566000000 0.6974000000 0.7550000000
1.7565000000 5.0625000000 0.2972000000
1.7564000000 5.2813000000 0.1248000000
1.7562000000 5.0216000000 0.3417000000
1.7560000000 2.0794000000 2.2844000000
1.7559000000 0.9319000000 1.0218000000
1.7557000000 4.0287000000 1.4382000000
1.7556000000 5.1737000000 0.1703000000
1.7555000000 1.3122000000 1.4410000000
1.7555000000 3.6727000000 1.8353000000
1.7554000000 4.1887000000 1.2651000000
1.7552000000 0.9204000000 1.0105000000
1.7551000000 3.9416000000 1.5372000000
1.7550000000 4.2664000000 1.1733000000
1.7549000000 0.3817000000 0.4100000000
1.7548000000 1.5618000000 1.7147000000
1.7545000000 4.7034000000 0.6894000000
1.7543000000 3.0223000000 2.5267000000
1.7543000000 0.5794000000 0.6237000000
1.7540000000 2.6203000000 2.6976000000
1.7538000000 2.5529000000 2.6733000000
1.7538000000 4.9224000000 0.4551000000
1.7536000000 4.9788000000 0.3893000000
1.7536000000 2.5797000000 2.6942000000
1.7535000000 2.7890000000 2.6744000000
1.7535000000 3.7901000000 1.7045000000
1.7535000000 0.1988000000 0.2068000000
1.7534000000 0.5976000000 0.6460000000
1.7532000000 1.6897000000 1.8559000000
1.7532000000 1.8458000000 2.0327000000
1.7531000000 0.4592000000 0.4956000000
1.7530000000 3.2257000000 2.3288000000
1.7530000000 0.4172000000 0.4467000000
1.7525000000 1.4119000000 1.5483000000
1.7523000000 1.6557000000 1.8149000000
1.7523000000 3.0170000000 2.5376000000
1.7520000000 5.0450000000 0.3125000000
1.7519000000 0.7030000000 0.7631000000
1.7518000000 2.5238000000 2.6557000000
1.7517000000 1.8322000000 2.0153000000
1.7517000000 2.6085000000 2.7071000000
1.7515000000 1.2495000000 1.3700000000
1.7513000000 2.4211000000 2.5999000000
1.7513000000 2.1414000000 2.3534000000
1.7512000000 0.8673000000 0.9433000000
1.7510000000 1.1246000000 1.2290000000
1.7510000000 1.9469000000 2.1399000000
1.7507000000 1.1926000000 1.3030000000
1.7505000000 0.0317000000 0.0914000000
1.7506000000 4.7358000000 0.6588000000
1.7505000000 0.1993000000 0.2014000000
1.7503000000 0.3493000000 0.3745000000
1.7500000000 2.2087000000 2.4228000000
1.7499000000 1.8441000000 2.0271000000
1.7497000000 2.0705000000 2.2781000000
1.7496000000 0.4092000000 0.4388000000
1.7495000000 4.0493000000 1.4130000000
1.7495000000 0.6572000000 0.7133000000
1.7494000000 0.3526000000 0.3732000000
1.7490000000 1.4890000000 1.6303000000
1.7490000000 0.5112000000 0.5517000000
1.7488000000 1.5923000000 1.7441000000
1.7487000000 0.0667000000 0.0650000000
1.7482000000 2.5429000000 2.6730000000
1.7481000000 0.1170000000 0.1125000000
1.7480000000 0.2836000000 0.2978000000
1.7479000000 0.6338000000 0.6839000000
1.7479000000 2.1161000000 2.3304000000
1.7420000000 1.3671000000 1.4960000000
1.5115000000 5.2720000000 0.0638000000
1.5113000000 4.9228000000 0.4502000000
1.5110000000 2.0173000000 2.2154000000
1.5096000000 3.6868000000 1.8192000000
1.5092000000 3.9018000000 1.5838000000
1.5086000000 0.2503000000 0.2630000000
1.5083000000 1.5774000000 1.7354000000
1.5083000000 1.7989000000 1.9808000000
1.5082000000 1.9465000000 2.1459000000
1.5078000000 0.0381000000 0.0959000000
1.5077000000 3.4064000000 2.1256000000
1.5071000000 4.0030000000 1.4718000000
1.5068000000 3.8987000000 1.5855000000
1.5064000000 1.6488000000 1.8132000000
1.5063000000 3.7039000000 1.7985000000
1.5062000000 4.1828000000 1.2662000000
1.5060000000 3.9311000000 1.5466000000
1.5058000000 3.5636000000 1.9548000000
1.5057000000 2.5699000000 2.7823000000
1.5055000000 0.2376000000 0.2496000000
1.5053000000 4.0531000000 1.4142000000
1.5052000000 3.2658000000 2.2863000000
1.5050000000 5.2583000000 0.0755000000
1.5049000000 3.7951000000 1.6947000000
1.5046000000 4.0884000000 1.3716000000
1.5045000000 0.9365000000 1.0212000000
1.5045000000 2.8285000000 2.7547000000
1.5045000000 2.3642000000 2.6019000000
1.5044000000 2.4297000000 2.6749000000
1.5042000000 3.4354000000 2.0947000000
1.5042000000 2.0329000000 2.2348000000
1.5038000000 1.8276000000 2.0093000000
1.5038000000 4.8566000000 0.5188000000
1.5037000000 5.3236000000 0.0793000000
1.5037000000 2.9365000000 2.6545000000
1.5036000000 5.0876000000 0.2674000000
1.5035000000 4.2866000000 1.1526000000
1.5034000000 3.2754000000 2.2750000000
1.5032000000 1.1434000000 1.2471000000
1.5032000000 0.2855000000 0.2987000000
1.5031000000 3.0060000000 2.5697000000
1.5030000000 4.8577000000 0.5242000000
1.5029000000 3.2919000000 2.2555000000
1.5028000000 0.4660000000 0.4954000000
1.5028000000 1.6086000000 1.7640000000
1.5027000000 3.7339000000 1.7665000000
1.5027000000 0.4505000000 0.4849000000
1.5026000000 1.1210000000 1.2205000000
1.5025000000 4.6658000000 0.7364000000
1.5025000000 1.1142000000 1.2117000000
1.5024000000 0.6336000000 0.6908000000
1.5023000000 4.0732000000 1.3900000000
1.5020000000 0.0444000000 0.1095000000
1.5019000000 3.7193000000 1.7840000000
1.5018000000 1.3716000000 1.5041000000
1.5015000000 0.5277000000 0.5663000000
1.5013000000 2.0849000000 2.2926000000
1.5008000000 1.4640000000 1.6085000000
1.5007000000 2.3479000000 2.5811000000
1.5006000000 1.6338000000 1.7935000000
1.5005000000 0.2240000000 0.2311000000
1.5004000000 3.7915000000 1.7059000000
1.5003000000 0.3275000000 0.3474000000
1.4998000000 0.9604000000 1.0469000000
1.4997000000 1.8292000000 2.0135000000
1.4995000000 1.5698000000 1.7230000000
1.4986000000 0.9016000000 0.9847000000
1.4984000000 1.6149000000 1.7688000000
1.4983000000 1.1629000000 1.2727000000
1.4983000000 1.4740000000 1.6192000000
1.4981000000 1.8212000000 1.9969000000
1.4980000000 1.5929000000 1.7455000000
1.4974000000 3.3140000000 2.2321000000
1.4973000000 0.3618000000 0.3792000000
1.4971000000 2.3331000000 2.5653000000
1.4967000000 0.5771000000 0.6183000000
1.4957000000 0.5070000000 0.5464000000
1.2626000000 1.5174000000 1.6692000000
1.2616000000 4.5552000000 0.8555000000
1.2607000000 2.9903000000 2.4927000000
1.2604000000 4.8207000000 0.5607000000
1.2590000000 0.7163000000 0.7792000000
1.2585000000 0.6238000000 0.6789000000
1.2579000000 5.1844000000 0.1544000000
1.2579000000 3.4028000000 2.1317000000
1.2574000000 4.9967000000 0.3628000000
1.2571000000 1.1411000000 1.2431000000
1.2572000000 4.8556000000 0.5193000000
1.2570000000 4.0195000000 1.4465000000
1.2569000000 3.6037000000 1.9118000000
1.2564000000 1.6541000000 1.8102000000
1.2562000000 5.1266000000 0.2288000000
1.2559000000 0.3357000000 0.3541000000
1.2559000000 0.6113000000 0.6585000000
1.2557000000 4.5661000000 0.8435000000
1.2555000000 4.1011000000 1.3592000000
1.2554000000 0.8932000000 0.9675000000
1.2555000000 3.8358000000 1.6540000000
1.2553000000 4.8498000000 0.5264000000
1.2553000000 3.9054000000 1.5733000000
1.2551000000 4.5108000000 0.9027000000
1.2550000000 0.3945000000 0.4263000000
1.2550000000 4.9693000000 0.3971000000
1.2550000000 5.2512000000 0.0849000000
1.2549000000 3.8892000000 1.5938000000
1.2548000000 4.0990000000 1.3628000000
1.2548000000 1.8459000000 2.0245000000
1.2547000000 1.3932000000 1.5350000000
1.2547000000 1.7073000000 1.8775000000
1.2545000000 4.3280000000 1.1073000000
1.2544000000 5.3064000000 0.1031000000
1.2542000000 4.5269000000 0.8897000000
1.2541000000 0.6098000000 0.6582000000
1.2540000000 4.5144000000 0.8986000000
1.2533000000 5.1426000000 0.2039000000
1.2531000000 2.8819000000 2.5473000000
1.2531000000 1.2090000000 1.3190000000
1.2529000000 3.5315000000 1.9929000000
1.2528000000 2.2011000000 2.3922000000
1.2526000000 5.1149000000 0.2396000000
1.2526000000 2.9615000000 2.5038000000
1.2522000000 4.0218000000 1.4448000000
1.2522000000 4.7886000000 0.5982000000
1.2519000000 1.2526000000 1.3720000000
1.2516000000 4.2560000000 1.1866000000
1.2516000000 0.4982000000 0.5391000000
1.2515000000 4.2883000000 1.1541000000
1.2513000000 2.9759000000 2.4977000000
1.2513000000 1.3591000000 1.4883000000
1.2511000000 0.4777000000 0.5118000000
1.2508000000 2.0233000000 2.2183000000
1.2503000000 0.3078000000 0.3289000000
1.2500000000 0.3192000000 0.3374000000
1.2498000000 0.4546000000 0.4849000000
1.2497000000 0.7496000000 0.8098000000
1.2493000000 1.3685000000 1.4981000000
1.2492000000 3.5554000000 1.9623000000
1.2490000000 3.8099000000 1.6762000000
1.2488000000 5.0169000000 0.3478000000
1.2488000000 1.4796000000 1.6237000000
1.2487000000 3.7199000000 1.7818000000
1.2479000000 0.5504000000 0.5932000000
1.2477000000 0.6789000000 0.7349000000
1.2471000000 1.8843000000 2.0696000000
1.2468000000 0.0726000000 0.0668000000
1.2454000000 1.8736000000 2.0628000000
1.2442000000 1.1008000000 1.2023000000
1.2441000000 1.0696000000 1.1663000000
1.2423000000 3.4607000000 2.0744000000
1.0130000000 3.9979000000 1.4712000000
1.0115000000 3.5976000000 1.8963000000
1.0109000000 1.9257000000 2.0205000000
1.0100000000 3.9758000000 1.4958000000
1.0098000000 4.6337000000 0.7660000000
1.0095000000 4.9081000000 0.4618000000
1.0094000000 3.8939000000 1.5903000000
1.0093000000 0.7027000000 0.7658000000
1.0091000000 5.0205000000 0.3373000000
1.0088000000 3.1337000000 2.1744000000
1.0087000000 3.6145000000 1.8805000000
1.0084000000 4.0943000000 1.3697000000
1.0082000000 0.5525000000 0.5944000000
1.0081000000 2.6934000000 2.4035000000
1.0080000000 0.7088000000 0.7676000000
1.0079000000 4.2438000000 1.1968000000
1.0078000000 5.0471000000 0.3131000000
1.0078000000 4.5972000000 0.8114000000
1.0075000000 4.3603000000 1.0748000000
1.0075000000 1.2911000000 1.4135000000
1.0074000000 1.0780000000 1.1769000000
1.0073000000 5.0525000000 0.3025000000
1.0069000000 5.0016000000 0.3596000000
1.0068000000 4.2708000000 1.1690000000
1.0067000000 2.4504000000 2.3074000000
1.0067000000 4.2265000000 1.2168000000
1.0065000000 4.7641000000 0.6244000000
1.0064000000 3.5207000000 1.9424000000
1.0063000000 1.9702000000 2.0382000000
1.0062000000 4.1606000000 1.2906000000
1.0061000000 0.4767000000 0.5086000000
1.0061000000 2.7577000000 2.3857000000
1.0059000000 4.8442000000 0.5355000000
1.0058000000 4.6666000000 0.7316000000
1.0055000000 0.0797000000 0.0703000000
1.0055000000 2.9918000000 2.2525000000
1.0055000000 5.0729000000 0.2806000000
1.0054000000 5.0705000000 0.2866000000
1.0053000000 1.4228000000 1.5573000000
1.0052000000 3.9324000000 1.5494000000
1.0052000000 3.5245000000 1.9376000000
1.0051000000 0.5020000000 0.5447000000
1.0050000000 1.1362000000 1.2467000000
1.0050000000 1.2206000000 1.3379000000
1.0050000000 4.2158000000 1.2313000000
1.0049000000 0.8937000000 0.9781000000
1.0047000000 3.1798000000 2.1445000000
1.0045000000 5.3553000000 0.0487000000
1.0046000000 0.7679000000 0.8334000000
1.0046000000 2.7854000000 2.3651000000
1.0045000000 1.4768000000 1.6289000000
1.0043000000 1.3872000000 1.5226000000
1.0038000000 2.6381000000 2.3932000000
1.0034000000 1.3764000000 1.5074000000
1.0028000000 3.1439000000 2.1597000000
1.0028000000 4.7002000000 0.6933000000
1.0027000000 4.1192000000 1.3426000000
1.0021000000 4.1211000000 1.3347000000
1.0019000000 2.7098000000 2.3868000000
1.0018000000 1.1039000000 1.2062000000
1.0015000000 0.9852000000 1.0765000000
1.0013000000 2.2495000000 2.1918000000
1.0013000000 3.6602000000 1.8297000000
1.0010000000 1.2204000000 1.3401000000
1.0008000000 1.5815000000 1.7275000000
1.0007000000 3.1458000000 2.1653000000
1.0005000000 3.7974000000 1.6963000000
1.0005000000 4.7466000000 0.6441000000
1.0003000000 5.3375000000 0.0638000000
0.9999000000 2.1241000000 2.1158000000
0.9998000000 1.2584000000 1.3780000000
0.9994000000 1.5486000000 1.7024000000
0.9992000000 1.2621000000 1.3863000000
0.9990000000 5.0659000000 0.2911000000
0.9990000000 1.6677000000 1.8180000000
0.9988000000 1.3570000000 1.4856000000
0.9985000000 4.4657000000 0.9560000000
0.9984000000 0.1399000000 0.1374000000
0.9983000000 5.3314000000 0.0695000000
0.9982000000 1.8226000000 1.9363000000
0.9981000000 0.9720000000 1.0599000000
0.9977000000 0.9446000000 1.0301000000
0.9973000000 5.0023000000 0.3595000000
0.9953000000 1.5357000000 1.6801000000
0.7633000000 1.5891000000 1.5980000000
0.7624000000 0.2972000000 0.3129000000
0.7600000000 4.7674000000 0.6202000000
0.7597000000 1.0292000000 1.1250000000
0.7588000000 4.0874000000 1.3552000000
0.7588000000 1.6156000000 1.6074000000
0.7578000000 4.5429000000 0.8684000000
0.7575000000 3.8992000000 1.5104000000
0.7575000000 3.1637000000 1.9209000000
0.7572000000 4.6482000000 0.7531000000
0.7570000000 2.4723000000 2.0812000000
0.7567000000 2.7744000000 2.1323000000
0.7566000000 0.3266000000 0.3466000000
0.7565000000 1.8564000000 1.7379000000
0.7564000000 1.2596000000 1.3624000000
0.7563000000 4.0453000000 1.4006000000
0.7560000000 3.1252000000 1.9347000000
0.7557000000 3.9042000000 1.5062000000
0.7555000000 1.4235000000 1.4954000000
0.7554000000 1.4372000000 1.5052000000
0.7553000000 4.9746000000 0.3947000000
0.7551000000 3.2030000000 1.8935000000
0.7551000000 0.1192000000 0.1116000000
0.7550000000 2.6502000000 2.1578000000
0.7550000000 1.0012000000 1.0909000000
0.7549000000 0.0003000000 0.0599000000
0.7550000000 3.5037000000 1.7313000000
0.7546000000 1.9844000000 1.8097000000
0.7546000000 2.8174000000 2.1099000000
0.7545000000 1.4351000000 1.5056000000
0.7544000000 4.6653000000 0.7321000000
0.7543000000 5.0297000000 0.3263000000
0.7539000000 5.1118000000 0.2414000000
0.7536000000 3.3658000000 1.8058000000
0.7533000000 3.8196000000 1.5519000000
0.7531000000 2.5070000000 2.0937000000
0.7530000000 2.0826000000 1.8598000000
0.7530000000 4.1795000000 1.2729000000
0.7530000000 2.7276000000 2.1523000000
0.7529000000 4.5900000000 0.8121000000
0.7528000000 2.1088000000 1.8669000000
0.7527000000 5.0389000000 0.3195000000
0.7526000000 3.5985000000 1.6743000000
0.7525000000 2.3884000000 2.0296000000
0.7525000000 1.3271000000 1.4287000000
0.7519000000 3.3278000000 1.8198000000
0.7518000000 1.1410000000 1.2458000000
0.7517000000 0.3297000000 0.3460000000
0.7516000000 0.0567000000 0.1202000000
0.7515000000 3.3327000000 1.8203000000
0.7513000000 2.1696000000 1.9084000000
0.7512000000 2.3864000000 2.0240000000
0.7510000000 0.6713000000 0.7295000000
0.7509000000 2.0643000000 1.8466000000
0.7508000000 2.5639000000 2.1257000000
0.7508000000 0.9740000000 1.0587000000
0.7507000000 0.7240000000 0.7862000000
0.7505000000 4.3090000000 1.1292000000
0.7505000000 5.2153000000 0.1249000000
0.7503000000 3.8152000000 1.5521000000
0.7502000000 3.7930000000 1.5617000000
0.7500000000 0.1204000000 0.1197000000
0.7497000000 5.0567000000 0.3034000000
0.7494000000 3.0728000000 1.9622000000
0.7493000000 2.1420000000 1.8947000000
0.7485000000 3.7366000000 1.5902000000
0.7485000000 4.0698000000 1.3803000000
0.7483000000 1.1140000000 1.2181000000
0.7483000000 0.4955000000 0.5363000000
0.7481000000 0.4870000000 0.5241000000
0.7480000000 3.3265000000 1.8197000000
0.7479000000 5.1851000000 0.1586000000
0.7479000000 0.6098000000 0.6637000000
0.7477000000 1.1500000000 1.2584000000
0.7474000000 5.1236000000 0.2260000000
0.7471000000 4.0415000000 1.4070000000
0.7469000000 4.6144000000 0.7948000000
0.7469000000 2.4472000000 2.0585000000
0.7451000000 0.1980000000 0.1984000000
0.5103000000 4.2079000000 1.1088000000
0.5099000000 4.3637000000 0.9981000000
0.5092000000 0.9738000000 0.9938000000
0.5090000000 5.2368000000 0.1003000000
0.5086000000 4.9241000000 0.4465000000
0.5086000000 0.3618000000 0.3818000000
0.5083000000 4.9948000000 0.3710000000
0.5080000000 2.7619000000 1.9011000000
0.5074000000 2.3895000000 1.7897000000
0.5073000000 4.1208000000 1.1505000000
0.5069000000 3.5781000000 1.4488000000
0.5068000000 1.5551000000 1.3357000000
0.5066000000 2.1483000000 1.6575000000
0.5065000000 4.8915000000 0.4821000000
0.5061000000 4.3802000000 0.9853000000
0.5059000000 0.9206000000 0.9633000000
0.5058000000 4.3620000000 1.0070000000
0.5055000000 2.7174000000 1.9089000000
0.5055000000 1.5484000000 1.3284000000
0.5050000000 2.5942000000 1.9089000000
0.5050000000 4.4307000000 0.9550000000
0.5049000000 0.7076000000 0.7689000000
0.5047000000 1.8076000000 1.4687000000
0.5046000000 2.2892000000 1.7359000000
0.5045000000 2.1695000000 1.6688000000
0.5044000000 4.2591000000 1.0677000000
0.5043000000 2.4071000000 1.8014000000
0.5043000000 1.2849000000 1.1869000000
0.5040000000 4.9234000000 0.4435000000
0.5039000000 4.7498000000 0.6383000000
0.5038000000 4.1915000000 1.1039000000
0.5034000000 3.4239000000 1.5302000000
0.5033000000 4.2792000000 1.0540000000
0.5033000000 0.7367000000 0.7959000000
0.5031000000 3.9761000000 1.2205000000
0.5028000000 4.6471000000 0.7566000000
0.5028000000 2.9360000000 1.7967000000
0.5027000000 5.1337000000 0.2160000000
0.5026000000 1.0334000000 1.0366000000
0.5024000000 3.3841000000 1.5476000000
0.5022000000 4.2438000000 1.0782000000
0.5022000000 2.0396000000 1.5985000000
0.5021000000 1.9121000000 1.5301000000
0.5016000000 0.9636000000 0.9810000000
0.5013000000 4.0745000000 1.1684000000
0.5013000000 4.6859000000 0.7105000000
0.5011000000 2.1805000000 1.6675000000
0.5010000000 5.1321000000 0.2159000000
0.5008000000 0.0037000000 0.0591000000
0.5004000000 1.1549000000 1.1038000000
0.5005000000 2.3311000000 1.7521000000
0.5006000000 0.1043000000 0.1028000000
0.5003000000 1.1282000000 1.0921000000
0.5000000000 1.9811000000 1.5621000000
0.5000000000 3.0394000000 1.7306000000
0.4999000000 1.0072000000 1.0188000000
0.4998000000 0.4894000000 0.5245000000
0.4990000000 2.7139000000 1.9000000000
0.4989000000 2.6380000000 1.9088000000
0.4987000000 1.8399000000 1.4816000000
0.4983000000 1.6017000000 1.3501000000
0.4981000000 1.8434000000 1.4822000000
0.4981000000 0.4874000000 0.5297000000
0.4979000000 0.6497000000 0.7062000000
0.4978000000 1.7548000000 1.4318000000
0.4978000000 3.6852000000 1.3732000000
0.4970000000 4.7412000000 0.6474000000
0.4969000000 0.4257000000 0.4551000000
0.4965000000 0.4807000000 0.5231000000
0.4961000000 0.4086000000 0.4338000000
0.4956000000 0.3289000000 0.3468000000
0.2612000000 2.5004000000 1.6171000000
0.2606000000 1.6523000000 1.1495000000
0.2606000000 1.2216000000 0.9073000000
0.2601000000 3.7238000000 1.1281000000
0.2592000000 1.7442000000 1.1950000000
0.2587000000 4.5648000000 0.6625000000
0.2583000000 1.8780000000 1.2727000000
0.2582000000 3.6485000000 1.1703000000
0.2581000000 1.9812000000 1.3326000000
0.2578000000 4.0511000000 0.9475000000
0.2576000000 2.7684000000 1.6584000000
0.2575000000 0.6601000000 0.6004000000
0.2574000000 2.7304000000 1.6767000000
0.2574000000 0.5104000000 0.4933000000
0.2572000000 5.0698000000 0.2897000000
0.2568000000 4.2811000000 0.8137000000
0.2567000000 2.4032000000 1.5625000000
0.2564000000 2.6934000000 1.6900000000
0.2562000000 3.9433000000 1.0059000000
0.2560000000 3.9570000000 0.9973000000
0.2559000000 3.7690000000 1.1009000000
0.2558000000 1.1299000000 0.8537000000
0.2555000000 0.0906000000 0.0881000000
0.2555000000 3.0111000000 1.5214000000
0.2554000000 2.5965000000 1.6653000000
0.2553000000 2.9089000000 1.5739000000
0.2553000000 2.0820000000 1.3719000000
0.2552000000 1.9468000000 1.3069000000
0.2552000000 2.5431000000 1.6330000000
0.2551000000 3.0582000000 1.5004000000
0.2550000000 3.1180000000 1.4616000000
0.2550000000 3.8929000000 1.0297000000
0.2548000000 3.9014000000 1.0305000000
0.2547000000 4.2272000000 0.8499000000
0.2546000000 4.8263000000 0.4958000000
0.2543000000 5.1777000000 0.1689000000
0.2541000000 0.7537000000 0.6390000000
0.2540000000 0.3403000000 0.3492000000
0.2538000000 4.3089000000 0.8010000000
0.2537000000 2.6107000000 1.6779000000
0.2536000000 3.1187000000 1.4583000000
0.2535000000 3.8326000000 1.0636000000
0.2535000000 2.4313000000 1.5716000000
0.2534000000 2.4026000000 1.5557000000
0.2533000000 0.4163000000 0.4224000000
0.2532000000 4.6122000000 0.6295000000
0.2531000000 3.4858000000 1.2529000000
0.2528000000 2.0188000000 1.3398000000
0.2527000000 4.6897000000 0.5898000000
0.2526000000 0.4616000000 0.4658000000
0.2526000000 1.2709000000 0.9285000000
0.2525000000 0.9490000000 0.7545000000
0.2523000000 2.8869000000 1.5890000000
0.2523000000 2.3493000000 1.5269000000
0.2522000000 5.0049000000 0.3546000000
0.2520000000 2.7548000000 1.6636000000
0.2520000000 2.9173000000 1.5675000000
0.2520000000 1.3148000000 0.9585000000
0.2518000000 3.1093000000 1.4668000000
0.2517000000 0.4772000000 0.4647000000
0.2517000000 2.9560000000 1.5491000000
0.2516000000 2.0593000000 1.3629000000
0.2515000000 4.9756000000 0.3664000000
0.2515000000 2.1516000000 1.4155000000
0.2511000000 4.7368000000 0.5614000000
0.2508000000 2.9530000000 1.5490000000
0.2507000000 1.8641000000 1.2545000000
0.2506000000 5.2407000000 0.0903000000
0.2506000000 0.4538000000 0.4604000000
0.2502000000 3.1753000000 1.4267000000
0.2496000000 0.2912000000 0.3109000000
0.2496000000 0.4308000000 0.4396000000
0.2493000000 0.8950000000 0.7191000000
0.2491000000 3.2028000000 1.4099000000
0.2490000000 3.5992000000 1.1860000000
0.2490000000 3.0937000000 1.4694000000
0.2489000000 4.1726000000 0.8677000000
0.2486000000 5.0188000000 0.3337000000
0.2483000000 0.7003000000 0.6088000000
0.2483000000 0.7331000000 0.6279000000
0.2480000000 0.2781000000 0.2894000000
0.2474000000 1.4561000000 1.0251000000
0.2472000000 0.0029000000 0.0635000000
0.2468000000 2.9492000000 1.5481000000
0.2468000000 0.4722000000 0.4654000000
0.2456000000 0.3671000000 0.3644000000
0.2456000000 0.3205000000 0.3305000000
0.2452000000 0.3924000000 0.4008000000
0.2439000000 1.0049000000 0.7764000000
0.2433000000 0.3460000000 0.3468000000
0.2419000000 4.5892000000 0.6297000000
0.0151000000 4.1746000000 0.6502000000
0.0129000000 4.6190000000 0.3979000000
0.0119000000 5.0943000000 0.1306000000
0.0102000000 4.8404000000 0.2765000000
0.0100000000 2.1682000000 1.1974000000
0.0094000000 3.4209000000 1.0576000000
0.0093000000 1.7088000000 0.9378000000
0.0091000000 1.9200000000 1.0550000000
0.0083000000 2.1424000000 1.1792000000
0.0083000000 1.6734000000 0.9172000000
0.0071000000 3.6667000000 0.9199000000
0.0064000000 1.0538000000 0.5784000000
0.0059000000 3.7176000000 0.8870000000
0.0058000000 5.2333000000 0.1161000000
0.0057000000 4.8430000000 0.2594000000
0.0055000000 5.0750000000 0.1362000000
0.0054000000 4.8134000000 0.2788000000
0.0044000000 0.9081000000 0.4888000000
0.0041000000 1.0138000000 0.5498000000
0.0038000000 5.2608000000 0.0896000000
0.0039000000 4.9389000000 0.2163000000
0.0038000000 3.2935000000 1.1215000000
0.0036000000 2.7229000000 1.4257000000
0.0033000000 3.4976000000 1.0058000000
0.0033000000 1.1863000000 0.6455000000
0.0032000000 3.1931000000 1.1762000000
0.0032000000 2.5602000000 1.4068000000
0.0031000000 2.3485000000 1.2856000000
0.0029000000 2.5942000000 1.4208000000
0.0028000000 0.5248000000 0.2775000000
0.0027000000 2.8196000000 1.3842000000
0.0026000000 1.5616000000 0.8550000000
0.0025000000 3.7884000000 0.8495000000
0.0025000000 4.7682000000 0.3127000000
0.0025000000 5.1047000000 0.1160000000
0.0023000000 1.5451000000 0.8434000000
0.0020000000 1.4149000000 0.7706000000
0.0018000000 2.8897000000 1.3430000000
0.0016000000 2.2095000000 1.2114000000
0.0014000000 3.5377000000 0.9902000000
0.0013000000 3.3728000000 1.0730000000
0.0012000000 2.4937000000 1.3610000000
0.0012000000 1.5826000000 0.8662000000
0.0010000000 4.8056000000 0.2811000000
0.0008000000 2.1339000000 1.1616000000
0.0003000000 0.2486000000 0.1245000000
0.0002000000 0.7597000000 0.4051000000
0.0002000000 2.4494000000 1.3407000000
0.0000000000 0.1633000000 0.0772000000
-0.0001000000 1.2798000000 0.6886000000
-0.0004000000 2.3314000000 1.2787000000
-0.0005000000 0.5447000000 0.2818000000
-0.0005000000 2.4864000000 1.3604000000
-0.0011000000 1.6544000000 0.9015000000
-0.0013000000 1.4455000000 0.7833000000
-0.0017000000 5.0528000000 0.1446000000
-0.0022000000 0.9624000000 0.5158000000
-0.0031000000 0.2555000000 0.1259000000
-0.0037000000 1.6674000000 0.9029000000
-0.0040000000 3.8110000000 0.8289000000
-0.0065000000 0.5925000000 0.3102000000
-0.0071000000 1.2081000000 0.6444000000
-0.0101000000 1.7056000000 0.9164000000
-0.2376000000 4.5995000000 0.1666000000
-0.2397000000 2.9249000000 1.0946000000
-0.2406000000 0.6252000000 0.0978000000
-0.2410000000 4.4608000000 0.2410000000
-0.2417000000 0.6643000000 0.1193000000
-0.2418000000 4.6882000000 0.1107000000
-0.2419000000 1.6544000000 0.6640000000
-0.2421000000 2.9134000000 1.1034000000
-0.2422000000 5.1432000000 0.0102000000
-0.2422000000 3.4205000000 0.8146000000
-0.2424000000 3.0777000000 1.0015000000
-0.2425000000 4.1397000000 0.4175000000
-0.2426000000 3.7003000000 0.6607000000
-0.2428000000 1.6243000000 0.6460000000
-0.2428000000 2.6172000000 1.1930000000
-0.2430000000 3.1916000000 0.9402000000
-0.2432000000 4.1461000000 0.4074000000
-0.2432000000 1.4251000000 0.5364000000
-0.2434000000 3.0698000000 1.0112000000
-0.2436000000 2.1727000000 0.9538000000
-0.2437000000 3.3024000000 0.8792000000
-0.2438000000 2.8289000000 1.1399000000
-0.2440000000 3.4342000000 0.8017000000
-0.2442000000 5.0969000000 0.0288000000
-0.2445000000 1.3135000000 0.4759000000
-0.2445000000 0.4125000000 0.0556000000
-0.2447000000 5.0284000000 0.0724000000
-0.2449000000 1.8046000000 0.7500000000
-0.2450000000 3.7166000000 0.6512000000
-0.2452000000 3.3193000000 0.8706000000
-0.2453000000 4.7979000000 0.1239000000
-0.2457000000 2.4863000000 1.1241000000
-0.2457000000 3.4675000000 0.7897000000
-0.2459000000 2.4577000000 1.1077000000
-0.2459000000 3.9530000000 0.5194000000
-0.2460000000 3.3043000000 0.8764000000
-0.2461000000 2.5374000000 1.1511000000
-0.2465000000 0.3609000000 0.0975000000
-0.2464000000 4.7186000000 0.0924000000
-0.2465000000 4.6072000000 0.1525000000
-0.2466000000 2.7209000000 1.1825000000
-0.2467000000 4.9516000000 0.0367000000
-0.2468000000 1.7000000000 0.6851000000
-0.2470000000 0.6062000000 0.0825000000
-0.2472000000 4.9336000000 0.0476000000
-0.2474000000 1.2766000000 0.4502000000
-0.2474000000 2.2895000000 1.0185000000
-0.2475000000 3.4483000000 0.7949000000
-0.2475000000 1.7378000000 0.7068000000
-0.2477000000 2.1144000000 0.9167000000
-0.2482000000 4.4586000000 0.2388000000
-0.2483000000 1.5850000000 0.6230000000
-0.2486000000 0.4783000000 0.0898000000
-0.2485000000 0.6930000000 0.1255000000
-0.2486000000 2.1656000000 0.9461000000
-0.2487000000 3.2300000000 0.9189000000
-0.2489000000 2.8105000000 1.1483000000
-0.2492000000 1.1815000000 0.3970000000
-0.2493000000 3.3898000000 0.8212000000
-0.2495000000 2.2993000000 1.0144000000
-0.2495000000 4.4096000000 0.2639000000
-0.2496000000 0.5247000000 0.1097000000
-0.2497000000 4.6505000000 0.1296000000
-0.2500000000 1.9996000000 0.8507000000
-0.2505000000 1.9057000000 0.7995000000
-0.2507000000 4.8880000000 0.0681000000
-0.2508000000 0.4634000000 0.0752000000
-0.2512000000 0.6047000000 0.0776000000
-0.2516000000 2.7030000000 1.1876000000
-0.2518000000 2.0788000000 0.8934000000
-0.2521000000 1.7709000000 0.7266000000
-0.2529000000 0.3937000000 0.0330000000
-0.2533000000 1.9867000000 0.8400000000
-0.2534000000 4.4405000000 0.2414000000
-0.2541000000 1.6943000000 0.6767000000
-0.2543000000 4.7478000000 0.0675000000
-0.4877000000 4.3728000000 0.0466000000
-0.4897000000 1.5038000000 0.3478000000
-0.4902000000 2.5129000000 0.9042000000
-0.4917000000 2.5335000000 0.9107000000
-0.4920000000 2.8362000000 0.9028000000
-0.4932000000 2.6073000000 0.9553000000
-0.4932000000 1.8413000000 0.5292000000
-0.4933000000 2.9376000000 0.8470000000
-0.4936000000 1.9054000000 0.5640000000
-0.4938000000 3.8033000000 0.3616000000
-0.4938000000 1.8777000000 0.5439000000
-0.4940000000 3.3563000000 0.6105000000
-0.4941000000 3.8771000000 0.3207000000
-0.4944000000 1.1130000000 0.1182000000
-0.4947000000 3.8230000000 0.3488000000
-0.4948000000 4.3093000000 0.0748000000
-0.4952000000 2.1372000000 0.6997000000
-0.4955000000 3.0816000000 0.7611000000
-0.4956000000 3.9815000000 0.2666000000
-0.4957000000 1.5088000000 0.3461000000
-0.4958000000 2.2299000000 0.7393000000
-0.4960000000 2.1355000000 0.6952000000
-0.4961000000 2.7951000000 0.9198000000
-0.4962000000 4.4587000000 0.0700000000
-0.4962000000 4.2052000000 0.1343000000
-0.4965000000 4.4287000000 0.0888000000
-0.4966000000 1.7153000000 0.4569000000
-0.4968000000 4.6849000000 0.0185000000
-0.4967000000 2.7806000000 0.9235000000
-0.4968000000 4.1297000000 0.1792000000
-0.4969000000 3.0331000000 0.7873000000
-0.4970000000 1.4974000000 0.3351000000
-0.4971000000 3.3574000000 0.6076000000
-0.4971000000 2.3232000000 0.7897000000
-0.4972000000 1.9903000000 0.6113000000
-0.4974000000 3.1435000000 0.7225000000
-0.4976000000 3.4740000000 0.5444000000
-0.4977000000 1.6242000000 0.4075000000
-0.4977000000 2.1996000000 0.7241000000
-0.4981000000 1.9076000000 0.5642000000
-0.4981000000 1.3673000000 0.2628000000
-0.4985000000 4.5196000000 0.0349000000
-0.4986000000 3.4919000000 0.5289000000
-0.4987000000 3.9573000000 0.2705000000
-0.4988000000 2.4309000000 0.8544000000
-0.4989000000 3.3728000000 0.5936000000
-0.4993000000 2.0755000000 0.6537000000
-0.4995000000 2.7860000000 0.9176000000
-0.4997000000 2.8921000000 0.8607000000
-0.4997000000 1.8631000000 0.5413000000
-0.5000000000 1.1199000000 0.1272000000
-0.5002000000 1.2611000000 0.2011000000
-0.5002000000 0.9760000000 0.1195000000
-0.5003000000 2.2755000000 0.7684000000
-0.5004000000 1.8794000000 0.5440000000
-0.5007000000 4.2080000000 0.1316000000
-0.5014000000 1.2799000000 0.2109000000
-0.5015000000 1.1058000000 0.1096000000
-0.5016000000 3.6140000000 0.4537000000
-0.5016000000 1.4971000000 0.3329000000
-0.5029000000 2.2578000000 0.7562000000
-0.5037000000 4.3677000000 0.1149000000
-0.5042000000 1.1387000000 0.1325000000
-0.5049000000 3.8374000000 0.3312000000
-0.7389000000 4.1679000000 0.0721000000
-0.7406000000 2.8139000000 0.6765000000
-0.7410000000 1.1622000000 0.0667000000
-0.7422000000 3.7757000000 0.1371000000
-0.7425000000 3.0551000000 0.5388000000
-0.7426000000 2.9021000000 0.6190000000
-0.7427000000 2.2687000000 0.5288000000
-0.7429000000 3.0073000000 0.5611000000
-0.7430000000 2.0983000000 0.4350000000
-0.7430000000 3.7213000000 0.1723000000
-0.7431000000 4.2131000000 0.0493000000
-0.7431000000 3.5658000000 0.2588000000
-0.7433000000 2.5307000000 0.6656000000
-0.7434000000 2.6665000000 0.7264000000
-0.7435000000 1.2020000000 0.0799000000
-0.7438000000 2.8779000000 0.6340000000
-0.7438000000 3.2011000000 0.4507000000
-0.7439000000 2.2603000000 0.5191000000
-0.7440000000 3.6846000000 0.1867000000
-0.7441000000 1.5298000000 0.1186000000
-0.7441000000 1.7363000000 0.2366000000
-0.7442000000 2.0985000000 0.4307000000
-0.7442000000 3.5314000000 0.2719000000
-0.7447000000 2.0620000000 0.4143000000
-0.7448000000 1.2833000000 0.0517000000
-0.7457000000 2.3078000000 0.5428000000
-0.7458000000 3.5685000000 0.2510000000
-0.7458000000 2.6561000000 0.7188000000
-0.7459000000 2.9414000000 0.5953000000
-0.7460000000 1.3301000000 0.0811000000
-0.7461000000 3.9951000000 0.0875000000
-0.7462000000 1.1742000000 0.0716000000
-0.7467000000 3.5668000000 0.2491000000
-0.7472000000 2.4522000000 0.6263000000
-0.7475000000 3.5391000000 0.2642000000
-0.7481000000 1.8220000000 0.2745000000
-0.7482000000 1.7470000000 0.2315000000
-0.7484000000 3.5282000000 0.2777000000
-0.7487000000 4.2156000000 0.0409000000
-0.7491000000 4.0730000000 0.0426000000
-0.7491000000 3.4930000000 0.2895000000
-0.7492000000 1.5860000000 0.1456000000
-0.7495000000 2.0542000000 0.3967000000
-0.7496000000 2.6700000000 0.7233000000
-0.7499000000 1.8812000000 0.3074000000
-0.7508000000 2.4231000000 0.5963000000
-0.7517000000 4.1052000000 0.0959000000
-0.7519000000 2.6070000000 0.7090000000
-0.7525000000 1.5604000000 0.1213000000
-0.7532000000 3.8633000000 0.0820000000
-0.7532000000 1.0891000000 0.0165000000
-0.9907000000 2.5818000000 0.4631000000
-0.9919000000 3.1751000000 0.2327000000
-0.9919000000 2.4477000000 0.3871000000
-0.9921000000 3.8417000000 0.0106000000
-0.9930000000 3.0391000000 0.3043000000
-0.9931000000 3.5628000000 0.0920000000
-0.9932000000 1.7021000000 0.0475000000
-0.9939000000 2.7758000000 0.4494000000
-0.9942000000 3.4811000000 0.0507000000
-0.9945000000 2.4147000000 0.3692000000
-0.9947000000 2.9640000000 0.3459000000
-0.9950000000 2.2974000000 0.3016000000
-0.9951000000 3.5695000000 0.0835000000
-0.9951000000 2.9664000000 0.3438000000
-0.9957000000 2.0843000000 0.1816000000
-0.9959000000 1.7369000000 0.0671000000
-0.9975000000 2.3026000000 0.3032000000
-0.9978000000 3.5923000000 0.0670000000
-0.9981000000 2.6350000000 0.4680000000
-0.9985000000 2.8153000000 0.4264000000
-0.9987000000 1.7533000000 0.0698000000
-0.9988000000 2.8989000000 0.3806000000
-1.0000000000 2.1586000000 0.2196000000
-1.0009000000 2.3972000000 0.3503000000
-1.0011000000 3.0793000000 0.2737000000
-1.0013000000 2.9528000000 0.3432000000
-1.0014000000 2.3578000000 0.3278000000
-1.0018000000 2.4030000000 0.3517000000
-1.0031000000 2.5350000000 0.4261000000
-1.0043000000 2.8261000000 0.4120000000
-1.0045000000 3.6219000000 0.0454000000
-1.0050000000 3.5395000000 0.0911000000
-1.2393000000 3.1751000000 0.0692000000
-1.2403000000 1.9752000000 0.0352000000
-1.2418000000 2.2922000000 0.0630000000
-1.2420000000 3.0549000000 0.0577000000
-1.2429000000 2.0849000000 0.0985000000
-1.2433000000 2.4311000000 0.1360000000
-1.2436000000 2.2726000000 0.1271000000
-1.2440000000 2.1787000000 0.0691000000
-1.2444000000 2.5541000000 0.2023000000
-1.2454000000 3.4068000000 0.0052000000
-1.2464000000 2.6830000000 0.2448000000
-1.2465000000 2.1068000000 0.0337000000
-1.2467000000 1.9203000000 0.0013000000
-1.2468000000 3.2565000000 0.0935000000
-1.2470000000 3.4010000000 0.0154000000
-1.2477000000 3.1776000000 0.0592000000
-1.2485000000 2.2945000000 0.0533000000
-1.2485000000 2.2878000000 0.0537000000
