4.0060000000 4.1782000000 0.0652000000
4.0058000000 4.2066000000 0.0476000000
4.0056000000 1.4232000000 0.0770000000
4.0055000000 1.1433000000 0.0088000000
4.0049000000 3.4024000000 0.3977000000
4.0048000000 3.6686000000 0.2567000000
4.0048000000 3.7993000000 0.1923000000
4.0047000000 2.6248000000 0.6364000000
4.0045000000 4.3639000000 0.0436000000
4.0044000000 2.0066000000 0.3155000000
4.0038000000 2.7276000000 0.6918000000
4.0036000000 3.3108000000 0.4494000000
4.0037000000 3.8187000000 0.1804000000
4.0034000000 3.8910000000 0.1391000000
4.0033000000 2.7764000000 0.7050000000
4.0032000000 3.8058000000 0.1876000000
4.0030000000 3.3096000000 0.4490000000
4.0029000000 4.2170000000 0.0424000000
4.0025000000 2.5626000000 0.6103000000
4.0023000000 1.4597000000 0.0976000000
4.0021000000 1.4833000000 0.1184000000
4.0019000000 2.7578000000 0.6993000000
4.0018000000 2.3352000000 0.4892000000
4.0015000000 1.7326000000 0.1708000000
4.0015000000 2.4739000000 0.5633000000
4.0014000000 1.5685000000 0.0852000000
4.0013000000 3.2862000000 0.4596000000
4.0003000000 1.4543000000 0.1007000000
3.9999000000 1.9333000000 0.2752000000
3.9999000000 2.1223000000 0.3769000000
3.9998000000 1.5689000000 0.0847000000
3.9996000000 1.1386000000 0.0109000000
3.9993000000 2.0568000000 0.3416000000
3.9992000000 4.0444000000 0.0643000000
3.9990000000 2.7869000000 0.7123000000
3.9989000000 2.5215000000 0.5957000000
3.9970000000 2.0407000000 0.3421000000
3.9960000000 2.2704000000 0.4599000000
3.7665000000 2.5043000000 0.7998000000
3.7638000000 2.5033000000 0.7998000000
3.7628000000 1.0726000000 0.0452000000
3.7616000000 1.3358000000 0.1784000000
3.7609000000 1.3277000000 0.1729000000
3.7608000000 4.4618000000 0.0613000000
3.7604000000 4.7764000000 0.0431000000
3.7594000000 3.4800000000 0.5856000000
3.7588000000 2.9194000000 0.8791000000
3.7587000000 0.9289000000 0.0451000000
3.7585000000 3.6525000000 0.4955000000
3.7580000000 4.7238000000 0.0799000000
3.7574000000 4.2949000000 0.1525000000
3.7571000000 2.5752000000 0.8356000000
3.7571000000 1.7638000000 0.4090000000
3.7570000000 4.1328000000 0.2420000000
3.7567000000 4.5065000000 0.0407000000
3.7565000000 1.0745000000 0.0492000000
3.7558000000 3.7199000000 0.4613000000
3.7557000000 1.7047000000 0.3813000000
3.7558000000 3.6464000000 0.5029000000
3.7556000000 2.9191000000 0.8782000000
3.7552000000 3.2552000000 0.7051000000
3.7551000000 1.8781000000 0.4687000000
3.7550000000 1.0262000000 0.1008000000
3.7548000000 3.4033000000 0.6287000000
3.7548000000 1.6669000000 0.3628000000
3.7543000000 1.9790000000 0.5331000000
3.7542000000 4.7423000000 0.0714000000
3.7540000000 0.7895000000 0.0483000000
3.7539000000 2.5673000000 0.8374000000
3.7540000000 2.6719000000 0.8933000000
3.7539000000 3.3506000000 0.6630000000
3.7538000000 1.9592000000 0.5191000000
3.7536000000 1.0430000000 0.1116000000
3.7535000000 2.7107000000 0.9132000000
3.7535000000 1.5437000000 0.2989000000
3.7533000000 2.0358000000 0.5580000000
3.7533000000 3.7911000000 0.4268000000
3.7532000000 3.6051000000 0.5214000000
3.7530000000 0.7085000000 0.0032000000
3.7531000000 4.4917000000 0.0505000000
3.7529000000 2.9396000000 0.8708000000
3.7528000000 0.7431000000 0.0271000000
3.7528000000 2.3731000000 0.7379000000
3.7527000000 0.9712000000 0.0715000000
3.7522000000 1.5949000000 0.3234000000
3.7522000000 0.7383000000 0.0203000000
3.7518000000 3.0978000000 0.7872000000
3.7515000000 2.1153000000 0.6021000000
3.7514000000 3.9574000000 0.3355000000
3.7513000000 3.3397000000 0.6647000000
3.7515000000 2.9109000000 0.8949000000
3.7513000000 3.3946000000 0.6392000000
3.7511000000 1.0648000000 0.0479000000
3.7507000000 3.0316000000 0.8246000000
3.7503000000 3.0084000000 0.8433000000
3.7503000000 2.9609000000 0.8679000000
3.7499000000 4.5986000000 0.0744000000
3.7493000000 1.3773000000 0.2168000000
3.7490000000 1.7898000000 0.4349000000
3.7489000000 4.8175000000 0.0318000000
3.7486000000 0.7736000000 0.0433000000
3.7484000000 1.3987000000 0.2260000000
3.7483000000 0.7700000000 0.0462000000
3.7483000000 1.6914000000 0.3818000000
3.7479000000 4.2242000000 0.2024000000
3.7463000000 2.6589000000 0.8930000000
3.7462000000 1.1673000000 0.1031000000
3.7460000000 1.6449000000 0.3536000000
3.5135000000 1.2245000000 0.3437000000
3.5133000000 4.3283000000 0.3692000000
3.5125000000 3.1989000000 0.9605000000
3.5118000000 3.9694000000 0.5491000000
3.5108000000 3.0205000000 1.0527000000
3.5105000000 4.9123000000 0.0554000000
3.5093000000 4.8551000000 0.0860000000
3.5087000000 4.9932000000 0.0857000000
3.5080000000 5.1779000000 0.0655000000
3.5075000000 1.8815000000 0.7017000000
3.5074000000 1.0214000000 0.2477000000
3.5074000000 4.8282000000 0.1002000000
3.5073000000 2.2198000000 0.8823000000
3.5071000000 3.7076000000 0.6973000000
3.5070000000 3.9765000000 0.5502000000
3.5067000000 1.6204000000 0.5604000000
3.5066000000 4.7794000000 0.1271000000
3.5065000000 4.3343000000 0.3683000000
3.5064000000 3.5711000000 0.7655000000
3.5063000000 2.8857000000 1.1304000000
3.5063000000 1.6505000000 0.5800000000
3.5061000000 4.4579000000 0.2985000000
3.5060000000 1.9478000000 0.7354000000
3.5060000000 1.3837000000 0.4338000000
3.5059000000 3.8175000000 0.6378000000
3.5056000000 4.3544000000 0.3529000000
3.5055000000 2.6218000000 1.0953000000
3.5053000000 1.7508000000 0.6360000000
3.5053000000 2.6656000000 1.1197000000
3.5052000000 3.9095000000 0.5808000000
3.5050000000 1.4673000000 0.4803000000
3.5049000000 1.0395000000 0.2584000000
3.5049000000 2.5206000000 1.0469000000
3.5048000000 2.6562000000 1.1098000000
3.5047000000 4.1202000000 0.4747000000
3.5045000000 2.3215000000 0.9355000000
3.5045000000 4.3824000000 0.3369000000
3.5044000000 2.8364000000 1.1471000000
3.5043000000 0.4636000000 0.0339000000
3.5043000000 2.5846000000 1.0741000000
3.5036000000 0.9303000000 0.2060000000
3.5034000000 2.8043000000 1.1551000000
3.5034000000 4.7216000000 0.1561000000
3.5032000000 2.7362000000 1.1450000000
3.5031000000 2.5714000000 1.0671000000
3.5030000000 2.6162000000 1.0910000000
3.5029000000 4.3696000000 0.3505000000
3.5028000000 3.4319000000 0.8398000000
3.5027000000 0.5460000000 0.0790000000
3.5026000000 2.5036000000 1.0296000000
3.5026000000 3.7444000000 0.6746000000
3.5021000000 2.1032000000 0.8258000000
3.5021000000 4.6299000000 0.2106000000
3.5018000000 1.7567000000 0.6430000000
3.5016000000 0.4151000000 0.0835000000
3.5015000000 0.6212000000 0.0386000000
3.5015000000 0.7651000000 0.1224000000
3.5014000000 1.5363000000 0.5249000000
3.5012000000 4.9114000000 0.0596000000
3.5011000000 1.1598000000 0.3224000000
3.5008000000 0.5621000000 0.0847000000
3.5006000000 4.1709000000 0.4490000000
3.5003000000 0.5762000000 0.0985000000
3.5003000000 2.2749000000 0.9178000000
3.4999000000 1.9169000000 0.7257000000
3.4997000000 1.5007000000 0.5038000000
3.4994000000 1.0424000000 0.2605000000
3.4993000000 0.9890000000 0.2400000000
3.4988000000 1.5397000000 0.5262000000
3.4987000000 4.7684000000 0.1430000000
3.4984000000 3.6969000000 0.7037000000
3.4980000000 0.3863000000 0.0701000000
3.4975000000 2.1880000000 0.8730000000
3.4973000000 2.0568000000 0.8028000000
3.4971000000 1.8704000000 0.7101000000
3.4966000000 3.1823000000 0.9784000000
3.4963000000 2.9486000000 1.1020000000
3.4937000000 5.0595000000 0.0725000000
3.2639000000 4.9623000000 0.2547000000
3.2614000000 4.0304000000 0.7481000000
3.2603000000 1.8464000000 0.9082000000
3.2596000000 3.1565000000 1.2092000000
3.2596000000 3.8815000000 0.8211000000
3.2593000000 2.4391000000 1.2223000000
3.2591000000 2.1544000000 1.0739000000
3.2585000000 1.0322000000 0.4842000000
3.2584000000 4.1524000000 0.6840000000
3.2581000000 4.9202000000 0.2836000000
3.2577000000 4.7909000000 0.3492000000
3.2573000000 4.8938000000 0.2972000000
3.2572000000 4.8523000000 0.3166000000
3.2571000000 1.2244000000 0.5793000000
3.2569000000 5.1164000000 0.1766000000
3.2568000000 5.5148000000 0.0406000000
3.2566000000 4.6481000000 0.4252000000
3.2566000000 5.1084000000 0.1803000000
3.2563000000 3.8519000000 0.8417000000
3.2562000000 2.7446000000 1.3745000000
3.2561000000 0.0569000000 0.0431000000
3.2561000000 4.9516000000 0.2606000000
3.2560000000 2.4075000000 1.2099000000
3.2559000000 3.5113000000 1.0252000000
3.2558000000 1.1540000000 0.5522000000
3.2557000000 3.0998000000 1.2452000000
3.2554000000 4.7231000000 0.3882000000
3.2554000000 0.8771000000 0.4006000000
3.2553000000 3.4853000000 1.0408000000
3.2553000000 4.3758000000 0.5686000000
3.2553000000 1.6024000000 0.7916000000
3.2552000000 4.8806000000 0.3038000000
3.2550000000 4.7375000000 0.3781000000
3.2549000000 4.0141000000 0.7592000000
3.2548000000 4.9896000000 0.2454000000
3.2547000000 5.3313000000 0.0655000000
3.2548000000 3.5768000000 0.9924000000
3.2546000000 0.9925000000 0.4685000000
3.2543000000 1.0098000000 0.4692000000
3.2542000000 4.7062000000 0.4011000000
3.2541000000 2.4130000000 1.2172000000
3.2540000000 3.3108000000 1.1326000000
3.2541000000 1.7529000000 0.8641000000
3.2540000000 2.8328000000 1.3738000000
3.2539000000 5.1352000000 0.1713000000
3.2538000000 3.1280000000 1.2303000000
3.2539000000 3.9837000000 0.7795000000
3.2538000000 2.3422000000 1.1753000000
3.2538000000 4.3432000000 0.5919000000
3.2536000000 3.5831000000 0.9851000000
3.2535000000 1.3759000000 0.6673000000
3.2535000000 5.3299000000 0.0717000000
3.2532000000 0.3786000000 0.1402000000
3.2531000000 3.0734000000 1.2586000000
3.2529000000 2.5760000000 1.2972000000
3.2528000000 3.1492000000 1.2171000000
3.2528000000 4.5740000000 0.4703000000
3.2527000000 3.6922000000 0.9294000000
3.2527000000 4.3463000000 0.5857000000
3.2526000000 1.6747000000 0.8286000000
3.2524000000 1.0597000000 0.4977000000
3.2523000000 4.1202000000 0.7102000000
3.2523000000 5.3215000000 0.0743000000
3.2521000000 5.3842000000 0.1164000000
3.2519000000 0.2897000000 0.0949000000
3.2517000000 5.2143000000 0.1281000000
3.2517000000 2.9412000000 1.3333000000
3.2516000000 0.6127000000 0.2673000000
3.2516000000 3.1663000000 1.2135000000
3.2514000000 2.9135000000 1.3431000000
3.2513000000 3.0511000000 1.2759000000
3.2513000000 5.0327000000 0.2279000000
3.2502000000 3.9607000000 0.7956000000
3.2498000000 1.5165000000 0.7455000000
3.2498000000 0.6548000000 0.2918000000
3.2491000000 2.6906000000 1.3652000000
3.2490000000 2.1781000000 1.0938000000
3.2485000000 4.6817000000 0.4179000000
3.2481000000 1.1553000000 0.5597000000
3.2480000000 0.4360000000 0.1744000000
3.2480000000 3.2453000000 1.1690000000
3.2479000000 2.9552000000 1.3186000000
3.2478000000 5.4743000000 0.0741000000
3.2473000000 2.1763000000 1.0954000000
3.2459000000 3.1840000000 1.2101000000
3.0128000000 2.9894000000 1.5191000000
3.0115000000 3.7553000000 1.1233000000
3.0101000000 2.2231000000 1.3358000000
3.0098000000 2.3321000000 1.3954000000
3.0098000000 5.4885000000 0.0616000000
3.0096000000 4.5209000000 0.7186000000
3.0093000000 4.2131000000 0.8823000000
3.0077000000 4.6718000000 0.6372000000
3.0076000000 5.5797000000 0.0437000000
3.0071000000 5.4440000000 0.1130000000
3.0070000000 1.1673000000 0.7805000000
3.0068000000 2.0029000000 1.2213000000
3.0065000000 4.5729000000 0.6960000000
3.0063000000 3.0680000000 1.4880000000
3.0062000000 3.1548000000 1.4396000000
3.0060000000 4.6443000000 0.6552000000
3.0058000000 3.9165000000 1.0381000000
3.0058000000 2.3214000000 1.3996000000
3.0057000000 0.3701000000 0.3451000000
3.0054000000 2.9483000000 1.5576000000
3.0052000000 0.7874000000 0.5827000000
3.0051000000 4.9045000000 0.5202000000
3.0050000000 1.6407000000 1.0346000000
3.0049000000 2.8417000000 1.6020000000
3.0049000000 3.8847000000 1.0578000000
3.0048000000 1.1211000000 0.7662000000
3.0048000000 1.7492000000 1.0968000000
3.0046000000 1.5344000000 0.9823000000
3.0045000000 3.3317000000 1.3533000000
3.0045000000 4.1878000000 0.8981000000
3.0043000000 0.4569000000 0.3965000000
3.0043000000 1.0596000000 0.7305000000
3.0042000000 4.5390000000 0.7130000000
3.0041000000 3.9979000000 0.9934000000
3.0038000000 2.0893000000 1.2766000000
3.0037000000 1.0236000000 0.7094000000
3.0036000000 2.5635000000 1.5195000000
3.0035000000 0.9095000000 0.6498000000
3.0034000000 0.7630000000 0.5711000000
3.0032000000 3.0820000000 1.4817000000
3.0032000000 3.5902000000 1.2130000000
3.0031000000 3.3634000000 1.3406000000
3.0030000000 2.0922000000 1.2771000000
3.0029000000 0.4713000000 0.4141000000
3.0028000000 2.5884000000 1.5365000000
3.0028000000 0.5177000000 0.4393000000
3.0027000000 3.9952000000 1.0029000000
3.0026000000 1.9580000000 1.2051000000
3.0022000000 4.8587000000 0.5479000000
3.0021000000 5.0547000000 0.4453000000
3.0020000000 2.5314000000 1.5038000000
3.0019000000 2.3881000000 1.4278000000
3.0018000000 0.1518000000 0.1385000000
3.0015000000 3.1869000000 1.4263000000
3.0014000000 5.2061000000 0.3452000000
3.0014000000 4.5810000000 0.6954000000
3.0013000000 1.2213000000 0.8147000000
3.0011000000 0.6054000000 0.4889000000
3.0010000000 4.5035000000 0.7354000000
3.0008000000 3.1760000000 1.4361000000
3.0007000000 0.7662000000 0.5792000000
3.0006000000 1.4213000000 0.9279000000
3.0006000000 4.3016000000 0.8406000000
3.0005000000 0.2230000000 0.2121000000
3.0005000000 1.3723000000 0.8932000000
3.0003000000 3.1674000000 1.4424000000
3.0000000000 0.7142000000 0.5495000000
2.9999000000 3.6889000000 1.1644000000
2.9998000000 1.2981000000 0.8640000000
2.9996000000 4.1480000000 0.9286000000
2.9996000000 1.6899000000 1.0623000000
2.9988000000 2.2510000000 1.3619000000
2.9976000000 0.0004000000 0.0528000000
2.9970000000 1.0093000000 0.7093000000
2.9966000000 3.2149000000 1.4220000000
2.9961000000 1.3884000000 0.9111000000
2.9958000000 3.0422000000 1.5110000000
2.7661000000 2.9393000000 1.7763000000
2.7628000000 4.8682000000 0.6972000000
2.7605000000 1.4369000000 1.1539000000
2.7602000000 4.4170000000 1.0019000000
2.7600000000 4.4420000000 0.9823000000
2.7599000000 4.0039000000 1.2253000000
2.7595000000 5.2745000000 0.2924000000
2.7588000000 3.1836000000 1.6543000000
2.7585000000 5.2399000000 0.3278000000
2.7583000000 3.0741000000 1.7123000000
2.7577000000 4.0240000000 1.2132000000
2.7576000000 1.8539000000 1.3794000000
2.7569000000 3.7181000000 1.3764000000
2.7565000000 3.2493000000 1.6172000000
2.7565000000 5.3737000000 0.1835000000
2.7564000000 5.3760000000 0.1799000000
2.7563000000 1.6399000000 1.2649000000
2.7563000000 1.7137000000 1.2998000000
2.7563000000 4.4675000000 0.9865000000
2.7561000000 3.3788000000 1.5547000000
2.7558000000 3.6108000000 1.4278000000
2.7557000000 2.2956000000 1.6081000000
2.7556000000 3.4241000000 1.5273000000
2.7555000000 2.4287000000 1.6757000000
2.7549000000 5.5450000000 0.0771000000
2.7547000000 4.8742000000 0.6988000000
2.7544000000 0.8855000000 0.8486000000
2.7543000000 5.1325000000 0.4381000000
2.7539000000 2.8716000000 1.8165000000
2.7537000000 2.5487000000 1.7483000000
2.7535000000 4.8205000000 0.7517000000
2.7535000000 4.4158000000 1.0094000000
2.7534000000 3.8959000000 1.2829000000
2.7532000000 4.7022000000 0.8361000000
2.7530000000 1.6527000000 1.2743000000
2.7529000000 3.6908000000 1.3897000000
2.7529000000 5.1477000000 0.4214000000
2.7528000000 5.1581000000 0.4170000000
2.7523000000 1.8895000000 1.3967000000
2.7523000000 0.4847000000 0.4899000000
2.7522000000 0.2019000000 0.1926000000
2.7522000000 2.0429000000 1.4815000000
2.7521000000 0.4075000000 0.4095000000
2.7518000000 4.2688000000 1.0850000000
2.7517000000 1.7689000000 1.3323000000
2.7515000000 2.1186000000 1.5144000000
2.7514000000 1.9604000000 1.4357000000
2.7513000000 1.6721000000 1.2845000000
2.7508000000 0.9204000000 0.8889000000
2.7507000000 3.0276000000 1.7440000000
2.7507000000 2.6765000000 1.8128000000
2.7503000000 1.1818000000 1.0298000000
2.7503000000 0.1315000000 0.1126000000
2.7502000000 0.4403000000 0.4391000000
2.7500000000 1.7639000000 1.3378000000
2.7496000000 1.4791000000 1.1815000000
2.7493000000 2.5726000000 1.7569000000
2.7491000000 1.8841000000 1.3987000000
2.7483000000 4.7216000000 0.8360000000
2.7468000000 2.6693000000 1.8134000000
2.7462000000 1.4628000000 1.1752000000
2.7447000000 3.0951000000 1.7123000000
2.5098000000 1.7096000000 1.5210000000
2.5095000000 4.1888000000 1.3494000000
2.5093000000 2.2391000000 1.8015000000
2.5089000000 2.7691000000 2.0624000000
2.5085000000 4.3689000000 1.2249000000
2.5079000000 5.5857000000 0.0376000000
2.5080000000 5.0133000000 0.5655000000
2.5075000000 2.7823000000 2.0751000000
2.5074000000 0.6321000000 0.6412000000
2.5073000000 0.7376000000 0.7573000000
2.5070000000 5.0360000000 0.5410000000
2.5068000000 2.1087000000 1.7351000000
2.5069000000 1.3110000000 1.3015000000
2.5064000000 2.7946000000 2.0692000000
2.5063000000 1.9432000000 1.6515000000
2.5062000000 1.7647000000 1.5571000000
2.5061000000 3.3359000000 1.8047000000
2.5059000000 4.6170000000 0.9825000000
2.5059000000 0.9884000000 1.0234000000
2.5056000000 1.3380000000 1.3257000000
2.5053000000 5.3953000000 0.1627000000
2.5052000000 2.8281000000 2.0489000000
2.5051000000 5.0748000000 0.5088000000
2.5050000000 3.0908000000 1.9329000000
2.5049000000 4.9776000000 0.6017000000
2.5048000000 2.9679000000 2.0006000000
2.5047000000 5.1244000000 0.4523000000
2.5047000000 2.3798000000 1.8814000000
2.5046000000 4.8788000000 0.7022000000
2.5045000000 1.4372000000 1.3794000000
2.5045000000 1.2558000000 1.2721000000
2.5044000000 0.5992000000 0.6114000000
2.5042000000 3.4480000000 1.7496000000
2.5040000000 0.9439000000 0.9738000000
2.5040000000 4.8360000000 0.7543000000
2.5040000000 4.0000000000 1.4565000000
2.5039000000 3.4755000000 1.7245000000
2.5036000000 5.4345000000 0.1207000000
2.5034000000 3.2129000000 1.8675000000
2.5032000000 3.0109000000 1.9785000000
2.5031000000 3.4215000000 1.7587000000
2.5031000000 4.0230000000 1.4440000000
2.5030000000 0.9651000000 0.9972000000
2.5030000000 1.8430000000 1.6065000000
2.5030000000 2.0390000000 1.6999000000
2.5028000000 1.4735000000 1.4117000000
2.5028000000 4.7913000000 0.8063000000
2.5027000000 3.0174000000 1.9704000000
2.5025000000 1.3780000000 1.3534000000
2.5025000000 0.0378000000 0.0931000000
2.5025000000 4.4975000000 1.1040000000
2.5023000000 0.9160000000 0.9474000000
2.5023000000 2.1392000000 1.7520000000
2.5021000000 3.3405000000 1.8042000000
2.5020000000 1.0912000000 1.1273000000
2.5019000000 4.3527000000 1.2399000000
2.5017000000 3.8338000000 1.5398000000
2.5013000000 1.3482000000 1.3395000000
2.5013000000 0.6488000000 0.6649000000
2.5011000000 1.5016000000 1.4262000000
2.5010000000 2.8500000000 2.0662000000
2.5010000000 1.9173000000 1.6441000000
2.5005000000 0.6424000000 0.6555000000
2.5005000000 5.0444000000 0.5266000000
2.5001000000 1.6034000000 1.4776000000
2.4998000000 0.2216000000 0.2112000000
2.4992000000 3.2648000000 1.8495000000
2.4990000000 1.3307000000 1.3206000000
2.4988000000 1.4701000000 1.4125000000
2.4987000000 4.6588000000 0.9452000000
2.4982000000 0.2738000000 0.2639000000
2.4981000000 0.4971000000 0.4989000000
2.4971000000 1.4028000000 1.3686000000
2.4963000000 0.8722000000 0.8974000000
2.4958000000 2.8799000000 2.0485000000
2.2645000000 5.0435000000 0.5342000000
2.2605000000 1.8703000000 1.8389000000
2.2598000000 4.0638000000 1.5704000000
2.2595000000 5.5563000000 0.0672000000
2.2595000000 1.6955000000 1.7288000000
2.2593000000 4.5233000000 1.0818000000
2.2592000000 4.9003000000 0.6842000000
2.2590000000 0.2145000000 0.2013000000
2.2586000000 3.2933000000 2.0496000000
2.2578000000 0.4297000000 0.4316000000
2.2575000000 0.8343000000 0.8554000000
2.2574000000 3.9746000000 1.6435000000
2.2573000000 0.0549000000 0.1054000000
2.2572000000 1.2783000000 1.3298000000
2.2571000000 3.5822000000 1.9002000000
2.2570000000 4.9837000000 0.5995000000
2.2569000000 1.8185000000 1.8146000000
2.2568000000 3.2201000000 2.0961000000
2.2565000000 5.3595000000 0.1988000000
2.2563000000 5.5592000000 0.0652000000
2.2564000000 1.4051000000 1.4591000000
2.2560000000 3.8059000000 1.7724000000
2.2559000000 3.7729000000 1.8022000000
2.2556000000 5.1579000000 0.4098000000
2.2555000000 4.5651000000 1.0288000000
2.2553000000 5.1121000000 0.4542000000
2.2552000000 4.8354000000 0.7485000000
2.2553000000 2.6828000000 2.2710000000
2.2549000000 1.4196000000 1.4762000000
2.2548000000 1.2455000000 1.2914000000
2.2545000000 2.3796000000 2.1091000000
2.2545000000 2.2114000000 2.0242000000
2.2544000000 2.6957000000 2.2827000000
2.2543000000 0.5893000000 0.5948000000
2.2542000000 3.3545000000 2.0280000000
2.2542000000 2.9323000000 2.2462000000
2.2541000000 0.3526000000 0.3534000000
2.2540000000 0.0725000000 0.0502000000
2.2539000000 4.7058000000 0.8929000000
2.2539000000 2.8434000000 2.2954000000
2.2538000000 2.1438000000 1.9889000000
2.2538000000 4.6468000000 0.9519000000
2.2537000000 2.0323000000 1.9285000000
2.2531000000 0.9888000000 1.0208000000
2.2530000000 4.5640000000 1.0379000000
2.2530000000 5.1691000000 0.3986000000
2.2528000000 3.7401000000 1.8223000000
2.2524000000 2.1219000000 1.9782000000
2.2524000000 2.7055000000 2.2825000000
2.2523000000 2.1388000000 1.9842000000
2.2523000000 3.7821000000 1.8029000000
2.2522000000 3.5876000000 1.9035000000
2.2521000000 5.4235000000 0.1269000000
2.2520000000 4.9683000000 0.6097000000
2.2516000000 5.1502000000 0.4185000000
2.2514000000 0.9607000000 0.9927000000
2.2512000000 0.6087000000 0.6236000000
2.2511000000 4.1704000000 1.4552000000
2.2510000000 4.4557000000 1.1547000000
2.2509000000 1.3277000000 1.3799000000
2.2507000000 5.0482000000 0.5310000000
2.2505000000 2.1901000000 2.0138000000
2.2505000000 1.0915000000 1.1269000000
2.2503000000 4.0289000000 1.6020000000
2.2500000000 0.4374000000 0.4371000000
2.2498000000 4.0058000000 1.6263000000
2.2498000000 0.0425000000 0.0975000000
2.2494000000 3.4435000000 1.9836000000
2.2486000000 1.3210000000 1.3704000000
2.2483000000 1.0590000000 1.0959000000
2.2473000000 2.3684000000 2.1106000000
2.2468000000 1.0094000000 1.0480000000
2.0120000000 4.3945000000 1.2167000000
2.0119000000 4.9430000000 0.6424000000
2.0111000000 4.7226000000 0.8723000000
2.0107000000 5.1311000000 0.4405000000
2.0103000000 4.9030000000 0.6820000000
2.0098000000 3.9927000000 1.6332000000
2.0090000000 2.3001000000 2.2915000000
2.0089000000 1.8927000000 1.9763000000
2.0085000000 0.0935000000 0.0759000000
2.0084000000 4.6857000000 0.9124000000
2.0083000000 5.1600000000 0.4082000000
2.0082000000 4.4856000000 1.1204000000
2.0075000000 5.3922000000 0.1687000000
2.0072000000 2.7144000000 2.5151000000
2.0071000000 3.2982000000 2.2738000000
2.0070000000 4.2347000000 1.3873000000
2.0069000000 4.7613000000 0.8315000000
2.0065000000 0.7942000000 0.8166000000
2.0063000000 5.3827000000 0.1751000000
2.0062000000 2.6327000000 2.4684000000
2.0062000000 4.7937000000 0.7956000000
2.0060000000 3.0205000000 2.4274000000
2.0055000000 2.5440000000 2.4260000000
2.0052000000 5.1397000000 0.4330000000
2.0050000000 4.4581000000 1.1462000000
2.0050000000 3.2925000000 2.2844000000
2.0047000000 0.1523000000 0.1384000000
2.0046000000 1.4149000000 1.4755000000
2.0045000000 4.9866000000 0.5965000000
2.0046000000 3.1696000000 2.3516000000
2.0045000000 4.2370000000 1.3846000000
2.0043000000 3.9578000000 1.6803000000
2.0041000000 2.8349000000 2.5153000000
2.0040000000 1.6842000000 1.7522000000
2.0041000000 4.1885000000 1.4359000000
2.0040000000 3.2711000000 2.2991000000
2.0038000000 4.7568000000 0.8302000000
2.0038000000 3.4047000000 2.2101000000
2.0038000000 1.5294000000 1.5921000000
2.0037000000 4.6059000000 0.9936000000
2.0035000000 1.5689000000 1.6314000000
2.0035000000 3.6716000000 1.9782000000
2.0034000000 5.2002000000 0.3674000000
2.0034000000 3.1945000000 2.3424000000
2.0031000000 2.5964000000 2.4540000000
2.0032000000 0.6624000000 0.6745000000
2.0030000000 0.6616000000 0.6797000000
2.0030000000 0.6681000000 0.6818000000
2.0029000000 3.2155000000 2.3228000000
2.0028000000 0.0480000000 0.1076000000
2.0026000000 0.0744000000 0.0537000000
2.0025000000 2.6877000000 2.5050000000
2.0022000000 2.0293000000 2.1005000000
2.0023000000 1.5661000000 1.6264000000
2.0022000000 5.1371000000 0.4372000000
2.0021000000 0.4764000000 0.4754000000
2.0020000000 4.9703000000 0.6149000000
2.0018000000 2.6206000000 2.4735000000
2.0018000000 2.7134000000 2.5162000000
2.0017000000 0.0376000000 0.0914000000
2.0016000000 0.4808000000 0.4835000000
2.0015000000 1.4553000000 1.5103000000
2.0013000000 2.5876000000 2.4524000000
2.0013000000 0.7160000000 0.7235000000
2.0010000000 4.7812000000 0.8131000000
2.0009000000 1.2399000000 1.2812000000
2.0008000000 4.1922000000 1.4355000000
2.0007000000 0.6334000000 0.6420000000
2.0005000000 3.8904000000 1.7432000000
2.0004000000 3.6832000000 1.9691000000
2.0003000000 2.5266000000 2.4174000000
2.0000000000 0.5318000000 0.5372000000
2.0000000000 1.1712000000 1.2172000000
1.9999000000 3.0821000000 2.3999000000
1.9993000000 1.7867000000 1.8671000000
1.9990000000 0.5018000000 0.5050000000
1.9986000000 1.3379000000 1.3912000000
1.9982000000 1.1180000000 1.1598000000
1.9981000000 1.3950000000 1.4536000000
1.9978000000 1.6162000000 1.6877000000
1.9977000000 5.0541000000 0.5253000000
1.9963000000 4.6129000000 0.9835000000
1.9947000000 2.9337000000 2.4863000000
1.7602000000 4.5536000000 1.0494000000
1.7596000000 2.1467000000 2.2459000000
1.7592000000 1.7912000000 1.8711000000
1.7590000000 5.5791000000 0.0446000000
1.7591000000 4.2832000000 1.3292000000
1.7605000000 3.8542000000 1.7872000000
1.7584000000 3.7840000000 1.8650000000
1.7581000000 5.4246000000 0.1332000000
1.7582000000 5.2475000000 0.3083000000
1.7579000000 5.2692000000 0.2957000000
1.7575000000 3.3391000000 2.3327000000
1.7575000000 0.7027000000 0.7176000000
1.7575000000 1.5374000000 1.5992000000
1.7572000000 5.5615000000 0.0605000000
1.7571000000 0.0746000000 0.0591000000
1.7570000000 3.9505000000 1.6867000000
1.7569000000 2.5923000000 2.6613000000
1.7568000000 4.7895000000 0.8076000000
1.7568000000 3.3239000000 2.3513000000
1.7566000000 5.1247000000 0.4466000000
1.7566000000 0.4101000000 0.4117000000
1.7565000000 4.4187000000 1.1928000000
1.7565000000 4.5715000000 1.0234000000
1.7560000000 3.3670000000 2.3026000000
1.7556000000 3.8013000000 1.8412000000
1.7555000000 3.2596000000 2.4165000000
1.7555000000 2.8545000000 2.7432000000
1.7555000000 3.6326000000 2.0187000000
1.7553000000 4.4390000000 1.1681000000
1.7551000000 0.3206000000 0.3170000000
1.7549000000 4.0766000000 1.5534000000
1.7546000000 2.4374000000 2.5336000000
1.7546000000 4.6201000000 0.9765000000
1.7545000000 5.0721000000 0.5035000000
1.7545000000 3.5907000000 2.0674000000
1.7542000000 2.0656000000 2.1597000000
1.7538000000 5.5122000000 0.1039000000
1.7538000000 4.5384000000 1.0695000000
1.7538000000 1.6112000000 1.6761000000
1.7537000000 1.8608000000 1.9419000000
1.7536000000 3.0555000000 2.6155000000
1.7533000000 5.0688000000 0.5062000000
1.7533000000 4.2920000000 1.3214000000
1.7532000000 3.9267000000 1.7131000000
1.7532000000 4.1436000000 1.4739000000
1.7531000000 5.3627000000 0.1957000000
1.7530000000 0.6384000000 0.6535000000
1.7528000000 3.1922000000 2.4833000000
1.7528000000 3.1107000000 2.5500000000
1.7523000000 5.3160000000 0.2419000000
1.7523000000 1.2586000000 1.3066000000
1.7523000000 1.0706000000 1.1065000000
1.7517000000 1.2784000000 1.3272000000
1.7515000000 2.8250000000 2.7487000000
1.7512000000 5.1620000000 0.4073000000
1.7511000000 2.2832000000 2.3895000000
1.7508000000 1.4678000000 1.5319000000
1.7506000000 0.9285000000 0.9586000000
1.7505000000 2.4566000000 2.5537000000
1.7503000000 3.0967000000 2.5742000000
1.7501000000 4.5054000000 1.1005000000
1.7496000000 3.0308000000 2.6422000000
1.7497000000 1.6639000000 1.7360000000
1.7495000000 5.2560000000 0.3053000000
1.7493000000 1.2221000000 1.2642000000
1.7490000000 3.0022000000 2.6523000000
1.7488000000 0.7912000000 0.8128000000
1.7484000000 3.4399000000 2.2224000000
1.7480000000 3.7359000000 1.9180000000
1.7478000000 1.0754000000 1.1094000000
1.7474000000 0.8456000000 0.8671000000
1.7473000000 1.9722000000 2.0586000000
1.7472000000 1.1812000000 1.2213000000
1.5145000000 3.6509000000 2.0015000000
1.5121000000 5.3847000000 0.1716000000
1.5107000000 3.9045000000 1.7337000000
1.5105000000 2.1179000000 2.2134000000
1.5106000000 4.0850000000 1.5408000000
1.5104000000 4.3334000000 1.2830000000
1.5100000000 3.4834000000 2.1801000000
1.5098000000 5.5371000000 0.0867000000
1.5092000000 5.3346000000 0.2277000000
1.5091000000 3.8260000000 1.8161000000
1.5089000000 1.8281000000 1.9035000000
1.5088000000 2.8743000000 2.7617000000
1.5087000000 1.8374000000 1.9134000000
1.5084000000 3.2246000000 2.4511000000
1.5083000000 4.1578000000 1.4696000000
1.5080000000 2.7721000000 2.8395000000
1.5079000000 2.2559000000 2.3581000000
1.5080000000 3.8629000000 1.7809000000
1.5075000000 3.1327000000 2.5464000000
1.5075000000 2.0056000000 2.0954000000
1.5073000000 5.3404000000 0.2184000000
1.5071000000 5.0994000000 0.4681000000
1.5070000000 5.1072000000 0.4671000000
1.5066000000 0.4559000000 0.4583000000
1.5064000000 4.7277000000 0.8718000000
1.5061000000 2.8526000000 2.7804000000
1.5059000000 3.4592000000 2.2029000000
1.5059000000 3.3319000000 2.3442000000
1.5058000000 1.4404000000 1.4969000000
1.5058000000 0.1314000000 0.1119000000
1.5056000000 3.3806000000 2.2890000000
1.5053000000 2.4720000000 2.5921000000
1.5052000000 0.4884000000 0.4909000000
1.5047000000 0.9449000000 0.9723000000
1.5048000000 3.0549000000 2.6174000000
1.5047000000 0.2205000000 0.2126000000
1.5046000000 2.3662000000 2.4762000000
1.5045000000 4.5326000000 1.0759000000
1.5045000000 0.9250000000 0.9533000000
1.5042000000 2.6412000000 2.7296000000
1.5043000000 4.9375000000 0.6494000000
1.5040000000 0.3100000000 0.3023000000
1.5039000000 3.1731000000 2.5080000000
1.5037000000 0.9504000000 0.9839000000
1.5036000000 0.9933000000 1.0264000000
1.5035000000 0.2134000000 0.2006000000
1.5034000000 0.3837000000 0.3853000000
1.5032000000 2.8713000000 2.7663000000
1.5032000000 2.7813000000 2.8480000000
1.5030000000 3.7088000000 1.9441000000
1.5028000000 3.2886000000 2.3815000000
1.5027000000 0.7464000000 0.7651000000
1.5024000000 0.4698000000 0.4725000000
1.5023000000 2.1076000000 2.2018000000
1.5022000000 3.2025000000 2.4745000000
1.5022000000 0.8391000000 0.8632000000
1.5019000000 3.0153000000 2.6557000000
1.5015000000 3.6409000000 2.0181000000
1.5014000000 1.9247000000 2.0072000000
1.5013000000 1.0169000000 1.0452000000
1.5013000000 1.0516000000 1.0879000000
1.5012000000 4.9645000000 0.6194000000
1.5011000000 2.0897000000 2.1778000000
1.5010000000 1.7898000000 1.8651000000
1.5010000000 4.6229000000 0.9819000000
1.5010000000 1.2997000000 1.3456000000
1.5008000000 4.8227000000 0.7597000000
1.5007000000 2.2181000000 2.3105000000
1.5005000000 1.9043000000 1.9860000000
1.5003000000 1.7460000000 1.8129000000
1.5001000000 3.5170000000 2.1485000000
1.5000000000 2.8152000000 2.8333000000
1.4998000000 3.4332000000 2.2338000000
1.4998000000 4.7975000000 0.7921000000
1.4997000000 0.4201000000 0.4164000000
1.4996000000 0.3434000000 0.3418000000
1.4995000000 4.4684000000 1.1337000000
1.4995000000 2.2788000000 2.3810000000
1.4994000000 0.0920000000 0.0749000000
1.4994000000 0.8106000000 0.8251000000
1.4990000000 1.1492000000 1.1889000000
1.4986000000 0.8196000000 0.8397000000
1.4986000000 0.7452000000 0.7590000000
1.4985000000 2.3688000000 2.4756000000
1.4976000000 5.3083000000 0.2521000000
1.4972000000 0.5322000000 0.5376000000
1.4962000000 2.4795000000 2.5958000000
1.4954000000 4.2657000000 1.3586000000
1.2628000000 5.3482000000 0.2101000000
1.2613000000 3.4961000000 2.1626000000
1.2606000000 3.4836000000 2.1664000000
1.2605000000 5.3193000000 0.2448000000
1.2600000000 4.5418000000 1.0658000000
1.2600000000 4.0181000000 1.6162000000
1.2599000000 1.4197000000 1.4762000000
1.2598000000 2.0199000000 2.1043000000
1.2598000000 2.4832000000 2.4363000000
1.2595000000 4.3881000000 1.2268000000
1.2593000000 5.5013000000 0.0523000000
1.2590000000 2.4976000000 2.4416000000
1.2587000000 5.3954000000 0.1624000000
1.2582000000 4.7516000000 0.8389000000
1.2580000000 2.4366000000 2.4141000000
1.2575000000 2.7014000000 2.5502000000
1.2576000000 0.5227000000 0.5346000000
1.2575000000 2.3311000000 2.3569000000
1.2574000000 0.5852000000 0.5940000000
1.2571000000 2.9694000000 2.4998000000
1.2568000000 5.4406000000 0.1189000000
1.2567000000 2.3814000000 2.3843000000
1.2566000000 3.5552000000 2.1010000000
1.2564000000 2.8397000000 2.5583000000
1.2565000000 4.1130000000 1.5154000000
1.2563000000 2.5464000000 2.4667000000
1.2561000000 5.1260000000 0.4480000000
1.2559000000 3.6417000000 2.0084000000
1.2559000000 1.0595000000 1.1015000000
1.2555000000 0.6796000000 0.6912000000
1.2554000000 1.9171000000 1.9958000000
1.2548000000 3.0828000000 2.4317000000
1.2546000000 2.2857000000 2.3279000000
1.2545000000 1.5246000000 1.5842000000
1.2545000000 4.2309000000 1.3915000000
1.2545000000 2.3478000000 2.3635000000
1.2543000000 2.8206000000 2.5565000000
1.2542000000 4.3607000000 1.2534000000
1.2541000000 0.4958000000 0.5016000000
1.2541000000 2.1954000000 2.2665000000
1.2540000000 2.5977000000 2.4920000000
1.2538000000 3.3373000000 2.2883000000
1.2538000000 3.6951000000 1.9558000000
1.2537000000 3.4060000000 2.2461000000
1.2534000000 4.9770000000 0.6015000000
1.2534000000 3.9203000000 1.7183000000
1.2535000000 1.1058000000 1.1497000000
1.2532000000 5.5117000000 0.1119000000
1.2531000000 1.3650000000 1.4184000000
1.2530000000 5.4641000000 0.0930000000
1.2530000000 4.6575000000 0.9384000000
1.2529000000 2.3435000000 2.3639000000
1.2528000000 0.2405000000 0.2276000000
1.2528000000 2.4376000000 2.4057000000
1.2526000000 0.9005000000 0.9290000000
1.2526000000 0.8102000000 0.8282000000
1.2525000000 0.6737000000 0.6893000000
1.2525000000 5.5837000000 0.0376000000
1.2524000000 3.0811000000 2.4354000000
1.2523000000 2.7269000000 2.5581000000
1.2523000000 0.8988000000 0.9263000000
1.2521000000 3.6032000000 2.0526000000
1.2521000000 4.0711000000 1.5573000000
1.2520000000 2.1377000000 2.2153000000
1.2520000000 4.0930000000 1.5390000000
1.2519000000 1.8810000000 1.9639000000
1.2518000000 2.0415000000 2.1355000000
1.2516000000 4.7464000000 0.8510000000
1.2515000000 0.6900000000 0.7111000000
1.2515000000 4.3756000000 1.2376000000
1.2514000000 0.8246000000 0.8488000000
1.2508000000 3.1589000000 2.3940000000
1.2507000000 0.8007000000 0.8192000000
1.2506000000 2.4170000000 2.3938000000
1.2504000000 2.2577000000 2.2972000000
1.2504000000 1.2836000000 1.3349000000
1.2499000000 0.2425000000 0.2337000000
1.2497000000 2.4770000000 2.4255000000
1.2490000000 4.8865000000 0.7002000000
1.2487000000 0.4650000000 0.4655000000
1.2485000000 2.7103000000 2.5475000000
1.2478000000 4.6043000000 0.9944000000
1.2477000000 0.8369000000 0.8633000000
1.2475000000 5.1954000000 0.3745000000
1.2472000000 0.9647000000 0.9933000000
1.2462000000 2.7107000000 2.5467000000
1.2456000000 1.4633000000 1.5184000000
1.2449000000 0.5339000000 0.5428000000
1.0119000000 2.5927000000 2.2671000000
1.0110000000 1.3679000000 1.4181000000
1.0101000000 2.1093000000 2.0193000000
1.0096000000 0.7575000000 0.7823000000
1.0093000000 5.1241000000 0.4483000000
1.0092000000 3.4071000000 2.0420000000
1.0084000000 4.6288000000 0.9698000000
1.0078000000 4.5712000000 1.0364000000
1.0077000000 0.3565000000 0.3537000000
1.0074000000 4.1311000000 1.4971000000
1.0073000000 3.1786000000 2.1642000000
1.0070000000 4.0211000000 1.6143000000
1.0070000000 3.8960000000 1.7249000000
1.0069000000 3.2481000000 2.1201000000
1.0069000000 1.9468000000 1.9237000000
1.0068000000 1.2909000000 1.3367000000
1.0066000000 2.1038000000 2.0055000000
1.0065000000 3.2626000000 2.1107000000
1.0065000000 3.6991000000 1.8818000000
1.0064000000 5.0292000000 0.5482000000
1.0062000000 1.7841000000 1.8217000000
1.0061000000 4.6074000000 0.9926000000
1.0056000000 0.8908000000 0.9172000000
1.0056000000 3.3773000000 2.0528000000
1.0055000000 2.7415000000 2.3246000000
1.0053000000 3.2437000000 2.1251000000
1.0050000000 2.2901000000 2.1007000000
1.0050000000 2.3866000000 2.1589000000
1.0049000000 3.2664000000 2.1104000000
1.0045000000 1.0571000000 1.0913000000
1.0045000000 5.4706000000 0.0844000000
1.0044000000 2.9235000000 2.2951000000
1.0043000000 5.0776000000 0.4940000000
1.0043000000 2.5962000000 2.2694000000
1.0043000000 1.7230000000 1.7728000000
1.0040000000 2.9760000000 2.2681000000
1.0038000000 3.6801000000 1.8937000000
1.0038000000 0.2631000000 0.2541000000
1.0035000000 2.0418000000 1.9692000000
1.0036000000 2.9669000000 2.2713000000
1.0035000000 4.3723000000 1.2412000000
1.0035000000 3.2164000000 2.1363000000
1.0033000000 0.0088000000 0.0664000000
1.0030000000 2.2168000000 2.0652000000
1.0030000000 4.3786000000 1.2310000000
1.0029000000 3.6526000000 1.9059000000
1.0027000000 1.1393000000 1.1814000000
1.0025000000 0.2851000000 0.2770000000
1.0023000000 2.6353000000 2.2867000000
1.0023000000 0.1346000000 0.1214000000
1.0021000000 2.2069000000 2.0489000000
1.0021000000 3.8853000000 1.7410000000
1.0020000000 1.2908000000 1.3444000000
1.0018000000 0.3533000000 0.3504000000
1.0017000000 2.6733000000 2.3021000000
1.0016000000 2.7609000000 2.3326000000
1.0016000000 1.2841000000 1.3364000000
1.0015000000 1.1270000000 1.1645000000
1.0014000000 0.7612000000 0.7816000000
1.0013000000 2.0951000000 1.9965000000
1.0013000000 0.3299000000 0.3227000000
1.0008000000 2.5588000000 2.2454000000
1.0007000000 0.0618000000 0.0377000000
1.0003000000 1.5407000000 1.6013000000
1.0002000000 2.7984000000 2.3386000000
0.9998000000 2.0913000000 1.9984000000
0.9997000000 2.8838000000 2.3070000000
0.9995000000 3.7902000000 1.8154000000
0.9995000000 1.2484000000 1.2916000000
0.9994000000 0.1721000000 0.1567000000
0.9989000000 0.3816000000 0.3813000000
0.9987000000 1.9380000000 1.9144000000
0.9986000000 3.5358000000 1.9695000000
0.9985000000 1.0282000000 1.0682000000
0.9985000000 0.6709000000 0.6802000000
0.9984000000 3.1086000000 2.1919000000
0.9982000000 1.0485000000 1.0840000000
0.9981000000 1.6531000000 1.7055000000
0.9978000000 1.5688000000 1.6296000000
0.9976000000 4.4738000000 1.1311000000
0.9971000000 1.6678000000 1.7183000000
0.9970000000 0.7643000000 0.7792000000
0.9966000000 0.0759000000 0.0605000000
0.9964000000 0.9211000000 0.9539000000
0.9937000000 1.5474000000 1.6132000000
0.9927000000 2.9434000000 2.2733000000
0.7590000000 5.2273000000 0.3410000000
0.7588000000 3.5319000000 1.7414000000
0.7583000000 4.4692000000 1.1388000000
0.7583000000 2.4837000000 1.9780000000
0.7581000000 3.0139000000 2.0155000000
0.7582000000 2.5050000000 1.9896000000
0.7576000000 5.1978000000 0.3712000000
0.7575000000 5.0028000000 0.5752000000
0.7573000000 0.3118000000 0.3101000000
0.7572000000 0.9932000000 1.0232000000
0.7571000000 5.3109000000 0.2457000000
0.7568000000 3.8008000000 1.6009000000
0.7568000000 4.0305000000 1.4811000000
0.7565000000 4.9879000000 0.5882000000
0.7563000000 0.6133000000 0.6256000000
0.7562000000 4.6824000000 0.9129000000
0.7560000000 0.2685000000 0.2591000000
0.7558000000 1.8292000000 1.6365000000
0.7558000000 3.6654000000 1.6753000000
0.7557000000 4.0583000000 1.4659000000
0.7556000000 0.8320000000 0.8544000000
0.7555000000 2.5292000000 2.0031000000
0.7554000000 5.1101000000 0.4566000000
0.7550000000 0.6029000000 0.6185000000
0.7547000000 2.6462000000 2.0674000000
0.7546000000 3.0509000000 1.9960000000
0.7545000000 5.2414000000 0.3186000000
0.7545000000 4.1434000000 1.4212000000
0.7543000000 2.0652000000 1.7532000000
0.7542000000 3.0970000000 1.9721000000
0.7541000000 2.1940000000 1.8233000000
0.7539000000 4.5362000000 1.0722000000
0.7539000000 2.4529000000 1.9623000000
0.7538000000 2.8863000000 2.0860000000
0.7537000000 3.4132000000 1.8043000000
0.7536000000 2.5228000000 1.9962000000
0.7535000000 4.3821000000 1.2319000000
0.7535000000 4.5709000000 1.0338000000
0.7533000000 2.9185000000 2.0614000000
0.7530000000 1.1255000000 1.1705000000
0.7530000000 3.3921000000 1.8177000000
0.7525000000 2.6563000000 2.0651000000
0.7525000000 2.2172000000 1.8334000000
0.7525000000 4.2744000000 1.3237000000
0.7523000000 3.0127000000 2.0154000000
0.7523000000 3.0053000000 2.0178000000
0.7521000000 0.4893000000 0.4939000000
0.7521000000 2.1297000000 1.7856000000
0.7520000000 4.2541000000 1.3476000000
0.7518000000 5.1527000000 0.4212000000
0.7517000000 2.7106000000 2.0890000000
0.7516000000 2.8268000000 2.0976000000
0.7513000000 0.7719000000 0.7897000000
0.7512000000 3.8762000000 1.5604000000
0.7510000000 4.5852000000 1.0157000000
0.7505000000 1.0293000000 1.0599000000
0.7504000000 3.6158000000 1.6955000000
0.7500000000 2.3267000000 1.8885000000
0.7500000000 2.7430000000 2.0945000000
0.7500000000 1.6567000000 1.5443000000
0.7494000000 3.6199000000 1.6987000000
0.7492000000 2.2810000000 1.8650000000
0.7486000000 2.3828000000 1.9195000000
0.7482000000 1.6026000000 1.5073000000
0.7479000000 1.3757000000 1.3751000000
0.7478000000 0.5041000000 0.5068000000
0.7477000000 1.3958000000 1.3920000000
0.7475000000 3.4653000000 1.7698000000
0.7474000000 4.0429000000 1.4648000000
0.7469000000 0.4475000000 0.4497000000
0.7466000000 4.0412000000 1.4681000000
0.7465000000 3.7577000000 1.6147000000
0.7434000000 0.0038000000 0.0594000000
0.5146000000 3.8879000000 1.3371000000
0.5138000000 5.2223000000 0.3473000000
0.5123000000 4.7752000000 0.7977000000
0.5118000000 3.8388000000 1.3569000000
0.5108000000 3.9017000000 1.3210000000
0.5097000000 5.5043000000 0.0427000000
0.5093000000 1.2985000000 1.1288000000
0.5088000000 5.4983000000 0.0595000000
0.5087000000 0.6744000000 0.6853000000
0.5085000000 4.3626000000 1.0784000000
0.5082000000 3.5718000000 1.4955000000
0.5078000000 2.6550000000 1.8451000000
0.5077000000 3.9254000000 1.3102000000
0.5073000000 5.3216000000 0.2443000000
0.5065000000 2.1411000000 1.5650000000
0.5063000000 0.3166000000 0.3071000000
0.5061000000 4.8419000000 0.7421000000
0.5060000000 0.0956000000 0.0798000000
0.5060000000 1.0635000000 1.0043000000
0.5059000000 3.0455000000 1.7730000000
0.5059000000 3.6668000000 1.4412000000
0.5058000000 3.4611000000 1.5524000000
0.5058000000 3.1765000000 1.7021000000
0.5057000000 0.9697000000 0.9338000000
0.5056000000 2.2407000000 1.6189000000
0.5052000000 4.4863000000 1.0095000000
0.5051000000 3.7566000000 1.3953000000
0.5050000000 1.3261000000 1.1365000000
0.5048000000 4.7027000000 0.8743000000
0.5046000000 4.4976000000 1.0042000000
0.5045000000 0.6671000000 0.6788000000
0.5044000000 0.4769000000 0.4783000000
0.5043000000 0.3739000000 0.3659000000
0.5042000000 3.9880000000 1.2716000000
0.5041000000 0.6885000000 0.7009000000
0.5040000000 5.4211000000 0.1347000000
0.5040000000 4.9667000000 0.6134000000
0.5038000000 5.0875000000 0.4814000000
0.5038000000 2.6564000000 1.8453000000
0.5036000000 3.1898000000 1.6940000000
0.5035000000 2.2697000000 1.6359000000
0.5033000000 1.8437000000 1.4115000000
0.5032000000 4.8264000000 0.7625000000
0.5032000000 1.5221000000 1.2402000000
0.5028000000 2.1005000000 1.5479000000
0.5027000000 4.7228000000 0.8541000000
0.5026000000 2.1347000000 1.5626000000
0.5025000000 0.7715000000 0.7814000000
0.5025000000 2.9903000000 1.7912000000
0.5025000000 5.3021000000 0.2603000000
0.5022000000 4.2748000000 1.1189000000
0.5021000000 4.1870000000 1.1642000000
0.5021000000 3.3280000000 1.6176000000
0.5020000000 1.7840000000 1.3764000000
0.5020000000 1.2362000000 1.0901000000
0.5019000000 3.3602000000 1.6026000000
0.5019000000 4.1673000000 1.1802000000
0.5018000000 0.4243000000 0.4240000000
0.5017000000 0.6774000000 0.6953000000
0.5016000000 1.6559000000 1.3062000000
0.5016000000 3.6864000000 1.4306000000
0.5014000000 0.7484000000 0.7681000000
0.5013000000 4.1332000000 1.1916000000
0.5011000000 1.6234000000 1.2926000000
0.5009000000 4.3500000000 1.0785000000
0.5008000000 4.0802000000 1.2200000000
0.5008000000 2.2180000000 1.6001000000
0.5008000000 0.5779000000 0.5833000000
0.5006000000 2.5805000000 1.7954000000
0.5005000000 4.6177000000 0.9186000000
0.5004000000 0.8755000000 0.8824000000
0.5003000000 0.5884000000 0.5895000000
0.5000000000 2.7690000000 1.8723000000
0.5000000000 5.2301000000 0.3352000000
0.4996000000 1.2648000000 1.0995000000
0.4986000000 0.9256000000 0.9039000000
0.4983000000 2.5606000000 1.7802000000
0.4980000000 0.0170000000 0.0689000000
0.4979000000 1.3608000000 1.1469000000
0.4965000000 0.1843000000 0.1693000000
0.4965000000 0.1214000000 0.1028000000
0.4963000000 3.3749000000 1.5904000000
0.4963000000 3.1054000000 1.7329000000
0.4960000000 1.6575000000 1.3011000000
0.4957000000 0.3801000000 0.3801000000
0.4953000000 3.5480000000 1.5022000000
0.4946000000 0.0224000000 0.0728000000
0.2623000000 5.4524000000 0.1023000000
0.2589000000 4.2893000000 0.8862000000
0.2588000000 1.8657000000 1.1946000000
0.2586000000 4.2809000000 0.8941000000
0.2582000000 4.6559000000 0.6958000000
0.2580000000 2.5380000000 1.5556000000
0.2577000000 5.5166000000 0.1096000000
0.2577000000 2.7376000000 1.6473000000
0.2575000000 4.9718000000 0.5232000000
0.2573000000 3.3929000000 1.3637000000
0.2569000000 5.4535000000 0.1059000000
0.2567000000 1.3270000000 0.9166000000
0.2566000000 4.6814000000 0.6800000000
0.2565000000 5.2679000000 0.2950000000
0.2564000000 0.9780000000 0.7283000000
0.2562000000 1.4294000000 0.9647000000
0.2557000000 5.1244000000 0.4297000000
0.2556000000 2.2836000000 1.4138000000
0.2554000000 1.0199000000 0.7514000000
0.2553000000 4.8110000000 0.6127000000
0.2551000000 1.0768000000 0.7813000000
0.2550000000 2.0492000000 1.2938000000
0.2548000000 5.0162000000 0.4983000000
0.2546000000 1.6021000000 1.0548000000
0.2545000000 2.9118000000 1.6133000000
0.2543000000 0.9690000000 0.7218000000
0.2543000000 1.8954000000 1.2137000000
0.2542000000 1.6344000000 1.0738000000
0.2539000000 1.2448000000 0.8681000000
0.2535000000 2.9092000000 1.6153000000
0.2534000000 3.5985000000 1.2468000000
0.2533000000 4.6403000000 0.7037000000
0.2532000000 4.5992000000 0.7201000000
0.2530000000 4.2936000000 0.8815000000
0.2528000000 2.8757000000 1.6263000000
0.2528000000 0.5498000000 0.4895000000
0.2526000000 4.0735000000 0.9988000000
0.2526000000 3.8578000000 1.1085000000
0.2525000000 2.6126000000 1.5836000000
0.2524000000 2.9166000000 1.6060000000
0.2523000000 1.4869000000 0.9921000000
0.2522000000 2.6521000000 1.6067000000
0.2521000000 3.1654000000 1.4793000000
0.2519000000 4.2068000000 0.9279000000
0.2519000000 0.4593000000 0.4374000000
0.2518000000 0.5149000000 0.4622000000
0.2516000000 2.1924000000 1.3629000000
0.2513000000 5.1768000000 0.3724000000
0.2513000000 4.1152000000 0.9726000000
0.2508000000 0.5308000000 0.4692000000
0.2507000000 1.9354000000 1.2237000000
0.2506000000 4.3849000000 0.8324000000
0.2505000000 2.5827000000 1.5643000000
0.2504000000 2.0218000000 1.2721000000
0.2504000000 2.8195000000 1.6403000000
0.2502000000 0.3419000000 0.3180000000
0.2499000000 3.1489000000 1.4848000000
0.2498000000 4.6223000000 0.7050000000
0.2498000000 3.7802000000 1.1504000000
0.2497000000 2.9632000000 1.5823000000
0.2495000000 5.2558000000 0.3061000000
0.2495000000 1.7302000000 1.1194000000
0.2495000000 4.1734000000 0.9448000000
0.2490000000 0.3368000000 0.3217000000
0.2489000000 0.9784000000 0.7225000000
0.2488000000 4.1550000000 0.9520000000
0.2485000000 3.4109000000 1.3375000000
0.2484000000 1.2713000000 0.8765000000
0.2468000000 0.7219000000 0.5844000000
0.2455000000 4.0470000000 1.0076000000
0.0106000000 4.8178000000 0.3868000000
0.0097000000 5.4395000000 0.0552000000
0.0094000000 4.3300000000 0.6428000000
0.0086000000 0.0415000000 0.0683000000
0.0087000000 1.9208000000 0.9955000000
0.0084000000 5.2665000000 0.1480000000
0.0082000000 3.5722000000 1.0352000000
0.0082000000 0.2234000000 0.1058000000
0.0075000000 1.5257000000 0.7882000000
0.0071000000 5.3133000000 0.1199000000
0.0070000000 4.6234000000 0.4830000000
0.0068000000 2.9647000000 1.3597000000
0.0067000000 5.5522000000 0.0455000000
0.0068000000 5.3651000000 0.0918000000
0.0064000000 2.2290000000 1.1593000000
0.0063000000 3.5023000000 1.0716000000
0.0060000000 3.0537000000 1.3166000000
0.0059000000 0.8739000000 0.4437000000
0.0057000000 3.3936000000 1.1228000000
0.0055000000 2.5613000000 1.3328000000
0.0055000000 5.4329000000 0.0510000000
0.0054000000 5.0643000000 0.2505000000
0.0052000000 2.7236000000 1.4173000000
0.0052000000 1.3479000000 0.6885000000
0.0050000000 3.8271000000 0.9033000000
