5.7598000000 3.2564000000 0.0352000000
5.7562000000 3.1273000000 0.0396000000
5.7552000000 3.5377000000 0.0385000000
5.7546000000 3.0611000000 0.0033000000
5.7536000000 3.2410000000 0.0343000000
5.7526000000 3.3491000000 0.0561000000
5.5075000000 2.8466000000 0.0482000000
5.5067000000 2.8164000000 0.0320000000
5.5061000000 3.9322000000 0.0685000000
5.5053000000 3.6180000000 0.0962000000
5.5050000000 2.9269000000 0.0953000000
5.5040000000 3.5160000000 0.1510000000
5.5028000000 3.7960000000 0.0673000000
5.5026000000 3.6889000000 0.1236000000
5.5013000000 3.3612000000 0.2264000000
5.4993000000 3.2162000000 0.1939000000
5.2623000000 3.9426000000 0.1458000000
5.2588000000 3.4765000000 0.4158000000
5.2583000000 2.6205000000 0.0869000000
5.2581000000 4.2222000000 0.0706000000
5.2554000000 2.9303000000 0.2710000000
5.2550000000 2.2593000000 0.0321000000
5.2549000000 3.8783000000 0.1919000000
5.2547000000 3.3098000000 0.4738000000
5.2540000000 3.4784000000 0.4240000000
5.2534000000 3.9089000000 0.1758000000
5.2519000000 3.2271000000 0.4482000000
5.2512000000 3.0064000000 0.3241000000
5.2510000000 4.2799000000 0.0456000000
5.2501000000 3.5716000000 0.3715000000
5.2482000000 3.1771000000 0.4191000000
5.0125000000 3.7145000000 0.5252000000
5.0091000000 3.6521000000 0.5633000000
5.0081000000 4.4033000000 0.1400000000
5.0078000000 4.0068000000 0.3682000000
5.0075000000 2.6888000000 0.3786000000
5.0070000000 4.2541000000 0.2196000000
5.0067000000 2.1267000000 0.0614000000
5.0064000000 2.9195000000 0.5117000000
5.0060000000 2.5572000000 0.3070000000
5.0055000000 4.2953000000 0.2026000000
5.0049000000 4.5763000000 0.1178000000
5.0043000000 2.0799000000 0.1094000000
5.0036000000 2.2977000000 0.1609000000
5.0035000000 3.8516000000 0.4563000000
5.0028000000 2.1611000000 0.0791000000
5.0021000000 2.7673000000 0.4305000000
5.0016000000 3.8311000000 0.4710000000
5.0011000000 2.5459000000 0.3014000000
5.0010000000 4.2021000000 0.2601000000
5.0005000000 2.7606000000 0.4231000000
5.0000000000 2.8094000000 0.4578000000
4.9989000000 4.3715000000 0.1609000000
4.7650000000 4.8528000000 0.1162000000
4.7602000000 5.2659000000 0.0375000000
4.7585000000 1.6414000000 0.1066000000
4.7579000000 5.3000000000 0.0239000000
4.7577000000 4.2721000000 0.4668000000
4.7570000000 4.3426000000 0.4209000000
4.7568000000 2.4407000000 0.4877000000
4.7567000000 3.2625000000 0.9595000000
4.7564000000 3.7861000000 0.7442000000
4.7560000000 2.1785000000 0.3405000000
4.7559000000 4.1552000000 0.5291000000
4.7554000000 3.4402000000 0.9402000000
4.7552000000 4.3036000000 0.4489000000
4.7545000000 2.3608000000 0.4466000000
4.7544000000 2.8662000000 0.7370000000
4.7540000000 3.1333000000 0.8848000000
4.7537000000 2.7050000000 0.6488000000
4.7533000000 1.5401000000 0.0420000000
4.7528000000 3.6464000000 0.8219000000
4.7523000000 1.9240000000 0.1952000000
4.7520000000 4.1113000000 0.5605000000
4.7515000000 3.4881000000 0.9156000000
4.7510000000 3.4012000000 0.9706000000
4.7502000000 3.5870000000 0.8612000000
4.7500000000 4.5054000000 0.3382000000
4.7452000000 1.8533000000 0.1608000000
4.5114000000 4.0553000000 0.8317000000
4.5096000000 1.3813000000 0.1279000000
4.5091000000 3.1472000000 1.1386000000
4.5085000000 1.0851000000 0.0315000000
4.5080000000 3.3984000000 1.2104000000
4.5077000000 2.4915000000 0.7596000000
4.5072000000 2.5941000000 0.8180000000
4.5071000000 4.8704000000 0.3661000000
4.5069000000 1.0469000000 0.0881000000
4.5067000000 3.5283000000 1.1403000000
4.5066000000 2.3147000000 0.6604000000
4.5064000000 4.6337000000 0.5030000000
4.5062000000 1.9290000000 0.4406000000
4.5060000000 2.3291000000 0.6758000000
4.5054000000 1.6815000000 0.2998000000
4.5053000000 1.9521000000 0.4525000000
4.5051000000 4.8963000000 0.3561000000
4.5048000000 4.1264000000 0.7977000000
4.5047000000 5.5819000000 0.0342000000
4.5042000000 2.0421000000 0.5066000000
4.5036000000 3.7763000000 0.9919000000
4.5034000000 3.3585000000 1.2179000000
4.5032000000 3.7868000000 0.9969000000
4.5030000000 1.9034000000 0.4272000000
4.5029000000 4.8341000000 0.3950000000
4.5027000000 1.7148000000 0.3207000000
4.5025000000 4.9315000000 0.3389000000
4.5023000000 4.2873000000 0.7064000000
4.5022000000 4.0868000000 0.8259000000
4.5017000000 3.8593000000 0.9583000000
4.5009000000 3.6545000000 1.0753000000
4.5006000000 3.2617000000 1.2169000000
4.5002000000 5.6523000000 0.0731000000
4.5000000000 1.4658000000 0.1849000000
4.4994000000 1.2560000000 0.0597000000
4.4988000000 5.3177000000 0.1147000000
4.4985000000 2.1515000000 0.5782000000
4.4974000000 3.4813000000 1.1714000000
4.4920000000 1.4216000000 0.1607000000
4.2616000000 3.4116000000 1.4527000000
4.2602000000 5.8321000000 0.0588000000
4.2601000000 2.6569000000 1.1033000000
4.2596000000 5.3213000000 0.3538000000
4.2593000000 5.4651000000 0.2727000000
4.2589000000 5.9453000000 0.0722000000
4.2583000000 0.6733000000 0.0428000000
4.2582000000 2.1818000000 0.8338000000
4.2575000000 4.9618000000 0.5623000000
4.2570000000 5.6132000000 0.1890000000
4.2567000000 5.9286000000 0.0851000000
4.2565000000 2.5968000000 1.0732000000
4.2564000000 3.3359000000 1.4787000000
4.2562000000 2.2236000000 0.8582000000
4.2560000000 3.7732000000 1.2494000000
4.2557000000 1.6913000000 0.5512000000
4.2550000000 5.2484000000 0.3994000000
4.2548000000 3.3546000000 1.4699000000
4.2547000000 3.0933000000 1.3578000000
4.2542000000 3.7149000000 1.2836000000
4.2539000000 0.8086000000 0.1260000000
4.2537000000 2.7446000000 1.1601000000
4.2534000000 3.6365000000 1.3353000000
4.2532000000 2.2328000000 0.8659000000
4.2529000000 0.8285000000 0.0628000000
4.2524000000 2.0472000000 0.7562000000
4.2523000000 6.1085000000 0.0603000000
4.2522000000 1.5929000000 0.5014000000
4.2520000000 3.1338000000 1.3872000000
4.2518000000 4.0697000000 1.0809000000
4.2515000000 1.6149000000 0.5132000000
4.2511000000 5.9916000000 0.0492000000
4.2508000000 4.4304000000 0.8715000000
4.2503000000 3.1155000000 1.3756000000
4.2501000000 3.1149000000 1.3814000000
4.2499000000 1.4311000000 0.4102000000
4.2492000000 2.9233000000 1.2702000000
4.2478000000 0.6194000000 0.0964000000
4.2463000000 3.8470000000 1.2152000000
4.0108000000 4.0066000000 1.3605000000
4.0102000000 0.3318000000 0.0906000000
4.0095000000 2.9875000000 1.5460000000
4.0093000000 0.2463000000 0.0475000000
4.0083000000 2.5709000000 1.2980000000
4.0077000000 2.3022000000 1.1538000000
4.0074000000 4.7065000000 0.9620000000
4.0071000000 5.1606000000 0.7015000000
4.0070000000 5.0350000000 0.7722000000
4.0066000000 3.4442000000 1.6900000000
4.0065000000 3.0965000000 1.6127000000
4.0059000000 5.2650000000 0.6377000000
4.0058000000 3.0239000000 1.5686000000
4.0053000000 2.2977000000 1.1513000000
4.0051000000 0.6387000000 0.1980000000
4.0050000000 4.9485000000 0.8213000000
4.0050000000 1.3320000000 0.5996000000
4.0047000000 0.4911000000 0.1162000000
4.0046000000 4.5649000000 1.0429000000
4.0045000000 6.3765000000 0.0765000000
4.0043000000 6.1157000000 0.1561000000
4.0040000000 3.7784000000 1.4896000000
4.0036000000 3.8953000000 1.4248000000
4.0035000000 3.4675000000 1.6709000000
4.0035000000 6.3397000000 0.0978000000
4.0033000000 0.9332000000 0.3729000000
4.0030000000 2.2684000000 1.1325000000
4.0028000000 2.4335000000 1.2390000000
4.0027000000 3.7822000000 1.4930000000
4.0025000000 3.2122000000 1.6788000000
4.0023000000 6.2815000000 0.0601000000
4.0016000000 1.2687000000 0.5635000000
4.0015000000 5.6352000000 0.4313000000
4.0011000000 4.0134000000 1.3648000000
4.0009000000 2.6598000000 1.3650000000
4.0005000000 4.7512000000 0.9477000000
4.0000000000 3.2742000000 1.7142000000
3.9994000000 1.5837000000 0.7507000000
3.9991000000 0.1844000000 0.0986000000
3.9989000000 4.0557000000 1.3406000000
3.9983000000 0.7701000000 0.2791000000
3.9980000000 2.6354000000 1.3507000000
3.9969000000 0.7299000000 0.2627000000
3.9954000000 3.0406000000 1.5846000000
3.7631000000 6.5874000000 0.0606000000
3.7613000000 3.6838000000 1.7887000000
3.7598000000 4.0437000000 1.5857000000
3.7590000000 6.1434000000 0.3791000000
3.7584000000 5.4514000000 0.7773000000
3.7581000000 5.5249000000 0.7422000000
3.7577000000 2.6818000000 1.6174000000
3.7574000000 2.2328000000 1.3597000000
3.7573000000 4.5118000000 1.3182000000
3.7570000000 0.1266000000 0.1136000000
3.7569000000 6.0730000000 0.4274000000
3.7564000000 3.2356000000 1.9327000000
3.7561000000 5.0449000000 1.0210000000
3.7559000000 2.8078000000 1.6916000000
3.7557000000 3.3184000000 1.9652000000
3.7554000000 0.4470000000 0.3459000000
3.7553000000 6.5215000000 0.1447000000
3.7552000000 5.1706000000 0.9449000000
3.7549000000 5.6858000000 0.6429000000
3.7548000000 4.2146000000 1.4942000000
3.7546000000 5.5957000000 0.6980000000
3.7545000000 6.1252000000 0.3937000000
3.7544000000 0.5998000000 0.4323000000
3.7543000000 2.9258000000 1.7621000000
3.7540000000 0.1372000000 0.1308000000
3.7539000000 0.7503000000 0.5151000000
3.7538000000 3.6143000000 1.8341000000
3.7536000000 4.0973000000 1.5636000000
3.7534000000 1.7966000000 1.1204000000
3.7533000000 5.4630000000 0.7771000000
3.7531000000 2.7324000000 1.6495000000
3.7528000000 0.4545000000 0.3381000000
3.7526000000 5.9251000000 0.5098000000
3.7525000000 0.1618000000 0.1597000000
3.7524000000 4.6625000000 1.2385000000
3.7523000000 3.1405000000 1.8910000000
3.7521000000 0.5266000000 0.3836000000
3.7518000000 0.1226000000 0.1099000000
3.7514000000 0.8588000000 0.5831000000
3.7511000000 0.1671000000 0.1570000000
3.7508000000 6.3133000000 0.2928000000
3.7505000000 0.1467000000 0.1384000000
3.7504000000 4.7554000000 1.1820000000
3.7499000000 3.3926000000 1.9639000000
3.7493000000 0.3305000000 0.2780000000
3.7488000000 2.2593000000 1.3817000000
3.7478000000 0.7323000000 0.5082000000
3.7458000000 5.6580000000 0.6694000000
3.5121000000 3.3213000000 2.2107000000
3.5110000000 6.1507000000 0.5652000000
3.5106000000 1.2798000000 1.0618000000
3.5092000000 2.7778000000 1.9243000000
3.5090000000 5.5898000000 0.9498000000
3.5088000000 0.4953000000 0.5423000000
3.5083000000 2.3365000000 1.6699000000
3.5080000000 6.0045000000 0.6914000000
3.5078000000 6.3732000000 0.3316000000
3.5074000000 5.8702000000 0.7850000000
3.5069000000 3.1771000000 2.1487000000
3.5066000000 2.8747000000 1.9785000000
3.5059000000 1.7703000000 1.3472000000
3.5057000000 1.5782000000 1.2323000000
3.5055000000 2.7375000000 1.8990000000
3.5053000000 3.7604000000 1.9990000000
3.5051000000 1.1245000000 0.9721000000
3.5048000000 5.0736000000 1.2463000000
3.5047000000 3.6296000000 2.0787000000
3.5046000000 3.8725000000 1.9336000000
3.5043000000 3.2467000000 2.1947000000
3.5042000000 1.4323000000 1.1569000000
3.5041000000 3.7391000000 2.0097000000
3.5040000000 2.1801000000 1.5797000000
3.5035000000 0.5781000000 0.6356000000
3.5033000000 5.3538000000 1.0876000000
3.5030000000 0.2933000000 0.3272000000
3.5028000000 2.3840000000 1.7012000000
3.5027000000 1.2831000000 1.0680000000
3.5025000000 4.2722000000 1.7108000000
3.5017000000 3.2275000000 2.1808000000
3.5015000000 2.8683000000 1.9741000000
3.5010000000 1.1935000000 1.0184000000
3.5006000000 0.6857000000 0.7018000000
3.5005000000 5.5127000000 0.9988000000
3.5003000000 0.8008000000 0.7963000000
3.5000000000 6.5984000000 0.0757000000
3.4998000000 1.9613000000 1.4663000000
3.4994000000 1.8582000000 1.4020000000
3.4992000000 1.7512000000 1.3377000000
3.4986000000 3.5612000000 2.1196000000
3.4985000000 2.9586000000 2.0303000000
3.4977000000 0.0382000000 0.1075000000
3.4967000000 0.2571000000 0.2848000000
3.2656000000 3.8002000000 2.2139000000
3.2628000000 1.5356000000 1.4561000000
3.2614000000 0.0289000000 0.0929000000
3.2608000000 2.6528000000 2.0950000000
3.2600000000 1.9861000000 1.7182000000
3.2592000000 5.6963000000 1.0867000000
3.2584000000 4.7369000000 1.6839000000
3.2583000000 4.6813000000 1.7149000000
3.2581000000 5.4013000000 1.3122000000
3.2580000000 6.0824000000 0.6598000000
3.2574000000 5.7924000000 0.9959000000
3.2571000000 6.2903000000 0.4206000000
3.2567000000 6.6108000000 0.1283000000
3.2565000000 1.9482000000 1.6885000000
3.2562000000 2.0906000000 1.7733000000
3.2555000000 2.5213000000 2.0248000000
3.2554000000 3.5796000000 2.3544000000
3.2553000000 6.2187000000 0.5038000000
3.2550000000 5.7912000000 0.9985000000
3.2545000000 5.5775000000 1.1885000000
3.2543000000 0.2908000000 0.3238000000
3.2539000000 2.6073000000 2.0730000000
3.2538000000 3.0888000000 2.3490000000
3.2535000000 4.8470000000 1.6246000000
3.2532000000 5.6913000000 1.0936000000
3.2530000000 2.9465000000 2.2731000000
3.2528000000 1.9389000000 1.6966000000
3.2526000000 6.0198000000 0.7419000000
3.2525000000 0.7467000000 0.8491000000
3.2524000000 3.0690000000 2.3407000000
3.2523000000 4.6398000000 1.7494000000
3.2522000000 4.8511000000 1.6287000000
3.2519000000 4.2296000000 1.9794000000
3.2517000000 3.9435000000 2.1507000000
3.2515000000 3.3412000000 2.4732000000
3.2513000000 0.8938000000 1.0102000000
3.2511000000 3.3650000000 2.4564000000
3.2508000000 2.1274000000 1.8028000000
3.2504000000 2.9016000000 2.2479000000
3.2500000000 3.0871000000 2.3532000000
3.2495000000 0.2868000000 0.3170000000
3.2485000000 4.0887000000 2.0629000000
3.2482000000 2.1260000000 1.8045000000
3.2475000000 4.9817000000 1.5581000000
3.2461000000 4.4320000000 1.8772000000
3.2438000000 0.3614000000 0.3984000000
3.0119000000 3.3841000000 2.6996000000
3.0111000000 6.3102000000 0.4070000000
3.0105000000 5.9275000000 0.8417000000
3.0100000000 4.8362000000 1.8752000000
3.0097000000 4.6650000000 1.9797000000
3.0088000000 2.3454000000 2.1709000000
3.0083000000 6.4149000000 0.2827000000
3.0077000000 3.1130000000 2.6075000000
3.0074000000 2.9130000000 2.5013000000
3.0071000000 6.4265000000 0.2704000000
3.0065000000 1.2973000000 1.4758000000
3.0062000000 4.7005000000 1.9547000000
3.0061000000 5.7423000000 1.0565000000
3.0059000000 5.1447000000 1.6848000000
3.0055000000 4.0086000000 2.3557000000
3.0053000000 0.8622000000 0.9767000000
3.0050000000 3.1027000000 2.6080000000
3.0049000000 2.1513000000 2.0641000000
3.0045000000 0.7499000000 0.8474000000
3.0043000000 6.0511000000 0.7004000000
3.0043000000 3.3032000000 2.6986000000
3.0039000000 0.7906000000 0.8897000000
3.0038000000 1.3299000000 1.5119000000
3.0038000000 0.1941000000 0.2125000000
3.0037000000 0.6161000000 0.6870000000
3.0035000000 2.7314000000 2.4013000000
3.0034000000 2.0221000000 1.9918000000
3.0031000000 4.5406000000 2.0530000000
3.0029000000 4.5660000000 2.0367000000
3.0028000000 4.1214000000 2.2974000000
3.0026000000 2.4075000000 2.2091000000
3.0024000000 5.3722000000 1.4778000000
3.0020000000 4.5029000000 2.0753000000
3.0019000000 2.7625000000 2.4202000000
3.0016000000 0.2579000000 0.2854000000
3.0011000000 3.3531000000 2.7207000000
3.0010000000 1.1816000000 1.3457000000
3.0008000000 1.1710000000 1.3302000000
3.0003000000 5.4872000000 1.3449000000
3.0002000000 0.7968000000 0.8993000000
2.9998000000 0.5353000000 0.6035000000
2.9994000000 4.3000000000 2.1919000000
2.9990000000 5.8027000000 0.9822000000
2.9988000000 4.3135000000 2.1881000000
2.9981000000 1.5308000000 1.6936000000
2.9967000000 3.9305000000 2.4046000000
2.7640000000 2.0117000000 2.2190000000
2.7624000000 0.8592000000 0.9759000000
2.7616000000 6.5675000000 0.1083000000
2.7595000000 5.9911000000 0.7685000000
2.7593000000 6.6709000000 0.0604000000
2.7587000000 3.1893000000 2.9007000000
2.7582000000 5.4554000000 1.3835000000
2.7580000000 5.7727000000 1.0172000000
2.7576000000 5.0046000000 1.9036000000
2.7574000000 3.4568000000 2.9134000000
2.7572000000 5.6146000000 1.1991000000
2.7570000000 6.0551000000 0.6967000000
2.7568000000 5.4247000000 1.4219000000
2.7566000000 1.6264000000 1.8509000000
2.7564000000 6.1854000000 0.5454000000
2.7564000000 5.5417000000 1.2808000000
2.7559000000 6.2289000000 0.4946000000
2.7557000000 3.2377000000 2.9318000000
2.7556000000 3.9422000000 2.6421000000
2.7554000000 2.6254000000 2.5884000000
2.7552000000 1.3723000000 1.5688000000
2.7550000000 2.2786000000 2.3830000000
2.7549000000 0.7766000000 0.8787000000
2.7548000000 5.2626000000 1.6070000000
2.7545000000 2.7300000000 2.6433000000
2.7544000000 0.3311000000 0.3691000000
2.7541000000 3.6879000000 2.7909000000
2.7539000000 5.2969000000 1.5632000000
2.7537000000 2.0959000000 2.2848000000
2.7532000000 2.1908000000 2.3368000000
2.7531000000 3.3126000000 2.9629000000
2.7529000000 0.8357000000 0.9440000000
2.7521000000 0.6710000000 0.7626000000
2.7515000000 4.7015000000 2.1929000000
2.7514000000 2.4299000000 2.4754000000
2.7511000000 3.0210000000 2.8132000000
2.7505000000 1.6763000000 1.9137000000
2.7504000000 2.8795000000 2.7327000000
2.7503000000 3.3392000000 2.9742000000
2.7499000000 4.6126000000 2.2637000000
2.7495000000 0.2748000000 0.3026000000
2.7487000000 4.2756000000 2.4562000000
2.7481000000 1.8210000000 2.0627000000
2.7465000000 1.2120000000 1.3750000000
2.5118000000 2.4285000000 2.7045000000
2.5105000000 5.7294000000 1.0640000000
2.5098000000 1.4904000000 1.6977000000
2.5094000000 5.5515000000 1.2768000000
2.5089000000 3.6584000000 3.0515000000
2.5086000000 6.2158000000 0.5137000000
2.5083000000 3.8985000000 2.9107000000
2.5079000000 2.0785000000 2.3680000000
2.5078000000 0.6495000000 0.7308000000
2.5069000000 1.2677000000 1.4417000000
2.5068000000 3.7629000000 2.9941000000
2.5065000000 6.0953000000 0.6486000000
2.5062000000 6.4438000000 0.2483000000
2.5057000000 5.5079000000 1.3210000000
2.5055000000 5.2583000000 1.6052000000
2.5053000000 3.2285000000 3.1773000000
2.5052000000 4.2960000000 2.6717000000
2.5050000000 4.0912000000 2.8072000000
2.5049000000 6.1714000000 0.5604000000
2.5046000000 3.8426000000 2.9459000000
2.5044000000 1.9494000000 2.2234000000
2.5043000000 1.4671000000 1.6705000000
2.5042000000 0.3562000000 0.4006000000
2.5039000000 1.9004000000 2.1678000000
2.5038000000 1.0940000000 1.2433000000
2.5036000000 6.4247000000 0.2725000000
2.5034000000 5.5571000000 1.2668000000
2.5033000000 1.8759000000 2.1413000000
2.5030000000 4.4644000000 2.5153000000
2.5026000000 3.6148000000 3.0816000000
2.5024000000 5.2589000000 1.6016000000
2.5021000000 5.7009000000 1.1009000000
2.5018000000 4.5557000000 2.4164000000
2.5017000000 1.8818000000 2.1510000000
2.5016000000 4.3313000000 2.6541000000
2.5013000000 3.2868000000 3.1964000000
2.5007000000 4.9891000000 1.9128000000
2.5003000000 1.9007000000 2.1755000000
2.4998000000 0.6902000000 0.7832000000
2.4993000000 3.5885000000 3.1014000000
2.4990000000 0.5606000000 0.6296000000
2.4987000000 3.9713000000 2.8800000000
2.4983000000 0.1963000000 0.2133000000
2.4980000000 4.5287000000 2.4409000000
2.4949000000 0.6064000000 0.6851000000
2.2610000000 4.9359000000 1.9759000000
2.2608000000 6.3536000000 0.3532000000
2.2600000000 5.2554000000 1.6124000000
2.2592000000 4.1704000000 2.8586000000
2.2588000000 5.7779000000 1.0092000000
2.2585000000 2.9046000000 3.2395000000
2.2580000000 4.8081000000 2.1244000000
2.2575000000 3.0257000000 3.3091000000
2.2571000000 6.5710000000 0.1049000000
2.2568000000 3.8266000000 3.1925000000
2.2567000000 6.3266000000 0.3815000000
2.2565000000 0.8978000000 1.0129000000
2.2563000000 5.1006000000 1.7905000000
2.2560000000 4.4417000000 2.5457000000
2.2557000000 1.1267000000 1.2812000000
2.2555000000 6.0007000000 0.7548000000
2.2554000000 4.6940000000 2.2516000000
2.2553000000 2.8325000000 3.1771000000
2.2552000000 2.2284000000 2.5431000000
2.2551000000 5.6614000000 1.1499000000
2.2549000000 6.0025000000 0.7543000000
2.2547000000 5.1418000000 1.7400000000
2.2545000000 3.5022000000 3.3901000000
2.2544000000 5.2976000000 1.5626000000
2.2540000000 0.5607000000 0.6300000000
2.2538000000 3.6462000000 3.3073000000
2.2537000000 0.4828000000 0.5372000000
2.2534000000 0.1753000000 0.1883000000
2.2531000000 2.3204000000 2.6505000000
2.2530000000 2.5337000000 2.8974000000
2.2529000000 0.5223000000 0.5836000000
2.2527000000 2.1091000000 2.4064000000
2.2526000000 5.3831000000 1.4636000000
2.2521000000 2.8134000000 3.1747000000
2.2518000000 4.6684000000 2.2855000000
2.2516000000 0.8443000000 0.9561000000
2.2512000000 4.5353000000 2.4405000000
2.2509000000 4.4867000000 2.4925000000
2.2509000000 1.6832000000 1.9175000000
2.2506000000 0.8829000000 1.0003000000
2.2503000000 3.9600000000 3.0801000000
2.2500000000 0.3070000000 0.3398000000
2.2493000000 2.7415000000 3.1139000000
2.2486000000 5.3211000000 1.5378000000
2.2474000000 0.6169000000 0.7014000000
2.2467000000 5.7216000000 1.0796000000
2.2435000000 5.2152000000 1.6563000000
2.0132000000 4.2983000000 2.7128000000
2.0113000000 0.3312000000 0.3617000000
2.0105000000 6.0974000000 0.6466000000
2.0098000000 2.9863000000 3.4151000000
2.0086000000 3.4298000000 3.6477000000
2.0083000000 3.5173000000 3.5888000000
2.0078000000 1.5931000000 1.8140000000
2.0075000000 6.4393000000 0.2565000000
2.0072000000 5.1654000000 1.7161000000
2.0067000000 3.2607000000 3.6505000000
2.0065000000 5.2582000000 1.6122000000
2.0061000000 5.4942000000 1.3405000000
2.0059000000 4.1139000000 2.9211000000
2.0058000000 0.2309000000 0.2528000000
2.0056000000 2.4876000000 2.8331000000
2.0052000000 0.8996000000 1.0181000000
2.0051000000 0.6211000000 0.7008000000
2.0049000000 6.6545000000 0.0804000000
2.0044000000 3.5672000000 3.5407000000
2.0043000000 1.9717000000 2.2517000000
2.0041000000 3.0962000000 3.5245000000
2.0039000000 2.3625000000 2.7006000000
2.0037000000 6.5470000000 0.1250000000
2.0034000000 1.3023000000 1.4828000000
2.0033000000 1.8591000000 2.1283000000
2.0031000000 2.1378000000 2.4434000000
2.0030000000 6.2379000000 0.4816000000
2.0027000000 4.3626000000 2.6378000000
2.0025000000 0.1845000000 0.2002000000
2.0024000000 0.7337000000 0.8325000000
2.0023000000 6.2520000000 0.4667000000
2.0023000000 2.4279000000 2.7750000000
2.0020000000 4.8458000000 2.0854000000
2.0020000000 6.2673000000 0.4442000000
2.0018000000 0.4291000000 0.4786000000
2.0012000000 6.6510000000 0.0775000000
2.0011000000 3.8028000000 3.2799000000
2.0008000000 0.7812000000 0.8847000000
2.0007000000 3.2952000000 3.7244000000
2.0006000000 0.9773000000 1.1065000000
2.0003000000 3.2542000000 3.6498000000
2.0000000000 0.0445000000 0.1155000000
1.9997000000 0.3468000000 0.3854000000
1.9996000000 2.3760000000 2.7184000000
1.9991000000 0.3785000000 0.4235000000
1.9989000000 0.5621000000 0.6294000000
1.9981000000 1.7434000000 1.9920000000
1.9979000000 6.3664000000 0.3383000000
1.9978000000 2.6851000000 3.0638000000
1.9956000000 6.0859000000 0.6630000000
1.7595000000 4.7507000000 2.1915000000
1.7592000000 3.2187000000 3.5823000000
1.7588000000 2.7721000000 3.1716000000
1.7581000000 2.1650000000 2.4732000000
1.7575000000 3.5757000000 3.4919000000
1.7574000000 3.7748000000 3.3081000000
1.7572000000 6.1553000000 0.5738000000
1.7570000000 3.2128000000 3.5788000000
1.7569000000 6.5123000000 0.1718000000
1.7565000000 5.8354000000 0.9486000000
1.7563000000 5.5962000000 1.2228000000
1.7561000000 2.6375000000 3.0127000000
1.7558000000 1.3169000000 1.4998000000
1.7556000000 1.0983000000 1.2445000000
1.7555000000 4.6364000000 2.3200000000
1.7553000000 2.2106000000 2.5205000000
1.7552000000 6.6032000000 0.0669000000
1.7548000000 2.7230000000 3.1092000000
1.7546000000 4.5145000000 2.4598000000
1.7544000000 2.7114000000 3.1009000000
1.7542000000 4.9681000000 1.9423000000
1.7539000000 6.4167000000 0.2833000000
1.7536000000 4.8118000000 2.1265000000
1.7533000000 6.3127000000 0.3985000000
1.7530000000 0.4207000000 0.4718000000
1.7529000000 3.6368000000 3.4543000000
1.7528000000 0.6485000000 0.7343000000
1.7525000000 4.3205000000 2.6776000000
1.7522000000 3.0155000000 3.4308000000
1.7520000000 0.4905000000 0.5500000000
1.7519000000 2.3086000000 2.6384000000
1.7518000000 2.4112000000 2.7564000000
1.7517000000 3.5721000000 3.4837000000
1.7514000000 3.3384000000 3.6200000000
1.7511000000 3.5701000000 3.4868000000
1.7510000000 3.0893000000 3.4828000000
1.7507000000 5.0608000000 1.8343000000
1.7506000000 4.0118000000 3.0345000000
1.7505000000 1.4970000000 1.7027000000
1.7501000000 1.0985000000 1.2489000000
1.7495000000 3.0111000000 3.4230000000
1.7494000000 5.7569000000 1.0384000000
1.7490000000 0.2138000000 0.2281000000
1.7488000000 4.1921000000 2.8356000000
1.7487000000 3.1118000000 3.4963000000
1.7483000000 2.1251000000 2.4247000000
1.7473000000 4.1963000000 2.8300000000
1.7461000000 1.4427000000 1.6514000000
1.7453000000 5.4629000000 1.3749000000
1.7429000000 2.8038000000 3.2086000000
1.5100000000 1.2770000000 1.4507000000
1.5086000000 6.6913000000 0.0313000000
1.5084000000 6.6464000000 0.0905000000
1.5080000000 0.6647000000 0.7463000000
1.5078000000 5.0620000000 1.8387000000
1.5077000000 4.3621000000 2.6323000000
1.5074000000 1.1219000000 1.2740000000
1.5072000000 0.1663000000 0.1821000000
1.5070000000 2.5858000000 2.9417000000
1.5067000000 3.7250000000 3.1718000000
1.5062000000 6.6739000000 0.0547000000
1.5059000000 4.3100000000 2.6930000000
1.5056000000 1.7580000000 2.0007000000
1.5055000000 3.4321000000 3.3380000000
1.5054000000 4.7542000000 2.1876000000
1.5053000000 6.2129000000 0.5158000000
1.5052000000 4.1376000000 2.8775000000
1.5049000000 6.3303000000 0.3828000000
1.5048000000 3.1362000000 3.2896000000
1.5047000000 6.6966000000 0.0294000000
1.5045000000 2.8817000000 3.1366000000
1.5044000000 5.5789000000 1.2430000000
1.5042000000 3.4490000000 3.3316000000
1.5039000000 3.4983000000 3.3082000000
1.5037000000 4.8095000000 2.1223000000
1.5036000000 2.9114000000 3.1549000000
1.5035000000 6.2498000000 0.4746000000
1.5033000000 4.8472000000 2.0805000000
1.5031000000 4.8348000000 2.0913000000
1.5028000000 0.1045000000 0.1052000000
1.5027000000 4.7393000000 2.2058000000
1.5026000000 1.7820000000 2.0342000000
1.5024000000 1.2082000000 1.3713000000
1.5024000000 6.2389000000 0.4764000000
1.5021000000 0.8870000000 1.0102000000
1.5020000000 5.8143000000 0.9750000000
1.5018000000 3.3372000000 3.3713000000
1.5017000000 0.8697000000 0.9870000000
1.5016000000 0.7061000000 0.8011000000
1.5014000000 2.7630000000 3.0687000000
1.5012000000 2.1971000000 2.5100000000
1.5010000000 1.7243000000 1.9665000000
1.5008000000 5.9044000000 0.8641000000
1.5008000000 4.0420000000 2.9692000000
1.5007000000 6.0003000000 0.7623000000
1.5005000000 2.0808000000 2.3792000000
1.5003000000 3.8903000000 3.0740000000
1.5002000000 1.3164000000 1.4999000000
1.5000000000 4.8535000000 2.0769000000
1.4994000000 2.6978000000 3.0123000000
1.4991000000 2.4584000000 2.8111000000
1.4982000000 5.6089000000 1.2080000000
1.4978000000 3.5892000000 3.2508000000
1.4955000000 1.0759000000 1.2268000000
1.2613000000 5.5117000000 1.3225000000
1.2604000000 3.9102000000 2.8261000000
1.2589000000 2.8035000000 2.8500000000
1.2588000000 5.3814000000 1.4672000000
1.2580000000 3.0263000000 2.9759000000
1.2575000000 5.8894000000 0.8813000000
1.2574000000 5.5717000000 1.2506000000
1.2572000000 5.9371000000 0.8322000000
1.2570000000 4.9682000000 1.9433000000
1.2567000000 6.0419000000 0.7087000000
1.2565000000 4.9324000000 1.9786000000
1.2562000000 3.9070000000 2.8291000000
1.2559000000 5.7189000000 1.0778000000
1.2557000000 1.9711000000 2.2539000000
1.2556000000 0.9784000000 1.1078000000
1.2553000000 4.8233000000 2.1105000000
1.2552000000 0.9258000000 1.0548000000
1.2550000000 3.8731000000 2.8432000000
1.2547000000 3.6754000000 2.9579000000
1.2546000000 4.7561000000 2.1831000000
1.2549000000 0.4500000000 0.5060000000
1.2543000000 4.7216000000 2.2295000000
1.2542000000 5.2430000000 1.6263000000
1.2541000000 0.7863000000 0.8907000000
1.2540000000 2.5597000000 2.7020000000
1.2538000000 4.3408000000 2.5694000000
1.2535000000 2.8996000000 2.8955000000
1.2533000000 4.6951000000 2.2601000000
1.2533000000 2.9147000000 2.9018000000
1.2531000000 6.6549000000 0.0794000000
1.2526000000 0.9297000000 1.0510000000
1.2524000000 4.4309000000 2.5032000000
1.2523000000 0.6792000000 0.7677000000
1.2518000000 4.8111000000 2.1222000000
1.2516000000 2.1994000000 2.4751000000
1.2515000000 4.9267000000 1.9894000000
1.2514000000 3.6837000000 2.9438000000
1.2511000000 0.5628000000 0.6375000000
1.2508000000 2.6786000000 2.7626000000
1.2504000000 2.1321000000 2.4189000000
1.2503000000 2.7896000000 2.8335000000
1.2501000000 0.7434000000 0.8420000000
1.2499000000 3.1510000000 3.0369000000
1.2498000000 2.7251000000 2.7961000000
1.2492000000 1.0408000000 1.1807000000
1.2490000000 1.4518000000 1.6560000000
1.2488000000 3.3704000000 3.1036000000
1.2484000000 3.5408000000 3.0299000000
1.2473000000 5.8743000000 0.9038000000
1.2462000000 0.0085000000 0.0727000000
1.0144000000 3.9739000000 2.5426000000
1.0110000000 6.2708000000 0.4484000000
1.0099000000 2.2953000000 2.3098000000
1.0089000000 6.4264000000 0.2663000000
1.0087000000 4.3177000000 2.3367000000
1.0082000000 3.3903000000 2.8650000000
1.0080000000 2.4752000000 2.4050000000
1.0076000000 2.4995000000 2.4216000000
1.0075000000 2.4073000000 2.3726000000
1.0072000000 2.6442000000 2.5066000000
1.0070000000 6.1201000000 0.6239000000
1.0067000000 1.6431000000 1.8615000000
1.0066000000 2.2812000000 2.3013000000
1.0063000000 6.0196000000 0.7367000000
1.0063000000 3.5847000000 2.7579000000
1.0060000000 2.9063000000 2.6589000000
1.0058000000 0.3824000000 0.4216000000
1.0057000000 5.8714000000 0.9084000000
1.0053000000 2.1365000000 2.2161000000
1.0052000000 3.8873000000 2.5810000000
1.0051000000 2.1686000000 2.2369000000
1.0048000000 6.2612000000 0.4632000000
1.0046000000 5.6959000000 1.1076000000
1.0045000000 3.6525000000 2.7188000000
1.0044000000 3.0712000000 2.7486000000
1.0043000000 6.4776000000 0.2102000000
1.0040000000 4.3178000000 2.3394000000
1.0036000000 0.1698000000 0.1819000000
1.0032000000 5.2413000000 1.6358000000
1.0031000000 1.2363000000 1.4148000000
1.0026000000 3.9275000000 2.5611000000
1.0024000000 4.9850000000 1.9038000000
1.0023000000 2.9878000000 2.7038000000
1.0023000000 3.3554000000 2.8654000000
1.0020000000 4.4249000000 2.2806000000
1.0018000000 1.8135000000 2.0107000000
1.0015000000 2.5778000000 2.4626000000
1.0013000000 3.5916000000 2.7446000000
1.0009000000 2.1959000000 2.2405000000
1.0003000000 2.7333000000 2.5515000000
1.0001000000 4.2893000000 2.3498000000
0.9998000000 2.9724000000 2.6871000000
0.9993000000 1.0379000000 1.1837000000
0.9985000000 4.2353000000 2.3825000000
0.9983000000 0.1105000000 0.1184000000
0.9974000000 4.5782000000 2.1792000000
0.7631000000 5.0430000000 1.6807000000
0.7605000000 4.2381000000 2.1384000000
0.7599000000 4.4806000000 2.0000000000
0.7595000000 3.7769000000 2.4111000000
0.7593000000 4.5168000000 1.9801000000
0.7583000000 3.5313000000 2.5482000000
0.7578000000 3.6806000000 2.4585000000
0.7573000000 3.8881000000 2.3405000000
0.7570000000 2.8997000000 2.4028000000
0.7566000000 0.3864000000 0.4301000000
0.7564000000 6.2116000000 0.5083000000
0.7562000000 5.3331000000 1.4894000000
0.7558000000 3.5313000000 2.5441000000
0.7556000000 1.6382000000 1.6787000000
0.7553000000 1.7103000000 1.7176000000
0.7552000000 1.2435000000 1.3980000000
0.7547000000 1.3690000000 1.5066000000
0.7546000000 5.7655000000 1.0275000000
0.7543000000 0.0135000000 0.0827000000
0.7540000000 2.4820000000 2.1615000000
0.7539000000 6.3906000000 0.3090000000
0.7537000000 0.6722000000 0.7623000000
0.7536000000 4.9237000000 1.7409000000
0.7534000000 5.3495000000 1.4739000000
0.7531000000 0.8647000000 0.9778000000
0.7528000000 0.4326000000 0.4797000000
0.7526000000 6.6134000000 0.1287000000
0.7523000000 0.9753000000 1.1098000000
0.7521000000 1.4761000000 1.5856000000
0.7518000000 3.9603000000 2.2895000000
0.7520000000 2.5466000000 2.1938000000
0.7516000000 6.6882000000 0.0428000000
0.7514000000 3.3335000000 2.6314000000
0.7513000000 1.4596000000 1.5739000000
0.7512000000 3.0529000000 2.4849000000
0.7510000000 4.9941000000 1.6935000000
0.7504000000 1.8934000000 1.8195000000
0.7503000000 5.0433000000 1.6678000000
0.7502000000 5.7552000000 1.0359000000
0.7498000000 4.6387000000 1.9001000000
0.7496000000 3.5394000000 2.5277000000
0.7490000000 5.0750000000 1.6477000000
0.7488000000 3.1804000000 2.5548000000
0.7485000000 1.6221000000 1.6662000000
0.7478000000 1.2126000000 1.3563000000
0.7464000000 2.2474000000 2.0178000000
0.7433000000 0.7155000000 0.8068000000
0.5111000000 6.6995000000 0.1005000000
0.5093000000 5.2920000000 1.2852000000
0.5090000000 4.6898000000 1.6278000000
0.5085000000 0.8146000000 0.9044000000
0.5081000000 4.9021000000 1.5064000000
0.5080000000 3.2429000000 2.3509000000
0.5079000000 5.4327000000 1.2021000000
0.5073000000 4.5280000000 1.7182000000
0.5071000000 2.1210000000 1.7107000000
0.5068000000 0.8857000000 0.9810000000
0.5063000000 1.4976000000 1.3522000000
0.5062000000 5.2829000000 1.2838000000
0.5058000000 4.2256000000 1.8989000000
0.5055000000 3.7999000000 2.1344000000
0.5055000000 4.2465000000 1.8799000000
0.5051000000 2.1371000000 1.7184000000
0.5048000000 3.7000000000 2.1991000000
0.5047000000 1.5976000000 1.4049000000
0.5043000000 0.9816000000 1.0477000000
0.5039000000 3.1844000000 2.3173000000
0.5038000000 1.8952000000 1.5743000000
0.5036000000 0.3324000000 0.3724000000
0.5035000000 3.7549000000 2.1631000000
0.5035000000 0.6749000000 0.7671000000
0.5031000000 2.1329000000 1.7080000000
0.5030000000 0.6776000000 0.7621000000
0.5028000000 1.8750000000 1.5671000000
0.5027000000 1.2492000000 1.2108000000
0.5025000000 1.2395000000 1.1996000000
0.5024000000 1.0652000000 1.0977000000
0.5023000000 4.8252000000 1.5469000000
0.5016000000 3.1671000000 2.3073000000
0.5015000000 5.0535000000 1.4119000000
0.5010000000 1.5174000000 1.3569000000
0.5004000000 4.0707000000 1.9747000000
0.5002000000 2.5870000000 1.9691000000
0.4999000000 2.0172000000 1.6421000000
0.4993000000 1.6555000000 1.4327000000
0.4991000000 5.5524000000 1.1264000000
0.4985000000 2.1604000000 1.7236000000
0.4976000000 2.1619000000 1.7228000000
0.4971000000 1.9054000000 1.5761000000
0.4962000000 4.3429000000 1.8224000000
0.2624000000 5.9588000000 0.6532000000
0.2622000000 6.7026000000 0.1023000000
0.2607000000 4.7223000000 1.3693000000
0.2600000000 5.8659000000 0.7099000000
0.2595000000 4.7775000000 1.3319000000
0.2593000000 4.1843000000 1.6712000000
0.2590000000 4.7899000000 1.3265000000
0.2587000000 6.1418000000 0.5309000000
0.2580000000 4.2791000000 1.6178000000
0.2579000000 6.5153000000 0.1674000000
0.2574000000 6.2500000000 0.4510000000
0.2573000000 5.7206000000 0.7861000000
0.2571000000 2.2281000000 1.5188000000
0.2568000000 4.0907000000 1.7221000000
0.2565000000 5.1924000000 1.0938000000
0.2563000000 5.4632000000 0.9321000000
0.2560000000 3.1504000000 2.0508000000
0.2553000000 0.8729000000 0.7362000000
0.2552000000 1.4709000000 1.0831000000
0.2549000000 5.2349000000 1.0609000000
0.2548000000 1.7637000000 1.2525000000
0.2545000000 1.1388000000 0.8957000000
0.2542000000 1.1512000000 0.8999000000
0.2541000000 4.3768000000 1.5585000000
0.2540000000 3.3205000000 2.1241000000
0.2539000000 0.7414000000 0.6689000000
0.2537000000 1.5580000000 1.1322000000
0.2536000000 0.2924000000 0.3290000000
0.2535000000 1.7472000000 1.2383000000
0.2533000000 1.9300000000 1.3466000000
0.2531000000 5.9148000000 0.6726000000
0.2529000000 3.5766000000 2.0145000000
0.2528000000 2.9544000000 1.9310000000
0.2527000000 1.1668000000 0.9098000000
0.2525000000 2.0375000000 1.4096000000
0.2522000000 0.4755000000 0.4947000000
0.2519000000 5.8570000000 0.7082000000
0.2517000000 1.7099000000 1.2240000000
0.2514000000 0.6446000000 0.6088000000
0.2513000000 5.3098000000 1.0239000000
0.2512000000 6.2777000000 0.4136000000
0.2510000000 4.7769000000 1.3242000000
0.2507000000 6.5405000000 0.1363000000
0.2505000000 6.5069000000 0.1814000000
0.2503000000 1.3754000000 1.0292000000
0.2499000000 0.1543000000 0.1670000000
0.2496000000 1.4354000000 1.0568000000
0.2492000000 2.7647000000 1.8263000000
0.2488000000 3.1570000000 2.0493000000
0.2485000000 2.2906000000 1.5530000000
0.2471000000 2.7547000000 1.8131000000
0.2453000000 3.8127000000 1.8689000000
0.0122000000 0.1423000000 0.0819000000
0.0110000000 2.6760000000 1.5327000000
0.0095000000 4.1216000000 1.4631000000
0.0090000000 1.8666000000 1.0691000000
0.0081000000 5.3874000000 0.7329000000
0.0078000000 5.7064000000 0.5515000000
0.0074000000 5.8119000000 0.4902000000
0.0070000000 3.5862000000 1.7635000000
0.0068000000 3.5655000000 1.7816000000
0.0062000000 0.9284000000 0.5284000000
0.0061000000 0.8925000000 0.5065000000
0.0060000000 5.1028000000 0.8939000000
0.0056000000 5.8260000000 0.4736000000
0.0055000000 4.6930000000 1.1305000000
0.0054000000 2.8588000000 1.6335000000
0.0050000000 4.6650000000 1.1415000000
0.0048000000 3.2771000000 1.8681000000
0.0046000000 6.1348000000 0.3036000000
0.0045000000 2.5928000000 1.4812000000
0.0042000000 5.9679000000 0.3951000000
0.0040000000 3.8661000000 1.5968000000
0.0039000000 2.5829000000 1.4744000000
0.0037000000 2.1825000000 1.2411000000
0.0036000000 5.3882000000 0.7256000000
0.0035000000 6.1106000000 0.3183000000
0.0033000000 6.4544000000 0.1180000000
0.0030000000 3.0970000000 1.7668000000
0.0028000000 0.4790000000 0.2666000000
0.0027000000 5.5120000000 0.6531000000
0.0025000000 2.3379000000 1.3338000000
0.0024000000 4.1621000000 1.4315000000
0.0020000000 2.1101000000 1.1971000000
0.0016000000 0.7096000000 0.3922000000
0.0013000000 2.6625000000 1.5217000000
0.0012000000 0.7116000000 0.3978000000
0.0009000000 1.6933000000 0.9622000000
0.0006000000 2.0307000000 1.1558000000
0.0003000000 0.5222000000 0.2870000000
0.0001000000 0.5900000000 0.3316000000
-0.0007000000 1.5897000000 0.9028000000
-0.0014000000 5.1207000000 0.8773000000
-0.0017000000 1.3178000000 0.7424000000
-0.0020000000 1.8785000000 1.0595000000
-0.0042000000 2.6449000000 1.5014000000
-0.0056000000 0.0546000000 0.0683000000
-0.2360000000 5.6163000000 0.3577000000
-0.2374000000 6.4344000000 0.0381000000
-0.2389000000 4.2341000000 1.1522000000
-0.2395000000 5.6124000000 0.3601000000
-0.2400000000 5.9252000000 0.1755000000
-0.2406000000 4.9830000000 0.7185000000
-0.2407000000 6.2921000000 0.0404000000
-0.2410000000 5.7137000000 0.2944000000
-0.2416000000 4.4092000000 1.0450000000
-0.2419000000 4.8806000000 0.7752000000
-0.2421000000 6.2893000000 0.0367000000
-0.2430000000 4.4620000000 1.0123000000
-0.2433000000 2.2565000000 1.0393000000
-0.2435000000 2.8976000000 1.4076000000
-0.2436000000 4.6846000000 0.8866000000
-0.2438000000 4.3224000000 1.0959000000
-0.2441000000 3.9082000000 1.3320000000
-0.2445000000 1.6509000000 0.6918000000
-0.2447000000 5.1264000000 0.6304000000
-0.2449000000 3.8898000000 1.3370000000
-0.2452000000 4.4727000000 1.0090000000
-0.2453000000 1.0899000000 0.3691000000
-0.2455000000 2.2488000000 1.0383000000
-0.2456000000 1.7142000000 0.7244000000
-0.2458000000 5.1623000000 0.6078000000
-0.2460000000 3.4772000000 1.5777000000
-0.2463000000 2.3000000000 1.0607000000
-0.2465000000 5.5533000000 0.3841000000
-0.2467000000 1.1888000000 0.4264000000
-0.2470000000 0.3161000000 0.0674000000
-0.2471000000 1.4915000000 0.5995000000
-0.2472000000 5.5836000000 0.3701000000
-0.2473000000 0.7635000000 0.1830000000
-0.2474000000 1.2005000000 0.4308000000
-0.2475000000 6.3579000000 0.0722000000
-0.2477000000 4.1037000000 1.2159000000
-0.2478000000 2.0382000000 0.9130000000
-0.2479000000 2.2151000000 1.0162000000
-0.2482000000 6.3800000000 0.0565000000
-0.2486000000 2.7827000000 1.3422000000
-0.2489000000 3.9488000000 1.2991000000
-0.2493000000 0.9132000000 0.2649000000
-0.2495000000 3.1885000000 1.5677000000
-0.2499000000 0.9883000000 0.3057000000
-0.2502000000 0.3191000000 0.0739000000
-0.2504000000 6.1389000000 0.1172000000
-0.2509000000 2.3960000000 1.1076000000
-0.2511000000 3.5679000000 1.5190000000
-0.2514000000 2.5083000000 1.1757000000
-0.2515000000 2.6662000000 1.2756000000
-0.2527000000 3.7567000000 1.4104000000
-0.2528000000 1.7717000000 0.7512000000
-0.2551000000 0.2509000000 0.0312000000
-0.4870000000 3.3872000000 1.3842000000
-0.4894000000 3.5260000000 1.3061000000
-0.4903000000 4.9581000000 0.4835000000
-0.4918000000 3.8891000000 1.0986000000
-0.4921000000 4.5391000000 0.7250000000
-0.4922000000 2.7110000000 1.0502000000
-0.4925000000 0.9226000000 0.1019000000
-0.4929000000 2.3516000000 0.8452000000
-0.4933000000 5.8235000000 0.0568000000
-0.4934000000 0.8636000000 0.0667000000
-0.4936000000 3.1042000000 1.2858000000
-0.4937000000 4.5689000000 0.7012000000
-0.4940000000 5.6910000000 0.0616000000
-0.4942000000 0.9308000000 0.1036000000
-0.4945000000 1.2688000000 0.2288000000
-0.4948000000 4.4197000000 0.7831000000
-0.4951000000 0.6769000000 0.0309000000
-0.4952000000 3.7371000000 1.1837000000
-0.4957000000 3.0989000000 1.2714000000
-0.4959000000 2.5613000000 0.9666000000
-0.4962000000 2.8560000000 1.1327000000
-0.4963000000 0.9589000000 0.1208000000
-0.4965000000 2.2526000000 0.7833000000
-0.4975000000 3.2271000000 1.3410000000
-0.4977000000 2.5719000000 0.9664000000
-0.4979000000 4.6492000000 0.6618000000
-0.4982000000 1.1252000000 0.1433000000
-0.4986000000 2.8124000000 1.1093000000
-0.4989000000 1.8219000000 0.5339000000
-0.4990000000 1.5480000000 0.3776000000
-0.4995000000 3.2557000000 1.3552000000
-0.4998000000 1.7668000000 0.4996000000
-0.5005000000 2.0831000000 0.6852000000
-0.5006000000 3.3565000000 1.3665000000
-0.5012000000 5.0674000000 0.4084000000
-0.5014000000 3.4629000000 1.3380000000
-0.5040000000 1.3782000000 0.2704000000
-0.7362000000 2.2123000000 0.5290000000
-0.7400000000 3.9495000000 0.8155000000
-0.7409000000 5.4349000000 0.0351000000
-0.7415000000 2.4415000000 0.6519000000
-0.7421000000 2.0601000000 0.4316000000
-0.7422000000 4.5041000000 0.4951000000
-0.7428000000 3.9089000000 0.8359000000
-0.7432000000 2.8764000000 0.9005000000
-0.7435000000 3.0494000000 0.9957000000
-0.7437000000 3.4607000000 1.0925000000
-0.7442000000 3.2514000000 1.1138000000
-0.7444000000 5.3932000000 0.0525000000
-0.7447000000 4.9492000000 0.2325000000
-0.7449000000 5.1881000000 0.1007000000
-0.7451000000 3.4905000000 1.0724000000
-0.7452000000 1.4872000000 0.0988000000
-0.7456000000 1.1924000000 0.0815000000
-0.7458000000 3.1620000000 1.0593000000
-0.7458000000 4.4052000000 0.5419000000
-0.7459000000 4.6981000000 0.3825000000
-0.7462000000 1.9311000000 0.3531000000
-0.7464000000 1.5870000000 0.1569000000
-0.7465000000 3.1186000000 1.0349000000
-0.7466000000 2.8361000000 0.8736000000
-0.7467000000 4.9521000000 0.2261000000
-0.7469000000 1.8012000000 0.2768000000
-0.7472000000 2.9322000000 0.9297000000
-0.7472000000 4.0774000000 0.7336000000
-0.7474000000 1.5568000000 0.1360000000
-0.7477000000 2.2650000000 0.5440000000
-0.7479000000 2.5709000000 0.7186000000
-0.7480000000 4.4709000000 0.5040000000
-0.7483000000 5.5070000000 0.0612000000
-0.7484000000 3.3357000000 1.1411000000
-0.7487000000 4.5558000000 0.4604000000
-0.7492000000 5.3309000000 0.0835000000
-0.7493000000 4.3919000000 0.5481000000
-0.7496000000 2.1449000000 0.4732000000
-0.7504000000 2.5667000000 0.7204000000
-0.7513000000 1.7466000000 0.2416000000
-0.7531000000 4.4135000000 0.5386000000
-0.7547000000 1.5446000000 0.1262000000
-0.9874000000 5.1497000000 0.0278000000
-0.9909000000 4.6127000000 0.1880000000
-0.9914000000 4.9350000000 0.0708000000
-0.9921000000 2.2585000000 0.3000000000
-0.9930000000 5.1390000000 0.0311000000
-0.9932000000 1.9311000000 0.1099000000
-0.9935000000 1.4865000000 0.0037000000
-0.9938000000 3.7460000000 0.6785000000
-0.9942000000 2.5297000000 0.4530000000
-0.9944000000 3.8098000000 0.6414000000
-0.9949000000 3.6852000000 0.7087000000
-0.9957000000 5.0646000000 0.0691000000
-0.9957000000 4.0531000000 0.5014000000
-0.9959000000 4.3218000000 0.3427000000
-0.9962000000 2.6823000000 0.5372000000
-0.9966000000 1.8303000000 0.1264000000
-0.9967000000 4.1000000000 0.4708000000
-0.9969000000 4.7774000000 0.0808000000
-0.9971000000 4.9473000000 0.0636000000
-0.9975000000 2.9750000000 0.7018000000
-0.9991000000 4.5319000000 0.2161000000
-0.9997000000 2.2628000000 0.2934000000
-1.0000000000 3.9578000000 0.5521000000
-1.0008000000 4.4209000000 0.2831000000
-1.0016000000 3.9695000000 0.5458000000
-1.0025000000 4.0897000000 0.4766000000
-1.0045000000 3.6597000000 0.7202000000
-1.2421000000 4.2883000000 0.1224000000
-1.2432000000 4.4348000000 0.1085000000
-1.2435000000 3.4438000000 0.6048000000
-1.2442000000 2.3687000000 0.1067000000
-1.2444000000 2.8939000000 0.4131000000
-1.2446000000 3.7634000000 0.4191000000
-1.2450000000 3.3266000000 0.6480000000
-1.2452000000 2.1911000000 0.0811000000
-1.2464000000 3.8775000000 0.3559000000
-1.2468000000 3.1641000000 0.5609000000
-1.2470000000 2.0232000000 0.0607000000
-1.2470000000 4.0115000000 0.2744000000
-1.2473000000 2.4307000000 0.1445000000
-1.2475000000 3.9761000000 0.2950000000
-1.2477000000 4.3667000000 0.0732000000
-1.2485000000 2.4452000000 0.1501000000
-1.2486000000 3.8225000000 0.3851000000
-1.2492000000 2.3376000000 0.0915000000
-1.2494000000 3.3683000000 0.6226000000
-1.2499000000 4.0542000000 0.2466000000
-1.2516000000 4.0234000000 0.2714000000
-1.2520000000 3.2377000000 0.6045000000
-1.2536000000 2.6466000000 0.2621000000
-1.4871000000 3.6236000000 0.2597000000
-1.4920000000 3.7259000000 0.1932000000
-1.4930000000 3.6804000000 0.2169000000
-1.4939000000 2.4041000000 0.0319000000
-1.4959000000 3.8905000000 0.0939000000
-1.4962000000 3.7290000000 0.1896000000
-1.4969000000 2.4480000000 0.0539000000
-1.4981000000 3.8622000000 0.1070000000
-1.4990000000 3.8683000000 0.1067000000
-1.4997000000 3.1550000000 0.3068000000
-1.5005000000 3.3342000000 0.3876000000
-1.5011000000 3.2138000000 0.3409000000
-1.5019000000 2.3851000000 0.0148000000
-1.5035000000 4.0244000000 0.0850000000
-1.7400000000 3.4559000000 0.1029000000
-1.7430000000 3.7650000000 0.0678000000
-1.7454000000 3.0533000000 0.0803000000
-1.7465000000 3.3576000000 0.1427000000
-1.7480000000 3.1343000000 0.1251000000
-1.7495000000 3.5579000000 0.1086000000
-1.7506000000 3.7995000000 0.0482000000
-1.7522000000 3.4100000000 0.1163000000
