7.0120000000 4.2782000000 0.0448000000
7.0023000000 3.9241000000 0.0820000000
6.9993000000 4.2029000000 0.0852000000
6.7558000000 3.7339000000 0.0548000000
6.7530000000 4.2466000000 0.1361000000
6.7512000000 4.4334000000 0.0369000000
6.7501000000 4.2936000000 0.1048000000
6.5112000000 4.7426000000 0.0971000000
6.5092000000 4.4894000000 0.2256000000
6.5078000000 3.0920000000 0.0168000000
6.5069000000 3.3160000000 0.0546000000
6.5061000000 4.4740000000 0.2357000000
6.5043000000 4.3843000000 0.2780000000
6.5038000000 4.2210000000 0.3540000000
6.5026000000 3.3383000000 0.1445000000
6.5008000000 4.0046000000 0.4061000000
6.5001000000 5.2307000000 0.0074000000
6.4998000000 4.6223000000 0.1624000000
6.2633000000 4.5263000000 0.4120000000
6.2603000000 4.0301000000 0.6111000000
6.2584000000 5.6316000000 0.0120000000
6.2568000000 2.6014000000 0.0679000000
6.2560000000 4.7038000000 0.3336000000
6.2558000000 5.1264000000 0.1171000000
6.2552000000 5.0873000000 0.1429000000
6.2548000000 4.3888000000 0.4912000000
6.2544000000 2.8854000000 0.0604000000
6.2537000000 5.5245000000 0.0700000000
6.2533000000 2.9648000000 0.1030000000
6.2530000000 3.4325000000 0.3335000000
6.2519000000 5.4953000000 0.0863000000
6.2515000000 3.4499000000 0.3433000000
6.2510000000 4.6468000000 0.3650000000
6.2503000000 4.3986000000 0.4963000000
6.2481000000 4.0008000000 0.6248000000
6.0139000000 5.9229000000 0.0724000000
6.0099000000 5.7689000000 0.0895000000
6.0095000000 3.9747000000 0.8093000000
6.0090000000 4.8117000000 0.4941000000
6.0083000000 4.1892000000 0.8050000000
6.0073000000 4.5734000000 0.6140000000
6.0070000000 3.7372000000 0.6981000000
6.0064000000 5.6309000000 0.0850000000
6.0062000000 4.0615000000 0.8477000000
6.0058000000 2.1644000000 0.0723000000
6.0048000000 3.8339000000 0.7526000000
6.0043000000 4.2508000000 0.7806000000
6.0037000000 2.7899000000 0.2339000000
6.0033000000 5.0303000000 0.3861000000
6.0031000000 4.7406000000 0.5301000000
6.0030000000 4.8610000000 0.4667000000
6.0018000000 4.4156000000 0.6954000000
6.0015000000 2.7997000000 0.2343000000
6.0010000000 2.8642000000 0.2706000000
5.9972000000 2.0770000000 0.0286000000
5.9926000000 3.2687000000 0.4808000000
5.7605000000 3.5163000000 0.8044000000
5.7595000000 4.2521000000 0.9838000000
5.7579000000 2.8601000000 0.4765000000
5.7577000000 6.0709000000 0.0772000000
5.7569000000 5.0528000000 0.5881000000
5.7565000000 2.3684000000 0.2332000000
5.7560000000 3.4898000000 0.7978000000
5.7553000000 4.7277000000 0.7477000000
5.7547000000 1.7647000000 0.0826000000
5.7544000000 6.3387000000 0.0206000000
5.7542000000 4.3287000000 0.9486000000
5.7538000000 5.4542000000 0.3922000000
5.7536000000 3.5414000000 0.8232000000
5.7530000000 4.8816000000 0.6771000000
5.7524000000 1.7236000000 0.0641000000
5.7518000000 5.6450000000 0.2933000000
5.7510000000 6.0422000000 0.0991000000
5.7493000000 1.7538000000 0.0847000000
5.7491000000 1.7863000000 0.0219000000
5.7479000000 5.4722000000 0.3948000000
5.5122000000 4.4902000000 1.0850000000
5.5113000000 5.8324000000 0.4132000000
5.5102000000 3.7920000000 1.1594000000
5.5098000000 5.5032000000 0.5780000000
5.5092000000 2.2630000000 0.3921000000
5.5087000000 4.4024000000 1.1280000000
5.5085000000 2.4191000000 0.4715000000
5.5082000000 2.9636000000 0.7466000000
5.5080000000 1.6576000000 0.0919000000
5.5069000000 2.3097000000 0.4162000000
5.5065000000 4.6968000000 0.9814000000
5.5060000000 6.9071000000 0.0317000000
5.5059000000 1.8729000000 0.2047000000
5.5056000000 6.1942000000 0.2332000000
5.5048000000 1.3448000000 0.0925000000
5.5042000000 1.4187000000 0.0504000000
5.5040000000 2.5343000000 0.5300000000
5.5036000000 5.2961000000 0.6910000000
5.5033000000 4.2860000000 1.1924000000
5.5030000000 6.2025000000 0.2321000000
5.5028000000 1.3739000000 0.0287000000
5.5025000000 2.4359000000 0.4794000000
5.5023000000 3.0336000000 0.7879000000
5.5020000000 2.4283000000 0.4839000000
5.5016000000 6.6312000000 0.0935000000
5.5012000000 6.0257000000 0.3248000000
5.5001000000 2.2482000000 0.3962000000
5.4994000000 5.2931000000 0.6913000000
5.4992000000 2.6833000000 0.6129000000
5.4982000000 6.5474000000 0.0644000000
5.4956000000 4.3739000000 1.1530000000
5.2627000000 3.3907000000 1.1702000000
5.2619000000 3.5808000000 1.2684000000
5.2603000000 2.5311000000 0.7436000000
5.2598000000 3.5547000000 1.2584000000
5.2589000000 6.6945000000 0.1992000000
5.2583000000 2.3725000000 0.6624000000
5.2579000000 4.6289000000 1.2312000000
5.2573000000 6.0560000000 0.5120000000
5.2570000000 4.6491000000 1.2219000000
5.2567000000 6.8971000000 0.0946000000
5.2565000000 4.5295000000 1.2823000000
5.2561000000 5.9017000000 0.5961000000
5.2558000000 3.1646000000 1.0693000000
5.2556000000 3.8235000000 1.3974000000
5.2554000000 3.1830000000 1.0754000000
5.2550000000 2.8524000000 0.9116000000
5.2547000000 5.1779000000 0.9581000000
5.2544000000 5.3343000000 0.8832000000
5.2540000000 6.3533000000 0.3763000000
5.2536000000 6.3113000000 0.3921000000
5.2532000000 1.5138000000 0.2426000000
5.2528000000 4.7539000000 1.1765000000
5.2523000000 3.0030000000 0.9863000000
5.2518000000 3.9159000000 1.4387000000
5.2515000000 2.7419000000 0.8596000000
5.2515000000 3.6592000000 1.3204000000
5.2510000000 2.2959000000 0.6308000000
5.2505000000 2.0974000000 0.5347000000
5.2500000000 6.0513000000 0.5275000000
5.2496000000 4.9511000000 1.0828000000
5.2484000000 2.7912000000 0.8880000000
5.2476000000 0.8609000000 0.0645000000
5.0120000000 2.7999000000 1.0877000000
5.0108000000 2.1368000000 0.7618000000
5.0103000000 5.4867000000 1.0132000000
5.0100000000 4.7052000000 1.4081000000
5.0098000000 1.2694000000 0.3320000000
5.0093000000 2.6865000000 1.0394000000
5.0091000000 0.7678000000 0.0836000000
5.0084000000 6.9669000000 0.2864000000
5.0078000000 0.4066000000 0.0519000000
5.0076000000 6.7230000000 0.4016000000
5.0073000000 3.6942000000 1.5441000000
5.0072000000 6.6019000000 0.4606000000
5.0069000000 0.6313000000 0.0870000000
5.0066000000 4.8020000000 1.3597000000
5.0063000000 3.5736000000 1.4841000000
5.0060000000 7.4178000000 0.0556000000
5.0057000000 7.4036000000 0.0640000000
5.0055000000 2.6865000000 1.0444000000
5.0054000000 5.3300000000 1.0965000000
5.0052000000 3.2952000000 1.3479000000
5.0049000000 7.7461000000 0.0406000000
5.0048000000 0.6661000000 0.0350000000
5.0046000000 1.3628000000 0.3791000000
5.0042000000 0.5123000000 0.0356000000
5.0040000000 2.7539000000 1.0813000000
5.0037000000 3.1188000000 1.2575000000
5.0035000000 4.0312000000 1.7060000000
5.0032000000 4.4799000000 1.5294000000
5.0030000000 4.6999000000 1.4163000000
5.0027000000 1.5734000000 0.4831000000
5.0025000000 5.4170000000 1.0634000000
5.0022000000 5.7266000000 0.9107000000
5.0019000000 7.1430000000 0.2024000000
5.0016000000 4.2094000000 1.6583000000
5.0014000000 5.5996000000 0.9732000000
5.0009000000 5.7045000000 0.9130000000
5.0000000000 0.6818000000 0.0469000000
4.9998000000 0.4796000000 0.0204000000
4.9987000000 1.9323000000 0.6727000000
4.7643000000 6.5104000000 0.7156000000
4.7613000000 7.3139000000 0.3194000000
4.7603000000 6.4108000000 0.7730000000
4.7598000000 4.6619000000 1.6493000000
4.7598000000 7.8260000000 0.0694000000
4.7593000000 4.4391000000 1.7595000000
4.7590000000 6.8662000000 0.5474000000
4.7585000000 5.2305000000 1.3606000000
4.7583000000 2.7807000000 1.2995000000
4.7581000000 7.8265000000 0.0709000000
4.7577000000 2.0958000000 0.9599000000
4.7576000000 0.2315000000 0.1002000000
4.7573000000 4.2229000000 1.8625000000
4.7570000000 0.1166000000 0.0487000000
4.7568000000 6.5583000000 0.7039000000
4.7567000000 5.7540000000 1.1062000000
4.7564000000 4.1363000000 1.9105000000
4.7560000000 1.8513000000 0.8434000000
4.7558000000 6.6223000000 0.6686000000
4.7555000000 6.3971000000 0.7874000000
4.7553000000 1.2351000000 0.5297000000
4.7550000000 5.2935000000 1.3337000000
4.7547000000 0.9826000000 0.4082000000
4.7545000000 8.0472000000 0.0352000000
4.7542000000 5.5524000000 1.2020000000
4.7539000000 1.9262000000 0.8780000000
4.7535000000 4.6989000000 1.6398000000
4.7532000000 2.7229000000 1.2819000000
4.7528000000 7.5500000000 0.2098000000
4.7526000000 2.4562000000 1.1455000000
4.7523000000 3.0076000000 1.4267000000
4.7519000000 6.2340000000 0.8639000000
4.7516000000 4.1226000000 1.9218000000
4.7510000000 2.8680000000 1.3551000000
4.7503000000 7.7803000000 0.0964000000
4.7500000000 2.4197000000 1.1254000000
4.7498000000 0.3987000000 0.1172000000
4.7493000000 0.1967000000 0.0969000000
4.7484000000 0.1296000000 0.0651000000
4.7477000000 1.3565000000 0.5977000000
4.5155000000 2.2768000000 1.2589000000
4.5110000000 4.2006000000 2.0945000000
4.5097000000 7.6172000000 0.3853000000
4.5091000000 8.0564000000 0.0427000000
4.5087000000 5.7461000000 1.3238000000
4.5083000000 3.0442000000 1.6535000000
4.5080000000 4.2554000000 2.0696000000
4.5076000000 7.3786000000 0.5111000000
4.5073000000 5.8422000000 1.2753000000
4.5071000000 2.8708000000 1.5735000000
4.5070000000 7.7947000000 0.2876000000
4.5066000000 7.1366000000 0.6273000000
4.5065000000 1.6412000000 0.9519000000
4.5062000000 4.6347000000 1.8811000000
4.5061000000 1.5881000000 0.9268000000
4.5057000000 2.7803000000 1.5231000000
4.5055000000 6.4214000000 0.9879000000
4.5053000000 7.5693000000 0.4170000000
4.5049000000 6.9892000000 0.7027000000
4.5047000000 0.1560000000 0.1263000000
4.5045000000 3.7156000000 1.9893000000
4.5042000000 6.4502000000 0.9750000000
4.5040000000 2.4558000000 1.3607000000
4.5038000000 4.1139000000 2.1301000000
4.5035000000 0.2408000000 0.1942000000
4.5029000000 3.3143000000 1.7913000000
4.5026000000 5.6853000000 1.3584000000
4.5025000000 3.0970000000 1.6827000000
4.5023000000 1.5599000000 0.9131000000
4.5019000000 5.6581000000 1.3740000000
4.5014000000 0.6589000000 0.4695000000
4.5011000000 4.5909000000 1.9046000000
4.5007000000 2.0982000000 1.1836000000
4.4997000000 3.8900000000 2.0836000000
4.4996000000 3.8132000000 2.0475000000
4.4987000000 5.6279000000 1.3920000000
4.4977000000 3.2544000000 1.7659000000
4.4960000000 0.7716000000 0.5277000000
4.2622000000 7.2593000000 0.7761000000
4.2616000000 5.3819000000 1.7224000000
4.2600000000 6.8003000000 1.0122000000
4.2595000000 8.1339000000 0.0400000000
4.2589000000 7.5899000000 0.5068000000
4.2584000000 5.8087000000 1.5174000000
4.2583000000 6.0376000000 1.3951000000
4.2578000000 7.3028000000 0.7493000000
4.2575000000 4.1732000000 2.3203000000
4.2572000000 1.8443000000 1.2633000000
4.2570000000 7.8654000000 0.2413000000
4.2569000000 1.2145000000 0.9576000000
4.2566000000 4.4503000000 2.1899000000
4.2565000000 3.9121000000 2.3047000000
4.2563000000 5.8815000000 1.4765000000
4.2558000000 1.9804000000 1.3350000000
4.2555000000 1.6167000000 1.1549000000
4.2553000000 0.0902000000 0.0584000000
4.2549000000 1.8755000000 1.2828000000
4.2545000000 0.3692000000 0.3410000000
4.2543000000 5.6763000000 1.5775000000
4.2541000000 5.6229000000 1.6034000000
4.2540000000 2.4689000000 1.5848000000
4.2539000000 1.3178000000 1.0094000000
4.2536000000 5.6933000000 1.5705000000
4.2533000000 2.8189000000 1.7571000000
4.2530000000 3.2791000000 1.9888000000
4.2528000000 7.1519000000 0.8436000000
4.2526000000 0.0855000000 0.0544000000
4.2525000000 5.6069000000 1.6084000000
4.2523000000 3.4800000000 2.0882000000
4.2518000000 2.5070000000 1.6039000000
4.2514000000 6.1780000000 1.3324000000
4.2511000000 2.2928000000 1.4996000000
4.2506000000 5.2302000000 1.8048000000
4.2504000000 4.0935000000 2.3563000000
4.2496000000 6.6926000000 1.0706000000
4.2484000000 0.8211000000 0.7534000000
4.2471000000 1.8008000000 1.2524000000
4.2430000000 0.4865000000 0.4508000000
4.0113000000 6.7776000000 1.2404000000
4.0105000000 6.7007000000 1.2826000000
4.0100000000 6.9355000000 1.1462000000
4.0089000000 7.2994000000 0.8013000000
4.0084000000 7.3514000000 0.7498000000
4.0080000000 5.8816000000 1.6859000000
4.0078000000 2.4288000000 1.7784000000
4.0075000000 4.1288000000 2.5654000000
4.0073000000 6.0189000000 1.6163000000
4.0068000000 7.8305000000 0.2778000000
4.0064000000 4.3831000000 2.4407000000
4.0060000000 7.5315000000 0.5735000000
4.0058000000 5.2918000000 1.9837000000
4.0056000000 1.4108000000 1.2630000000
4.0050000000 2.3806000000 1.7536000000
4.0047000000 0.9722000000 0.9447000000
4.0045000000 3.5769000000 2.3531000000
4.0044000000 4.1272000000 2.5620000000
4.0041000000 5.2410000000 2.0147000000
4.0037000000 7.1948000000 0.9099000000
4.0035000000 0.2302000000 0.2030000000
4.0033000000 6.0853000000 1.5926000000
4.0030000000 4.0923000000 2.5745000000
4.0027000000 3.9972000000 2.5630000000
4.0025000000 1.0294000000 1.0026000000
4.0022000000 0.0200000000 0.0644000000
4.0020000000 0.3511000000 0.3152000000
4.0018000000 0.3565000000 0.3314000000
4.0010000000 2.9715000000 2.0515000000
4.0007000000 7.7098000000 0.3948000000
4.0002000000 8.0790000000 0.0974000000
3.9999000000 7.2394000000 0.8631000000
3.9995000000 4.8910000000 2.1907000000
3.9985000000 2.7122000000 1.9301000000
3.9978000000 0.0754000000 0.0401000000
3.9965000000 3.1884000000 2.1681000000
3.9946000000 0.5606000000 0.5273000000
3.7626000000 7.4124000000 0.6914000000
3.7613000000 2.3920000000 1.9777000000
3.7599000000 5.5793000000 2.0561000000
3.7595000000 5.8451000000 1.9202000000
3.7589000000 6.8439000000 1.2565000000
3.7585000000 3.5539000000 2.5549000000
3.7579000000 4.0611000000 2.7920000000
3.7576000000 7.4982000000 0.6052000000
3.7573000000 4.4155000000 2.6369000000
3.7571000000 6.1860000000 1.7584000000
3.7569000000 3.8810000000 2.7209000000
3.7567000000 4.9300000000 2.3804000000
3.7562000000 6.3980000000 1.6434000000
3.7558000000 2.3245000000 1.9436000000
3.7559000000 1.2023000000 1.1714000000
3.7555000000 7.0341000000 1.0692000000
3.7549000000 3.3798000000 2.4694000000
3.7546000000 6.1213000000 1.7823000000
3.7544000000 1.7518000000 1.6600000000
3.7543000000 7.9999000000 0.1051000000
3.7538000000 5.1379000000 2.2801000000
3.7538000000 0.4468000000 0.4141000000
3.7536000000 5.9047000000 1.8972000000
3.7534000000 7.5848000000 0.5136000000
3.7532000000 5.2713000000 2.2086000000
3.7528000000 2.2867000000 1.9225000000
3.7527000000 3.2982000000 2.4341000000
3.7525000000 2.3013000000 1.9304000000
3.7521000000 3.5385000000 2.5467000000
3.7518000000 1.9136000000 1.7397000000
3.7515000000 4.7144000000 2.4955000000
3.7508000000 6.9095000000 1.1902000000
3.7505000000 3.3545000000 2.4599000000
3.7502000000 0.5613000000 0.5337000000
3.7499000000 4.4332000000 2.6368000000
3.7495000000 0.8436000000 0.8152000000
3.7488000000 6.5594000000 1.5261000000
3.7486000000 6.7711000000 1.3341000000
3.7474000000 3.9843000000 2.7790000000
3.5159000000 7.9793000000 0.1217000000
3.5119000000 3.1254000000 2.5542000000
3.5103000000 4.8710000000 2.6200000000
3.5096000000 6.5357000000 1.5731000000
3.5091000000 4.5332000000 2.7969000000
3.5089000000 5.9339000000 2.0922000000
3.5085000000 4.2412000000 2.9442000000
3.5082000000 1.9334000000 1.9019000000
3.5080000000 2.9737000000 2.4781000000
3.5073000000 5.7441000000 2.1900000000
3.5071000000 7.6736000000 0.4265000000
3.5069000000 7.0235000000 1.0805000000
3.5065000000 2.7440000000 2.3689000000
3.5063000000 2.2541000000 2.1200000000
3.5061000000 1.2101000000 1.1784000000
3.5058000000 5.2653000000 2.4318000000
3.5058000000 4.6333000000 2.7520000000
3.5055000000 7.5355000000 0.5657000000
3.5053000000 4.0256000000 2.9950000000
3.5051000000 1.5967000000 1.5645000000
3.5049000000 3.7677000000 2.8809000000
3.5045000000 2.1671000000 2.0807000000
3.5045000000 1.4365000000 1.4061000000
3.5040000000 3.0222000000 2.5090000000
3.5038000000 7.7002000000 0.4050000000
3.5038000000 0.6461000000 0.6137000000
3.5033000000 7.5524000000 0.5498000000
3.5029000000 3.3550000000 2.6732000000
3.5028000000 5.8443000000 2.1440000000
3.5026000000 3.9353000000 2.9667000000
3.5023000000 2.1624000000 2.0714000000
3.5023000000 0.4870000000 0.4573000000
3.5021000000 2.6225000000 2.3060000000
3.5019000000 1.1305000000 1.0970000000
3.5015000000 2.6454000000 2.3196000000
3.5014000000 2.2771000000 2.1420000000
3.5013000000 0.4416000000 0.4210000000
3.5010000000 2.7277000000 2.3618000000
3.5004000000 0.7493000000 0.7216000000
3.5001000000 2.3201000000 2.1606000000
3.4993000000 0.3771000000 0.3476000000
3.4988000000 1.6933000000 1.6631000000
3.4951000000 0.7980000000 0.7671000000
3.2620000000 5.4238000000 2.5646000000
3.2616000000 4.6002000000 2.9801000000
3.2608000000 5.0582000000 2.7444000000
3.2602000000 4.9690000000 2.7896000000
3.2597000000 7.8163000000 0.2787000000
3.2590000000 6.0206000000 2.0738000000
3.2585000000 3.8515000000 3.1397000000
3.2581000000 8.1313000000 0.0456000000
3.2577000000 0.9286000000 0.8978000000
3.2575000000 6.2256000000 1.8791000000
3.2571000000 5.3574000000 2.6027000000
3.2568000000 3.9338000000 3.1767000000
3.2567000000 5.4010000000 2.5765000000
3.2565000000 2.7387000000 2.5812000000
3.2563000000 6.1890000000 1.9117000000
3.2560000000 4.0844000000 3.2171000000
3.2558000000 7.7515000000 0.3516000000
3.2554000000 2.9346000000 2.6831000000
3.2550000000 7.0685000000 1.0358000000
3.2548000000 1.2826000000 1.2552000000
3.2546000000 4.5718000000 2.9972000000
3.2544000000 8.0541000000 0.0412000000
3.2543000000 5.8954000000 2.2028000000
3.2540000000 2.2292000000 2.1953000000
3.2537000000 4.0771000000 3.2268000000
3.2533000000 0.0646000000 0.0423000000
3.2531000000 7.2009000000 0.9055000000
3.2529000000 4.1013000000 3.2104000000
3.2528000000 0.6906000000 0.6631000000
3.2525000000 5.7645000000 2.3353000000
3.2523000000 5.4868000000 2.5381000000
3.2518000000 4.5843000000 2.9859000000
3.2515000000 1.1027000000 1.0702000000
3.2513000000 6.4341000000 1.6682000000
3.2510000000 0.1393000000 0.1091000000
3.2505000000 2.3577000000 2.3255000000
3.2501000000 1.8594000000 1.8313000000
3.2497000000 7.1642000000 0.9415000000
3.2493000000 3.6080000000 3.0182000000
3.2487000000 7.2051000000 0.8983000000
3.2483000000 2.0845000000 2.0427000000
3.2479000000 3.6297000000 3.0336000000
3.2449000000 0.7745000000 0.7468000000
3.0122000000 8.0727000000 0.1013000000
3.0111000000 2.6320000000 2.6012000000
3.0103000000 7.7751000000 0.3295000000
3.0096000000 1.4455000000 1.4158000000
3.0092000000 1.5817000000 1.5497000000
3.0085000000 6.7840000000 1.3176000000
3.0083000000 7.7226000000 0.3766000000
3.0080000000 7.3424000000 0.7594000000
3.0078000000 1.9384000000 1.9118000000
3.0074000000 4.6653000000 3.1582000000
3.0070000000 0.6122000000 0.5826000000
3.0065000000 4.3247000000 3.3345000000
3.0060000000 3.2391000000 3.0498000000
3.0055000000 5.1529000000 2.9088000000
3.0056000000 0.9253000000 0.8980000000
3.0052000000 5.0545000000 2.9655000000
3.0049000000 0.2866000000 0.2551000000
3.0047000000 5.5523000000 2.5477000000
3.0045000000 5.1502000000 2.9086000000
3.0042000000 4.3025000000 3.3386000000
3.0041000000 6.4486000000 1.6511000000
3.0038000000 5.4753000000 2.6177000000
3.0034000000 6.2377000000 1.8617000000
3.0032000000 1.9072000000 1.8813000000
3.0028000000 4.2923000000 3.3525000000
3.0023000000 6.4016000000 1.7047000000
3.0022000000 6.1164000000 1.9859000000
3.0020000000 0.4417000000 0.4132000000
3.0016000000 4.9648000000 3.0200000000
3.0013000000 3.0348000000 2.9474000000
3.0012000000 6.5737000000 1.5278000000
3.0008000000 7.0782000000 1.0282000000
3.0000000000 4.5045000000 3.2470000000
2.9999000000 4.7667000000 3.1250000000
2.9992000000 0.0918000000 0.0649000000
2.9988000000 0.1647000000 0.1372000000
2.9980000000 0.7939000000 0.7648000000
2.9953000000 0.1538000000 0.1228000000
2.7625000000 4.0462000000 3.6481000000
2.7616000000 6.2145000000 1.8840000000
2.7600000000 7.1397000000 0.9642000000
2.7583000000 6.7889000000 1.3146000000
2.7580000000 6.6929000000 1.4038000000
2.7572000000 3.2621000000 3.2148000000
2.7566000000 7.3657000000 0.7354000000
2.7563000000 2.1959000000 2.1614000000
2.7560000000 2.5881000000 2.5545000000
2.7558000000 6.9134000000 1.1882000000
2.7556000000 0.9524000000 0.9218000000
2.7554000000 2.3060000000 2.2728000000
2.7551000000 4.4809000000 3.4716000000
2.7546000000 4.7290000000 3.3326000000
2.7541000000 1.5414000000 1.5072000000
2.7538000000 7.1187000000 0.9879000000
2.7534000000 0.2885000000 0.2609000000
2.7532000000 3.9689000000 3.6278000000
2.7528000000 4.9673000000 3.1295000000
2.7525000000 0.8087000000 0.7768000000
2.7524000000 5.4084000000 2.6887000000
2.7519000000 2.2158000000 2.1851000000
2.7515000000 2.9870000000 2.9514000000
2.7511000000 0.1973000000 0.1715000000
2.7502000000 1.2971000000 1.2639000000
2.7499000000 4.5296000000 3.4491000000
2.7497000000 7.2584000000 0.8428000000
2.7491000000 0.5716000000 0.5391000000
2.7477000000 5.6725000000 2.4268000000
2.5142000000 6.5184000000 1.5838000000
2.5129000000 3.8286000000 3.7452000000
2.5109000000 6.6523000000 1.4490000000
2.5102000000 1.6150000000 1.5843000000
2.5095000000 7.8536000000 0.2514000000
2.5091000000 7.3969000000 0.7047000000
2.5084000000 6.0753000000 2.0297000000
2.5080000000 6.3879000000 1.7110000000
2.5078000000 6.5056000000 1.5954000000
2.5078000000 6.3060000000 1.7960000000
2.5074000000 6.6842000000 1.4215000000
2.5070000000 6.7855000000 1.3186000000
2.5068000000 5.1899000000 2.9110000000
2.5067000000 0.8661000000 0.8297000000
2.5064000000 3.6010000000 3.5659000000
2.5062000000 7.6567000000 0.4457000000
2.5058000000 5.9250000000 2.1748000000
2.5055000000 6.1897000000 1.9127000000
2.5053000000 3.4491000000 3.4128000000
2.5050000000 6.1777000000 1.9237000000
2.5049000000 3.3585000000 3.3264000000
2.5046000000 6.8814000000 1.2184000000
2.5043000000 7.3756000000 0.7260000000
2.5041000000 1.6815000000 1.6527000000
2.5038000000 2.3883000000 2.3582000000
2.5034000000 2.8056000000 2.7712000000
2.5030000000 3.1755000000 3.1401000000
2.5028000000 3.6820000000 3.6453000000
2.5019000000 3.6891000000 3.6510000000
2.5017000000 1.6016000000 1.5717000000
2.5015000000 3.9662000000 3.8473000000
2.5013000000 4.5636000000 3.5379000000
2.5010000000 6.9206000000 1.1811000000
2.5008000000 1.9872000000 1.9568000000
2.5005000000 0.4476000000 0.4176000000
2.5001000000 0.9775000000 0.9462000000
2.4998000000 0.5462000000 0.5157000000
2.4987000000 5.8441000000 2.2542000000
2.4980000000 1.0169000000 0.9852000000
2.4967000000 1.5917000000 1.5572000000
2.4957000000 2.9012000000 2.8730000000
2.2614000000 4.9399000000 3.1574000000
2.2606000000 4.1276000000 3.9019000000
2.2598000000 2.9995000000 2.9673000000
2.2593000000 7.9156000000 0.1865000000
2.2589000000 4.9057000000 3.1917000000
2.2584000000 3.2756000000 3.2423000000
2.2580000000 5.8227000000 2.2799000000
2.2575000000 5.9135000000 2.1882000000
2.2572000000 5.9973000000 2.1029000000
2.2567000000 0.7439000000 0.7086000000
2.2563000000 4.4484000000 3.6526000000
2.2561000000 6.7659000000 1.3384000000
2.2560000000 4.8460000000 3.2556000000
2.2558000000 4.5085000000 3.5904000000
2.2555000000 6.2759000000 1.8287000000
2.2552000000 2.3363000000 2.3072000000
2.2548000000 7.6162000000 0.4858000000
2.2545000000 5.0410000000 3.0671000000
2.2543000000 7.0795000000 1.0278000000
2.2541000000 2.2170000000 2.1854000000
2.2539000000 1.3024000000 1.2726000000
2.2537000000 4.3251000000 3.7597000000
2.2533000000 1.1633000000 1.1332000000
2.2532000000 2.2558000000 2.2239000000
2.2528000000 4.8561000000 3.2381000000
2.2527000000 7.0095000000 1.0936000000
2.2519000000 4.1701000000 3.8761000000
2.2517000000 0.2926000000 0.2627000000
2.2514000000 4.5523000000 3.5482000000
2.2510000000 4.5979000000 3.5027000000
2.2508000000 7.4019000000 0.7009000000
2.2505000000 3.9166000000 3.8538000000
2.2502000000 3.8737000000 3.8215000000
2.2501000000 3.9129000000 3.8531000000
2.2495000000 2.2909000000 2.2594000000
2.2489000000 0.7175000000 0.6878000000
2.2482000000 2.3150000000 2.2892000000
2.2480000000 2.8502000000 2.8196000000
2.2470000000 2.5079000000 2.4723000000
2.2441000000 1.2421000000 1.2135000000
2.0124000000 6.7372000000 1.3655000000
2.0117000000 7.7839000000 0.3178000000
2.0108000000 7.4508000000 0.6545000000
2.0098000000 0.0780000000 0.0466000000
2.0094000000 6.1463000000 1.9498000000
2.0090000000 4.3049000000 3.6232000000
2.0083000000 5.5542000000 2.5498000000
2.0081000000 4.8935000000 3.2019000000
2.0078000000 4.7396000000 3.3410000000
2.0075000000 5.3282000000 2.7722000000
2.0073000000 6.3629000000 1.7367000000
2.0071000000 5.2642000000 2.8361000000
2.0068000000 1.9491000000 1.9137000000
2.0066000000 1.6551000000 1.6282000000
2.0065000000 3.9563000000 3.6839000000
2.0061000000 7.2934000000 0.8053000000
2.0060000000 5.7105000000 2.3918000000
2.0059000000 4.6952000000 3.3888000000
2.0055000000 8.1314000000 0.0428000000
2.0050000000 3.2406000000 3.2063000000
2.0047000000 3.6120000000 3.5168000000
2.0045000000 5.1976000000 2.9071000000
2.0044000000 4.8972000000 3.2017000000
2.0039000000 3.0589000000 3.0241000000
2.0036000000 1.8974000000 1.8638000000
2.0035000000 5.4471000000 2.6535000000
2.0033000000 1.2590000000 1.2318000000
2.0030000000 2.4024000000 2.3687000000
2.0028000000 5.0745000000 3.0225000000
2.0025000000 3.0246000000 2.9954000000
2.0022000000 4.5952000000 3.4575000000
2.0018000000 4.9167000000 3.1830000000
2.0015000000 0.8180000000 0.7890000000
2.0010000000 5.2382000000 2.8613000000
2.0006000000 2.7307000000 2.6987000000
2.0004000000 0.4493000000 0.4170000000
2.0003000000 0.7758000000 0.7480000000
1.9995000000 1.5731000000 1.5450000000
1.9988000000 6.6210000000 1.4793000000
1.9979000000 0.1289000000 0.1022000000
1.9962000000 0.9705000000 0.9474000000
1.7624000000 7.1533000000 0.9517000000
1.7601000000 6.2487000000 1.8548000000
1.7596000000 6.9790000000 1.1275000000
1.7592000000 8.1344000000 0.0404000000
1.7578000000 4.7433000000 3.1813000000
1.7573000000 7.0553000000 1.0438000000
1.7571000000 3.9646000000 3.4763000000
1.7568000000 0.3497000000 0.3198000000
1.7565000000 6.8611000000 1.2460000000
1.7562000000 2.8024000000 2.7727000000
1.7558000000 2.9276000000 2.8896000000
1.7556000000 2.6305000000 2.6009000000
1.7555000000 3.0142000000 2.9664000000
1.7551000000 6.3807000000 1.7197000000
1.7549000000 2.8706000000 2.8399000000
1.7547000000 0.4650000000 0.4339000000
1.7545000000 1.3239000000 1.2952000000
1.7541000000 7.6426000000 0.4636000000
1.7537000000 2.6872000000 2.6544000000
1.7533000000 0.8722000000 0.8402000000
1.7526000000 5.2486000000 2.8541000000
1.7521000000 6.0334000000 2.0661000000
1.7520000000 1.4235000000 1.3856000000
1.7518000000 1.7514000000 1.7203000000
1.7513000000 3.2578000000 3.1135000000
1.7508000000 2.4341000000 2.3964000000
1.7506000000 3.3334000000 3.1522000000
1.7504000000 1.5831000000 1.5524000000
1.7503000000 3.4389000000 3.2024000000
1.7499000000 0.7156000000 0.6892000000
1.7496000000 3.9010000000 3.4320000000
1.7492000000 3.7084000000 3.3370000000
1.7468000000 0.3043000000 0.2702000000
1.7465000000 0.1812000000 0.1542000000
1.7448000000 5.5240000000 2.5791000000
1.5132000000 4.4604000000 3.1157000000
1.5115000000 5.1994000000 2.7457000000
1.5104000000 7.0655000000 1.0366000000
1.5094000000 3.2766000000 2.9169000000
1.5085000000 3.5006000000 3.0236000000
1.5083000000 1.0356000000 1.0036000000
1.5079000000 6.5263000000 1.5765000000
1.5076000000 5.0695000000 2.8063000000
1.5074000000 7.6164000000 0.4906000000
1.5072000000 7.7274000000 0.3744000000
1.5070000000 6.2646000000 1.8324000000
1.5068000000 5.2042000000 2.7357000000
1.5064000000 4.9947000000 2.8394000000
1.5060000000 8.0911000000 0.0847000000
1.5059000000 4.3626000000 3.1543000000
1.5055000000 1.2392000000 1.2065000000
1.5053000000 2.9528000000 2.7499000000
1.5050000000 3.5227000000 3.0328000000
1.5046000000 0.4146000000 0.3867000000
1.5045000000 6.3600000000 1.7448000000
1.5042000000 7.0235000000 1.0761000000
1.5039000000 5.1846000000 2.7392000000
1.5038000000 6.9277000000 1.1751000000
1.5034000000 6.5709000000 1.5275000000
1.5030000000 1.3708000000 1.3402000000
1.5028000000 2.6479000000 2.5780000000
1.5025000000 3.1236000000 2.8299000000
1.5022000000 3.0868000000 2.8114000000
1.5020000000 3.4094000000 2.9681000000
1.5018000000 0.3453000000 0.3197000000
1.5014000000 0.6269000000 0.5939000000
1.5011000000 0.0002000000 0.0500000000
1.5004000000 3.3596000000 2.9483000000
1.5002000000 1.7563000000 1.7234000000
1.4998000000 0.9826000000 0.9511000000
1.4993000000 1.8002000000 1.7704000000
1.4984000000 6.9306000000 1.1719000000
1.4969000000 2.8369000000 2.6810000000
1.4953000000 3.8829000000 3.2032000000
1.2644000000 2.6249000000 2.3798000000
1.2624000000 7.0981000000 1.0105000000
1.2617000000 5.5304000000 2.3655000000
1.2604000000 6.6654000000 1.4313000000
1.2598000000 4.9294000000 2.6585000000
1.2592000000 7.7848000000 0.3172000000
1.2591000000 4.1911000000 3.0282000000
1.2585000000 6.6120000000 1.4900000000
1.2577000000 5.0969000000 2.5806000000
1.2573000000 2.7897000000 2.4608000000
1.2571000000 3.8384000000 2.9778000000
1.2567000000 7.4198000000 0.6870000000
1.2565000000 7.5262000000 0.5781000000
1.2561000000 3.3438000000 2.7314000000
1.2559000000 6.5538000000 1.5452000000
1.2558000000 6.1779000000 1.9267000000
1.2555000000 8.1195000000 0.0597000000
1.2551000000 1.7991000000 1.7677000000
1.2549000000 6.0699000000 2.0254000000
1.2545000000 3.2352000000 2.6664000000
1.2542000000 6.5816000000 1.5227000000
1.2541000000 2.3654000000 2.2376000000
1.2537000000 1.8081000000 1.7788000000
1.2535000000 4.4722000000 2.8850000000
1.2534000000 5.0596000000 2.5900000000
1.2533000000 2.4151000000 2.2683000000
1.2530000000 2.2590000000 2.1669000000
1.2526000000 7.0706000000 1.0310000000
1.2523000000 2.2432000000 2.1620000000
1.2519000000 4.4591000000 2.8950000000
1.2519000000 2.7835000000 2.4411000000
1.2515000000 2.8526000000 2.4786000000
1.2512000000 3.0437000000 2.5714000000
1.2510000000 0.6425000000 0.6171000000
1.2508000000 1.4113000000 1.3806000000
1.2504000000 5.2724000000 2.4828000000
1.2503000000 4.5219000000 2.8529000000
1.2495000000 1.4425000000 1.4087000000
1.2492000000 7.3884000000 0.7136000000
1.2487000000 2.2422000000 2.1510000000
1.2481000000 2.8718000000 2.4841000000
1.2475000000 3.8610000000 2.9772000000
1.2455000000 2.9992000000 2.5463000000
1.0111000000 7.6789000000 0.4182000000
1.0102000000 4.7214000000 2.5520000000
1.0099000000 2.2554000000 1.9731000000
1.0096000000 3.9529000000 2.8151000000
1.0089000000 7.0047000000 1.0972000000
1.0083000000 5.3380000000 2.2351000000
1.0078000000 6.6523000000 1.4538000000
1.0078000000 5.9694000000 1.9210000000
1.0074000000 5.6746000000 2.0715000000
1.0072000000 6.7809000000 1.3191000000
1.0068000000 1.6267000000 1.5964000000
1.0065000000 6.8812000000 1.2273000000
1.0063000000 3.1377000000 2.4077000000
1.0061000000 7.8235000000 0.2798000000
1.0056000000 0.4621000000 0.4357000000
1.0054000000 1.1472000000 1.1190000000
1.0051000000 0.6453000000 0.6203000000
1.0048000000 0.3459000000 0.3183000000
1.0048000000 0.7208000000 0.6861000000
1.0045000000 2.5390000000 2.1100000000
1.0044000000 1.4665000000 1.4389000000
1.0043000000 4.6584000000 2.5725000000
1.0038000000 0.3728000000 0.3423000000
1.0036000000 2.7593000000 2.2178000000
1.0032000000 5.3376000000 2.2366000000
1.0029000000 1.8295000000 1.7374000000
1.0027000000 0.8030000000 0.7737000000
1.0025000000 4.5222000000 2.6438000000
1.0022000000 5.4159000000 2.1972000000
1.0020000000 0.2730000000 0.2392000000
1.0018000000 1.8202000000 1.7324000000
1.0015000000 1.5100000000 1.4746000000
1.0013000000 1.3455000000 1.3145000000
1.0011000000 6.3660000000 1.7042000000
1.0010000000 2.6038000000 2.1383000000
1.0008000000 4.1303000000 2.8329000000
1.0003000000 7.4177000000 0.6907000000
0.9998000000 6.3833000000 1.6993000000
0.9992000000 6.4577000000 1.6240000000
0.9990000000 0.3282000000 0.2963000000
0.9985000000 1.5926000000 1.5611000000
0.9967000000 2.1538000000 1.9037000000
0.9958000000 3.1660000000 2.4156000000
0.9953000000 7.3914000000 0.7148000000
0.7632000000 7.2548000000 0.8516000000
0.7608000000 6.8417000000 1.2413000000
0.7603000000 6.4436000000 1.4754000000
0.7599000000 5.0537000000 2.1681000000
0.7592000000 7.8338000000 0.2688000000
0.7586000000 6.8883000000 1.1934000000
0.7581000000 5.6274000000 1.8770000000
0.7576000000 6.2559000000 1.5659000000
0.7575000000 7.4966000000 0.6037000000
0.7571000000 7.3577000000 0.7460000000
0.7570000000 4.7361000000 2.3211000000
0.7565000000 7.9447000000 0.1580000000
0.7564000000 3.2873000000 2.2589000000
0.7560000000 1.4875000000 1.3719000000
0.7558000000 3.4068000000 2.3283000000
0.7556000000 1.5608000000 1.4037000000
0.7553000000 2.5635000000 1.9063000000
0.7551000000 1.1929000000 1.1632000000
0.7547000000 3.2792000000 2.2623000000
0.7545000000 1.0372000000 1.0030000000
0.7543000000 5.6238000000 1.8758000000
0.7542000000 5.1880000000 2.0955000000
0.7539000000 2.0403000000 1.6395000000
0.7536000000 4.0987000000 2.6221000000
0.7533000000 0.1538000000 0.1222000000
0.7532000000 2.0954000000 1.6657000000
0.7528000000 5.3148000000 2.0295000000
0.7525000000 4.0128000000 2.6194000000
0.7524000000 5.1609000000 2.1051000000
0.7521000000 2.5852000000 1.9170000000
0.7519000000 1.0025000000 0.9710000000
0.7517000000 1.1900000000 1.1526000000
0.7513000000 5.5704000000 1.8988000000
0.7512000000 1.4415000000 1.3390000000
0.7508000000 7.7540000000 0.3516000000
0.7499000000 3.4041000000 2.3178000000
0.7492000000 4.1339000000 2.6196000000
0.7486000000 0.8283000000 0.7971000000
0.7483000000 2.5230000000 1.8739000000
0.7475000000 0.7991000000 0.7680000000
0.7455000000 0.1104000000 0.0788000000
0.7443000000 3.7382000000 2.4805000000
0.5135000000 6.6451000000 1.1633000000
0.5118000000 2.5449000000 1.6884000000
0.5104000000 6.8056000000 1.0826000000
0.5095000000 4.4806000000 2.2311000000
0.5090000000 3.0911000000 1.9543000000
0.5085000000 7.0663000000 0.9392000000
0.5079000000 6.9189000000 1.0158000000
0.5073000000 3.6749000000 2.2533000000
0.5066000000 6.5193000000 1.2112000000
0.5063000000 2.4443000000 1.6300000000
0.5061000000 3.4181000000 2.1216000000
0.5059000000 5.8244000000 1.5628000000
0.5057000000 0.6121000000 0.5825000000
0.5052000000 2.3459000000 1.5830000000
0.5049000000 5.3804000000 1.7794000000
0.5047000000 6.7384000000 1.1031000000
0.5045000000 0.4925000000 0.4620000000
0.5043000000 0.7039000000 0.6721000000
0.5040000000 1.5937000000 1.2032000000
0.5038000000 5.8351000000 1.5502000000
0.5035000000 5.1155000000 1.9120000000
0.5031000000 3.8810000000 2.3475000000
0.5029000000 3.1244000000 1.9618000000
0.5026000000 4.3797000000 2.2810000000
0.5023000000 4.9698000000 1.9807000000
0.5021000000 2.4951000000 1.6528000000
0.5018000000 2.7074000000 1.7551000000
0.5015000000 4.9000000000 2.0206000000
0.5012000000 5.1161000000 1.9094000000
0.5010000000 3.3204000000 2.0613000000
0.5008000000 2.8560000000 1.8322000000
0.5007000000 5.6917000000 1.6223000000
0.5005000000 1.4424000000 1.1239000000
0.5000000000 6.6307000000 1.1554000000
0.4996000000 4.5458000000 2.1946000000
0.4990000000 1.3128000000 1.0581000000
0.4978000000 5.3648000000 1.7765000000
0.4945000000 2.8617000000 1.8263000000
0.2607000000 7.8075000000 0.2959000000
0.2596000000 5.2915000000 1.6169000000
0.2590000000 5.8571000000 1.3319000000
0.2588000000 8.0295000000 0.0741000000
0.2583000000 5.4319000000 1.5477000000
0.2578000000 0.8059000000 0.5955000000
0.2572000000 3.1920000000 1.7857000000
0.2570000000 5.9787000000 1.2688000000
0.2566000000 0.4348000000 0.3903000000
0.2563000000 2.4662000000 1.4230000000
0.2558000000 3.8710000000 2.1223000000
0.2556000000 4.8955000000 1.8071000000
0.2555000000 3.4756000000 1.9317000000
0.2552000000 4.4237000000 2.0433000000
0.2550000000 6.6532000000 0.9268000000
0.2545000000 4.9621000000 1.7770000000
0.2543000000 1.6349000000 1.0009000000
0.2540000000 3.9428000000 2.1617000000
0.2538000000 6.5272000000 0.9942000000
0.2535000000 4.5785000000 1.9655000000
0.2530000000 6.5902000000 0.9665000000
0.2526000000 4.4414000000 2.0312000000
0.2524000000 4.3001000000 2.1044000000
0.2522000000 5.9294000000 1.2885000000
0.2519000000 5.2331000000 1.6394000000
0.2516000000 7.6276000000 0.4228000000
0.2511000000 0.8860000000 0.6326000000
0.2509000000 1.3425000000 0.8602000000
0.2508000000 4.2105000000 2.1480000000
0.2505000000 6.5820000000 0.9592000000
0.2501000000 3.5308000000 1.9507000000
0.2494000000 0.5691000000 0.4688000000
0.2478000000 0.9065000000 0.6396000000
0.2470000000 1.0372000000 0.7013000000
0.0128000000 7.6289000000 0.2308000000
0.0103000000 6.1708000000 0.9562000000
0.0100000000 6.3198000000 0.8870000000
0.0094000000 4.7078000000 1.6882000000
0.0090000000 6.0649000000 1.0081000000
0.0080000000 4.5432000000 1.7714000000
0.0077000000 2.8454000000 1.3982000000
0.0074000000 0.1524000000 0.0507000000
0.0070000000 3.3078000000 1.6261000000
0.0066000000 7.3210000000 0.3814000000
0.0065000000 7.1456000000 0.4723000000
0.0063000000 0.4184000000 0.1897000000
0.0058000000 6.4014000000 0.8398000000
0.0053000000 5.8946000000 1.0940000000
0.0052000000 2.5924000000 1.2691000000
0.0051000000 4.6957000000 1.6942000000
0.0048000000 4.9216000000 1.5734000000
0.0045000000 -0.0003000000 0.1015000000
0.0040000000 8.1390000000 0.0202000000
0.0038000000 3.3586000000 1.6507000000
0.0036000000 6.2144000000 0.9287000000
0.0031000000 6.2854000000 0.8949000000
0.0030000000 3.9124000000 1.9252000000
0.0027000000 0.1979000000 0.0678000000
0.0025000000 5.9445000000 1.0642000000
0.0023000000 1.2550000000 0.5992000000
0.0021000000 7.9213000000 0.0790000000
0.0020000000 4.2591000000 1.9065000000
0.0018000000 0.2156000000 0.0812000000
0.0016000000 1.4079000000 0.6729000000
0.0015000000 4.3472000000 1.8651000000
0.0012000000 2.1945000000 1.0604000000
0.0010000000 1.1115000000 0.5228000000
0.0006000000 0.7489000000 0.3414000000
0.0003000000 2.8767000000 1.4091000000
-0.0004000000 3.0867000000 1.5158000000
-0.0005000000 7.4979000000 0.2868000000
-0.0011000000 3.1065000000 1.5218000000
-0.0022000000 6.5284000000 0.7717000000
-0.0027000000 2.4644000000 1.1912000000
-0.0037000000 0.7162000000 0.3250000000
-0.2400000000 5.0335000000 1.3120000000
-0.2415000000 5.9930000000 0.8305000000
-0.2420000000 5.6032000000 1.0255000000
-0.2426000000 1.1302000000 0.3250000000
-0.2434000000 3.2733000000 1.3967000000
-0.2437000000 7.8501000000 0.0496000000
-0.2441000000 4.3186000000 1.6677000000
-0.2444000000 2.8709000000 1.1948000000
-0.2446000000 6.0850000000 0.7815000000
-0.2448000000 2.5938000000 1.0539000000
-0.2450000000 4.8960000000 1.3714000000
-0.2454000000 3.0137000000 1.2665000000
-0.2456000000 2.7320000000 1.1216000000
-0.2457000000 0.3987000000 0.0317000000
-0.2460000000 6.4269000000 0.6074000000
-0.2462000000 0.3452000000 0.0765000000
-0.2465000000 4.2141000000 1.7122000000
-0.2467000000 1.7188000000 0.6101000000
-0.2470000000 7.5014000000 0.0680000000
-0.2473000000 1.5671000000 0.5408000000
-0.2475000000 1.1250000000 0.3143000000
-0.2477000000 3.7647000000 1.6296000000
-0.2485000000 4.2092000000 1.7130000000
-0.2486000000 4.1802000000 1.7245000000
-0.2489000000 6.0729000000 0.7806000000
-0.2495000000 0.4819000000 0.0725000000
-0.2504000000 1.7072000000 0.5992000000
-0.2507000000 6.3629000000 0.6340000000
-0.2512000000 4.0538000000 1.7597000000
-0.2523000000 3.5693000000 1.5390000000
-0.4872000000 6.9960000000 0.1198000000
-0.4890000000 5.9991000000 0.6109000000
-0.4895000000 7.5168000000 0.0032000000
-0.4901000000 4.5044000000 1.3554000000
-0.4907000000 7.3042000000 0.0350000000
-0.4910000000 5.4006000000 0.9118000000
-0.4916000000 5.5864000000 0.8152000000
-0.4920000000 6.0686000000 0.5751000000
-0.4927000000 4.6545000000 1.2780000000
-0.4938000000 6.2237000000 0.4965000000
-0.4942000000 1.8651000000 0.4754000000
-0.4944000000 7.0132000000 0.1049000000
-0.4947000000 5.7751000000 0.7170000000
-0.4948000000 5.0651000000 1.0712000000
-0.4951000000 7.0456000000 0.0880000000
-0.4954000000 4.1084000000 1.5424000000
-0.4957000000 5.4740000000 0.8656000000
-0.4962000000 3.9918000000 1.5394000000
-0.4965000000 1.9458000000 0.5106000000
-0.4967000000 3.4715000000 1.2742000000
-0.4972000000 6.7178000000 0.2470000000
-0.4974000000 5.9877000000 0.6168000000
-0.4977000000 0.9594000000 0.0895000000
-0.4981000000 1.2882000000 0.1850000000
-0.4988000000 0.7625000000 0.0668000000
-0.4990000000 1.6502000000 0.3661000000
-0.4995000000 0.6864000000 0.0290000000
-0.5000000000 6.4632000000 0.3732000000
-0.5007000000 3.2907000000 1.1809000000
-0.5014000000 1.6518000000 0.3622000000
-0.5021000000 5.7369000000 0.7353000000
-0.5034000000 1.8646000000 0.4653000000
-0.5045000000 2.1307000000 0.5988000000
-0.7399000000 6.0637000000 0.3632000000
-0.7412000000 7.0619000000 0.0080000000
-0.7417000000 5.2249000000 0.7815000000
-0.7422000000 3.3075000000 0.9749000000
-0.7430000000 5.4178000000 0.6841000000
-0.7435000000 5.7532000000 0.5115000000
-0.7437000000 6.1538000000 0.3145000000
-0.7440000000 6.5215000000 0.1311000000
-0.7443000000 6.8934000000 0.0214000000
-0.7445000000 5.9861000000 0.4014000000
-0.7450000000 4.3090000000 1.2328000000
-0.7454000000 4.1036000000 1.3240000000
-0.7459000000 6.6165000000 0.0814000000
-0.7462000000 3.0387000000 0.8446000000
-0.7465000000 4.7668000000 1.0068000000
-0.7467000000 2.8027000000 0.7267000000
-0.7470000000 1.5714000000 0.1091000000
-0.7474000000 5.7958000000 0.4890000000
-0.7477000000 5.4744000000 0.6537000000
-0.7482000000 1.5851000000 0.1183000000
-0.7486000000 6.0146000000 0.3819000000
-0.7490000000 5.6852000000 0.5400000000
-0.7493000000 1.4032000000 0.1004000000
-0.7494000000 5.9335000000 0.4237000000
-0.7512000000 2.7944000000 0.7097000000
-0.7520000000 1.4935000000 0.0687000000
-0.9881000000 3.5961000000 0.9132000000
-0.9902000000 5.3529000000 0.5035000000
-0.9906000000 4.7049000000 0.8236000000
-0.9919000000 4.3150000000 1.0215000000
-0.9927000000 4.3392000000 1.0085000000
-0.9934000000 6.1010000000 0.1251000000
-0.9937000000 1.9648000000 0.0930000000
-0.9942000000 4.4786000000 0.9311000000
-0.9944000000 5.4069000000 0.4706000000
-0.9947000000 3.3651000000 0.7908000000
-0.9952000000 2.7327000000 0.4731000000
-0.9957000000 6.1470000000 0.1000000000
-0.9960000000 2.3551000000 0.2898000000
-0.9964000000 6.1709000000 0.0860000000
-0.9967000000 1.9563000000 0.1563000000
-0.9971000000 1.8878000000 0.0500000000
-0.9978000000 4.9846000000 0.6762000000
-0.9982000000 2.0731000000 0.1416000000
-0.9988000000 5.5341000000 0.4016000000
-0.9999000000 4.5508000000 0.8964000000
-1.0002000000 1.9702000000 0.1673000000
-1.0017000000 4.4150000000 0.9622000000
-1.0026000000 1.9251000000 0.1424000000
-1.2402000000 6.1612000000 0.0318000000
-1.2417000000 5.4646000000 0.2286000000
-1.2421000000 3.9524000000 0.8680000000
-1.2427000000 2.1489000000 0.0422000000
-1.2434000000 1.9841000000 0.0328000000
-1.2440000000 2.9605000000 0.3733000000
-1.2446000000 2.0066000000 0.0437000000
-1.2454000000 4.6269000000 0.6393000000
-1.2455000000 4.4944000000 0.7061000000
-1.2457000000 5.8257000000 0.0469000000
-1.2460000000 5.1425000000 0.3866000000
-1.2468000000 4.0028000000 0.8917000000
-1.2470000000 5.9029000000 0.0783000000
-1.2477000000 2.4146000000 0.0942000000
-1.2480000000 5.9951000000 0.0338000000
-1.2488000000 5.9588000000 0.0537000000
-1.2493000000 6.1135000000 0.0458000000
-1.2494000000 2.7563000000 0.2686000000
-1.2500000000 2.7016000000 0.2453000000
-1.2513000000 5.8776000000 0.0921000000
-1.4865000000 3.8830000000 0.6229000000
-1.4899000000 5.6470000000 0.0730000000
-1.4915000000 2.8932000000 0.1219000000
-1.4920000000 3.5530000000 0.4524000000
-1.4931000000 3.7276000000 0.5420000000
-1.4938000000 3.2235000000 0.2895000000
-1.4946000000 4.2373000000 0.6254000000
-1.4950000000 4.3843000000 0.5507000000
-1.4952000000 5.4576000000 0.0840000000
-1.4960000000 4.3319000000 0.5765000000
-1.4967000000 2.5293000000 0.0846000000
-1.4969000000 2.7308000000 0.1125000000
-1.4975000000 3.9844000000 0.6672000000
-1.4989000000 4.1936000000 0.6450000000
-1.4997000000 3.3528000000 0.3504000000
-1.5002000000 2.9273000000 0.1302000000
-1.5012000000 2.6750000000 0.0814000000
-1.5023000000 2.6540000000 0.0636000000
-1.5042000000 4.0969000000 0.6682000000
-1.7402000000 4.0623000000 0.4786000000
-1.7415000000 4.2184000000 0.4171000000
-1.7428000000 3.3090000000 0.1114000000
-1.7442000000 4.7339000000 0.1600000000
-1.7445000000 4.5535000000 0.2423000000
-1.7455000000 3.5082000000 0.2124000000
-1.7460000000 4.3863000000 0.3281000000
-1.7470000000 2.8144000000 0.0146000000
-1.7475000000 3.2278000000 0.1424000000
-1.7479000000 5.2330000000 0.0555000000
-1.7483000000 4.1426000000 0.4524000000
-1.7491000000 2.9888000000 0.0247000000
-1.7506000000 5.0705000000 0.0605000000
-1.9881000000 3.4206000000 0.0312000000
-1.9924000000 3.7432000000 0.1116000000
-1.9937000000 4.8597000000 0.0251000000
-1.9943000000 3.4307000000 0.0288000000
-1.9950000000 4.7023000000 0.0297000000
-1.9962000000 3.4171000000 0.0221000000
-1.9969000000 4.7392000000 0.0848000000
-1.9972000000 4.8229000000 0.0466000000
