6.0047000000 4.3851000000 0.0772000000
6.0039000000 3.1834000000 0.0963000000
6.0035000000 4.2094000000 0.0803000000
6.0028000000 3.5667000000 0.2008000000
6.0009000000 3.4366000000 0.1433000000
5.9982000000 4.3403000000 0.0254000000
5.7624000000 3.5061000000 0.3597000000
5.7599000000 4.9630000000 0.0066000000
5.7581000000 2.5222000000 0.0619000000
5.7577000000 3.3697000000 0.3064000000
5.7572000000 2.9229000000 0.1019000000
5.7569000000 4.2988000000 0.1603000000
5.7564000000 3.5813000000 0.4068000000
5.7561000000 2.7342000000 0.0852000000
5.7549000000 3.7493000000 0.4156000000
5.7536000000 2.6847000000 0.0655000000
5.7527000000 2.7596000000 0.1041000000
5.7518000000 3.4976000000 0.3692000000
5.7509000000 3.6644000000 0.5145000000
5.7505000000 3.7476000000 0.4173000000
5.7505000000 4.8230000000 0.0761000000
5.7477000000 3.5767000000 0.4089000000
5.5133000000 3.3106000000 0.4713000000
5.5100000000 5.4023000000 -0.0011000000
5.5091000000 4.5006000000 0.2620000000
5.5082000000 5.0068000000 0.1109000000
5.5080000000 2.1269000000 0.0100000000
5.5073000000 2.1370000000 0.0179000000
5.5070000000 3.1446000000 0.3974000000
5.5068000000 4.9804000000 0.1189000000
5.5066000000 2.9066000000 0.2883000000
5.5052000000 2.8807000000 0.2837000000
5.5047000000 2.6297000000 0.1617000000
5.5044000000 3.6105000000 0.6162000000
5.5041000000 5.1523000000 0.0490000000
5.5040000000 4.1397000000 0.4391000000
5.5038000000 2.8781000000 0.2800000000
5.5036000000 3.8123000000 0.5911000000
5.5026000000 4.7021000000 0.1856000000
5.5024000000 4.4325000000 0.3046000000
5.5021000000 3.9931000000 0.5069000000
5.5020000000 5.1243000000 0.0645000000
5.5014000000 3.1469000000 0.4053000000
5.5013000000 5.1163000000 0.0664000000
5.5007000000 2.9333000000 0.3066000000
5.5004000000 4.3961000000 0.3205000000
5.4978000000 2.2352000000 0.0679000000
5.4973000000 5.3173000000 0.0490000000
5.4963000000 2.2960000000 0.0947000000
5.2603000000 1.7486000000 0.0326000000
5.2600000000 5.7913000000 0.0198000000
5.2590000000 2.0868000000 0.1137000000
5.2587000000 5.8039000000 0.0178000000
5.2581000000 4.6050000000 0.4223000000
5.2578000000 1.8237000000 0.0725000000
5.2575000000 2.7487000000 0.4122000000
5.2572000000 3.9682000000 0.7145000000
5.2568000000 5.6702000000 0.0775000000
5.2566000000 2.6535000000 0.3785000000
5.2563000000 4.9323000000 0.2713000000
5.2558000000 2.9283000000 0.4999000000
5.2556000000 3.1368000000 0.5960000000
5.2554000000 5.1552000000 0.1667000000
5.2549000000 5.0815000000 0.2036000000
5.2547000000 5.0409000000 0.2244000000
5.2544000000 3.4577000000 0.7405000000
5.2541000000 5.0401000000 0.2233000000
5.2538000000 5.3365000000 0.0842000000
5.2536000000 2.0323000000 0.0925000000
5.2530000000 5.1304000000 0.1791000000
5.2529000000 1.6748000000 0.0767000000
5.2524000000 1.7495000000 0.0326000000
5.2519000000 3.5254000000 0.7810000000
5.2512000000 3.6418000000 0.8195000000
5.2502000000 2.4822000000 0.3008000000
5.2495000000 2.6518000000 0.3827000000
5.2484000000 2.1999000000 0.1728000000
5.0123000000 5.5813000000 0.1637000000
5.0108000000 5.8907000000 0.0959000000
5.0095000000 2.9487000000 0.7074000000
5.0089000000 4.3069000000 0.7514000000
5.0085000000 4.1264000000 0.8421000000
5.0084000000 5.7287000000 0.0997000000
5.0082000000 4.2492000000 0.7815000000
5.0081000000 5.3493000000 0.2758000000
5.0080000000 2.2385000000 0.3823000000
5.0074000000 4.4076000000 0.7124000000
5.0068000000 5.5161000000 0.2050000000
5.0065000000 5.9013000000 0.0977000000
5.0061000000 5.6664000000 0.1328000000
5.0059000000 3.8204000000 0.9855000000
5.0059000000 5.8702000000 0.1114000000
5.0055000000 4.2458000000 0.7909000000
5.0053000000 3.2132000000 0.8361000000
5.0052000000 1.6813000000 0.1284000000
5.0051000000 1.9155000000 0.2427000000
5.0049000000 1.0864000000 0.0104000000
5.0044000000 5.0182000000 0.4386000000
5.0040000000 1.3299000000 0.0437000000
5.0038000000 3.6991000000 1.0202000000
5.0035000000 1.6640000000 0.1228000000
5.0030000000 5.3037000000 0.3079000000
5.0028000000 5.6623000000 0.1327000000
5.0025000000 1.4039000000 0.0713000000
5.0024000000 4.3918000000 0.7258000000
5.0021000000 3.9015000000 0.9439000000
5.0019000000 2.2286000000 0.3821000000
5.0017000000 2.7412000000 0.6184000000
5.0015000000 1.4750000000 0.1101000000
5.0012000000 2.3285000000 0.4231000000
5.0010000000 3.8367000000 0.9779000000
5.0004000000 3.4169000000 0.9272000000
5.0001000000 2.6220000000 0.5665000000
4.9998000000 5.1719000000 0.3635000000
4.9993000000 1.2037000000 0.0580000000
4.9990000000 1.9371000000 0.2486000000
4.9987000000 1.8670000000 0.2189000000
4.9983000000 1.8387000000 0.2046000000
4.9976000000 2.2728000000 0.4052000000
4.9948000000 4.4476000000 0.7058000000
4.7622000000 6.6928000000 0.0078000000
4.7619000000 3.1196000000 0.9834000000
4.7602000000 4.3540000000 0.9276000000
4.7599000000 3.6421000000 1.2109000000
4.7589000000 5.3923000000 0.4561000000
4.7587000000 4.2368000000 0.9852000000
4.7584000000 4.6458000000 0.7926000000
4.7581000000 2.8818000000 0.8787000000
4.7578000000 2.5674000000 0.7246000000
4.7576000000 5.1716000000 0.5597000000
4.7575000000 2.4845000000 0.6962000000
4.7574000000 4.5917000000 0.8250000000
4.7570000000 2.6627000000 0.7776000000
4.7567000000 1.5997000000 0.2902000000
4.7564000000 2.9444000000 0.9080000000
4.7562000000 5.9151000000 0.2132000000
4.7559000000 3.5280000000 1.1782000000
4.7558000000 2.9428000000 0.9011000000
4.7554000000 5.8297000000 0.2531000000
4.7551000000 1.8917000000 0.4222000000
4.7550000000 5.5393000000 0.3871000000
4.7546000000 4.4720000000 0.8837000000
4.7545000000 1.2791000000 0.1438000000
4.7543000000 6.6942000000 0.0073000000
4.7540000000 2.7756000000 0.8305000000
4.7538000000 1.4745000000 0.2322000000
4.7536000000 4.1336000000 1.0334000000
4.7533000000 4.7803000000 0.7354000000
4.7532000000 4.0933000000 1.0577000000
4.7530000000 6.3714000000 0.0854000000
4.7528000000 1.2781000000 0.1417000000
4.7526000000 2.6163000000 0.7565000000
4.7525000000 2.9287000000 0.9031000000
4.7524000000 2.5289000000 0.7212000000
4.7519000000 3.3250000000 1.0836000000
4.7518000000 1.6117000000 0.3039000000
4.7517000000 2.3520000000 0.6374000000
4.7514000000 5.1640000000 0.5583000000
4.7509000000 2.9351000000 0.8991000000
4.7498000000 4.8862000000 0.6902000000
4.7497000000 1.2478000000 0.1322000000
4.7496000000 3.3364000000 1.0923000000
4.7493000000 1.8041000000 0.3919000000
4.7488000000 0.7511000000 0.0586000000
4.7483000000 1.7204000000 0.3497000000
4.7479000000 2.5388000000 0.7269000000
4.7477000000 4.4460000000 0.8996000000
4.7470000000 2.5546000000 0.7336000000
4.7458000000 4.0382000000 1.0886000000
4.7439000000 2.4723000000 0.7024000000
4.5114000000 6.0196000000 0.3613000000
4.5103000000 6.9147000000 0.0307000000
4.5098000000 3.9570000000 1.3144000000
4.5092000000 1.0617000000 0.2379000000
4.5086000000 1.0899000000 0.2498000000
4.5084000000 0.8269000000 0.1298000000
4.5082000000 6.9141000000 0.0283000000
4.5080000000 0.4113000000 0.0137000000
4.5079000000 5.0383000000 0.8102000000
4.5078000000 2.0514000000 0.6885000000
4.5072000000 5.9903000000 0.3829000000
4.5070000000 5.8742000000 0.4336000000
4.5068000000 6.5787000000 0.1116000000
4.5065000000 6.2429000000 0.2620000000
4.5064000000 6.7656000000 0.0991000000
4.5062000000 3.6132000000 1.4169000000
4.5061000000 6.4923000000 0.1591000000
4.5059000000 4.5348000000 1.0490000000
4.5057000000 4.5772000000 1.0289000000
4.5053000000 2.8205000000 1.0477000000
4.5052000000 4.5668000000 1.0313000000
4.5049000000 3.0234000000 1.1374000000
4.5043000000 1.4003000000 0.3964000000
4.5042000000 4.0887000000 1.2570000000
4.5041000000 4.5130000000 1.0568000000
4.5039000000 4.5967000000 1.0205000000
4.5038000000 4.5366000000 1.0479000000
4.5036000000 2.8656000000 1.0714000000
4.5035000000 3.3224000000 1.2832000000
4.5033000000 3.1109000000 1.1844000000
4.5032000000 3.9731000000 1.3098000000
4.5030000000 1.4778000000 0.4316000000
4.5030000000 1.5529000000 0.4654000000
4.5029000000 6.2284000000 0.2701000000
4.5025000000 6.0288000000 0.3653000000
4.5022000000 0.8606000000 0.1582000000
4.5021000000 3.5649000000 1.3983000000
4.5018000000 2.5573000000 0.9347000000
4.5013000000 2.6441000000 0.9746000000
4.5009000000 2.8283000000 1.0578000000
4.5008000000 0.2103000000 -0.0001000000
4.5005000000 3.4407000000 1.3392000000
4.5003000000 1.3785000000 0.3907000000
4.5001000000 4.7510000000 0.9588000000
4.5000000000 1.8160000000 0.5933000000
4.4993000000 0.2827000000 0.0434000000
4.4989000000 0.9224000000 0.1806000000
4.4980000000 7.0062000000 0.0701000000
4.4970000000 0.3050000000 0.0563000000
4.4966000000 1.3974000000 0.4052000000
4.4955000000 2.0560000000 0.7048000000
4.2640000000 7.2077000000 0.0885000000
4.2626000000 6.4356000000 0.3701000000
4.2611000000 3.5574000000 1.5811000000
4.2604000000 5.9975000000 0.5762000000
4.2600000000 7.2983000000 0.0412000000
4.2596000000 3.6750000000 1.6206000000
4.2593000000 0.6788000000 0.2591000000
4.2588000000 2.2118000000 0.9661000000
4.2581000000 0.4349000000 0.1515000000
4.2578000000 5.9914000000 0.5737000000
4.2576000000 5.3896000000 0.8539000000
4.2575000000 1.6005000000 0.6812000000
4.2572000000 4.5519000000 1.2410000000
4.2571000000 4.0564000000 1.4681000000
4.2569000000 7.1025000000 0.1468000000
4.2568000000 0.5820000000 0.2204000000
4.2566000000 4.2723000000 1.3747000000
4.2565000000 5.8485000000 0.6437000000
4.2563000000 5.4219000000 0.8380000000
4.2561000000 4.4787000000 1.2818000000
4.2560000000 5.3926000000 0.8545000000
4.2558000000 1.1944000000 0.5003000000
4.2556000000 6.8046000000 0.2054000000
4.2553000000 7.1069000000 0.1450000000
4.2552000000 6.6239000000 0.2868000000
4.2550000000 6.7549000000 0.2332000000
4.2549000000 4.9321000000 1.0633000000
4.2548000000 6.7989000000 0.2064000000
4.2545000000 6.3434000000 0.4222000000
4.2543000000 6.5713000000 0.3178000000
4.2541000000 3.9535000000 1.5141000000
4.2538000000 4.5792000000 1.2312000000
4.2537000000 2.0119000000 0.8750000000
4.2535000000 2.7424000000 1.2156000000
4.2531000000 0.9002000000 0.3656000000
4.2527000000 2.1995000000 0.9638000000
4.2526000000 1.3617000000 0.5842000000
4.2523000000 3.7715000000 1.6032000000
4.2523000000 0.2906000000 0.0947000000
4.2520000000 2.6566000000 1.1733000000
4.2519000000 0.7718000000 0.3165000000
4.2515000000 1.1927000000 0.5118000000
4.2513000000 1.6522000000 0.7096000000
4.2510000000 3.4118000000 1.5205000000
4.2507000000 3.9313000000 1.5295000000
4.2505000000 2.4744000000 1.0919000000
4.2503000000 0.1649000000 0.1075000000
4.2494000000 4.4158000000 1.3098000000
4.2490000000 0.2119000000 0.1303000000
4.2485000000 0.7838000000 0.3225000000
4.2463000000 1.2511000000 0.5415000000
4.2436000000 0.7072000000 0.2924000000
4.0120000000 4.3477000000 1.5314000000
4.0119000000 2.5064000000 1.2987000000
4.0110000000 0.9706000000 0.5943000000
4.0108000000 5.3618000000 1.0643000000
4.0104000000 6.5367000000 0.5287000000
4.0098000000 1.3216000000 0.7526000000
4.0095000000 3.6282000000 1.8736000000
4.0094000000 6.7275000000 0.4368000000
4.0091000000 0.7913000000 0.5095000000
4.0087000000 6.2808000000 0.6443000000
4.0086000000 6.6644000000 0.4695000000
4.0081000000 0.9124000000 0.5701000000
4.0080000000 6.1314000000 0.7041000000
4.0075000000 1.6742000000 0.9184000000
4.0074000000 3.4449000000 1.7291000000
4.0070000000 4.9442000000 1.2630000000
4.0068000000 1.8146000000 0.9861000000
4.0066000000 6.6486000000 0.4766000000
4.0066000000 5.0163000000 1.2232000000
4.0063000000 4.9452000000 1.2587000000
4.0061000000 5.2845000000 1.1032000000
4.0060000000 3.9279000000 1.7286000000
4.0059000000 4.4591000000 1.4812000000
4.0057000000 2.1645000000 1.1477000000
4.0056000000 6.9936000000 0.2858000000
4.0055000000 7.0748000000 0.2189000000
4.0054000000 2.9675000000 1.5198000000
4.0051000000 1.0099000000 0.6184000000
4.0053000000 7.1084000000 0.1950000000
4.0050000000 5.9383000000 0.8021000000
4.0048000000 6.4088000000 0.5869000000
4.0047000000 4.7680000000 1.3409000000
4.0046000000 5.5605000000 0.9723000000
4.0045000000 3.3123000000 1.6711000000
4.0045000000 7.2186000000 0.0903000000
4.0043000000 1.2583000000 0.7304000000
4.0040000000 2.6594000000 1.3743000000
4.0038000000 2.8199000000 1.4463000000
4.0037000000 5.9578000000 0.7967000000
4.0035000000 2.2969000000 1.2049000000
4.0033000000 3.0089000000 1.5403000000
4.0029000000 2.7196000000 1.4038000000
4.0025000000 6.3447000000 0.6212000000
4.0024000000 3.0879000000 1.5741000000
4.0016000000 2.5027000000 1.3048000000
4.0012000000 5.9208000000 0.8163000000
4.0010000000 3.8679000000 1.7549000000
4.0004000000 0.1765000000 0.1229000000
3.9998000000 2.7927000000 1.4388000000
3.9996000000 2.0538000000 1.1036000000
3.9991000000 6.0771000000 0.7448000000
3.9985000000 0.7569000000 0.5045000000
3.9958000000 4.8735000000 1.3010000000
3.7631000000 7.0884000000 0.2056000000
3.7611000000 0.7549000000 0.6401000000
3.7610000000 3.6446000000 2.0794000000
3.7599000000 6.9288000000 0.3581000000
3.7595000000 5.3198000000 1.2847000000
3.7593000000 2.1457000000 1.3320000000
3.7592000000 0.5563000000 0.4638000000
3.7581000000 2.7114000000 1.5892000000
3.7580000000 5.0493000000 1.4004000000
3.7577000000 3.8052000000 1.9785000000
3.7574000000 5.8097000000 1.0620000000
3.7573000000 6.7948000000 0.4738000000
3.7570000000 0.9940000000 0.8059000000
3.7568000000 3.1223000000 1.7883000000
3.7565000000 1.2147000000 0.9011000000
3.7561000000 6.1718000000 0.8980000000
3.7560000000 0.1591000000 0.1028000000
3.7559000000 6.4225000000 0.7650000000
3.7557000000 4.0693000000 1.8545000000
3.7555000000 4.3673000000 1.7263000000
3.7553000000 5.0812000000 1.3915000000
3.7552000000 2.3445000000 1.4283000000
3.7550000000 6.0576000000 0.9447000000
3.7549000000 4.1379000000 1.8297000000
3.7547000000 6.5759000000 0.6626000000
3.7546000000 6.7186000000 0.5466000000
3.7545000000 6.3745000000 0.8046000000
3.7543000000 3.7148000000 2.0878000000
3.7542000000 2.6135000000 1.5514000000
3.7539000000 2.5118000000 1.4988000000
3.7538000000 4.6897000000 1.5802000000
3.7536000000 1.3171000000 0.9559000000
3.7534000000 6.2579000000 0.8555000000
3.7533000000 2.0593000000 1.2995000000
3.7530000000 4.2838000000 1.7638000000
3.7528000000 6.6623000000 0.6028000000
3.7525000000 2.5572000000 1.5330000000
3.7524000000 1.0771000000 0.8449000000
3.7522000000 6.1919000000 0.8936000000
3.7521000000 5.5624000000 1.1724000000
3.7520000000 7.1391000000 0.1635000000
3.7517000000 5.1157000000 1.3823000000
3.7515000000 4.3388000000 1.7455000000
3.7513000000 3.8680000000 1.9553000000
3.7511000000 6.5221000000 0.7149000000
3.7508000000 4.4823000000 1.6772000000
3.7504000000 2.6322000000 1.5615000000
3.7498000000 0.4515000000 0.3726000000
3.7495000000 0.9419000000 0.8414000000
3.7493000000 6.5911000000 0.6507000000
3.7492000000 2.8603000000 1.6670000000
3.7488000000 4.9736000000 1.4526000000
3.7485000000 5.7474000000 1.0998000000
3.7479000000 2.5257000000 1.5163000000
3.7444000000 0.1321000000 0.0780000000
3.5129000000 5.5726000000 1.3558000000
3.5114000000 6.4399000000 0.8038000000
3.5111000000 7.1524000000 0.1544000000
3.5106000000 3.4635000000 2.1354000000
3.5100000000 4.0356000000 2.0693000000
3.5088000000 2.3993000000 1.6517000000
3.5085000000 7.1627000000 0.1399000000
3.5085000000 4.7571000000 1.7367000000
3.5084000000 4.6131000000 1.8064000000
3.5083000000 5.2984000000 1.4944000000
3.5081000000 0.4833000000 0.4031000000
3.5079000000 1.4069000000 1.1919000000
3.5078000000 5.2533000000 1.5102000000
3.5077000000 2.2083000000 1.5601000000
3.5074000000 5.4435000000 1.4260000000
3.5070000000 5.5853000000 1.3606000000
3.5065000000 4.4264000000 1.8954000000
3.5063000000 4.8406000000 1.7028000000
3.5062000000 6.6307000000 0.6290000000
3.5062000000 4.2173000000 1.9916000000
3.5060000000 1.8813000000 1.4129000000
3.5058000000 6.3814000000 0.8644000000
3.5056000000 4.6628000000 1.7834000000
3.5054000000 6.3690000000 0.8664000000
3.5053000000 0.0074000000 0.0400000000
3.5051000000 6.4162000000 0.8221000000
3.5050000000 3.9369000000 2.1226000000
3.5049000000 0.0284000000 0.0575000000
3.5046000000 2.8530000000 1.8600000000
3.5044000000 3.8041000000 2.1800000000
3.5040000000 3.3734000000 2.1003000000
3.5040000000 5.7872000000 1.2705000000
3.5037000000 4.4194000000 1.9008000000
3.5035000000 2.5252000000 1.7135000000
3.5033000000 5.3928000000 1.4542000000
3.5030000000 5.1090000000 1.5786000000
3.5029000000 0.5916000000 0.5005000000
3.5028000000 2.7531000000 1.8171000000
3.5026000000 5.3520000000 1.4733000000
3.5025000000 6.3011000000 0.9330000000
3.5024000000 1.0377000000 0.9121000000
3.5022000000 1.7793000000 1.3661000000
3.5021000000 0.4802000000 0.4002000000
3.5019000000 4.8037000000 1.7225000000
3.5017000000 5.4449000000 1.4281000000
3.5016000000 3.2630000000 2.0492000000
3.5015000000 0.4874000000 0.4109000000
3.5013000000 4.5708000000 1.8326000000
3.5011000000 4.7061000000 1.7742000000
3.5010000000 2.9134000000 1.8909000000
3.5009000000 3.7641000000 2.2043000000
3.5008000000 0.1434000000 0.0912000000
3.5003000000 5.8281000000 1.2585000000
3.4997000000 2.9855000000 1.9275000000
3.4994000000 4.0275000000 2.0817000000
3.4989000000 0.7040000000 0.6069000000
3.4985000000 3.3285000000 2.0878000000
3.4976000000 1.1366000000 1.0031000000
3.4966000000 1.7378000000 1.3543000000
3.2629000000 5.8151000000 1.3762000000
3.2608000000 3.5500000000 2.3711000000
3.2603000000 0.8869000000 0.7745000000
3.2595000000 3.7867000000 2.3888000000
3.2593000000 6.8650000000 0.4189000000
3.2592000000 5.6988000000 1.4733000000
3.2590000000 5.1426000000 1.7574000000
3.2589000000 1.7818000000 1.6234000000
3.2584000000 5.7737000000 1.4110000000
3.2583000000 2.9709000000 2.1115000000
3.2579000000 0.5001000000 0.4216000000
3.2578000000 7.1633000000 0.1438000000
3.2578000000 4.0255000000 2.2789000000
3.2575000000 6.0357000000 1.1730000000
3.2573000000 6.8219000000 0.4539000000
3.2571000000 6.2752000000 0.9553000000
3.2570000000 4.7281000000 1.9550000000
3.2568000000 6.5762000000 0.6814000000
3.2568000000 5.0670000000 1.7932000000
3.2562000000 5.7307000000 1.4475000000
3.2561000000 5.1083000000 1.7735000000
3.2560000000 5.0575000000 1.8042000000
3.2558000000 3.5977000000 2.3996000000
3.2556000000 6.2272000000 1.0022000000
3.2554000000 3.6530000000 2.4119000000
3.2553000000 2.0049000000 1.6667000000
3.2550000000 5.5086000000 1.6008000000
3.2546000000 4.4864000000 2.0710000000
3.2545000000 0.3507000000 0.2771000000
3.2543000000 2.1102000000 1.7195000000
3.2542000000 5.9485000000 1.2526000000
3.2541000000 7.2061000000 0.1027000000
3.2539000000 3.6062000000 2.4079000000
3.2538000000 1.9591000000 1.6409000000
3.2535000000 7.1485000000 0.1566000000
3.2533000000 3.6925000000 2.4856000000
3.2532000000 6.3990000000 0.8417000000
3.2530000000 6.9395000000 0.3469000000
3.2529000000 3.5894000000 2.4011000000
3.2528000000 1.3832000000 1.2274000000
3.2526000000 2.7342000000 2.0063000000
3.2524000000 3.7632000000 2.4054000000
3.2524000000 5.4496000000 1.6241000000
3.2523000000 5.1951000000 1.7468000000
3.2517000000 2.8368000000 2.0512000000
3.2514000000 3.3104000000 2.2735000000
3.2513000000 5.7107000000 1.4564000000
3.2507000000 2.0763000000 1.7060000000
3.2504000000 3.1311000000 2.1888000000
3.2500000000 5.6041000000 1.5444000000
3.2499000000 4.4219000000 2.1031000000
3.2488000000 1.2099000000 1.0681000000
3.2477000000 3.3108000000 2.2778000000
3.2471000000 0.8722000000 0.7580000000
3.2446000000 0.1580000000 0.1040000000
3.0148000000 6.0755000000 1.1356000000
3.0123000000 5.9138000000 1.2790000000
3.0105000000 6.5132000000 0.7370000000
3.0098000000 2.2796000000 1.9892000000
3.0095000000 3.1960000000 2.4044000000
3.0090000000 1.5992000000 1.4276000000
3.0089000000 6.8415000000 0.4346000000
3.0088000000 5.9998000000 1.2115000000
3.0084000000 0.9554000000 0.8395000000
3.0083000000 7.0981000000 0.1923000000
3.0081000000 1.8640000000 1.6811000000
3.0080000000 1.4667000000 1.3039000000
3.0074000000 5.7936000000 1.3996000000
3.0072000000 4.8572000000 2.0940000000
3.0071000000 4.4607000000 2.2789000000
3.0066000000 0.9099000000 0.7976000000
3.0062000000 5.4421000000 1.7196000000
3.0061000000 6.7465000000 0.5186000000
3.0057000000 6.8141000000 0.4599000000
3.0056000000 5.7400000000 1.4499000000
3.0055000000 0.5392000000 0.4559000000
3.0053000000 7.0537000000 0.2375000000
3.0052000000 2.5224000000 2.1079000000
3.0051000000 5.8271000000 1.3639000000
3.0050000000 2.4511000000 2.0746000000
3.0049000000 1.8905000000 1.6939000000
3.0046000000 7.3399000000 0.0485000000
3.0045000000 4.7814000000 2.1287000000
3.0044000000 7.0107000000 0.2775000000
3.0043000000 5.1512000000 1.9477000000
3.0039000000 1.9559000000 1.7590000000
3.0038000000 4.5224000000 2.2520000000
3.0035000000 1.8078000000 1.6185000000
3.0033000000 5.7180000000 1.4656000000
3.0031000000 1.3932000000 1.2382000000
3.0028000000 2.4374000000 2.0676000000
3.0025000000 2.2895000000 2.0030000000
3.0023000000 1.7504000000 1.5654000000
3.0022000000 1.0029000000 0.8784000000
3.0021000000 5.4439000000 1.7201000000
3.0019000000 7.1892000000 0.1156000000
3.0015000000 2.2589000000 1.9782000000
3.0013000000 1.6244000000 1.4527000000
3.0008000000 6.2721000000 0.9534000000
3.0006000000 1.8771000000 1.6874000000
3.0004000000 2.1515000000 1.9208000000
3.0003000000 0.1368000000 0.0852000000
3.0002000000 1.6393000000 1.4658000000
3.0000000000 3.5548000000 2.5869000000
2.9998000000 4.9546000000 2.0580000000
2.9993000000 2.3415000000 2.0297000000
2.9986000000 0.9041000000 0.7939000000
2.9985000000 3.1116000000 2.3787000000
2.9978000000 0.6230000000 0.5319000000
2.9973000000 1.4363000000 1.2858000000
2.9951000000 0.0019000000 0.0378000000
2.7624000000 7.2636000000 0.1237000000
2.7620000000 6.6216000000 0.6352000000
2.7616000000 2.6178000000 2.4008000000
2.7610000000 4.2125000000 2.5832000000
2.7596000000 2.0241000000 1.8160000000
2.7594000000 6.4474000000 0.7929000000
2.7586000000 2.0850000000 1.8703000000
2.7579000000 6.6201000000 0.6360000000
2.7576000000 6.6719000000 0.5898000000
2.7574000000 5.6108000000 1.5687000000
2.7570000000 0.5066000000 0.4263000000
2.7568000000 6.4954000000 0.7476000000
2.7565000000 5.7105000000 1.4728000000
2.7564000000 6.3544000000 0.8833000000
2.7563000000 3.1769000000 2.6033000000
2.7562000000 3.5664000000 2.7819000000
2.7560000000 1.4007000000 1.2511000000
2.7558000000 3.7736000000 2.7916000000
2.7557000000 5.3774000000 1.7785000000
2.7555000000 0.2455000000 0.1856000000
2.7553000000 5.0180000000 2.1068000000
2.7551000000 0.1960000000 0.1377000000
2.7550000000 4.2350000000 2.5861000000
2.7547000000 5.9318000000 1.2720000000
2.7543000000 1.6499000000 1.4769000000
2.7540000000 3.6238000000 2.8077000000
2.7538000000 3.0391000000 2.5427000000
2.7538000000 0.0484000000 0.0784000000
2.7535000000 2.2806000000 2.0553000000
2.7531000000 0.8904000000 0.7791000000
2.7529000000 4.6959000000 2.3525000000
2.7528000000 6.2564000000 0.9729000000
2.7525000000 1.7347000000 1.5563000000
2.7525000000 5.2610000000 1.8864000000
2.7523000000 4.4778000000 2.4749000000
2.7521000000 3.7540000000 2.8024000000
2.7520000000 6.1506000000 1.0657000000
2.7518000000 3.4669000000 2.7402000000
2.7516000000 5.0084000000 2.1216000000
2.7513000000 3.6870000000 2.8158000000
2.7508000000 2.8964000000 2.4812000000
2.7505000000 3.6886000000 2.8166000000
2.7504000000 0.5250000000 0.4394000000
2.7502000000 1.7298000000 1.5464000000
2.7500000000 4.9230000000 2.1964000000
2.7493000000 3.2162000000 2.6312000000
2.7486000000 1.5846000000 1.4171000000
2.7485000000 0.3159000000 0.2499000000
2.7483000000 1.7760000000 1.5927000000
2.7475000000 0.9138000000 0.7961000000
2.7470000000 1.0090000000 0.8867000000
2.7464000000 0.5983000000 0.5106000000
2.7402000000 0.0926000000 0.1232000000
2.5124000000 6.6200000000 0.6353000000
2.5113000000 1.7932000000 1.6028000000
2.5105000000 6.2795000000 0.9520000000
2.5099000000 5.4580000000 1.6993000000
2.5094000000 5.9057000000 1.2941000000
2.5093000000 6.0583000000 1.1579000000
2.5086000000 6.3937000000 0.8501000000
2.5082000000 4.3613000000 2.6985000000
2.5080000000 4.5576000000 2.5367000000
2.5076000000 7.1629000000 0.1425000000
2.5076000000 0.3180000000 0.2502000000
2.5075000000 5.0484000000 2.0818000000
2.5072000000 6.5466000000 0.7134000000
2.5068000000 5.0204000000 2.1019000000
2.5066000000 6.8606000000 0.4170000000
2.5065000000 2.1434000000 1.9293000000
2.5064000000 1.6898000000 1.5068000000
2.5061000000 3.3340000000 2.8736000000
2.5059000000 2.9283000000 2.7091000000
2.5057000000 4.9457000000 2.1751000000
2.5055000000 6.7612000000 0.5107000000
2.5053000000 3.6864000000 3.0127000000
2.5050000000 2.7102000000 2.4507000000
2.5048000000 3.8488000000 2.9554000000
2.5046000000 5.5598000000 1.6064000000
2.5044000000 6.9215000000 0.3618000000
2.5042000000 5.4142000000 1.7481000000
2.5041000000 6.5995000000 0.6503000000
2.5039000000 6.7879000000 0.4849000000
2.5036000000 1.2381000000 1.0902000000
2.5035000000 2.9884000000 2.7700000000
2.5034000000 1.3950000000 1.2405000000
2.5029000000 0.3856000000 0.3211000000
2.5027000000 7.3493000000 0.0415000000
2.5025000000 2.5412000000 2.2886000000
2.5025000000 4.9758000000 2.1517000000
2.5020000000 2.4831000000 2.2375000000
2.5019000000 4.3506000000 2.7038000000
2.5019000000 1.7113000000 1.5365000000
2.5016000000 1.9702000000 1.7665000000
2.5014000000 4.3774000000 2.6794000000
2.5012000000 2.7376000000 2.4692000000
2.5010000000 3.8006000000 2.9811000000
2.5009000000 1.4440000000 1.2855000000
2.5006000000 6.8009000000 0.4746000000
2.5003000000 0.1930000000 0.1400000000
2.4998000000 2.4416000000 2.2013000000
2.4998000000 0.1046000000 0.1327000000
2.4989000000 1.6547000000 1.4826000000
2.4985000000 7.1172000000 0.1828000000
2.4977000000 1.0510000000 0.9236000000
2.4975000000 0.5597000000 0.4729000000
2.4968000000 0.8893000000 0.7793000000
2.4963000000 1.1744000000 1.0376000000
2.2638000000 6.7669000000 0.5040000000
2.2628000000 3.4140000000 3.1523000000
2.2606000000 6.8621000000 0.4179000000
2.2605000000 7.3130000000 0.0732000000
2.2602000000 7.2984000000 0.0896000000
2.2599000000 7.3057000000 0.0857000000
2.2594000000 6.1729000000 1.0434000000
2.2592000000 6.3764000000 0.8609000000
2.2590000000 4.6484000000 2.4473000000
2.2588000000 1.9789000000 1.7791000000
2.2585000000 5.0799000000 2.0528000000
2.2580000000 3.5499000000 3.1714000000
2.2578000000 5.9986000000 1.2075000000
2.2577000000 1.4960000000 1.3348000000
2.2575000000 5.2687000000 1.8762000000
2.2574000000 4.2941000000 2.7713000000
2.2572000000 2.9655000000 2.6813000000
2.2570000000 5.8844000000 1.3113000000
2.2564000000 0.3447000000 0.2819000000
2.2559000000 1.1532000000 1.0175000000
2.2558000000 3.1362000000 2.8399000000
2.2555000000 5.2310000000 1.9145000000
2.2553000000 6.7843000000 0.4857000000
2.2552000000 5.1708000000 1.9674000000
2.2550000000 2.0133000000 1.8073000000
2.2548000000 1.7672000000 1.5848000000
2.2546000000 6.7736000000 0.4949000000
2.2541000000 2.0577000000 1.8517000000
2.2540000000 2.3816000000 2.1525000000
2.2537000000 5.2791000000 1.8651000000
2.2533000000 7.2553000000 0.1269000000
2.2532000000 1.0275000000 0.9033000000
2.2530000000 1.3635000000 1.2101000000
2.2530000000 0.8587000000 0.7528000000
2.2527000000 3.9788000000 3.0510000000
2.2526000000 6.8765000000 0.4017000000
2.2523000000 0.4163000000 0.3405000000
2.2520000000 0.6161000000 0.5264000000
2.2518000000 1.1330000000 1.0043000000
2.2515000000 2.5497000000 2.3036000000
2.2513000000 0.4224000000 0.3453000000
2.2512000000 6.4301000000 0.8088000000
2.2510000000 1.2947000000 1.1494000000
2.2508000000 3.1758000000 2.8770000000
2.2507000000 2.2004000000 1.9830000000
2.2499000000 4.8058000000 2.3025000000
2.2496000000 5.6684000000 1.5165000000
2.2486000000 1.3877000000 1.2353000000
2.2483000000 3.5775000000 3.1911000000
2.2480000000 0.2961000000 0.2297000000
2.2471000000 2.0475000000 1.8406000000
2.2456000000 2.5424000000 2.2929000000
2.0128000000 5.7935000000 1.3992000000
2.0113000000 1.8910000000 1.6933000000
2.0104000000 6.7958000000 0.4779000000
2.0095000000 5.5073000000 1.6610000000
2.0092000000 7.1838000000 0.1186000000
2.0088000000 4.2942000000 2.7759000000
2.0085000000 5.6885000000 1.4886000000
2.0084000000 2.1780000000 1.9612000000
2.0082000000 2.8957000000 2.6184000000
2.0082000000 5.5490000000 1.6218000000
2.0076000000 4.3323000000 2.7367000000
2.0073000000 2.5867000000 2.3309000000
2.0071000000 4.3568000000 2.7110000000
2.0069000000 4.4256000000 2.6493000000
2.0067000000 1.2931000000 1.1485000000
2.0064000000 4.7279000000 2.3755000000
2.0062000000 5.1103000000 2.0269000000
2.0058000000 6.2953000000 0.9389000000
2.0056000000 4.6467000000 2.4484000000
2.0054000000 2.3614000000 2.1356000000
2.0053000000 3.8024000000 3.1696000000
2.0051000000 6.4366000000 0.8058000000
2.0050000000 4.8540000000 2.2561000000
2.0048000000 3.1491000000 2.8511000000
2.0046000000 3.9437000000 3.0827000000
2.0044000000 5.7259000000 1.4599000000
2.0043000000 5.2419000000 1.8987000000
2.0041000000 1.5195000000 1.3538000000
2.0035000000 1.3516000000 1.1977000000
2.0033000000 7.2356000000 0.1420000000
2.0031000000 0.7977000000 0.6947000000
2.0029000000 6.9397000000 0.3462000000
2.0027000000 5.2055000000 1.9383000000
2.0025000000 3.7134000000 3.2798000000
2.0025000000 1.4475000000 1.2841000000
2.0023000000 0.4834000000 0.4011000000
2.0020000000 2.8454000000 2.5717000000
2.0019000000 3.6752000000 3.3016000000
2.0018000000 3.8297000000 3.2322000000
2.0016000000 3.0409000000 2.7488000000
2.0015000000 4.5299000000 2.5560000000
2.0014000000 4.8970000000 2.2200000000
2.0013000000 6.1890000000 1.0398000000
2.0012000000 0.9536000000 0.8374000000
2.0008000000 6.9699000000 0.3138000000
2.0003000000 1.0168000000 0.8991000000
2.0001000000 0.9217000000 0.8043000000
2.0000000000 1.9694000000 1.7690000000
1.9995000000 3.1312000000 2.8330000000
1.9993000000 3.0416000000 2.7578000000
1.9971000000 6.8400000000 0.4318000000
1.7631000000 4.4148000000 2.6630000000
1.7624000000 5.4444000000 1.7206000000
1.7609000000 6.9842000000 0.2986000000
1.7603000000 5.6756000000 1.5067000000
1.7597000000 4.0919000000 2.8555000000
1.7595000000 5.1156000000 2.0234000000
1.7594000000 5.6376000000 1.5408000000
1.7591000000 1.8905000000 1.6954000000
1.7589000000 3.3176000000 2.8861000000
1.7581000000 1.2407000000 1.1041000000
1.7576000000 4.4029000000 2.6607000000
1.7570000000 1.4470000000 1.2903000000
1.7570000000 6.2554000000 0.9692000000
1.7568000000 0.2149000000 0.1584000000
1.7565000000 3.7498000000 3.0084000000
1.7563000000 5.7547000000 1.4328000000
1.7560000000 1.5501000000 1.3911000000
1.7557000000 1.3078000000 1.1593000000
1.7555000000 0.1025000000 0.1272000000
1.7552000000 6.1200000000 1.0992000000
1.7550000000 0.0013000000 0.0392000000
1.7549000000 7.1582000000 0.1394000000
1.7548000000 3.4519000000 2.9422000000
1.7544000000 5.1761000000 1.9605000000
1.7548000000 0.1066000000 0.1328000000
1.7542000000 1.1183000000 0.9915000000
1.7540000000 7.0963000000 0.2022000000
1.7539000000 2.2761000000 2.0529000000
1.7539000000 5.7136000000 1.4677000000
1.7536000000 0.5252000000 0.4434000000
1.7535000000 5.4386000000 1.7233000000
1.7533000000 4.0871000000 2.8553000000
1.7530000000 0.7093000000 0.6054000000
1.7528000000 2.6530000000 2.3940000000
1.7525000000 3.4133000000 2.9205000000
1.7524000000 5.3677000000 1.7876000000
1.7522000000 4.5990000000 2.4957000000
1.7520000000 3.3376000000 2.8804000000
1.7516000000 5.9749000000 1.2307000000
1.7515000000 5.6561000000 1.5247000000
1.7514000000 0.6257000000 0.5378000000
1.7513000000 3.9164000000 2.9303000000
1.7509000000 6.8466000000 0.4281000000
1.7507000000 2.5788000000 2.3255000000
1.7503000000 0.6100000000 0.5229000000
1.7500000000 2.0041000000 1.8028000000
1.7499000000 0.3417000000 0.2770000000
1.7496000000 4.6475000000 2.4483000000
1.7494000000 4.0844000000 2.8577000000
1.7491000000 4.0903000000 2.8512000000
1.7479000000 3.2781000000 2.8565000000
1.7478000000 0.4271000000 0.3527000000
1.7471000000 1.5684000000 1.3931000000
1.7461000000 1.6908000000 1.5166000000
1.5109000000 7.1158000000 0.1780000000
1.5095000000 1.8058000000 1.6116000000
1.5091000000 2.4233000000 2.1877000000
1.5084000000 5.2069000000 1.9416000000
1.5081000000 3.5270000000 2.7781000000
1.5076000000 0.6953000000 0.6015000000
1.5068000000 2.4681000000 2.2268000000
1.5067000000 2.5708000000 2.3824000000
1.5066000000 4.0172000000 2.6960000000
1.5065000000 2.2150000000 1.9940000000
1.5064000000 0.8309000000 0.7226000000
1.5060000000 5.8362000000 1.3574000000
1.5058000000 6.0823000000 1.1314000000
1.5057000000 5.8575000000 1.3372000000
1.5056000000 4.6401000000 2.3979000000
1.5055000000 1.2257000000 1.0875000000
1.5053000000 6.3209000000 0.9108000000
1.5053000000 0.0305000000 0.0643000000
1.5051000000 0.3135000000 0.2497000000
1.5050000000 2.4635000000 2.2242000000
1.5049000000 5.3262000000 1.8240000000
1.5048000000 2.5349000000 2.3496000000
1.5046000000 7.3288000000 0.0586000000
1.5045000000 6.3095000000 0.9230000000
1.5043000000 5.5072000000 1.6594000000
1.5041000000 0.8781000000 0.7664000000
1.5039000000 5.8981000000 1.3039000000
1.5037000000 0.9033000000 0.7926000000
1.5034000000 0.1400000000 0.0918000000
1.5029000000 1.8550000000 1.6591000000
1.5027000000 4.7343000000 2.3457000000
1.5025000000 1.7197000000 1.5353000000
1.5024000000 1.9488000000 1.7560000000
1.5023000000 1.2715000000 1.1287000000
1.5019000000 3.1317000000 2.5875000000
1.5016000000 6.7443000000 0.5248000000
1.5014000000 1.6296000000 1.4565000000
1.5013000000 0.6642000000 0.5678000000
1.5011000000 0.9708000000 0.8461000000
1.5008000000 5.1345000000 2.0027000000
1.5004000000 4.0401000000 2.6757000000
1.5002000000 5.3763000000 1.7751000000
1.4996000000 1.3594000000 1.2099000000
1.4995000000 2.0695000000 1.8628000000
1.4992000000 2.7149000000 2.3964000000
1.4982000000 4.0284000000 2.6828000000
1.4965000000 2.8797000000 2.4714000000
1.2638000000 5.0672000000 2.0060000000
1.2616000000 3.8335000000 2.5831000000
1.2610000000 1.4436000000 1.2899000000
1.2605000000 3.4648000000 2.5592000000
1.2603000000 6.9978000000 0.2945000000
1.2598000000 5.5092000000 1.6628000000
1.2595000000 7.3236000000 0.0672000000
1.2588000000 6.6637000000 0.5967000000
1.2580000000 6.1327000000 1.0891000000
1.2579000000 3.7642000000 2.6112000000
1.2574000000 0.0522000000 0.0837000000
1.2573000000 1.6021000000 1.4300000000
1.2570000000 7.1129000000 0.1819000000
1.2567000000 6.6978000000 0.5708000000
1.2566000000 2.2447000000 2.0494000000
1.2565000000 6.1213000000 1.0933000000
1.2562000000 4.5574000000 2.2448000000
1.2560000000 6.1996000000 1.0202000000
1.2558000000 2.3981000000 2.0627000000
1.2557000000 4.5765000000 2.2401000000
1.2556000000 1.0446000000 0.9186000000
1.2555000000 5.0059000000 2.0396000000
1.2553000000 6.6440000000 0.6175000000
1.2549000000 5.0301000000 2.0295000000
1.2548000000 3.4534000000 2.5379000000
1.2546000000 2.9684000000 2.3192000000
1.2543000000 4.4999000000 2.2674000000
1.2542000000 1.6362000000 1.4635000000
1.2540000000 3.4328000000 2.5356000000
1.2539000000 1.1835000000 1.0435000000
1.2538000000 3.7221000000 2.6066000000
1.2537000000 3.1757000000 2.4106000000
1.2534000000 0.3246000000 0.2557000000
1.2532000000 3.3438000000 2.4939000000
1.2530000000 2.0982000000 1.9440000000
1.2527000000 2.1984000000 1.9509000000
1.2525000000 0.1750000000 0.1244000000
1.2524000000 3.5833000000 2.5977000000
1.2524000000 1.8770000000 1.6862000000
1.2520000000 1.6237000000 1.4501000000
1.2518000000 0.1154000000 0.1433000000
1.2518000000 0.6665000000 0.5690000000
1.2516000000 7.3418000000 0.0478000000
1.2515000000 6.9816000000 0.3102000000
1.2514000000 2.3278000000 2.0220000000
1.2512000000 1.5227000000 1.3582000000
1.2507000000 2.1430000000 1.9869000000
1.2501000000 4.6240000000 2.2084000000
1.2498000000 0.1556000000 0.1053000000
1.2496000000 0.1798000000 0.1260000000
1.2495000000 1.0363000000 0.9113000000
1.2493000000 5.0749000000 1.9994000000
1.2492000000 2.1089000000 1.9505000000
1.2481000000 0.5513000000 0.4648000000
1.2475000000 0.0241000000 0.0575000000
1.2473000000 1.9496000000 1.7491000000
1.2456000000 0.0110000000 0.0513000000
1.0138000000 4.8968000000 1.8900000000
1.0106000000 6.0898000000 1.1312000000
1.0095000000 7.3324000000 0.0557000000
1.0092000000 0.9127000000 0.7997000000
1.0091000000 6.6165000000 0.6441000000
1.0085000000 7.0691000000 0.2255000000
1.0081000000 6.8682000000 0.4074000000
1.0078000000 5.2960000000 1.7043000000
1.0077000000 6.4847000000 0.7617000000
1.0074000000 1.5136000000 1.3563000000
1.0074000000 3.3293000000 2.2940000000
1.0072000000 7.3916000000 0.0796000000
1.0069000000 3.3609000000 2.3026000000
1.0069000000 0.0629000000 0.0956000000
1.0067000000 4.1125000000 2.2507000000
1.0063000000 5.0687000000 1.8069000000
1.0064000000 3.8329000000 2.3767000000
1.0061000000 0.8930000000 0.7793000000
1.0058000000 1.0117000000 0.8875000000
1.0058000000 5.0535000000 1.8205000000
1.0057000000 4.4658000000 2.0888000000
1.0055000000 3.8752000000 2.3627000000
1.0053000000 4.2508000000 2.1856000000
1.0050000000 6.5116000000 0.7366000000
1.0048000000 3.3887000000 2.3139000000
1.0045000000 6.0694000000 1.1412000000
1.0042000000 1.8005000000 1.6460000000
1.0040000000 3.3612000000 2.2995000000
1.0038000000 4.1183000000 2.2456000000
1.0037000000 5.0884000000 1.8045000000
1.0035000000 0.7312000000 0.6329000000
1.0034000000 2.7385000000 2.0120000000
1.0033000000 3.3526000000 2.3002000000
1.0031000000 5.5760000000 1.5637000000
1.0030000000 3.2577000000 2.2537000000
1.0029000000 0.3771000000 0.3068000000
1.0028000000 4.6435000000 2.0079000000
1.0025000000 3.7285000000 2.4179000000
1.0022000000 6.4079000000 0.8286000000
1.0020000000 7.1024000000 0.1901000000
1.0018000000 3.0243000000 2.1423000000
1.0017000000 0.5360000000 0.4508000000
1.0012000000 4.5149000000 2.0570000000
1.0011000000 3.3329000000 2.2878000000
1.0008000000 2.5081000000 1.9028000000
1.0006000000 0.1524000000 0.0995000000
1.0001000000 0.6085000000 0.5216000000
1.0000000000 0.3766000000 0.3037000000
0.9999000000 0.5285000000 0.4464000000
0.9994000000 2.5100000000 1.9106000000
0.9990000000 5.3332000000 1.6906000000
0.9989000000 4.4156000000 2.1042000000
0.9988000000 3.0924000000 2.1764000000
0.9986000000 7.0062000000 0.2837000000
0.9983000000 0.8755000000 0.7641000000
0.9953000000 0.3341000000 0.2693000000
0.7639000000 7.0061000000 0.2853000000
0.7631000000 5.7756000000 1.2924000000
0.7618000000 5.1514000000 1.5826000000
0.7597000000 3.8993000000 2.1538000000
0.7594000000 7.1083000000 0.1891000000
0.7593000000 4.8432000000 1.7216000000
0.7584000000 6.5240000000 0.7275000000
0.7582000000 2.3474000000 1.6361000000
0.7579000000 4.3873000000 1.9240000000
0.7576000000 2.8860000000 1.8890000000
0.7573000000 1.1493000000 1.0149000000
0.7570000000 6.6912000000 0.5700000000
0.7568000000 6.9886000000 0.2930000000
0.7565000000 0.3285000000 0.2597000000
0.7563000000 4.7745000000 1.7521000000
0.7562000000 3.9391000000 2.1355000000
0.7558000000 0.0555000000 0.0888000000
0.7557000000 6.2275000000 0.9976000000
0.7555000000 6.0757000000 1.1224000000
0.7555000000 0.7484000000 0.6442000000
0.7551000000 4.9386000000 1.6609000000
0.7549000000 3.6136000000 2.2212000000
0.7547000000 7.0248000000 0.2705000000
0.7545000000 3.6725000000 2.2342000000
0.7544000000 0.1210000000 0.0706000000
0.7543000000 0.6402000000 0.5459000000
0.7540000000 0.6114000000 0.5218000000
0.7538000000 5.2317000000 1.5295000000
0.7538000000 2.8723000000 1.8786000000
0.7536000000 0.8140000000 0.7055000000
0.7534000000 2.9867000000 1.9275000000
0.7533000000 1.5810000000 1.2854000000
0.7530000000 2.3215000000 1.6213000000
0.7529000000 4.3920000000 1.9237000000
0.7527000000 2.4150000000 1.6667000000
0.7523000000 6.6321000000 0.6228000000
0.7522000000 0.1436000000 0.0941000000
0.7521000000 1.7277000000 1.3538000000
0.7518000000 1.5300000000 1.2619000000
0.7516000000 6.6006000000 0.6524000000
0.7513000000 3.3407000000 2.0882000000
0.7508000000 6.4677000000 0.7827000000
0.7504000000 7.0652000000 0.2294000000
0.7502000000 3.5670000000 2.1931000000
0.7500000000 1.0852000000 0.9547000000
0.7495000000 0.6519000000 0.5564000000
0.7495000000 4.5887000000 1.8250000000
0.7491000000 0.9438000000 0.8282000000
0.7489000000 1.9977000000 1.4727000000
0.7487000000 0.4860000000 0.4083000000
0.7481000000 0.7988000000 0.6907000000
0.7455000000 2.1606000000 1.5459000000
0.5150000000 7.0971000000 0.1965000000
0.5110000000 6.2987000000 0.8484000000
0.5098000000 6.8091000000 0.4654000000
0.5087000000 7.0413000000 0.2515000000
0.5085000000 5.9985000000 0.9810000000
0.5082000000 3.6741000000 2.1136000000
0.5081000000 4.4495000000 1.7025000000
0.5080000000 7.0000000000 0.2866000000
0.5077000000 2.8279000000 1.6641000000
0.5076000000 2.6415000000 1.5737000000
0.5074000000 4.3815000000 1.7321000000
0.5070000000 4.4407000000 1.7019000000
0.5069000000 4.8377000000 1.5194000000
0.5066000000 3.3392000000 1.9000000000
0.5064000000 3.4368000000 1.9380000000
0.5063000000 2.7311000000 1.6196000000
0.5060000000 5.0487000000 1.4226000000
0.5056000000 6.1672000000 0.9105000000
0.5052000000 6.9458000000 0.3403000000
0.5050000000 3.3021000000 1.8762000000
0.5050000000 2.9705000000 1.7302000000
0.5048000000 2.3019000000 1.4205000000
0.5047000000 5.2966000000 1.3047000000
0.5046000000 6.7885000000 0.4786000000
0.5044000000 2.6991000000 1.5994000000
0.5042000000 1.8540000000 1.2086000000
0.5040000000 5.8766000000 1.0394000000
0.5040000000 2.3447000000 1.4406000000
0.5038000000 3.8990000000 1.9462000000
0.5037000000 5.4491000000 1.2350000000
0.5036000000 3.2909000000 1.8716000000
0.5034000000 6.0438000000 0.9627000000
0.5034000000 4.2275000000 1.8025000000
0.5032000000 1.3356000000 0.9751000000
0.5031000000 4.5352000000 1.6552000000
0.5030000000 7.2260000000 0.0888000000
0.5029000000 5.2491000000 1.3262000000
0.5026000000 0.8740000000 0.7486000000
0.5024000000 3.4922000000 1.9584000000
0.5022000000 4.1508000000 1.8338000000
0.5017000000 3.5231000000 1.9756000000
0.5016000000 0.2009000000 0.1452000000
0.5015000000 6.9964000000 0.2917000000
0.5013000000 6.0953000000 0.9399000000
0.5010000000 4.3797000000 1.7258000000
0.5009000000 5.5587000000 1.1830000000
0.5007000000 1.6888000000 1.1358000000
0.5005000000 0.3982000000 0.3270000000
0.5004000000 3.1035000000 1.7796000000
0.5025000000 6.2468000000 0.8671000000
0.4998000000 4.4656000000 1.6868000000
0.4993000000 0.0167000000 0.0536000000
0.4988000000 1.5467000000 1.0659000000
0.4980000000 1.3854000000 0.9930000000
0.4975000000 3.7525000000 2.0104000000
0.4967000000 1.5524000000 1.0685000000
0.2651000000 7.0881000000 0.2103000000
0.2628000000 6.1000000000 0.7573000000
0.2619000000 5.5187000000 1.0119000000
0.2608000000 4.5648000000 1.4519000000
0.2594000000 5.9477000000 0.8137000000
0.2587000000 3.4500000000 1.7466000000
0.2585000000 5.9510000000 0.8146000000
0.2581000000 6.9446000000 0.3308000000
0.2580000000 7.0741000000 0.2226000000
0.2579000000 2.9508000000 1.5209000000
0.2578000000 0.3772000000 0.3667000000
0.2577000000 5.5334000000 1.0023000000
0.2575000000 7.1266000000 0.1707000000
0.2574000000 1.0591000000 0.6503000000
0.2573000000 4.3259000000 1.5580000000
0.2573000000 6.7375000000 0.4474000000
0.2570000000 3.6327000000 1.8157000000
0.2569000000 1.8165000000 1.0006000000
0.2568000000 5.6470000000 0.9508000000
0.2566000000 5.0271000000 1.2344000000
0.2565000000 3.2636000000 1.6659000000
0.2563000000 5.8738000000 0.8445000000
0.2560000000 6.8494000000 0.3856000000
0.2559000000 5.8990000000 0.8312000000
0.2557000000 3.6976000000 1.8304000000
0.2554000000 3.5981000000 1.8174000000
0.2552000000 6.5985000000 0.5093000000
0.2551000000 3.9567000000 1.7210000000
0.2550000000 7.2322000000 0.0712000000
0.2550000000 2.1548000000 1.1531000000
0.2549000000 1.5811000000 0.8905000000
0.2545000000 2.2571000000 1.1981000000
0.2544000000 4.7127000000 1.3804000000
0.2543000000 3.5082000000 1.7750000000
0.2542000000 5.5413000000 0.9958000000
0.2541000000 5.6138000000 0.9641000000
0.2540000000 2.0693000000 1.1072000000
0.2539000000 4.4999000000 1.4751000000
0.2535000000 6.3374000000 0.6260000000
0.2533000000 5.7444000000 0.9088000000
0.2532000000 2.4016000000 1.2685000000
0.2530000000 2.9597000000 1.5173000000
0.2528000000 4.3997000000 1.5239000000
0.2527000000 3.0262000000 1.5494000000
0.2524000000 2.6125000000 1.3588000000
0.2522000000 3.6076000000 1.8226000000
0.2520000000 2.8068000000 1.4488000000
0.2519000000 0.1912000000 0.1346000000
0.2518000000 5.6385000000 0.9522000000
0.2515000000 5.0322000000 1.2271000000
0.2513000000 6.0645000000 0.7518000000
0.2511000000 3.2751000000 1.6642000000
0.2507000000 6.2436000000 0.6725000000
0.2506000000 0.9871000000 0.6096000000
0.2505000000 0.4907000000 0.3684000000
0.2504000000 7.0198000000 0.2605000000
0.2501000000 1.8155000000 0.9866000000
0.2500000000 1.8993000000 1.0307000000
0.2495000000 2.2580000000 1.1977000000
0.2493000000 2.7293000000 1.4138000000
0.2490000000 0.8901000000 0.5667000000
0.2487000000 0.2765000000 0.2161000000
0.2477000000 5.1264000000 1.1805000000
0.2474000000 0.3931000000 0.3022000000
0.2460000000 3.4187000000 1.7238000000
0.0148000000 5.0953000000 1.0108000000
0.0119000000 5.1551000000 0.9798000000
0.0115000000 0.5654000000 0.2282000000
0.0113000000 6.4850000000 0.3660000000
0.0099000000 2.6961000000 1.2069000000
0.0096000000 1.7270000000 0.7571000000
0.0092000000 0.1665000000 0.1196000000
0.0089000000 1.7679000000 0.7734000000
0.0084000000 6.1958000000 0.4994000000
0.0082000000 6.1864000000 0.5008000000
0.0076000000 6.6874000000 0.2789000000
0.0075000000 6.3036000000 0.4535000000
0.0071000000 0.1660000000 0.1117000000
0.0069000000 7.3523000000 0.0316000000
0.0068000000 3.8557000000 1.5764000000
0.0065000000 7.0564000000 0.0981000000
0.0064000000 4.4822000000 1.2897000000
0.0062000000 7.1964000000 0.1100000000
0.0060000000 4.5557000000 1.2528000000
0.0060000000 4.8597000000 1.1065000000
0.0059000000 7.0537000000 0.1081000000
0.0056000000 2.9692000000 1.3278000000
0.0053000000 5.8541000000 0.6551000000
0.0051000000 2.2013000000 0.9749000000
0.0050000000 5.0157000000 1.0408000000
0.0048000000 5.5714000000 0.7813000000
0.0047000000 6.9426000000 0.1597000000
0.0046000000 5.4475000000 0.8420000000
0.0044000000 6.9746000000 0.1417000000
0.0043000000 1.1405000000 0.4843000000
0.0040000000 1.3190000000 0.5668000000
0.0039000000 7.0040000000 0.1283000000
0.0037000000 4.9847000000 1.0488000000
0.0036000000 3.7361000000 1.6175000000
0.0032000000 5.2766000000 0.9180000000
0.0031000000 3.3708000000 1.5136000000
0.0030000000 6.1108000000 0.5338000000
0.0029000000 6.4091000000 0.3945000000
0.0028000000 2.7419000000 1.2219000000
0.0026000000 6.0546000000 0.5630000000
0.0025000000 4.9491000000 1.0724000000
0.0022000000 3.8832000000 1.5596000000
0.0020000000 0.9741000000 0.4113000000
0.0018000000 7.3729000000 0.0782000000
0.0017000000 0.8231000000 0.3409000000
0.0015000000 3.6444000000 1.6981000000
0.0014000000 0.9609000000 0.4057000000
0.0013000000 5.6928000000 0.7263000000
0.0013000000 6.7501000000 0.2444000000
0.0010000000 1.4895000000 0.6502000000
0.0009000000 3.9584000000 1.5230000000
0.0008000000 1.2193000000 0.5189000000
0.0006000000 0.3166000000 0.1049000000
0.0004000000 6.0535000000 0.5625000000
-0.0001000000 3.2272000000 1.4373000000
-0.0004000000 4.5595000000 1.2494000000
-0.0012000000 4.4811000000 1.2796000000
-0.0016000000 1.7482000000 0.7612000000
-0.0031000000 6.8345000000 0.1965000000
-0.2330000000 2.5780000000 0.9620000000
-0.2358000000 5.3344000000 0.6990000000
-0.2392000000 6.0047000000 0.3896000000
-0.2400000000 5.4379000000 0.6526000000
-0.2403000000 3.2899000000 1.2850000000
-0.2407000000 6.6400000000 0.0975000000
-0.2412000000 4.5401000000 1.0656000000
-0.2418000000 5.0147000000 0.8470000000
-0.2420000000 2.8067000000 1.0623000000
-0.2422000000 1.5023000000 0.4563000000
-0.2425000000 5.6816000000 0.5407000000
-0.2427000000 3.0412000000 1.1618000000
-0.2430000000 5.6106000000 0.5740000000
-0.2433000000 6.6895000000 0.0796000000
-0.2438000000 6.2700000000 0.2682000000
-0.2440000000 2.1648000000 0.7594000000
-0.2442000000 0.9285000000 0.1960000000
-0.2444000000 6.2211000000 0.2853000000
-0.2445000000 2.0447000000 0.7110000000
-0.2447000000 6.3175000000 0.2387000000
-0.2450000000 4.9848000000 0.8541000000
-0.2455000000 6.1468000000 0.3221000000
-0.2457000000 1.7635000000 0.5790000000
