3.5019000000 4.1653000000 0.7493000000
3.5018000000 3.3238000000 1.1331000000
3.5018000000 2.7064000000 1.1512000000
3.5015000000 0.6935000000 0.2422000000
3.5014000000 2.0630000000 0.8618000000
3.5014000000 0.8959000000 0.3327000000
3.5010000000 4.0257000000 0.8191000000
3.5009000000 1.3354000000 0.5275000000
3.5008000000 0.8968000000 0.3327000000
3.5008000000 3.2096000000 1.1867000000
3.5006000000 4.3136000000 0.6896000000
3.5005000000 1.8588000000 0.7664000000
3.5005000000 0.7774000000 0.2765000000
3.5004000000 1.5515000000 0.6303000000
3.5003000000 0.6969000000 0.2438000000
3.5002000000 0.8292000000 0.3054000000
3.5001000000 0.4230000000 0.1187000000
3.5000000000 4.4399000000 0.6343000000
3.4999000000 2.8508000000 1.2193000000
3.4998000000 1.9769000000 0.8219000000
3.4997000000 0.0262000000 0.0735000000
3.4994000000 3.0407000000 1.3275000000
3.4992000000 1.1892000000 0.4679000000
3.4988000000 2.8662000000 1.2241000000
3.4986000000 4.8327000000 0.4546000000
3.4983000000 2.3019000000 0.9753000000
3.4973000000 2.9091000000 1.2414000000
3.4970000000 4.4184000000 0.6452000000
3.4963000000 4.2577000000 0.7201000000
3.4949000000 1.3177000000 0.5296000000
3.2638000000 5.8271000000 0.1119000000
3.2632000000 5.2080000000 0.4659000000
3.2625000000 4.0218000000 1.0075000000
3.2614000000 3.4960000000 1.2471000000
3.2613000000 4.2144000000 0.9164000000
3.2612000000 1.8768000000 0.9601000000
3.2607000000 4.9291000000 0.5954000000
3.2605000000 5.9403000000 0.0851000000
3.2601000000 4.7735000000 0.6665000000
3.2597000000 5.2176000000 0.4636000000
3.2590000000 1.7859000000 0.9266000000
3.2584000000 2.0474000000 1.0375000000
3.2582000000 4.1461000000 0.9504000000
3.2582000000 2.5907000000 1.2885000000
3.2581000000 5.9143000000 0.1122000000
3.2580000000 3.1789000000 1.3919000000
3.2580000000 4.7214000000 0.6926000000
3.2578000000 5.0917000000 0.5272000000
3.2574000000 4.1394000000 0.9598000000
3.2573000000 3.2518000000 1.3617000000
3.2572000000 4.3510000000 0.8623000000
3.2571000000 2.2366000000 1.1326000000
3.2568000000 4.2011000000 0.9308000000
3.2568000000 1.1020000000 0.6182000000
3.2567000000 4.0283000000 1.0087000000
3.2565000000 1.7688000000 0.9180000000
3.2565000000 2.1888000000 1.1078000000
3.2564000000 3.2448000000 1.3608000000
3.2560000000 2.2701000000 1.1451000000
3.2557000000 4.1008000000 0.9776000000
3.2556000000 2.3604000000 1.1836000000
3.2556000000 5.6327000000 0.2661000000
3.2555000000 0.2195000000 0.1524000000
3.2554000000 2.2561000000 1.1395000000
3.2554000000 4.2066000000 0.9263000000
3.2553000000 3.7650000000 1.1302000000
3.2553000000 3.8530000000 1.0871000000
3.2552000000 2.9074000000 1.4297000000
3.2550000000 2.9952000000 1.5335000000
3.2549000000 3.6834000000 1.1603000000
3.2548000000 1.7077000000 0.8966000000
3.2547000000 5.3069000000 0.4300000000
3.2546000000 1.1334000000 0.6323000000
3.2545000000 4.3899000000 0.8480000000
3.2543000000 5.7646000000 0.1764000000
3.2542000000 3.1200000000 1.4180000000
3.2542000000 4.1751000000 0.9448000000
3.2539000000 1.6820000000 0.8811000000
3.2538000000 2.1656000000 1.0983000000
3.2538000000 3.9795000000 1.0379000000
3.2536000000 0.3036000000 0.2947000000
3.2534000000 4.1770000000 0.9503000000
3.2532000000 4.1541000000 0.9537000000
3.2531000000 2.8993000000 1.4299000000
3.2530000000 2.7348000000 1.3573000000
3.2530000000 4.2791000000 0.9009000000
3.2529000000 2.0383000000 1.0395000000
3.2528000000 0.7501000000 0.4610000000
3.2527000000 5.3450000000 0.4220000000
3.2527000000 1.2460000000 0.6840000000
3.2525000000 1.1257000000 0.6301000000
3.2525000000 2.7177000000 1.3455000000
3.2523000000 3.0958000000 1.4319000000
3.2521000000 1.9762000000 1.0130000000
3.2520000000 4.8499000000 0.6410000000
3.2520000000 5.6305000000 0.2744000000
3.2519000000 5.1648000000 0.5044000000
3.2513000000 1.1667000000 0.6524000000
3.2512000000 0.3042000000 0.2905000000
3.2510000000 5.4467000000 0.3669000000
3.2510000000 1.6957000000 0.8928000000
3.2508000000 2.8336000000 1.4033000000
3.2508000000 3.4358000000 1.2836000000
3.2507000000 3.2613000000 1.3657000000
3.2506000000 5.1299000000 0.5145000000
3.2501000000 1.8186000000 0.9473000000
3.2501000000 1.5535000000 0.8254000000
3.2498000000 3.0583000000 1.4525000000
3.2496000000 5.5177000000 0.3377000000
3.2493000000 4.6938000000 0.7092000000
3.2492000000 3.4114000000 1.2907000000
3.2492000000 2.1447000000 1.0921000000
3.2490000000 0.1614000000 0.1028000000
3.2489000000 3.2006000000 1.3897000000
3.2489000000 0.8579000000 0.5124000000
3.2485000000 2.8124000000 1.3953000000
3.2477000000 3.1231000000 1.4274000000
3.2469000000 1.9875000000 1.0246000000
3.2456000000 1.2753000000 0.7015000000
3.2449000000 0.6093000000 0.4069000000
3.2449000000 0.6434000000 0.4163000000
3.2448000000 3.1731000000 1.4067000000
3.0122000000 2.4080000000 1.3974000000
3.0103000000 2.2223000000 1.3137000000
3.0103000000 5.0252000000 0.7487000000
3.0096000000 2.0255000000 1.2235000000
3.0094000000 5.9866000000 0.0428000000
3.0093000000 1.9752000000 1.2028000000
3.0089000000 1.5058000000 0.9917000000
3.0087000000 3.7479000000 1.3296000000
3.0085000000 0.0934000000 0.1185000000
3.0085000000 5.8720000000 0.0717000000
3.0084000000 0.7856000000 0.7251000000
3.0081000000 3.3462000000 1.5093000000
3.0080000000 2.3283000000 1.3626000000
3.0080000000 1.0170000000 0.7762000000
3.0077000000 2.6686000000 1.5145000000
3.0073000000 2.8281000000 1.5886000000
3.0069000000 1.9505000000 1.1864000000
3.0068000000 5.4401000000 0.4558000000
3.0068000000 4.1019000000 1.1752000000
3.0068000000 5.8149000000 0.1248000000
3.0066000000 5.9272000000 0.0956000000
3.0065000000 3.4259000000 1.4744000000
3.0064000000 4.9651000000 0.7804000000
3.0064000000 3.4763000000 1.4511000000
3.0063000000 5.5589000000 0.3538000000
3.0061000000 5.7720000000 0.1641000000
3.0060000000 2.7275000000 1.5483000000
3.0060000000 5.5310000000 0.3770000000
3.0059000000 5.9986000000 0.0337000000
3.0058000000 5.4584000000 0.4423000000
3.0058000000 1.7516000000 1.1038000000
3.0058000000 5.4727000000 0.4341000000
3.0055000000 0.0690000000 0.0940000000
3.0053000000 3.0779000000 1.6311000000
3.0053000000 1.1510000000 0.8375000000
3.0051000000 2.5975000000 1.4867000000
3.0050000000 3.8665000000 1.2715000000
3.0050000000 4.7183000000 0.8943000000
3.0049000000 5.2607000000 0.6085000000
3.0049000000 1.9306000000 1.1907000000
3.0048000000 1.1121000000 0.8183000000
3.0046000000 3.6114000000 1.3952000000
3.0045000000 5.3416000000 0.5545000000
3.0045000000 1.3331000000 0.9150000000
3.0044000000 1.1350000000 0.8272000000
3.0042000000 0.3807000000 0.3041000000
3.0040000000 4.2553000000 1.1009000000
3.0039000000 2.1540000000 1.2933000000
3.0039000000 3.2904000000 1.5402000000
3.0038000000 4.6241000000 0.9337000000
3.0037000000 1.2561000000 0.8835000000
3.0037000000 5.5889000000 0.3276000000
3.0036000000 4.2205000000 1.1204000000
3.0034000000 1.1994000000 0.8619000000
3.0034000000 3.9636000000 1.2351000000
3.0033000000 2.6470000000 1.5096000000
3.0032000000 2.0440000000 1.2371000000
3.0032000000 4.5980000000 0.9471000000
3.0029000000 4.8976000000 0.8145000000
3.0029000000 4.2289000000 1.1163000000
3.0028000000 3.7668000000 1.3278000000
3.0028000000 4.8431000000 0.8419000000
3.0027000000 2.3241000000 1.3717000000
3.0026000000 2.7979000000 1.5810000000
3.0025000000 0.7505000000 0.6929000000
3.0024000000 3.1862000000 1.5894000000
3.0025000000 5.4034000000 0.4983000000
3.0023000000 2.1878000000 1.3068000000
3.0023000000 4.9931000000 0.7711000000
3.0022000000 2.7873000000 1.5748000000
3.0022000000 4.5393000000 0.9749000000
3.0020000000 1.8699000000 1.1651000000
3.0020000000 5.8400000000 0.1000000000
3.0019000000 5.6581000000 0.2617000000
3.0019000000 2.3305000000 1.3724000000
3.0018000000 0.5080000000 0.4208000000
3.0018000000 3.1739000000 1.5997000000
3.0018000000 4.3131000000 1.0761000000
3.0016000000 2.7955000000 1.5868000000
3.0016000000 0.9518000000 0.7428000000
3.0015000000 0.4158000000 0.3359000000
3.0014000000 4.2927000000 1.0857000000
3.0013000000 5.4867000000 0.4220000000
3.0013000000 3.6208000000 1.3909000000
3.0012000000 3.1908000000 1.5858000000
3.0009000000 2.6158000000 1.5005000000
3.0005000000 3.5286000000 1.4364000000
3.0004000000 2.7799000000 1.5724000000
3.0002000000 1.8841000000 1.1720000000
2.9999000000 4.0011000000 1.2181000000
2.9998000000 1.6718000000 1.0700000000
2.9995000000 1.2252000000 0.8784000000
2.9995000000 2.1326000000 1.2843000000
2.9995000000 3.8774000000 1.2720000000
2.9993000000 1.1720000000 0.8439000000
2.9988000000 2.0559000000 1.2487000000
2.9987000000 0.7615000000 0.7052000000
2.9985000000 3.8409000000 1.2883000000
2.9985000000 4.5313000000 0.9811000000
2.9978000000 2.4226000000 1.4152000000
2.9968000000 2.6681000000 1.5289000000
2.9967000000 0.1418000000 0.0861000000
2.9955000000 0.3784000000 0.3045000000
2.7606000000 4.9098000000 0.9407000000
2.7605000000 1.9362000000 1.3848000000
2.7600000000 4.3877000000 1.2343000000
2.7591000000 1.2840000000 1.1503000000
2.7590000000 3.6953000000 1.5433000000
2.7590000000 3.7522000000 1.5177000000
2.7588000000 4.4706000000 1.2010000000
2.7585000000 5.9023000000 0.1151000000
2.7582000000 3.3964000000 1.6863000000
2.7580000000 2.5444000000 1.6581000000
2.7579000000 4.4484000000 1.2101000000
2.7579000000 3.6819000000 1.5548000000
2.7578000000 5.4655000000 0.4392000000
2.7578000000 5.9783000000 0.0522000000
2.7577000000 4.3115000000 1.2694000000
2.7575000000 5.5758000000 0.3380000000
2.7571000000 1.7848000000 1.3156000000
2.7568000000 3.0998000000 1.8164000000
2.7567000000 4.3753000000 1.2447000000
2.7567000000 5.0657000000 0.7976000000
2.7566000000 2.6088000000 1.6869000000
2.7563000000 5.6836000000 0.2465000000
2.7562000000 1.9895000000 1.4093000000
2.7561000000 4.2035000000 1.3197000000
2.7560000000 5.1161000000 0.7555000000
2.7560000000 1.7611000000 1.3099000000
2.7559000000 1.0905000000 0.9370000000
2.7558000000 0.3818000000 0.3044000000
2.7557000000 2.0255000000 1.4230000000
2.7556000000 4.0925000000 1.3730000000
2.7555000000 3.3804000000 1.6921000000
2.7555000000 4.1317000000 1.3578000000
2.7555000000 2.4714000000 1.6210000000
2.7554000000 5.9094000000 0.1173000000
2.7552000000 4.8394000000 0.9909000000
2.7549000000 4.0186000000 1.4069000000
2.7546000000 3.6250000000 1.5859000000
2.7545000000 0.5070000000 0.4162000000
2.7544000000 2.6135000000 1.6872000000
2.7543000000 2.1260000000 1.4690000000
2.7543000000 4.4191000000 1.2270000000
2.7542000000 5.6137000000 0.3040000000
2.7540000000 3.1248000000 1.8062000000
2.7539000000 4.5354000000 1.1691000000
2.7537000000 1.0826000000 0.9404000000
2.7538000000 0.8911000000 0.7598000000
2.7537000000 5.0340000000 0.8312000000
2.7536000000 3.3647000000 1.7041000000
2.7536000000 5.4639000000 0.4379000000
2.7535000000 4.2583000000 1.2917000000
2.7534000000 5.9686000000 0.0575000000
2.7533000000 5.3644000000 0.5236000000
2.7533000000 3.6773000000 1.5618000000
2.7532000000 5.5618000000 0.3539000000
2.7531000000 1.9748000000 1.4050000000
2.7530000000 1.5026000000 1.1965000000
2.7529000000 1.1836000000 1.0890000000
2.7528000000 5.8183000000 0.1202000000
2.7528000000 4.5612000000 1.1637000000
2.7527000000 2.9135000000 1.8305000000
2.7523000000 0.3733000000 0.2966000000
2.7523000000 1.0298000000 0.8876000000
2.7522000000 1.9604000000 1.4047000000
2.7521000000 3.6069000000 1.5951000000
2.7521000000 0.0087000000 0.0458000000
2.7519000000 1.1208000000 0.9667000000
2.7518000000 4.7883000000 1.1071000000
2.7518000000 0.7580000000 0.6468000000
2.7513000000 5.5933000000 0.3268000000
2.7513000000 0.0464000000 0.0763000000
2.7509000000 2.4389000000 1.6205000000
2.7507000000 3.3027000000 1.7289000000
2.7506000000 0.6288000000 0.5284000000
2.7506000000 4.3013000000 1.2800000000
2.7505000000 0.1715000000 0.1107000000
2.7503000000 1.6189000000 1.2449000000
2.7500000000 0.0909000000 0.1135000000
2.7499000000 4.3312000000 1.2695000000
2.7492000000 4.5623000000 1.1625000000
2.7490000000 0.9718000000 0.8369000000
2.7487000000 4.2220000000 1.3091000000
2.7483000000 0.1056000000 0.1284000000
2.7481000000 1.1250000000 0.9660000000
2.7480000000 4.5035000000 1.1891000000
2.7480000000 1.3227000000 1.1748000000
2.7478000000 0.2127000000 0.1529000000
2.7471000000 0.1696000000 0.1139000000
2.7464000000 1.7923000000 1.3234000000
2.7461000000 1.4529000000 1.1775000000
2.7457000000 2.5903000000 1.6876000000
2.7437000000 2.9062000000 1.8311000000
2.5138000000 5.2960000000 0.5920000000
2.5124000000 5.3754000000 0.5205000000
2.5117000000 4.9539000000 0.9062000000
2.5111000000 4.1077000000 1.5557000000
2.5105000000 5.5860000000 0.3315000000
2.5100000000 4.8122000000 1.0294000000
2.5098000000 5.8844000000 0.1337000000
2.5094000000 0.5540000000 0.4634000000
2.5084000000 5.5002000000 0.4099000000
2.5076000000 4.7127000000 1.1239000000
2.5075000000 2.7316000000 1.9382000000
2.5074000000 2.9200000000 2.0246000000
2.5073000000 3.2363000000 1.9490000000
2.5071000000 3.0988000000 2.0146000000
2.5070000000 4.9695000000 0.8891000000
2.5070000000 5.4617000000 0.4376000000
2.5070000000 4.5640000000 1.2494000000
2.5068000000 4.3183000000 1.4541000000
2.5067000000 1.6422000000 1.4991000000
2.5066000000 0.3500000000 0.2810000000
2.5065000000 4.3112000000 1.5245000000
2.5065000000 0.0993000000 0.1235000000
2.5065000000 3.4049000000 1.8752000000
2.5064000000 5.7942000000 0.1389000000
2.5062000000 3.8037000000 1.6997000000
2.5062000000 2.5236000000 1.8477000000
2.5061000000 3.8285000000 1.6794000000
2.5059000000 4.7789000000 1.0535000000
2.5056000000 3.7644000000 1.7102000000
2.5055000000 2.1417000000 1.6739000000
2.5053000000 0.7447000000 0.6303000000
2.5053000000 0.1130000000 0.1340000000
2.5051000000 3.4553000000 1.8513000000
2.5050000000 4.7066000000 1.1232000000
2.5049000000 3.7445000000 1.7250000000
2.5048000000 3.7012000000 1.7441000000
2.5047000000 2.4793000000 1.8322000000
2.5047000000 0.8256000000 0.7053000000
2.5046000000 1.7550000000 1.4893000000
2.5046000000 4.9706000000 0.8872000000
2.5045000000 1.5065000000 1.3184000000
2.5044000000 0.3238000000 0.2515000000
2.5043000000 4.5558000000 1.2590000000
2.5042000000 4.2052000000 1.5236000000
2.5042000000 1.5556000000 1.3513000000
2.5040000000 2.2595000000 1.7326000000
2.5039000000 5.3806000000 0.5187000000
2.5038000000 2.6335000000 1.8976000000
2.5037000000 3.0631000000 2.0295000000
2.5037000000 2.6209000000 1.8968000000
2.5036000000 0.0808000000 0.1080000000
2.5035000000 1.3758000000 1.2043000000
2.5035000000 4.0789000000 1.5725000000
2.5034000000 2.2828000000 1.7401000000
2.5033000000 2.9522000000 2.1036000000
2.5030000000 3.8763000000 1.6689000000
2.5028000000 3.2708000000 1.9379000000
2.5027000000 0.4225000000 0.3484000000
2.5025000000 2.7756000000 1.9616000000
2.5025000000 0.1649000000 0.1047000000
2.5024000000 3.1271000000 2.0037000000
2.5023000000 4.3995000000 1.4612000000
2.5021000000 3.2404000000 1.9547000000
2.5021000000 4.3257000000 1.5243000000
2.5019000000 1.3638000000 1.1913000000
2.5016000000 5.9940000000 0.0330000000
2.5015000000 2.8396000000 1.9929000000
2.5010000000 2.4761000000 1.8269000000
2.5005000000 1.9945000000 1.6130000000
2.5004000000 1.4775000000 1.2941000000
2.5003000000 0.5637000000 0.4686000000
2.5000000000 2.7108000000 1.9359000000
2.4998000000 2.4526000000 1.8235000000
2.4998000000 0.6413000000 0.5369000000
2.4995000000 1.0348000000 0.8919000000
2.4994000000 2.0938000000 1.6591000000
2.4993000000 1.4575000000 1.2724000000
2.4990000000 2.4141000000 1.8030000000
2.4988000000 0.6411000000 0.5383000000
2.4986000000 0.8917000000 0.7634000000
2.4984000000 1.0477000000 0.9129000000
2.4980000000 2.5431000000 1.8553000000
2.4978000000 2.3732000000 1.7872000000
2.4978000000 1.9281000000 1.5841000000
2.4975000000 1.9159000000 1.5758000000
2.4972000000 2.6980000000 1.9332000000
2.4971000000 0.6206000000 0.5191000000
2.4938000000 0.3938000000 0.3173000000
2.2638000000 5.1574000000 0.7184000000
2.2635000000 4.0297000000 1.7294000000
2.2616000000 3.6302000000 1.9652000000
2.2597000000 5.7213000000 0.2107000000
2.2591000000 4.8132000000 1.0265000000
2.2590000000 1.1233000000 0.9732000000
2.2588000000 4.6350000000 1.1874000000
2.2585000000 5.2156000000 0.6723000000
2.2583000000 3.5569000000 1.9955000000
2.2580000000 5.3787000000 0.5200000000
2.2577000000 0.1738000000 0.1221000000
2.2576000000 3.2528000000 2.1401000000
2.2576000000 0.8936000000 0.7640000000
2.2575000000 2.4165000000 1.9918000000
2.2575000000 5.6138000000 0.3125000000
2.2573000000 5.1304000000 0.7403000000
2.2573000000 3.3805000000 2.0822000000
2.2572000000 3.5020000000 2.0244000000
2.2571000000 3.3036000000 2.1192000000
2.2565000000 4.9440000000 0.9086000000
2.2564000000 4.7817000000 1.0570000000
2.2563000000 3.5449000000 2.0130000000
2.2561000000 5.9853000000 0.0440000000
2.2561000000 4.9071000000 0.9418000000
2.2560000000 4.3721000000 1.4274000000
2.2559000000 1.4128000000 1.2321000000
2.2558000000 1.4055000000 1.2281000000
2.2557000000 1.5545000000 1.3615000000
2.2555000000 4.4479000000 1.3549000000
2.2553000000 0.0854000000 0.1096000000
2.2552000000 6.0054000000 0.0210000000
2.2551000000 1.3931000000 1.2185000000
2.2550000000 4.5406000000 1.2822000000
2.2548000000 1.2098000000 1.0474000000
2.2547000000 1.9785000000 1.7396000000
2.2544000000 3.1613000000 2.1870000000
2.2543000000 2.4886000000 2.0259000000
2.2540000000 1.2054000000 1.0492000000
2.2540000000 5.7828000000 0.1544000000
2.2538000000 2.5988000000 2.0734000000
2.2536000000 3.6133000000 1.9817000000
2.2535000000 0.2134000000 0.1535000000
2.2534000000 5.1926000000 0.6848000000
2.2533000000 3.6035000000 1.9906000000
2.2530000000 4.8388000000 1.0054000000
2.2529000000 3.8886000000 1.9164000000
2.2528000000 0.3013000000 0.2323000000
2.2527000000 2.7280000000 2.1396000000
2.2525000000 3.1854000000 2.1736000000
2.2524000000 0.6544000000 0.5455000000
2.2525000000 4.0120000000 1.7464000000
2.2522000000 3.3539000000 2.1012000000
2.2521000000 3.4727000000 2.0461000000
2.2521000000 5.7005000000 0.2224000000
2.2519000000 2.9147000000 2.2155000000
2.2516000000 0.4166000000 0.3343000000
2.2512000000 1.2057000000 1.0470000000
2.2511000000 1.7442000000 1.5382000000
2.2508000000 3.0757000000 2.2213000000
2.2507000000 3.5932000000 1.9905000000
2.2504000000 5.3889000000 0.5084000000
2.2503000000 0.2619000000 0.2023000000
2.2503000000 1.2329000000 1.0736000000
2.2502000000 2.3109000000 1.9525000000
2.2501000000 3.3448000000 2.1038000000
2.2500000000 1.5128000000 1.3287000000
2.2500000000 0.4069000000 0.3218000000
2.2500000000 3.8787000000 1.9203000000
2.2499000000 4.8839000000 0.9636000000
2.2498000000 1.5645000000 1.3686000000
2.2497000000 0.5507000000 0.4584000000
2.2495000000 2.2212000000 1.9062000000
2.2492000000 4.6699000000 1.1573000000
2.2491000000 0.4997000000 0.4127000000
2.2490000000 1.5580000000 1.3721000000
2.2487000000 1.0443000000 0.9069000000
2.2480000000 1.0530000000 0.9172000000
2.2476000000 1.1170000000 0.9659000000
2.2461000000 1.7732000000 1.5623000000
2.2450000000 0.7431000000 0.6243000000
2.0153000000 5.3154000000 0.5774000000
2.0122000000 1.1546000000 1.0018000000
2.0119000000 5.5077000000 0.4055000000
2.0111000000 4.5130000000 1.2954000000
2.0110000000 1.2092000000 1.0517000000
2.0110000000 2.1167000000 1.8651000000
2.0108000000 3.7094000000 2.0249000000
2.0103000000 5.5561000000 0.3660000000
2.0088000000 2.1533000000 1.9032000000
2.0085000000 3.8795000000 1.8671000000
2.0082000000 5.7146000000 0.2108000000
2.0075000000 5.4958000000 0.4127000000
2.0072000000 4.9538000000 0.8995000000
2.0072000000 4.1394000000 1.6354000000
2.0070000000 4.2326000000 1.5602000000
2.0069000000 4.1605000000 1.6191000000
2.0068000000 1.0881000000 0.9440000000
2.0067000000 0.9041000000 0.7744000000
2.0067000000 4.8581000000 0.9872000000
2.0066000000 3.8675000000 1.8846000000
2.0066000000 0.0632000000 0.0889000000
2.0062000000 5.6205000000 0.2964000000
2.0059000000 5.8551000000 0.0938000000
2.0058000000 4.4327000000 1.3768000000
2.0058000000 5.9498000000 0.0770000000
2.0055000000 5.9143000000 0.1110000000
2.0054000000 1.1287000000 0.9819000000
2.0053000000 3.6451000000 2.0869000000
2.0053000000 0.8651000000 0.7367000000
2.0050000000 4.2912000000 1.5047000000
2.0049000000 1.8001000000 1.5882000000
2.0045000000 3.4475000000 2.3090000000
2.0043000000 5.1414000000 0.7356000000
2.0043000000 1.9039000000 1.6753000000
2.0041000000 2.1869000000 1.9345000000
2.0039000000 1.7344000000 1.5255000000
2.0038000000 3.0215000000 2.5003000000
2.0037000000 0.9790000000 0.8391000000
2.0035000000 4.0098000000 1.7509000000
2.0034000000 3.0650000000 2.4224000000
2.0034000000 2.4448000000 2.2294000000
2.0033000000 2.4052000000 2.1318000000
2.0032000000 3.9517000000 1.8076000000
2.0030000000 1.5772000000 1.3893000000
2.0028000000 3.5418000000 2.2310000000
2.0026000000 2.5886000000 2.3261000000
2.0024000000 3.3789000000 2.3458000000
2.0024000000 3.6381000000 2.0876000000
2.0023000000 0.6558000000 0.5503000000
2.0022000000 5.2442000000 0.6352000000
2.0020000000 1.0314000000 0.8904000000
2.0019000000 0.5450000000 0.4476000000
2.0017000000 1.3434000000 1.1693000000
2.0015000000 1.5522000000 1.3589000000
2.0014000000 4.5558000000 1.2651000000
2.0013000000 4.3818000000 1.4149000000
2.0013000000 4.1641000000 1.6166000000
2.0010000000 2.2356000000 1.9758000000
2.0009000000 0.1919000000 0.1375000000
2.0008000000 0.9684000000 0.8301000000
1.9998000000 1.7061000000 1.5018000000
1.9992000000 3.0695000000 2.4266000000
1.9991000000 2.6508000000 2.3009000000
1.9986000000 0.3642000000 0.2854000000
1.9982000000 3.0806000000 2.4186000000
1.9968000000 2.0630000000 1.8272000000
1.9963000000 4.1803000000 1.5969000000
1.9958000000 2.5001000000 2.2796000000
1.7624000000 5.7591000000 0.1749000000
1.7604000000 4.0579000000 1.7139000000
1.7599000000 0.1460000000 0.0935000000
1.7598000000 3.1055000000 2.6074000000
1.7592000000 4.6959000000 1.1318000000
1.7592000000 5.6361000000 0.2826000000
1.7590000000 4.0309000000 1.7362000000
1.7585000000 3.5055000000 2.2128000000
1.7582000000 3.9105000000 1.8390000000
1.7581000000 5.0619000000 0.8069000000
1.7578000000 5.8952000000 0.1261000000
1.7578000000 5.0101000000 0.8529000000
1.7577000000 5.9804000000 0.0458000000
1.7576000000 1.7858000000 1.5723000000
1.7575000000 2.6982000000 2.3987000000
1.7573000000 2.9465000000 2.6073000000
1.7573000000 1.9196000000 1.6966000000
1.7573000000 5.3031000000 0.5836000000
1.7570000000 0.9254000000 0.7914000000
1.7569000000 3.0597000000 2.6131000000
1.7568000000 4.4254000000 1.3815000000
1.7565000000 3.0585000000 2.6135000000
1.7565000000 0.4465000000 0.3587000000
1.7564000000 2.7471000000 2.4380000000
1.7562000000 2.2813000000 2.0163000000
1.7560000000 5.6031000000 0.3122000000
1.7559000000 5.2147000000 0.6724000000
1.7559000000 5.2033000000 0.6722000000
1.7561000000 3.9056000000 1.8467000000
1.7558000000 5.1138000000 0.7542000000
1.7558000000 4.3875000000 1.4168000000
1.7558000000 5.3093000000 0.5847000000
1.7557000000 5.4734000000 0.4296000000
1.7556000000 0.7002000000 0.5959000000
1.7556000000 2.6331000000 2.3359000000
1.7555000000 0.4806000000 0.3922000000
1.7553000000 0.4511000000 0.3657000000
1.7553000000 3.2794000000 2.4133000000
1.7553000000 2.3235000000 2.0573000000
1.7551000000 5.7615000000 0.1733000000
1.7550000000 0.3872000000 0.3096000000
1.7548000000 2.0815000000 1.8387000000
1.7548000000 2.1607000000 1.9106000000
1.7547000000 0.9197000000 0.7896000000
1.7547000000 0.0442000000 0.0698000000
1.7546000000 3.8294000000 1.9224000000
1.7545000000 1.6242000000 1.4297000000
1.7545000000 3.4307000000 2.2734000000
1.7543000000 0.5879000000 0.4913000000
1.7543000000 3.8629000000 1.8848000000
1.7542000000 3.8519000000 1.8987000000
1.7539000000 1.7186000000 1.5093000000
1.7539000000 1.6604000000 1.4577000000
1.7536000000 3.7061000000 2.0249000000
1.7534000000 0.4852000000 0.3974000000
1.7533000000 2.9512000000 2.6137000000
1.7530000000 0.3170000000 0.2429000000
1.7529000000 2.0791000000 1.8359000000
1.7528000000 0.8035000000 0.6833000000
1.7526000000 3.9338000000 1.8222000000
1.7525000000 5.7955000000 0.1443000000
1.7525000000 1.0793000000 0.9339000000
1.7523000000 0.8085000000 0.6949000000
1.7523000000 2.5037000000 2.2189000000
1.7520000000 1.8147000000 1.5969000000
1.7519000000 1.2511000000 1.0886000000
1.7515000000 1.6127000000 1.4130000000
1.7515000000 4.3865000000 1.4166000000
1.7513000000 3.8128000000 1.9364000000
1.7512000000 5.6210000000 0.2959000000
1.7511000000 0.6191000000 0.5148000000
1.7509000000 2.7361000000 2.4319000000
1.7507000000 3.1881000000 2.4948000000
1.7505000000 0.8703000000 0.7426000000
1.7505000000 0.3989000000 0.3188000000
1.7502000000 5.4472000000 0.4594000000
1.7500000000 0.6038000000 0.5060000000
1.7498000000 3.5518000000 2.1681000000
1.7498000000 2.3754000000 2.1067000000
1.7494000000 2.4445000000 2.1681000000
1.7493000000 2.5241000000 2.2406000000
1.7493000000 3.5319000000 2.1864000000
1.7492000000 1.5033000000 1.3178000000
1.7491000000 0.1430000000 0.0869000000
1.7488000000 1.1005000000 0.9529000000
1.7483000000 2.1289000000 1.8805000000
1.7466000000 1.7314000000 1.5219000000
1.7429000000 3.9348000000 1.8227000000
1.5116000000 4.8355000000 1.0043000000
1.5097000000 1.6226000000 1.4207000000
1.5092000000 4.9509000000 0.9046000000
1.5090000000 1.2433000000 1.0837000000
1.5089000000 5.0902000000 0.7767000000
1.5087000000 2.8496000000 2.4320000000
1.5079000000 4.6011000000 1.2185000000
1.5075000000 3.2383000000 2.3803000000
1.5073000000 3.6309000000 2.1015000000
1.5071000000 0.2549000000 0.1870000000
1.5071000000 3.1941000000 2.4011000000
1.5070000000 4.7814000000 1.0571000000
1.5069000000 3.7172000000 2.0203000000
1.5065000000 4.3675000000 1.4309000000
1.5063000000 0.1116000000 0.1381000000
1.5062000000 2.9104000000 2.4538000000
1.5061000000 0.8809000000 0.7524000000
1.5060000000 4.7340000000 1.1017000000
1.5060000000 1.4615000000 1.2815000000
1.5060000000 3.3178000000 2.4063000000
1.5059000000 5.6028000000 0.3151000000
1.5058000000 5.1690000000 0.7100000000
1.5057000000 1.1557000000 1.0052000000
1.5056000000 5.3109000000 0.5758000000
1.5054000000 4.7831000000 1.0506000000
1.5051000000 4.3424000000 1.4549000000
1.5050000000 0.1660000000 0.1069000000
1.5050000000 5.3655000000 0.5273000000
1.5049000000 1.4777000000 1.2964000000
1.5048000000 4.7886000000 1.0495000000
1.5048000000 1.3931000000 1.2169000000
1.5047000000 1.8723000000 1.6514000000
1.5046000000 5.4052000000 0.4927000000
1.5045000000 1.8794000000 1.6542000000
1.5044000000 4.7115000000 1.1186000000
1.5042000000 2.1756000000 1.9171000000
1.5038000000 2.7094000000 2.3501000000
1.5038000000 5.5389000000 0.3687000000
1.5038000000 5.3860000000 0.5106000000
1.5037000000 4.6426000000 1.1845000000
1.5035000000 4.8001000000 1.0387000000
1.5035000000 3.8136000000 1.9330000000
1.5034000000 2.6002000000 2.3654000000
1.5032000000 2.1314000000 1.8847000000
1.5032000000 0.2544000000 0.1872000000
1.5028000000 3.2346000000 2.3829000000
1.5027000000 5.3234000000 0.5698000000
1.5023000000 2.0619000000 1.8205000000
1.5020000000 2.9471000000 2.4606000000
1.5016000000 5.8188000000 0.1161000000
1.5016000000 4.6460000000 1.1838000000
1.5015000000 0.2367000000 0.1721000000
1.5015000000 0.5938000000 0.4887000000
1.5013000000 3.7064000000 2.0267000000
1.5009000000 2.2133000000 1.9602000000
1.5009000000 4.6932000000 1.1404000000
1.5008000000 1.4375000000 1.2570000000
1.5006000000 1.4512000000 1.2678000000
1.5004000000 2.3851000000 2.1176000000
1.5002000000 3.7977000000 1.9408000000
1.5002000000 1.2433000000 1.0797000000
1.5000000000 0.7933000000 0.6750000000
1.4994000000 2.8673000000 2.4208000000
1.4994000000 2.3343000000 2.0681000000
1.4992000000 2.5027000000 2.2801000000
1.4992000000 5.4825000000 0.4255000000
1.4991000000 0.4019000000 0.3265000000
1.4991000000 2.9267000000 2.4514000000
1.4989000000 4.6328000000 1.1918000000
1.4988000000 0.8535000000 0.7321000000
1.4984000000 1.3412000000 1.1685000000
1.4983000000 0.7417000000 0.6307000000
1.4982000000 4.6566000000 1.1720000000
1.4968000000 1.6922000000 1.4910000000
1.4967000000 5.7510000000 0.1819000000
1.4959000000 0.0323000000 0.0618000000
1.4958000000 2.2429000000 1.9869000000
1.4956000000 3.3083000000 2.3313000000
1.4954000000 5.2336000000 0.6456000000
1.4947000000 1.0871000000 0.9426000000
1.2645000000 4.6223000000 1.2004000000
1.2630000000 3.6304000000 2.0147000000
1.2610000000 2.0055000000 1.7683000000
1.2609000000 3.8677000000 1.9449000000
1.2603000000 5.5492000000 0.3654000000
1.2598000000 2.8360000000 2.2310000000
1.2593000000 0.7168000000 0.6060000000
1.2591000000 5.1241000000 0.7421000000
1.2587000000 0.9184000000 0.7847000000
1.2584000000 5.7374000000 0.1916000000
1.2582000000 2.3508000000 2.0074000000
1.2582000000 0.8212000000 0.7014000000
1.2579000000 5.1863000000 0.6950000000
1.2579000000 3.7403000000 2.0281000000
1.2576000000 1.6343000000 1.4320000000
1.2573000000 2.0419000000 1.7996000000
1.2572000000 1.5893000000 1.3958000000
1.2570000000 3.0308000000 2.3429000000
1.2568000000 1.7642000000 1.5491000000
1.2567000000 3.3249000000 2.1507000000
1.2565000000 3.4958000000 2.0767000000
1.2563000000 2.6102000000 2.1180000000
1.2562000000 5.1152000000 0.7591000000
1.2561000000 5.6121000000 0.3024000000
1.2560000000 4.8748000000 0.9729000000
1.2560000000 1.3370000000 1.1640000000
1.2558000000 3.6510000000 2.0006000000
1.2555000000 4.6525000000 1.1768000000
1.2555000000 0.8422000000 0.7183000000
1.2554000000 3.3357000000 2.1470000000
1.2554000000 2.2678000000 2.0276000000
1.2553000000 5.3398000000 0.5527000000
1.2553000000 4.7822000000 1.0531000000
1.2553000000 3.7046000000 1.9747000000
1.2552000000 4.7103000000 1.1240000000
1.2550000000 5.8074000000 0.1367000000
1.2549000000 4.5969000000 1.2180000000
1.2548000000 0.5078000000 0.4170000000
1.2547000000 3.0183000000 2.3459000000
1.2545000000 5.3786000000 0.5171000000
1.2545000000 2.7839000000 2.1995000000
1.2542000000 5.4848000000 0.4222000000
1.2541000000 3.4407000000 2.0925000000
1.2539000000 4.6433000000 1.1802000000
1.2539000000 3.7487000000 2.0112000000
1.2538000000 2.8204000000 2.2142000000
1.2537000000 0.2334000000 0.1699000000
1.2536000000 2.9464000000 2.2635000000
1.2535000000 2.5532000000 2.0897000000
1.2531000000 5.8801000000 0.1339000000
1.2531000000 3.8420000000 1.8945000000
1.2529000000 3.8360000000 1.9673000000
1.2534000000 5.1792000000 0.6970000000
1.2526000000 1.2866000000 1.1187000000
1.2525000000 0.8085000000 0.6827000000
1.2524000000 4.2617000000 1.5288000000
1.2525000000 4.4096000000 1.3985000000
1.2523000000 3.5579000000 2.0496000000
1.2520000000 1.8388000000 1.6174000000
1.2520000000 0.7240000000 0.6122000000
1.2519000000 4.7262000000 1.1047000000
1.2518000000 3.9501000000 1.8068000000
1.2516000000 2.0040000000 1.7663000000
1.2515000000 3.8667000000 1.8698000000
1.2515000000 1.1402000000 0.9831000000
1.2514000000 2.4965000000 2.0686000000
1.2512000000 1.1944000000 1.0394000000
1.2510000000 2.5551000000 2.0893000000
1.2506000000 4.5984000000 1.2236000000
1.2502000000 1.3973000000 1.2233000000
1.2501000000 3.2164000000 2.1949000000
1.2499000000 2.6661000000 2.1430000000
1.2498000000 3.5886000000 2.0222000000
1.2496000000 0.0346000000 0.0700000000
1.2493000000 1.2200000000 1.0591000000
1.2492000000 1.7615000000 1.5509000000
1.2490000000 1.2772000000 1.1132000000
1.2486000000 2.3418000000 1.9962000000
1.2484000000 0.9664000000 0.8311000000
1.2483000000 2.8161000000 2.2081000000
1.2478000000 5.5169000000 0.3923000000
1.2476000000 0.0276000000 0.0571000000
1.2465000000 1.5044000000 1.3162000000
1.2464000000 0.5816000000 0.4887000000
1.0126000000 4.1065000000 1.6022000000
1.0114000000 5.2561000000 0.6234000000
1.0106000000 4.4513000000 1.3574000000
1.0105000000 3.4179000000 1.9192000000
1.0090000000 0.3755000000 0.2972000000
1.0088000000 5.5605000000 0.3555000000
1.0079000000 4.1786000000 1.6291000000
1.0078000000 4.4455000000 1.3586000000
1.0076000000 4.6450000000 1.1842000000
1.0075000000 2.8994000000 2.0567000000
1.0074000000 5.0790000000 0.7890000000
1.0073000000 3.9293000000 1.6766000000
1.0073000000 3.0484000000 2.0674000000
1.0065000000 4.7259000000 1.1064000000
1.0065000000 2.9726000000 2.1429000000
1.0065000000 5.9145000000 0.1065000000
1.0064000000 3.1571000000 2.0328000000
1.0061000000 3.4466000000 1.8952000000
1.0059000000 4.8756000000 0.9739000000
1.0058000000 4.1938000000 1.5509000000
1.0056000000 0.6022000000 0.5068000000
1.0052000000 0.2575000000 0.1837000000
1.0051000000 4.3931000000 1.4114000000
1.0050000000 5.8238000000 0.1185000000
1.0049000000 5.0094000000 0.8501000000
1.0047000000 2.8126000000 2.0185000000
1.0046000000 4.2051000000 1.6116000000
1.0045000000 2.7741000000 1.9936000000
1.0044000000 4.4639000000 1.3418000000
1.0043000000 0.9376000000 0.8064000000
1.0041000000 1.7760000000 1.6060000000
1.0040000000 1.0170000000 0.8742000000
1.0040000000 5.2991000000 0.5895000000
1.0038000000 5.8555000000 0.0916000000
1.0038000000 5.5555000000 0.3623000000
1.0037000000 4.3879000000 1.4148000000
1.0036000000 3.1552000000 2.0267000000
1.0035000000 0.2336000000 0.1727000000
1.0033000000 0.3232000000 0.2482000000
1.0033000000 3.9456000000 1.6742000000
1.0032000000 5.8554000000 0.0933000000
1.0030000000 1.2809000000 1.1123000000
1.0028000000 5.3524000000 0.5345000000
1.0027000000 5.9095000000 0.1126000000
1.0025000000 2.4489000000 1.8531000000
1.0023000000 2.9258000000 2.0580000000
1.0023000000 2.1293000000 1.6996000000
1.0022000000 2.8313000000 2.0248000000
1.0018000000 1.5365000000 1.3488000000
1.0018000000 4.4862000000 1.3220000000
1.0017000000 1.9070000000 1.6034000000
1.0013000000 4.1834000000 1.6180000000
1.0013000000 3.2409000000 1.9844000000
1.0012000000 3.3501000000 1.9416000000
1.0011000000 1.6392000000 1.4289000000
1.0010000000 3.7622000000 1.7479000000
1.0009000000 0.8596000000 0.7377000000
1.0007000000 5.5649000000 0.3485000000
1.0006000000 1.3703000000 1.1992000000
1.0005000000 4.8303000000 1.0124000000
1.0002000000 2.8654000000 2.0374000000
1.0001000000 5.2082000000 0.6737000000
0.9997000000 5.1053000000 0.7644000000
0.9995000000 1.1711000000 1.0164000000
0.9995000000 1.8837000000 1.5885000000
0.9992000000 2.2596000000 1.7625000000
0.9990000000 2.1229000000 1.6991000000
0.9988000000 3.8338000000 1.7173000000
0.9987000000 2.5537000000 1.8925000000
0.9986000000 1.1571000000 1.0058000000
0.9985000000 4.1490000000 1.5726000000
0.9975000000 0.1807000000 0.1286000000
0.9968000000 3.0731000000 2.0634000000
0.9967000000 2.5728000000 1.9052000000
0.9950000000 5.4374000000 0.4690000000
0.9910000000 4.5232000000 1.2891000000
0.7629000000 4.5160000000 1.2213000000
0.7615000000 5.2919000000 0.5950000000
0.7593000000 4.2084000000 1.3634000000
0.7591000000 2.5912000000 1.7261000000
0.7590000000 4.9990000000 0.8664000000
0.7588000000 5.0250000000 0.8374000000
0.7580000000 3.0075000000 1.9644000000
0.7579000000 5.6700000000 0.2523000000
0.7578000000 5.5064000000 0.4042000000
0.7576000000 4.9474000000 0.9030000000
0.7570000000 5.5596000000 0.3537000000
0.7570000000 5.5633000000 0.3505000000
0.7567000000 3.2095000000 1.8119000000
0.7564000000 1.4357000000 1.1998000000
0.7563000000 0.7035000000 0.5912000000
0.7560000000 1.6946000000 1.3190000000
0.7555000000 3.9992000000 1.4515000000
0.7556000000 3.4988000000 1.6774000000
0.7555000000 4.9704000000 0.8914000000
0.7555000000 1.5476000000 1.2518000000
0.7554000000 0.6424000000 0.5386000000
0.7553000000 1.9742000000 1.4403000000
0.7553000000 5.8116000000 0.1328000000
0.7552000000 5.3001000000 0.5891000000
0.7551000000 4.6250000000 1.2263000000
0.7550000000 0.5655000000 0.4662000000
0.7548000000 5.5002000000 0.4102000000
0.7547000000 2.8684000000 1.8459000000
0.7546000000 2.2755000000 1.5768000000
0.7545000000 4.8046000000 1.0295000000
0.7544000000 0.1504000000 0.0915000000
0.7544000000 5.5940000000 0.3211000000
0.7542000000 0.1939000000 0.1361000000
0.7541000000 1.0345000000 0.8933000000
0.7540000000 2.3050000000 1.5875000000
0.7539000000 5.3841000000 0.5096000000
0.7538000000 1.0896000000 0.9419000000
0.7536000000 4.6865000000 1.2052000000
0.7536000000 1.4435000000 1.2017000000
0.7535000000 1.2399000000 1.1362000000
0.7533000000 2.2366000000 1.5588000000
0.7533000000 2.3814000000 1.6243000000
0.7532000000 1.6640000000 1.2973000000
0.7532000000 5.5112000000 0.4008000000
0.7528000000 2.0065000000 1.4537000000
0.7528000000 4.9935000000 0.8710000000
0.7525000000 5.6735000000 0.2503000000
0.7525000000 3.5502000000 1.6538000000
0.7524000000 3.7343000000 1.5701000000
0.7523000000 3.1368000000 1.8381000000
0.7522000000 3.2414000000 1.7936000000
0.7520000000 0.3887000000 0.3103000000
0.7520000000 0.8226000000 0.7018000000
0.7519000000 5.2182000000 0.6676000000
0.7519000000 4.7215000000 1.0983000000
0.7518000000 5.3967000000 0.5006000000
0.7514000000 3.3849000000 1.7305000000
0.7514000000 5.3909000000 0.5076000000
0.7510000000 1.9175000000 1.4034000000
0.7508000000 2.1378000000 1.5113000000
0.7507000000 0.6713000000 0.5631000000
0.7506000000 2.2551000000 1.5633000000
0.7504000000 3.0429000000 1.9381000000
0.7499000000 1.5861000000 1.2643000000
0.7497000000 4.5389000000 1.2020000000
0.7496000000 2.4318000000 1.6404000000
0.7495000000 1.6828000000 1.3067000000
0.7495000000 1.0036000000 0.8602000000
0.7490000000 0.5026000000 0.4156000000
0.7484000000 2.4773000000 1.6602000000
0.7484000000 2.1059000000 1.4916000000
0.7480000000 2.5220000000 1.6824000000
0.7475000000 5.4450000000 0.4583000000
0.7474000000 5.0381000000 0.8329000000
0.7464000000 0.5287000000 0.4352000000
0.5132000000 2.7600000000 1.6035000000
0.5118000000 2.4591000000 1.4707000000
0.5109000000 0.3681000000 0.2917000000
0.5109000000 5.5012000000 0.4042000000
0.5106000000 3.8748000000 1.3166000000
0.5098000000 3.8612000000 1.3187000000
0.5096000000 3.4410000000 1.5131000000
0.5090000000 3.4982000000 1.4827000000
0.5086000000 4.1805000000 1.1758000000
0.5086000000 5.7487000000 0.1839000000
0.5085000000 0.9898000000 0.7971000000
0.5084000000 1.9493000000 1.2413000000
0.5081000000 5.2828000000 0.6053000000
0.5078000000 1.8818000000 1.2064000000
0.5075000000 6.0010000000 0.0259000000
0.5071000000 1.5946000000 1.0758000000
0.5070000000 5.8277000000 0.1085000000
0.5069000000 2.2986000000 1.3983000000
0.5067000000 0.5483000000 0.4574000000
0.5067000000 0.7366000000 0.6195000000
0.5066000000 5.3225000000 0.5689000000
0.5060000000 1.5035000000 1.0301000000
0.5060000000 0.9914000000 0.7995000000
0.5059000000 5.1044000000 0.8170000000
0.5058000000 2.9376000000 1.6855000000
0.5056000000 0.9842000000 0.7985000000
0.5053000000 2.1445000000 1.3263000000
0.5054000000 3.8607000000 1.3198000000
0.5052000000 3.1962000000 1.6152000000
0.5051000000 4.8234000000 0.8844000000
0.5048000000 2.7805000000 1.6064000000
0.5048000000 4.3308000000 1.1072000000
0.5047000000 0.8888000000 0.8125000000
0.5045000000 2.1191000000 1.3078000000
0.5044000000 3.8697000000 1.3029000000
0.5043000000 4.4277000000 1.0636000000
0.5038000000 0.8941000000 0.8159000000
0.5038000000 0.2487000000 0.1847000000
0.5037000000 2.2409000000 1.3668000000
0.5034000000 4.1541000000 1.1854000000
0.5033000000 2.2578000000 1.3743000000
0.5032000000 4.9168000000 0.8411000000
0.5032000000 2.3350000000 1.4047000000
0.5030000000 5.0074000000 0.7965000000
0.5030000000 3.3877000000 1.5261000000
0.5029000000 4.4851000000 1.0325000000
0.5028000000 0.6732000000 0.5709000000
0.5027000000 0.2905000000 0.2267000000
0.5026000000 3.9189000000 1.2965000000
0.5025000000 4.1587000000 1.1876000000
0.5023000000 1.6096000000 1.0811000000
0.5022000000 3.0149000000 1.7595000000
0.5022000000 1.3182000000 0.9486000000
0.5020000000 0.2495000000 0.1810000000
0.5020000000 5.5219000000 0.3903000000
0.5018000000 2.1478000000 1.3227000000
0.5017000000 4.3711000000 1.0847000000
0.5016000000 0.3404000000 0.2670000000
0.5015000000 4.3881000000 1.0792000000
0.5013000000 0.4431000000 0.3599000000
0.5012000000 1.4251000000 0.9954000000
0.5007000000 4.7831000000 0.9015000000
0.5006000000 2.4594000000 1.4624000000
0.5005000000 0.9617000000 0.7737000000
0.5004000000 0.0992000000 0.1210000000
0.4997000000 0.4553000000 0.3688000000
0.4996000000 4.2306000000 1.1498000000
0.4995000000 0.4487000000 0.3683000000
0.4995000000 0.3386000000 0.2611000000
0.4994000000 1.1776000000 0.8835000000
0.4993000000 5.8582000000 0.0844000000
0.4983000000 2.9252000000 1.6646000000
0.4982000000 0.5045000000 0.4158000000
0.4980000000 4.2816000000 1.1205000000
0.4978000000 0.2455000000 0.1782000000
0.4975000000 2.6754000000 1.5553000000
0.4973000000 4.2794000000 1.1229000000
0.4968000000 1.7141000000 1.1214000000
0.4960000000 1.5666000000 1.0537000000
0.4960000000 0.5034000000 0.4139000000
0.2601000000 1.6191000000 0.8952000000
0.2598000000 5.8206000000 0.1191000000
0.2596000000 4.2913000000 0.9291000000
0.2595000000 3.6489000000 1.2217000000
0.2588000000 2.3543000000 1.2226000000
0.2586000000 2.1652000000 1.1338000000
0.2580000000 3.9848000000 1.0665000000
0.2576000000 5.3315000000 0.4586000000
0.2572000000 2.5799000000 1.3213000000
0.2567000000 4.2147000000 0.9610000000
0.2565000000 1.4147000000 0.7967000000
0.2563000000 2.1724000000 1.1482000000
0.2560000000 5.2826000000 0.4796000000
0.2557000000 3.0777000000 1.4731000000
0.2557000000 4.3554000000 0.9028000000
0.2556000000 1.2825000000 0.7362000000
0.2555000000 5.7967000000 0.1436000000
0.2555000000 4.6927000000 0.7477000000
0.2554000000 1.3798000000 0.7770000000
0.2552000000 1.5523000000 0.8605000000
0.2550000000 1.1947000000 0.6968000000
0.2548000000 1.1547000000 0.6770000000
0.2546000000 4.7619000000 0.7142000000
0.2545000000 5.3289000000 0.4636000000
0.2542000000 4.0837000000 1.0201000000
0.2541000000 2.2363000000 1.1706000000
0.2540000000 0.1992000000 0.1402000000
0.2540000000 5.0848000000 0.5711000000
0.2539000000 3.9276000000 1.0901000000
0.2538000000 0.3381000000 0.2584000000
0.2536000000 2.5094000000 1.2880000000
0.2535000000 1.6862000000 0.9203000000
0.2533000000 1.7106000000 0.9311000000
0.2532000000 0.6607000000 0.4543000000
0.2531000000 0.5930000000 0.4226000000
0.2529000000 5.4073000000 0.4226000000
0.2528000000 2.7574000000 1.4092000000
0.2527000000 3.5922000000 1.2398000000
0.2527000000 4.6194000000 0.7816000000
0.2526000000 4.0042000000 1.0559000000
0.2525000000 2.4422000000 1.2611000000
0.2523000000 4.7543000000 0.7148000000
0.2522000000 2.4116000000 1.2478000000
0.2520000000 1.6109000000 0.8803000000
0.2520000000 0.1466000000 0.0947000000
0.2519000000 6.0146000000 0.0203000000
0.2518000000 1.1492000000 0.6736000000
0.2516000000 4.5871000000 0.7948000000
0.2516000000 2.9941000000 1.5665000000
0.2514000000 2.3256000000 1.2058000000
0.2513000000 3.7185000000 1.1805000000
0.2511000000 3.9638000000 1.0734000000
0.2510000000 3.2175000000 1.4069000000
0.2510000000 3.4604000000 1.2995000000
0.2510000000 0.3809000000 0.3648000000
0.2508000000 1.3273000000 0.7529000000
0.2503000000 4.2608000000 0.9381000000
0.2499000000 2.2423000000 1.1717000000
0.2498000000 4.2484000000 0.9449000000
0.2496000000 5.7901000000 0.1505000000
0.2495000000 4.5200000000 0.8192000000
0.2495000000 1.7578000000 0.9448000000
0.2494000000 3.2421000000 1.3941000000
0.2493000000 0.8874000000 0.5591000000
0.2492000000 3.1111000000 1.4540000000
0.2491000000 1.7470000000 0.9423000000
0.2489000000 0.8155000000 0.5235000000
0.2485000000 0.9761000000 0.5896000000
0.2481000000 1.9368000000 1.0323000000
0.2472000000 0.7947000000 0.5093000000
0.2465000000 2.0638000000 1.0849000000
0.2463000000 3.4451000000 1.3051000000
0.2445000000 0.8922000000 0.5527000000
0.0108000000 5.8344000000 0.1112000000
0.0103000000 4.6701000000 0.5700000000
0.0101000000 3.2361000000 1.2121000000
0.0098000000 2.5358000000 1.1162000000
0.0084000000 4.1214000000 0.8155000000
0.0082000000 4.0717000000 0.8331000000
0.0081000000 2.0251000000 0.8795000000
0.0080000000 2.5845000000 1.1317000000
0.0080000000 3.8138000000 0.9490000000
0.0078000000 4.1608000000 0.7960000000
0.0075000000 5.4160000000 0.2268000000
0.0073000000 3.7159000000 0.9928000000
0.0073000000 4.6337000000 0.5868000000
0.0065000000 4.4294000000 0.6682000000
0.0064000000 2.3936000000 1.0461000000
0.0063000000 3.2788000000 1.1923000000
0.0063000000 3.6855000000 1.0105000000
0.0063000000 3.0727000000 1.2857000000
0.0062000000 3.6412000000 1.0246000000
0.0061000000 5.4166000000 0.2265000000
0.0059000000 1.7972000000 0.7781000000
0.0058000000 1.6963000000 0.7322000000
0.0058000000 0.7256000000 0.2931000000
0.0057000000 4.1973000000 0.7770000000
0.0055000000 5.8578000000 0.1051000000
0.0054000000 5.8615000000 0.0996000000
0.0052000000 3.8553000000 0.9309000000
0.0052000000 3.1913000000 1.2328000000
0.0051000000 4.1190000000 0.8123000000
0.0051000000 2.1347000000 0.9248000000
0.0049000000 5.1883000000 0.3287000000
0.0048000000 0.7981000000 0.3214000000
0.0048000000 5.1990000000 0.3220000000
0.0048000000 1.3945000000 0.5914000000
0.0045000000 2.8252000000 1.2363000000
0.0043000000 1.1537000000 0.4831000000
0.0043000000 5.6094000000 0.1360000000
0.0042000000 2.3959000000 1.0490000000
0.0041000000 5.9645000000 0.0385000000
0.0038000000 3.1322000000 1.2589000000
0.0037000000 0.2659000000 0.0808000000
0.0036000000 4.8299000000 0.4849000000
0.0034000000 2.0161000000 0.8696000000
0.0034000000 2.8034000000 1.2204000000
0.0033000000 0.7469000000 0.2982000000
0.0033000000 0.1092000000 0.0768000000
0.0031000000 1.2979000000 0.5534000000
0.0030000000 0.9568000000 0.3932000000
0.0027000000 4.6651000000 0.5627000000
0.0027000000 5.2086000000 0.3125000000
0.0026000000 3.2607000000 1.1973000000
0.0025000000 0.6934000000 0.2804000000
0.0024000000 1.1065000000 0.4610000000
0.0024000000 4.8984000000 0.4579000000
0.0023000000 2.7090000000 1.1857000000
0.0022000000 4.0033000000 0.8626000000
0.0022000000 0.0868000000 0.0602000000
0.0021000000 1.4931000000 0.6372000000
0.0019000000 0.1010000000 0.0704000000
0.0018000000 5.7085000000 0.0895000000
0.0018000000 1.2909000000 0.5463000000
0.0017000000 5.4100000000 0.2233000000
0.0017000000 0.6988000000 0.2780000000
0.0016000000 0.2606000000 0.0762000000
0.0015000000 1.2402000000 0.5251000000
0.0013000000 0.6375000000 0.2457000000
0.0013000000 5.4888000000 0.1874000000
0.0012000000 3.6432000000 1.0283000000
0.0012000000 2.9362000000 1.2819000000
0.0011000000 3.0853000000 1.2777000000
0.0010000000 4.9039000000 0.4474000000
0.0009000000 4.4231000000 0.6681000000
0.0008000000 1.3615000000 0.5730000000
0.0007000000 3.9794000000 0.8708000000
0.0006000000 0.1338000000 0.0894000000
0.0003000000 3.7632000000 0.9710000000
0.0003000000 2.2232000000 0.9711000000
0.0002000000 0.6844000000 0.2669000000
-0.0008000000 3.1954000000 1.2247000000
-0.0016000000 1.6939000000 0.7203000000
-0.0022000000 3.9227000000 0.8918000000
-0.0027000000 2.6469000000 1.1491000000
-0.0030000000 5.8570000000 0.0960000000
-0.0032000000 5.7255000000 0.0758000000
-0.0039000000 1.2540000000 0.5210000000
-0.0047000000 3.5783000000 1.0444000000
-0.0050000000 5.0144000000 0.3976000000
-0.2398000000 4.4498000000 0.4742000000
-0.2399000000 5.0101000000 0.2166000000
-0.2398000000 2.1351000000 0.7348000000
-0.2407000000 3.1538000000 1.0507000000
-0.2410000000 3.6082000000 0.8568000000
-0.2414000000 2.1641000000 0.7462000000
-0.2417000000 4.6181000000 0.3856000000
-0.2419000000 0.5820000000 0.1096000000
-0.2422000000 3.9766000000 0.6840000000
-0.2423000000 5.5599000000 0.0427000000
-0.2423000000 2.3421000000 0.8265000000
-0.2425000000 4.9463000000 0.2466000000
-0.2427000000 3.2664000000 0.9978000000
-0.2427000000 2.0925000000 0.7147000000
-0.2426000000 2.8912000000 1.0719000000
-0.2431000000 5.6292000000 0.0043000000
-0.2432000000 4.3645000000 0.5086000000
-0.2435000000 4.4229000000 0.4836000000
-0.2436000000 5.4335000000 0.0926000000
-0.2441000000 2.4920000000 0.8891000000
-0.2442000000 5.7693000000 0.0169000000
-0.2442000000 4.1798000000 0.5903000000
-0.2446000000 3.7359000000 0.7901000000
-0.2447000000 5.3242000000 0.0693000000
-0.2448000000 4.0474000000 0.6449000000
-0.2449000000 4.0470000000 0.6414000000
-0.2450000000 4.2096000000 0.5750000000
-0.2451000000 2.0304000000 0.6807000000
-0.2451000000 4.6063000000 0.3894000000
-0.2455000000 1.2218000000 0.3169000000
-0.2455000000 3.6648000000 0.8218000000
-0.2455000000 3.9548000000 0.6896000000
-0.2457000000 1.5705000000 0.4743000000
-0.2457000000 4.3077000000 0.5308000000
