3.2559000000 1.5171000000 0.9608000000
3.2559000000 3.6540000000 1.2904000000
3.2557000000 3.6643000000 1.2854000000
3.2554000000 1.5015000000 0.9519000000
3.2553000000 5.1211000000 0.3948000000
3.2553000000 3.9725000000 1.0957000000
3.2551000000 4.1769000000 0.9760000000
3.2548000000 3.8159000000 1.1936000000
3.2547000000 3.8945000000 1.1451000000
3.2547000000 1.8062000000 1.1416000000
3.2545000000 4.5134000000 0.7757000000
3.2545000000 4.8050000000 0.5899000000
3.2545000000 5.1622000000 0.3785000000
3.2544000000 4.2574000000 0.9297000000
3.2543000000 1.0138000000 0.6586000000
3.2543000000 4.5630000000 0.7388000000
3.2542000000 0.5217000000 0.3576000000
3.2542000000 1.3135000000 0.8383000000
3.2540000000 3.7549000000 1.2346000000
3.2538000000 1.4605000000 0.9292000000
3.2538000000 2.0170000000 1.2760000000
3.2537000000 0.8630000000 0.5685000000
3.2536000000 3.9251000000 1.1307000000
3.2535000000 4.9029000000 0.5343000000
3.2533000000 5.2753000000 0.3106000000
3.2533000000 5.3564000000 0.2598000000
3.2529000000 3.4633000000 1.4046000000
3.2528000000 0.9791000000 0.6330000000
3.2527000000 0.9372000000 0.6140000000
3.2526000000 1.9704000000 1.2392000000
3.2525000000 5.5527000000 0.1222000000
3.2524000000 0.7942000000 0.5263000000
3.2520000000 4.1292000000 1.0063000000
3.2520000000 5.4084000000 0.2328000000
3.2518000000 2.2600000000 1.4191000000
3.2518000000 4.1215000000 1.0097000000
3.2518000000 4.2152000000 0.9515000000
3.2517000000 2.8235000000 1.7433000000
3.2516000000 4.0772000000 1.0409000000
3.2515000000 1.3129000000 0.8407000000
3.2514000000 2.3388000000 1.4660000000
3.2511000000 2.4563000000 1.5349000000
3.2510000000 5.3922000000 0.2381000000
3.2508000000 3.1500000000 1.6017000000
3.2503000000 0.9466000000 0.6253000000
3.2501000000 3.5058000000 1.3872000000
3.2499000000 5.2240000000 0.3447000000
3.2497000000 0.0889000000 0.0788000000
3.2495000000 4.5391000000 0.7619000000
3.2494000000 2.6715000000 1.6721000000
3.2493000000 0.0169000000 0.0771000000
3.2491000000 0.8145000000 0.5426000000
3.2490000000 3.7810000000 1.2168000000
3.2490000000 1.3679000000 0.8782000000
3.2486000000 1.4118000000 0.9008000000
3.2485000000 0.1151000000 0.0979000000
3.2480000000 1.0425000000 0.6816000000
3.2463000000 0.6365000000 0.4385000000
3.2456000000 2.0539000000 1.2977000000
3.0143000000 2.7947000000 1.9881000000
3.0134000000 5.5051000000 0.2501000000
3.0125000000 3.6167000000 1.5744000000
3.0115000000 5.0338000000 0.7121000000
3.0110000000 4.8002000000 0.8511000000
3.0098000000 5.3895000000 0.3912000000
3.0098000000 0.2899000000 0.3484000000
3.0095000000 5.4518000000 0.3144000000
3.0094000000 5.1372000000 0.6315000000
3.0090000000 1.4842000000 1.2000000000
3.0089000000 5.5040000000 0.2482000000
3.0089000000 4.8590000000 0.8177000000
3.0086000000 0.4628000000 0.5433000000
3.0083000000 3.5164000000 1.6271000000
3.0083000000 5.2463000000 0.5436000000
3.0080000000 3.4801000000 1.6588000000
3.0079000000 4.6337000000 0.9583000000
3.0078000000 5.1684000000 0.6153000000
3.0077000000 1.7153000000 1.3455000000
3.0073000000 3.4945000000 1.6536000000
3.0071000000 5.4903000000 0.2739000000
3.0071000000 0.9987000000 0.9102000000
3.0067000000 1.8491000000 1.4221000000
3.0067000000 4.0573000000 1.3083000000
3.0063000000 4.2167000000 1.2107000000
3.0063000000 2.7050000000 1.9407000000
3.0061000000 4.8536000000 0.8280000000
3.0060000000 4.6806000000 0.9336000000
3.0059000000 3.2012000000 1.8267000000
3.0058000000 4.0215000000 1.3319000000
3.0056000000 4.5289000000 1.0222000000
3.0055000000 4.2067000000 1.2247000000
3.0055000000 3.1433000000 1.8649000000
3.0054000000 1.4130000000 1.1626000000
3.0053000000 3.4462000000 1.6839000000
3.0052000000 2.1638000000 1.6151000000
3.0051000000 3.2939000000 1.7753000000
3.0050000000 5.1356000000 0.6384000000
3.0049000000 1.8089000000 1.4019000000
3.0049000000 4.9371000000 0.7799000000
3.0048000000 3.0109000000 1.9476000000
3.0048000000 3.4348000000 1.6877000000
3.0048000000 2.7748000000 1.9893000000
3.0047000000 4.9136000000 0.7913000000
3.0046000000 2.3349000000 1.7208000000
3.0045000000 0.3926000000 0.4673000000
3.0044000000 4.0755000000 1.2978000000
3.0044000000 4.9547000000 0.7648000000
3.0042000000 0.2489000000 0.2998000000
3.0040000000 0.4372000000 0.5080000000
3.0040000000 3.6897000000 1.5328000000
3.0038000000 4.1149000000 1.2802000000
3.0037000000 2.6529000000 1.9130000000
3.0037000000 3.2521000000 1.8052000000
3.0036000000 3.5861000000 1.5967000000
3.0035000000 5.5461000000 0.2002000000
3.0035000000 4.5752000000 0.9983000000
3.0033000000 1.8712000000 1.4424000000
3.0032000000 1.7289000000 1.3621000000
3.0030000000 4.4702000000 1.0603000000
3.0027000000 1.7282000000 1.3551000000
3.0023000000 2.9894000000 1.9613000000
3.0021000000 2.7026000000 1.9448000000
3.0021000000 0.6737000000 0.7185000000
3.0020000000 2.9746000000 1.9740000000
3.0019000000 2.7001000000 1.9474000000
3.0019000000 2.2647000000 1.6840000000
3.0018000000 0.1201000000 0.1427000000
3.0016000000 3.6647000000 1.5501000000
3.0010000000 1.9934000000 1.5219000000
3.0011000000 1.8776000000 1.4501000000
3.0007000000 3.8649000000 1.4334000000
3.0005000000 3.7690000000 1.4894000000
3.0000000000 2.6106000000 1.8987000000
2.9996000000 0.4703000000 0.5470000000
2.9995000000 3.0621000000 1.9244000000
2.9993000000 1.8866000000 1.4546000000
2.9991000000 5.7263000000 0.0560000000
2.9990000000 1.8372000000 1.4270000000
2.9987000000 4.1137000000 1.2793000000
2.9986000000 1.6503000000 1.3117000000
2.9983000000 2.6438000000 1.9209000000
2.9977000000 0.8035000000 0.8040000000
2.9969000000 2.6622000000 1.9263000000
2.9949000000 0.7565000000 0.7747000000
2.7609000000 5.5142000000 0.2362000000
2.7606000000 5.6190000000 0.1096000000
2.7600000000 4.1448000000 1.5143000000
2.7596000000 4.5933000000 1.2412000000
2.7595000000 4.9549000000 0.9208000000
2.7588000000 2.7000000000 2.2040000000
2.7584000000 5.4066000000 0.3674000000
2.7580000000 2.6768000000 2.1891000000
2.7579000000 1.1830000000 1.2800000000
2.7578000000 1.4535000000 1.4451000000
2.7578000000 4.3328000000 1.4049000000
2.7575000000 1.7838000000 1.6504000000
2.7575000000 1.4687000000 1.4611000000
2.7573000000 3.6587000000 1.8136000000
2.7568000000 1.7889000000 1.6534000000
2.7566000000 3.9960000000 1.6082000000
2.7565000000 4.6318000000 1.2177000000
2.7564000000 4.4145000000 1.3529000000
2.7563000000 4.3647000000 1.3844000000
2.7563000000 1.0762000000 1.2184000000
2.7560000000 2.8978000000 2.2523000000
2.7560000000 0.7845000000 0.9507000000
2.7559000000 5.3375000000 0.4512000000
2.7555000000 1.4137000000 1.4272000000
2.7555000000 5.0139000000 0.8417000000
2.7553000000 4.8260000000 1.0515000000
2.7552000000 1.9022000000 1.7254000000
2.7551000000 5.4928000000 0.2654000000
2.7549000000 3.5472000000 1.8830000000
2.7548000000 2.6966000000 2.2016000000
2.7545000000 4.8380000000 1.0387000000
2.7544000000 4.7334000000 1.1428000000
2.7543000000 5.2871000000 0.5155000000
2.7543000000 2.4800000000 2.0756000000
2.7542000000 4.2758000000 1.4398000000
2.7542000000 3.4673000000 1.9296000000
2.7541000000 3.8524000000 1.7040000000
2.7540000000 5.6265000000 0.1032000000
2.7540000000 0.5777000000 0.7016000000
2.7538000000 3.5663000000 1.8691000000
2.7536000000 3.9541000000 1.6381000000
2.7535000000 0.9505000000 1.1215000000
2.7534000000 2.4120000000 2.0357000000
2.7533000000 1.9069000000 1.7273000000
2.7532000000 0.4358000000 0.5289000000
2.7532000000 2.7712000000 2.2534000000
2.7531000000 4.4689000000 1.3296000000
2.7530000000 1.0284000000 1.1737000000
2.7529000000 0.0213000000 0.0977000000
2.7529000000 4.9945000000 0.8661000000
2.7528000000 1.8186000000 1.6730000000
2.7528000000 5.5593000000 0.1821000000
2.7527000000 3.0446000000 2.1902000000
2.7525000000 2.0098000000 1.7887000000
2.7523000000 1.6718000000 1.5836000000
2.7521000000 1.8776000000 1.7100000000
2.7519000000 1.7811000000 1.6510000000
2.7518000000 2.1812000000 1.8968000000
2.7515000000 1.0429000000 1.1911000000
2.7511000000 3.6680000000 1.8135000000
2.7509000000 1.8658000000 1.7072000000
2.7508000000 0.8826000000 1.0472000000
2.7508000000 2.9387000000 2.2567000000
2.7507000000 0.6852000000 0.8284000000
2.7503000000 5.6541000000 0.1401000000
2.7498000000 1.6036000000 1.5428000000
2.7493000000 1.6940000000 1.6047000000
2.7492000000 2.6286000000 2.1674000000
2.7487000000 1.3905000000 1.4210000000
2.7483000000 4.1512000000 1.5213000000
2.7473000000 2.8656000000 2.2838000000
2.7463000000 0.1286000000 0.1541000000
2.5127000000 4.3394000000 1.6424000000
2.5115000000 2.3356000000 2.2372000000
2.5108000000 4.6555000000 1.2818000000
2.5095000000 3.4678000000 2.1865000000
2.5075000000 1.4081000000 1.6599000000
2.5074000000 0.8316000000 1.0080000000
2.5071000000 2.7034000000 2.4692000000
2.5069000000 4.5512000000 1.4075000000
2.5066000000 3.3108000000 2.2864000000
2.5066000000 2.9699000000 2.4944000000
2.5064000000 5.4723000000 0.2850000000
2.5061000000 1.4954000000 1.7369000000
2.5060000000 2.4995000000 2.3477000000
2.5059000000 4.3189000000 1.6559000000
2.5058000000 5.7009000000 0.0893000000
2.5058000000 2.4373000000 2.3043000000
2.5057000000 2.4470000000 2.3140000000
2.5056000000 2.1550000000 2.1384000000
2.5053000000 0.3013000000 0.3656000000
2.5050000000 4.4511000000 1.5278000000
2.5048000000 1.0663000000 1.2974000000
2.5047000000 2.3115000000 2.2361000000
2.5047000000 4.1221000000 1.7988000000
2.5046000000 5.1614000000 0.6664000000
2.5045000000 3.7986000000 1.9933000000
2.5045000000 1.1307000000 1.3691000000
2.5043000000 4.8521000000 1.0387000000
2.5043000000 0.1884000000 0.2286000000
2.5044000000 4.6212000000 1.3163000000
2.5042000000 1.2612000000 1.5233000000
2.5040000000 3.2350000000 2.3348000000
2.5038000000 0.5366000000 0.6459000000
2.5037000000 2.8615000000 2.5403000000
2.5036000000 3.4173000000 2.2191000000
2.5035000000 0.4362000000 0.5282000000
2.5033000000 1.7764000000 1.9126000000
2.5033000000 2.6739000000 2.4524000000
2.5033000000 2.5667000000 2.3903000000
2.5031000000 4.3409000000 1.6415000000
2.5029000000 5.6625000000 0.1271000000
2.5028000000 4.2016000000 1.7487000000
2.5025000000 4.8900000000 0.9937000000
2.5025000000 2.5167000000 2.3584000000
2.5023000000 2.2987000000 2.2274000000
2.5022000000 2.0070000000 2.0549000000
2.5020000000 3.2601000000 2.3179000000
2.5019000000 4.2900000000 1.6740000000
2.5013000000 4.4459000000 1.5357000000
2.5012000000 4.8753000000 1.0139000000
2.5010000000 0.6290000000 0.7592000000
2.5008000000 4.7164000000 1.2097000000
2.5004000000 1.9465000000 2.0174000000
2.5003000000 1.4073000000 1.6669000000
2.5002000000 1.6486000000 1.8351000000
2.4997000000 2.6257000000 2.4300000000
2.4994000000 5.5669000000 0.1769000000
2.4989000000 4.4147000000 1.5546000000
2.4989000000 3.5444000000 2.1516000000
2.4988000000 0.2234000000 0.2649000000
2.4987000000 1.9323000000 2.0104000000
2.4983000000 2.9646000000 2.5079000000
2.4982000000 0.5774000000 0.6971000000
2.4978000000 1.7855000000 1.9205000000
2.4977000000 3.0116000000 2.4813000000
2.4974000000 4.3314000000 1.6520000000
2.4968000000 3.8733000000 1.9597000000
2.4965000000 1.8757000000 1.9822000000
2.4948000000 0.7107000000 0.8571000000
2.2620000000 5.4556000000 0.3111000000
2.2605000000 4.6255000000 1.3145000000
2.2604000000 1.5054000000 1.8242000000
2.2600000000 4.2115000000 1.8232000000
2.2596000000 0.3135000000 0.3777000000
2.2590000000 5.1651000000 0.6606000000
2.2589000000 3.7113000000 2.3067000000
2.2588000000 5.4203000000 0.3596000000
2.2585000000 2.1531000000 2.3963000000
2.2584000000 5.4017000000 0.3725000000
2.2582000000 4.7229000000 1.2008000000
2.2581000000 3.0847000000 2.6896000000
2.2580000000 4.1425000000 1.9076000000
2.2579000000 1.6973000000 2.0467000000
2.2575000000 4.3543000000 1.6485000000
2.2574000000 2.8496000000 2.7988000000
2.2573000000 5.0232000000 0.8321000000
2.2572000000 2.9589000000 2.7647000000
2.2571000000 2.0699000000 2.3475000000
2.2570000000 1.5340000000 1.8610000000
2.2570000000 4.0739000000 1.9940000000
2.2567000000 5.3288000000 0.4613000000
2.2566000000 4.5140000000 1.4524000000
2.2565000000 1.1986000000 1.4524000000
2.2563000000 3.1571000000 2.6404000000
2.2561000000 4.2082000000 1.8287000000
2.2560000000 4.0855000000 1.9704000000
2.2560000000 5.5431000000 0.2004000000
2.2559000000 1.7625000000 2.1220000000
2.2558000000 0.2084000000 0.2519000000
2.2556000000 3.7929000000 2.2503000000
2.2556000000 2.0509000000 2.3410000000
2.2555000000 4.9572000000 0.9160000000
2.2555000000 5.5208000000 0.2356000000
2.2552000000 2.0485000000 2.3400000000
2.2551000000 3.2049000000 2.6201000000
2.2549000000 3.2575000000 2.5836000000
2.2547000000 2.7519000000 2.7717000000
2.2547000000 0.3470000000 0.4233000000
2.2545000000 0.8658000000 1.0481000000
2.2545000000 2.0675000000 2.3516000000
2.2544000000 2.5068000000 2.6183000000
2.2543000000 0.3603000000 0.4285000000
2.2542000000 0.3011000000 0.3620000000
2.2541000000 0.8786000000 1.0674000000
2.2540000000 4.8302000000 1.0698000000
2.2540000000 1.4678000000 1.7790000000
2.2539000000 3.3587000000 2.5258000000
2.2538000000 1.5955000000 1.9365000000
2.2537000000 5.4066000000 0.3731000000
2.2536000000 5.2583000000 0.5555000000
2.2536000000 4.2357000000 1.7852000000
2.2533000000 0.9083000000 1.1015000000
2.2532000000 2.2162000000 2.4438000000
2.2532000000 1.0357000000 1.2553000000
2.2531000000 4.3123000000 1.7001000000
2.2530000000 0.4057000000 0.4955000000
2.2530000000 1.3872000000 1.6830000000
2.2530000000 1.9541000000 2.2836000000
2.2527000000 4.7219000000 1.2026000000
2.2526000000 1.0000000000 1.2124000000
2.2525000000 2.2895000000 2.4824000000
2.2525000000 2.2492000000 2.4577000000
2.2524000000 0.9254000000 1.1201000000
2.2522000000 0.7217000000 0.8741000000
2.2518000000 2.5677000000 2.6586000000
2.2517000000 2.5414000000 2.6470000000
2.2517000000 3.5652000000 2.4016000000
2.2516000000 1.3220000000 1.6073000000
2.2512000000 0.0443000000 0.1269000000
2.2510000000 5.6551000000 0.1432000000
2.2509000000 2.6755000000 2.7280000000
2.2506000000 1.8662000000 2.2076000000
2.2504000000 1.7138000000 2.0637000000
2.2500000000 2.6853000000 2.7331000000
2.2498000000 2.6321000000 2.7012000000
2.2491000000 3.3890000000 2.5102000000
2.2487000000 1.4099000000 1.7107000000
2.2483000000 4.9984000000 0.8671000000
2.2482000000 0.7525000000 0.9099000000
2.2476000000 4.4267000000 1.5649000000
2.2474000000 0.2491000000 0.2938000000
2.2470000000 0.7076000000 0.8563000000
2.2470000000 4.4163000000 1.5673000000
2.2469000000 3.9881000000 2.0810000000
2.2455000000 2.0332000000 2.3410000000
2.2433000000 2.8400000000 2.8189000000
2.2425000000 1.9639000000 2.3041000000
2.0130000000 0.1847000000 0.2202000000
2.0118000000 3.4963000000 2.6718000000
2.0104000000 4.8401000000 1.0548000000
2.0100000000 1.4578000000 1.7693000000
2.0095000000 5.5396000000 0.2051000000
2.0093000000 1.4769000000 1.7950000000
2.0090000000 0.7384000000 0.8903000000
2.0090000000 2.4831000000 2.8624000000
2.0083000000 5.7309000000 0.0480000000
2.0083000000 5.0571000000 0.7926000000
2.0080000000 4.7541000000 1.1620000000
2.0079000000 5.3744000000 0.4052000000
2.0079000000 4.4604000000 1.5230000000
2.0076000000 0.1532000000 0.1835000000
2.0072000000 3.4114000000 2.7330000000
2.0067000000 2.5120000000 2.8814000000
2.0065000000 0.8878000000 1.0746000000
2.0067000000 2.9275000000 3.0445000000
2.0064000000 1.4577000000 1.7655000000
2.0063000000 3.7518000000 2.3771000000
2.0059000000 0.6339000000 0.7659000000
2.0058000000 0.7714000000 0.9348000000
2.0058000000 5.6763000000 0.1239000000
2.0056000000 2.1957000000 2.6478000000
2.0055000000 3.1282000000 2.9282000000
2.0054000000 1.3111000000 1.5816000000
2.0053000000 4.2123000000 1.8193000000
2.0052000000 2.8802000000 3.0579000000
2.0049000000 1.3862000000 1.6780000000
2.0047000000 4.8442000000 1.0550000000
2.0046000000 0.0433000000 0.1200000000
2.0047000000 4.7857000000 1.1192000000
2.0044000000 1.7526000000 2.1323000000
2.0044000000 3.7098000000 2.4258000000
2.0043000000 3.2207000000 2.8689000000
2.0043000000 1.3484000000 1.6401000000
2.0040000000 5.0378000000 0.8147000000
2.0039000000 5.4129000000 0.3633000000
2.0037000000 1.3664000000 1.6601000000
2.0035000000 4.0861000000 1.9789000000
2.0033000000 1.6323000000 1.9818000000
2.0033000000 5.1480000000 0.6781000000
2.0032000000 1.2153000000 1.4686000000
2.0033000000 2.4720000000 2.8601000000
2.0030000000 3.0725000000 2.9607000000
2.0029000000 1.0193000000 1.2371000000
2.0030000000 4.5980000000 1.3538000000
2.0028000000 5.0598000000 0.7897000000
2.0026000000 0.3339000000 0.4037000000
2.0025000000 2.6277000000 2.9584000000
2.0025000000 1.2242000000 1.4822000000
2.0025000000 2.0337000000 2.4665000000
2.0024000000 0.2036000000 0.2419000000
2.0020000000 4.1886000000 1.8457000000
2.0019000000 0.5252000000 0.6372000000
2.0017000000 0.2265000000 0.2705000000
2.0015000000 4.7662000000 1.1471000000
2.0013000000 4.6332000000 1.3095000000
2.0012000000 3.3817000000 2.7551000000
2.0010000000 2.3157000000 2.7463000000
2.0008000000 2.3171000000 2.7462000000
2.0006000000 5.3350000000 0.4550000000
2.0004000000 3.2742000000 2.8429000000
2.0003000000 2.0253000000 2.4551000000
2.0003000000 2.4324000000 2.8406000000
2.0002000000 2.3514000000 2.7774000000
1.9995000000 5.3277000000 0.4660000000
1.9991000000 0.1985000000 0.2397000000
1.9988000000 3.0945000000 2.9544000000
1.9986000000 1.0869000000 1.3125000000
1.9986000000 1.0488000000 1.2731000000
1.9983000000 0.5416000000 0.6549000000
1.9979000000 1.0727000000 1.2988000000
1.9975000000 3.1206000000 2.9407000000
1.9974000000 1.7164000000 2.0862000000
1.9971000000 4.9058000000 0.9802000000
1.9967000000 1.1718000000 1.4184000000
1.9963000000 2.4776000000 2.8779000000
1.9961000000 1.6631000000 2.0167000000
1.9955000000 0.8877000000 1.0686000000
1.7619000000 4.2978000000 1.7127000000
1.7610000000 5.5773000000 0.1566000000
1.7609000000 3.2353000000 3.0057000000
1.7601000000 4.5970000000 1.3527000000
1.7590000000 2.7733000000 3.2939000000
1.7589000000 4.2095000000 1.8215000000
1.7588000000 2.1306000000 2.5856000000
1.7587000000 3.1195000000 3.1299000000
1.7585000000 1.8287000000 2.2162000000
1.7584000000 3.8063000000 2.3178000000
1.7581000000 1.5372000000 1.8679000000
1.7576000000 4.9492000000 0.9249000000
1.7575000000 5.1440000000 0.6887000000
1.7575000000 4.2462000000 1.7774000000
1.7575000000 1.0305000000 1.2522000000
1.7573000000 5.3474000000 0.4426000000
1.7572000000 3.7818000000 2.3472000000
1.7570000000 5.5667000000 0.1719000000
1.7566000000 1.9170000000 2.3274000000
1.7563000000 2.3106000000 2.8038000000
1.7563000000 0.9362000000 1.1337000000
1.7562000000 1.8656000000 2.2632000000
1.7556000000 2.9081000000 3.3149000000
1.7555000000 4.0777000000 1.9855000000
1.7556000000 3.3153000000 2.9099000000
1.7555000000 5.3584000000 0.4246000000
1.7554000000 0.3401000000 0.4133000000
1.7552000000 0.1817000000 0.2160000000
1.7553000000 3.1351000000 3.1147000000
1.7552000000 2.9120000000 3.3202000000
1.7550000000 3.5843000000 2.5823000000
1.7550000000 4.9487000000 0.9225000000
1.7548000000 4.0305000000 2.0403000000
1.7546000000 2.0336000000 2.4691000000
1.7546000000 0.6638000000 0.7989000000
1.7545000000 2.1012000000 2.5493000000
1.7544000000 1.4220000000 1.7232000000
1.7543000000 0.0575000000 0.1409000000
1.7542000000 3.2835000000 2.9468000000
1.7541000000 3.6973000000 2.4477000000
1.7540000000 2.1163000000 2.5725000000
1.7539000000 1.1767000000 1.4241000000
1.7538000000 0.3547000000 0.4271000000
1.7538000000 3.4250000000 2.7793000000
1.7537000000 1.4970000000 1.8113000000
1.7535000000 4.8522000000 1.0424000000
1.7533000000 0.3807000000 0.4593000000
1.7533000000 1.9865000000 2.4061000000
1.7532000000 2.1251000000 2.5772000000
1.7532000000 3.3494000000 2.8661000000
1.7531000000 1.9685000000 2.3919000000
1.7530000000 1.7151000000 2.0790000000
1.7529000000 4.5842000000 1.3708000000
1.7529000000 0.2660000000 0.3194000000
1.7525000000 0.7389000000 0.8945000000
1.7523000000 3.3807000000 2.8264000000
1.7521000000 0.8570000000 1.0383000000
1.7520000000 3.2995000000 2.9256000000
1.7518000000 1.7977000000 2.1857000000
1.7518000000 0.6247000000 0.7557000000
1.7516000000 1.4065000000 1.7078000000
1.7515000000 3.8505000000 2.2587000000
1.7514000000 0.5756000000 0.6998000000
1.7514000000 2.5948000000 3.1326000000
1.7513000000 3.4573000000 2.7354000000
1.7512000000 4.7857000000 1.1267000000
1.7510000000 5.2641000000 0.5389000000
1.7509000000 0.5686000000 0.6843000000
1.7508000000 1.4935000000 1.8109000000
1.7508000000 2.1903000000 2.6506000000
1.7507000000 0.7771000000 0.9338000000
1.7504000000 0.4303000000 0.5155000000
1.7503000000 4.3123000000 1.6977000000
1.7502000000 1.7922000000 2.1736000000
1.7500000000 0.0513000000 0.1387000000
1.7499000000 2.1280000000 2.5824000000
1.7495000000 1.3968000000 1.7031000000
1.7494000000 0.3516000000 0.4211000000
1.7493000000 3.7696000000 2.3555000000
1.7492000000 3.8471000000 2.2665000000
1.7486000000 2.2778000000 2.7683000000
1.7485000000 0.5595000000 0.6790000000
1.7482000000 0.5029000000 0.6080000000
1.7475000000 0.9563000000 1.1644000000
1.7475000000 2.3031000000 2.7917000000
1.7474000000 4.2583000000 1.7656000000
1.7474000000 1.3676000000 1.6624000000
1.7463000000 0.8055000000 0.9741000000
1.5120000000 4.7288000000 1.1910000000
1.5118000000 3.5475000000 2.6256000000
1.5116000000 4.5378000000 1.4268000000
1.5115000000 4.0205000000 2.0547000000
1.5097000000 1.9797000000 2.4047000000
1.5093000000 4.1598000000 1.8830000000
1.5093000000 4.1919000000 1.8450000000
1.5088000000 2.7734000000 3.2652000000
1.5087000000 2.5305000000 3.0514000000
1.5085000000 4.1440000000 1.9065000000
1.5081000000 0.0703000000 0.0805000000
1.5078000000 0.3054000000 0.3631000000
1.5077000000 2.6587000000 3.1798000000
1.5074000000 5.6405000000 0.0855000000
1.5069000000 0.2099000000 0.2472000000
1.5068000000 0.4994000000 0.6033000000
1.5065000000 5.3259000000 0.4627000000
1.5063000000 3.3355000000 2.8884000000
1.5060000000 5.7343000000 0.0419000000
1.5059000000 2.8601000000 3.3004000000
1.5060000000 3.1761000000 3.0605000000
1.5058000000 3.8101000000 2.3108000000
1.5058000000 3.3622000000 2.8485000000
1.5056000000 0.5867000000 0.7148000000
1.5056000000 3.4915000000 2.6920000000
1.5055000000 1.2622000000 1.5321000000
1.5055000000 1.6455000000 1.9981000000
1.5054000000 3.0573000000 3.1788000000
1.5054000000 3.4163000000 2.7826000000
1.5053000000 3.4951000000 2.6940000000
1.5052000000 4.3596000000 1.6428000000
1.5052000000 5.7158000000 0.0703000000
1.5049000000 3.9758000000 2.1090000000
1.5049000000 5.6987000000 0.0861000000
1.5048000000 1.0572000000 1.2728000000
1.5048000000 3.7678000000 2.3610000000
1.5047000000 3.7963000000 2.3232000000
1.5047000000 0.1405000000 0.1669000000
1.5046000000 4.1038000000 1.9523000000
1.5045000000 4.6932000000 1.2318000000
1.5044000000 3.2759000000 2.9548000000
1.5043000000 0.7455000000 0.9037000000
1.5043000000 4.8317000000 1.0694000000
1.5041000000 3.3867000000 2.8272000000
1.5039000000 5.5718000000 0.1709000000
1.5038000000 1.4249000000 1.7352000000
1.5035000000 1.1686000000 1.4176000000
1.5035000000 4.2274000000 1.8048000000
1.5033000000 2.1473000000 2.6086000000
1.5030000000 0.2934000000 0.3509000000
1.5029000000 4.2757000000 1.7440000000
1.5028000000 4.3348000000 1.6697000000
1.5027000000 0.3398000000 0.4098000000
1.5026000000 4.1053000000 1.9536000000
1.5026000000 1.3820000000 1.6724000000
1.5027000000 2.4662000000 2.9967000000
1.5023000000 3.2485000000 2.9900000000
1.5023000000 1.1965000000 1.4480000000
1.5021000000 3.1777000000 3.0568000000
1.5018000000 2.7548000000 3.2529000000
1.5017000000 3.0249000000 3.1928000000
1.5015000000 1.4984000000 1.8151000000
1.5013000000 0.7679000000 0.9279000000
1.5013000000 0.9834000000 1.1846000000
1.5013000000 1.9205000000 2.3331000000
1.5012000000 1.9950000000 2.4186000000
1.5011000000 1.8250000000 2.2113000000
1.5009000000 4.8621000000 1.0345000000
1.5008000000 2.3731000000 2.8818000000
1.5008000000 3.7183000000 2.4235000000
1.5007000000 0.1698000000 0.2049000000
1.5005000000 0.7726000000 0.9378000000
1.5004000000 0.1760000000 0.2123000000
1.5003000000 3.3133000000 2.9145000000
1.5000000000 0.0087000000 0.0810000000
1.4998000000 4.2566000000 1.7589000000
1.4997000000 3.4255000000 2.7768000000
1.4993000000 4.3002000000 1.7109000000
1.4990000000 5.3625000000 0.4269000000
1.4988000000 3.6680000000 2.4847000000
1.4982000000 1.1460000000 1.3911000000
1.4981000000 2.7379000000 3.2380000000
1.4980000000 1.2692000000 1.5372000000
1.4976000000 4.7933000000 1.1139000000
1.4970000000 3.2412000000 2.9938000000
1.4965000000 4.5505000000 1.4099000000
1.4963000000 2.4107000000 2.9250000000
1.4929000000 0.0925000000 0.1087000000
1.2612000000 5.0980000000 0.7449000000
1.2608000000 5.4315000000 0.3414000000
1.2601000000 5.6061000000 0.1304000000
1.2598000000 3.6728000000 2.4756000000
1.2591000000 0.4242000000 0.5123000000
1.2591000000 4.6149000000 1.3299000000
1.2590000000 4.8234000000 1.0824000000
1.2586000000 4.7245000000 1.2031000000
1.2582000000 2.9979000000 2.9688000000
1.2582000000 0.7317000000 0.8835000000
1.2580000000 5.3261000000 0.4669000000
1.2579000000 5.6952000000 0.0887000000
1.2577000000 2.3499000000 2.7491000000
1.2576000000 0.9299000000 1.1242000000
1.2575000000 3.2401000000 2.8219000000
1.2573000000 1.7058000000 2.0649000000
1.2572000000 2.3082000000 2.7172000000
1.2571000000 2.1492000000 2.5854000000
1.2571000000 1.9951000000 2.4167000000
1.2570000000 2.4918000000 2.8358000000
1.2569000000 2.6197000000 2.9137000000
1.2567000000 0.8322000000 1.0092000000
1.2564000000 4.5316000000 1.4323000000
1.2565000000 3.4797000000 2.6570000000
1.2566000000 3.2453000000 2.8179000000
1.2563000000 4.0304000000 2.0429000000
1.2562000000 2.8717000000 3.0240000000
1.2561000000 2.4710000000 2.8206000000
1.2560000000 2.0391000000 2.4725000000
1.2560000000 4.5224000000 1.4395000000
1.2555000000 5.4735000000 0.2902000000
1.2553000000 3.7571000000 2.3798000000
1.2548000000 3.5880000000 2.5628000000
1.2547000000 3.8993000000 2.1991000000
1.2546000000 0.8073000000 0.9764000000
1.2546000000 4.1242000000 1.9309000000
1.2545000000 5.6158000000 0.1109000000
1.2545000000 1.1171000000 1.3512000000
1.2544000000 0.9158000000 1.1100000000
1.2543000000 1.3954000000 1.6936000000
1.2543000000 1.6696000000 2.0280000000
1.2542000000 4.8800000000 1.0099000000
1.2540000000 3.8292000000 2.2847000000
1.2537000000 0.6240000000 0.7535000000
1.2536000000 0.3458000000 0.4150000000
1.2536000000 1.9825000000 2.4111000000
1.2535000000 1.6850000000 2.0442000000
1.2534000000 3.3036000000 2.7746000000
1.2532000000 1.0615000000 1.2816000000
1.2531000000 4.9829000000 0.8840000000
1.2530000000 5.2205000000 0.5935000000
1.2529000000 4.1948000000 1.8458000000
1.2528000000 0.6340000000 0.7653000000
1.2527000000 4.4545000000 1.5240000000
1.2526000000 1.8592000000 2.2536000000
1.2525000000 3.8191000000 2.2973000000
1.2523000000 4.7583000000 1.1570000000
1.2523000000 5.2825000000 0.5229000000
1.2521000000 3.3011000000 2.7784000000
1.2520000000 3.9566000000 2.1286000000
1.2520000000 1.4341000000 1.7385000000
1.2519000000 0.3154000000 0.3757000000
1.2518000000 2.4614000000 2.8016000000
1.2518000000 2.2586000000 2.6690000000
1.2518000000 2.5461000000 2.8614000000
1.2516000000 4.5720000000 1.3822000000
1.2514000000 0.3899000000 0.4729000000
1.2513000000 1.4941000000 1.8061000000
1.2512000000 1.6963000000 2.0582000000
1.2512000000 5.7181000000 0.0682000000
1.2510000000 4.4537000000 1.5266000000
1.2509000000 2.2608000000 2.6727000000
1.2509000000 1.5746000000 1.9113000000
1.2508000000 2.9651000000 2.9844000000
1.2503000000 0.6440000000 0.7831000000
1.2501000000 3.7485000000 2.3848000000
1.2498000000 0.8598000000 1.0414000000
1.2498000000 4.7791000000 1.1288000000
1.2496000000 2.5200000000 2.8484000000
1.2495000000 0.3513000000 0.4252000000
1.2495000000 1.6015000000 1.9403000000
1.2492000000 5.1446000000 0.6832000000
1.2489000000 3.3742000000 2.7328000000
1.2489000000 0.9854000000 1.1946000000
1.2480000000 1.0796000000 1.3130000000
1.2478000000 1.0377000000 1.2556000000
1.2473000000 1.7253000000 2.0914000000
1.2470000000 0.4889000000 0.5901000000
1.2453000000 0.3588000000 0.4296000000
1.2439000000 1.9454000000 2.3621000000
1.0135000000 4.2621000000 1.7560000000
1.0118000000 4.7608000000 1.1518000000
1.0117000000 5.3274000000 0.4661000000
1.0094000000 3.9374000000 2.1223000000
1.0091000000 2.8307000000 2.7565000000
1.0085000000 0.7280000000 0.8793000000
1.0085000000 5.0708000000 0.7765000000
1.0085000000 4.3221000000 1.6868000000
1.0081000000 2.8463000000 2.7667000000
1.0078000000 5.3061000000 0.4884000000
1.0072000000 3.4938000000 2.4077000000
1.0068000000 3.9877000000 2.0752000000
1.0063000000 2.8577000000 2.7723000000
1.0062000000 5.6960000000 0.0906000000
1.0061000000 2.3728000000 2.5005000000
1.0060000000 3.9035000000 2.1348000000
1.0058000000 3.9806000000 2.0782000000
1.0057000000 1.2284000000 1.4908000000
1.0056000000 5.5699000000 0.1655000000
1.0055000000 3.6211000000 2.3269000000
1.0055000000 1.7432000000 2.0925000000
1.0054000000 1.3664000000 1.6539000000
1.0053000000 2.3877000000 2.5090000000
1.0052000000 2.8115000000 2.7471000000
1.0050000000 5.3820000000 0.3973000000
1.0050000000 4.3314000000 1.6773000000
1.0049000000 0.3147000000 0.3784000000
1.0048000000 1.3411000000 1.6266000000
1.0047000000 3.2169000000 2.5727000000
1.0044000000 5.7419000000 0.0387000000
1.0045000000 1.7686000000 2.1070000000
1.0043000000 2.7846000000 2.7420000000
1.0042000000 3.8495000000 2.1828000000
1.0040000000 5.5229000000 0.2289000000
1.0036000000 3.8425000000 2.1927000000
1.0035000000 2.6816000000 2.6802000000
1.0035000000 5.4373000000 0.3308000000
1.0034000000 5.2697000000 0.5325000000
1.0033000000 3.9924000000 2.0642000000
1.0033000000 3.4516000000 2.4218000000
1.0031000000 4.4123000000 1.5759000000
1.0030000000 3.8686000000 2.1660000000
1.0028000000 0.1370000000 0.1633000000
1.0026000000 2.6115000000 2.6406000000
1.0026000000 3.3240000000 2.5008000000
1.0025000000 3.2689000000 2.5331000000
1.0024000000 1.1358000000 1.3754000000
1.0020000000 3.0600000000 2.6674000000
1.0018000000 2.0342000000 2.2888000000
1.0017000000 4.3863000000 1.6128000000
1.0016000000 0.9729000000 1.1770000000
1.0015000000 5.2582000000 0.5457000000
1.0014000000 2.9191000000 2.7432000000
1.0014000000 2.7826000000 2.7447000000
1.0012000000 4.3743000000 1.6224000000
1.0012000000 0.4502000000 0.5490000000
1.0011000000 0.9636000000 1.1680000000
1.0010000000 1.7610000000 2.0998000000
1.0010000000 0.5192000000 0.6232000000
1.0009000000 2.5295000000 2.5835000000
1.0008000000 5.4244000000 0.3519000000
1.0005000000 1.3356000000 1.6182000000
1.0004000000 1.0240000000 1.2374000000
1.0004000000 2.4515000000 2.5360000000
1.0003000000 2.8098000000 2.7377000000
0.9996000000 0.1784000000 0.2098000000
0.9995000000 3.2877000000 2.5212000000
0.9991000000 4.8802000000 1.0150000000
0.9990000000 1.4850000000 1.8014000000
0.9989000000 0.4940000000 0.5977000000
0.9988000000 2.5125000000 2.5725000000
0.9988000000 3.1171000000 2.6232000000
0.9987000000 0.3940000000 0.4841000000
0.9979000000 0.9980000000 1.2079000000
0.9979000000 3.7243000000 2.2555000000
0.9978000000 2.6834000000 2.6784000000
0.9968000000 0.9139000000 1.1060000000
0.9960000000 1.4224000000 1.7270000000
0.9948000000 5.2771000000 0.5285000000
0.9948000000 4.1088000000 1.9407000000
0.9945000000 1.8056000000 2.1234000000
0.9940000000 1.5160000000 1.8347000000
0.7626000000 4.5396000000 1.4252000000
0.7606000000 5.1809000000 0.6411000000
0.7604000000 5.4081000000 0.3643000000
0.7578000000 1.3528000000 1.5971000000
0.7575000000 4.4589000000 1.4994000000
0.7572000000 1.6359000000 1.7881000000
0.7571000000 4.5483000000 1.4139000000
0.7570000000 3.3145000000 2.2487000000
0.7570000000 3.6631000000 2.0339000000
0.7568000000 3.2796000000 2.2667000000
0.7564000000 5.4149000000 0.3595000000
0.7563000000 3.9789000000 1.8489000000
0.7560000000 0.6800000000 0.8238000000
0.7560000000 3.4704000000 2.1567000000
0.7559000000 4.7036000000 1.2298000000
0.7558000000 1.5532000000 1.7304000000
0.7555000000 1.4893000000 1.6966000000
0.7556000000 1.1943000000 1.4491000000
0.7555000000 4.9342000000 0.9409000000
0.7555000000 4.9522000000 0.9224000000
0.7550000000 1.8282000000 1.9101000000
0.7549000000 0.7344000000 0.8902000000
0.7547000000 1.3314000000 1.5785000000
0.7545000000 3.0899000000 2.3851000000
0.7544000000 3.7971000000 1.9544000000
0.7543000000 2.3875000000 2.2441000000
0.7541000000 5.0859000000 0.7563000000
0.7541000000 0.8258000000 0.9959000000
0.7540000000 5.7101000000 0.0733000000
0.7540000000 2.3860000000 2.2361000000
0.7537000000 5.0242000000 0.8382000000
0.7536000000 0.3366000000 0.4071000000
0.7535000000 2.9143000000 2.4979000000
0.7535000000 1.2296000000 1.4669000000
0.7535000000 5.0313000000 0.8228000000
0.7534000000 2.7681000000 2.4706000000
0.7534000000 3.2076000000 2.3147000000
0.7532000000 4.5222000000 1.4403000000
0.7531000000 1.1090000000 1.3444000000
0.7531000000 4.5464000000 1.4108000000
0.7530000000 0.9789000000 1.1887000000
0.7529000000 0.4464000000 0.5332000000
0.7528000000 2.1820000000 2.1193000000
0.7527000000 1.5247000000 1.7146000000
0.7527000000 1.9479000000 1.9715000000
0.7525000000 0.0539000000 0.1292000000
0.7524000000 0.7189000000 0.8723000000
0.7524000000 2.5466000000 2.3375000000
0.7523000000 1.8453000000 1.9069000000
0.7522000000 3.5201000000 2.1178000000
0.7520000000 5.2617000000 0.5421000000
0.7518000000 0.5963000000 0.7210000000
0.7517000000 3.3892000000 2.2014000000
0.7517000000 1.3559000000 1.5926000000
0.7516000000 5.5911000000 0.1414000000
0.7516000000 0.1063000000 0.1234000000
0.7515000000 5.0299000000 0.8284000000
0.7514000000 1.3749000000 1.6063000000
0.7511000000 0.1004000000 0.1192000000
0.7510000000 2.6612000000 2.4019000000
0.7507000000 0.5406000000 0.6534000000
0.7507000000 2.1356000000 2.0819000000
0.7503000000 0.4531000000 0.5508000000
0.7503000000 2.3035000000 2.1838000000
0.7502000000 1.2001000000 1.4467000000
0.7502000000 0.1001000000 0.1198000000
0.7501000000 0.5397000000 0.6542000000
0.7501000000 3.9773000000 1.8371000000
0.7497000000 0.8997000000 1.0899000000
0.7494000000 2.1850000000 2.1111000000
0.7493000000 1.0644000000 1.2916000000
0.7490000000 2.2703000000 2.1633000000
0.7487000000 0.9801000000 1.1897000000
0.7486000000 3.3871000000 2.2043000000
0.7483000000 3.5964000000 2.0674000000
0.7475000000 1.7320000000 1.8332000000
0.7475000000 1.3528000000 1.5849000000
0.7471000000 4.3128000000 1.6284000000
0.7468000000 1.9990000000 1.9992000000
0.7448000000 3.9115000000 1.8760000000
0.7434000000 5.2868000000 0.5174000000
0.5113000000 3.2065000000 2.0570000000
0.5103000000 4.6579000000 1.1724000000
0.5103000000 1.8570000000 1.6669000000
0.5098000000 3.3607000000 1.9631000000
0.5097000000 5.3448000000 0.4433000000
0.5093000000 2.9318000000 2.2250000000
0.5089000000 4.1885000000 1.4529000000
0.5088000000 3.1048000000 2.1116000000
0.5087000000 2.8533000000 2.2457000000
0.5085000000 3.8227000000 1.6818000000
0.5078000000 4.5030000000 1.2639000000
0.5076000000 3.1807000000 2.0742000000
0.5073000000 3.6466000000 1.7865000000
0.5072000000 4.1336000000 1.4850000000
0.5071000000 5.6027000000 0.1308000000
0.5063000000 2.0677000000 1.7860000000
0.5061000000 4.9571000000 0.9125000000
0.5060000000 1.5834000000 1.4901000000
0.5056000000 5.2908000000 0.5134000000
0.5053000000 1.7251000000 1.5767000000
0.5050000000 1.4711000000 1.4216000000
0.5048000000 1.8468000000 1.6513000000
0.5048000000 5.0925000000 0.7525000000
0.5046000000 5.0492000000 0.8025000000
0.5043000000 2.1790000000 1.8493000000
0.5042000000 4.5793000000 1.2172000000
0.5040000000 0.3072000000 0.3686000000
0.5040000000 5.3725000000 0.4138000000
0.5038000000 2.7312000000 2.1857000000
0.5038000000 0.8587000000 1.0179000000
0.5035000000 5.3998000000 0.3762000000
0.5033000000 1.3199000000 1.3245000000
0.5033000000 0.7620000000 0.9213000000
0.5031000000 0.4873000000 0.5873000000
0.5029000000 2.3279000000 1.9376000000
0.5028000000 1.7475000000 1.5888000000
0.5027000000 4.0065000000 1.5593000000
0.5024000000 3.7421000000 1.7170000000
0.5023000000 2.1765000000 1.8476000000
0.5021000000 5.3676000000 0.4175000000
0.5020000000 3.4819000000 1.8814000000
0.5018000000 3.9705000000 1.5819000000
0.5016000000 2.3438000000 1.9445000000
0.5015000000 4.3371000000 1.3590000000
0.5014000000 3.9557000000 1.5892000000
0.5013000000 2.1613000000 1.8412000000
0.5011000000 1.6577000000 1.5300000000
0.5010000000 2.4857000000 2.0339000000
0.5007000000 4.3787000000 1.3282000000
0.5006000000 3.7288000000 1.7264000000
0.5005000000 2.1239000000 1.8062000000
0.5000000000 3.5247000000 1.8562000000
0.4999000000 0.4932000000 0.5936000000
0.4998000000 2.1024000000 1.7979000000
0.4998000000 5.2825000000 0.5187000000
0.4996000000 2.6723000000 2.1472000000
0.4996000000 4.9935000000 0.8709000000
0.4995000000 4.3007000000 1.3836000000
0.4990000000 1.0173000000 1.1341000000
0.4990000000 4.7880000000 1.0638000000
0.4989000000 1.4164000000 1.3862000000
0.4987000000 1.3316000000 1.3281000000
0.4981000000 0.1016000000 0.1210000000
0.4976000000 3.2884000000 1.9927000000
0.4974000000 1.4718000000 1.4141000000
0.4962000000 1.5007000000 1.4317000000
0.4960000000 3.2281000000 2.0233000000
0.4960000000 0.5741000000 0.6970000000
0.2638000000 4.3686000000 1.0884000000
0.2613000000 5.0217000000 0.6900000000
0.2613000000 2.0859000000 1.5400000000
0.2604000000 3.6032000000 1.5513000000
0.2583000000 5.1326000000 0.6184000000
0.2581000000 2.3262000000 1.6819000000
0.2580000000 2.2846000000 1.6541000000
0.2578000000 1.8202000000 1.3788000000
0.2576000000 5.0515000000 0.6705000000
0.2571000000 4.2908000000 1.1314000000
0.2568000000 5.6499000000 0.0739000000
0.2565000000 2.6153000000 1.8499000000
0.2565000000 2.5211000000 1.7999000000
0.2564000000 3.8224000000 1.4169000000
0.2563000000 5.1492000000 0.6046000000
0.2560000000 1.3558000000 1.0925000000
0.2558000000 3.1429000000 1.8263000000
0.2558000000 3.7509000000 1.4618000000
0.2557000000 3.2900000000 1.7389000000
0.2554000000 2.2517000000 1.6343000000
0.2555000000 2.4537000000 1.7551000000
0.2552000000 5.4805000000 0.2805000000
0.2550000000 4.3964000000 1.0689000000
0.2548000000 2.6930000000 1.8977000000
0.2548000000 2.9924000000 1.9112000000
0.2546000000 4.1961000000 1.1868000000
0.2545000000 4.1814000000 1.1951000000
0.2543000000 0.5057000000 0.5561000000
0.2542000000 2.5922000000 1.8312000000
0.2541000000 4.3585000000 1.0854000000
0.2540000000 5.6793000000 0.1119000000
0.2540000000 0.1881000000 0.2260000000
0.2539000000 4.9178000000 0.7476000000
0.2538000000 3.4779000000 1.6208000000
0.2535000000 0.4107000000 0.4738000000
0.2534000000 0.1832000000 0.2184000000
0.2534000000 4.1912000000 1.1855000000
0.2533000000 0.4494000000 0.5130000000
0.2533000000 5.2205000000 0.5452000000
0.2532000000 3.9419000000 1.3394000000
0.2531000000 3.6858000000 1.4987000000
0.2530000000 2.4724000000 1.7623000000
0.2529000000 1.2393000000 1.0096000000
0.2528000000 0.1437000000 0.1689000000
0.2527000000 0.7528000000 0.7166000000
0.2527000000 2.9858000000 1.9180000000
0.2525000000 0.1886000000 0.2262000000
0.2525000000 5.4152000000 0.3546000000
0.2523000000 2.0119000000 1.4793000000
0.2522000000 0.0100000000 0.0839000000
0.2523000000 3.9751000000 1.3146000000
0.2518000000 2.1429000000 1.5631000000
0.2517000000 5.1703000000 0.5841000000
0.2515000000 0.8314000000 0.7615000000
0.2515000000 4.7475000000 0.8475000000
0.2514000000 0.0413000000 0.1192000000
0.2513000000 2.6919000000 1.8978000000
0.2512000000 4.7165000000 0.8639000000
0.2511000000 1.1466000000 0.9503000000
0.2510000000 2.5006000000 1.7761000000
0.2510000000 4.3202000000 1.1145000000
0.2509000000 4.1909000000 1.1881000000
0.2508000000 0.5904000000 0.6209000000
0.2503000000 0.2137000000 0.2554000000
0.2500000000 0.4581000000 0.5156000000
0.2500000000 3.8670000000 1.3825000000
0.2498000000 1.1263000000 0.9412000000
0.2496000000 1.8904000000 1.4094000000
0.2495000000 4.8656000000 0.7730000000
0.2494000000 0.7282000000 0.6950000000
0.2490000000 2.3135000000 1.6633000000
0.2486000000 0.4559000000 0.5193000000
0.2486000000 1.5193000000 1.1837000000
0.2483000000 1.7569000000 1.3265000000
0.2482000000 0.1623000000 0.1893000000
0.2481000000 1.6095000000 1.2313000000
0.2477000000 1.0414000000 0.8883000000
0.2473000000 0.2085000000 0.2492000000
0.2472000000 1.5928000000 1.2240000000
0.2467000000 3.7032000000 1.4758000000
0.2455000000 2.6963000000 1.8946000000
0.2447000000 0.9419000000 0.8315000000
0.2415000000 1.1653000000 0.9587000000
0.0108000000 4.7261000000 0.6033000000
0.0107000000 4.1210000000 0.9762000000
0.0105000000 5.7164000000 0.0457000000
0.0084000000 4.6641000000 0.6454000000
0.0082000000 3.9814000000 1.0573000000
0.0078000000 4.2790000000 0.8732000000
0.0078000000 0.9253000000 0.5679000000
0.0076000000 3.6163000000 1.2764000000
0.0075000000 2.3441000000 1.4306000000
0.0075000000 0.7341000000 0.4496000000
0.0072000000 5.7356000000 0.0286000000
0.0072000000 5.2310000000 0.2970000000
0.0071000000 2.9506000000 1.6773000000
0.0070000000 2.5881000000 1.5772000000
0.0069000000 3.7907000000 1.1714000000
0.0068000000 1.7592000000 1.0732000000
0.0067000000 4.1919000000 0.9265000000
0.0064000000 1.3666000000 0.8334000000
0.0064000000 4.2588000000 0.8852000000
0.0063000000 2.2644000000 1.3789000000
0.0062000000 1.6387000000 0.9945000000
0.0062000000 5.4292000000 0.1760000000
0.0057000000 2.7831000000 1.6900000000
0.0056000000 3.3534000000 1.4398000000
0.0055000000 4.3471000000 0.8307000000
0.0054000000 5.3421000000 0.2282000000
0.0053000000 0.9022000000 0.5454000000
0.0050000000 2.7613000000 1.6871000000
0.0047000000 2.2010000000 1.3364000000
0.0044000000 3.8265000000 1.1550000000
0.0043000000 1.3165000000 0.8040000000
0.0042000000 3.0933000000 1.5902000000
0.0039000000 2.0065000000 1.2267000000
0.0037000000 2.3635000000 1.4328000000
0.0035000000 4.7007000000 0.6121000000
0.0035000000 1.3262000000 0.8056000000
0.0034000000 5.5153000000 0.1195000000
0.0034000000 0.0655000000 0.0226000000
0.0030000000 2.3437000000 1.4225000000
0.0029000000 4.0739000000 0.9900000000
0.0027000000 3.7698000000 1.1807000000
0.0026000000 3.6828000000 1.2323000000
0.0025000000 1.2066000000 0.7313000000
0.0023000000 3.0479000000 1.6147000000
0.0022000000 1.6769000000 1.0118000000
0.0021000000 1.9401000000 1.1716000000
0.0020000000 1.7395000000 1.0544000000
0.0020000000 2.6745000000 1.6227000000
0.0020000000 3.3285000000 1.4489000000
0.0019000000 4.5584000000 0.6979000000
0.0018000000 4.1415000000 0.9503000000
0.0017000000 1.8970000000 1.1476000000
0.0015000000 3.8842000000 1.1110000000
0.0013000000 0.3727000000 0.2272000000
0.0011000000 5.4629000000 0.1501000000
0.0010000000 2.0511000000 1.2422000000
0.0010000000 0.9526000000 0.5769000000
0.0008000000 0.5242000000 0.3190000000
0.0005000000 0.4971000000 0.2954000000
0.0003000000 1.2739000000 0.7666000000
0.0002000000 1.5436000000 0.9382000000
0.0002000000 0.9060000000 0.5499000000
-0.0001000000 0.2783000000 0.1609000000
-0.0003000000 1.1444000000 0.6833000000
-0.0004000000 1.8181000000 1.1017000000
-0.0006000000 0.8182000000 0.4959000000
-0.0007000000 2.5777000000 1.5604000000
-0.0008000000 2.6688000000 1.6211000000
-0.0009000000 2.4995000000 1.5150000000
-0.0011000000 4.0585000000 0.9975000000
-0.0014000000 2.7015000000 1.6361000000
-0.0035000000 1.3940000000 0.8396000000
-0.0042000000 3.2061000000 1.5111000000
-0.0042000000 2.2153000000 1.3356000000
-0.2375000000 3.8721000000 0.8631000000
-0.2384000000 3.7210000000 0.9562000000
-0.2395000000 2.0964000000 1.0193000000
-0.2396000000 5.1096000000 0.1084000000
-0.2404000000 4.9761000000 0.1901000000
-0.2413000000 0.6604000000 0.1397000000
-0.2414000000 5.1837000000 0.1300000000
-0.2416000000 2.7342000000 1.4008000000
-0.2422000000 5.4132000000 0.0713000000
-0.2426000000 4.2380000000 0.6380000000
-0.2430000000 3.0275000000 1.3697000000
-0.2440000000 4.5071000000 0.4703000000
-0.2441000000 5.2840000000 0.0704000000
-0.2441000000 3.6686000000 0.9827000000
-0.2442000000 0.5255000000 0.1362000000
-0.2445000000 2.9406000000 1.4237000000
-0.2449000000 1.7123000000 0.7747000000
-0.2451000000 1.4190000000 0.5930000000
-0.2452000000 1.9580000000 0.9309000000
-0.2455000000 0.5650000000 0.0798000000
-0.2455000000 5.0888000000 0.1109000000
-0.2456000000 5.4039000000 0.0705000000
-0.2458000000 3.3306000000 1.1896000000
-0.2459000000 1.2247000000 0.4823000000
-0.2460000000 0.6057000000 0.1059000000
-0.2460000000 5.0955000000 0.1221000000
-0.2461000000 0.2937000000 0.0649000000
-0.2461000000 2.0898000000 1.0054000000
-0.2462000000 3.2603000000 1.2256000000
-0.2464000000 3.0588000000 1.3432000000
-0.2464000000 1.9221000000 0.9007000000
-0.2465000000 4.8259000000 0.2735000000
-0.2465000000 0.6869000000 0.1511000000
-0.2466000000 5.4097000000 0.0735000000
-0.2468000000 3.3131000000 1.1965000000
-0.2470000000 4.9400000000 0.2056000000
-0.2471000000 2.2546000000 1.1089000000
-0.2472000000 0.4675000000 0.0920000000
-0.2473000000 1.9042000000 0.9001000000
-0.2474000000 4.8742000000 0.2419000000
-0.2477000000 4.0777000000 0.7297000000
-0.2479000000 3.7049000000 0.9596000000
-0.2480000000 5.1583000000 0.0731000000
-0.2481000000 2.5137000000 1.2629000000
-0.2483000000 1.9445000000 0.9155000000
-0.2485000000 0.4148000000 0.0588000000
-0.2486000000 3.9315000000 0.8161000000
-0.2487000000 0.4410000000 0.0789000000
-0.2488000000 3.0129000000 1.3736000000
-0.2489000000 1.3552000000 0.5569000000
-0.2490000000 2.0334000000 0.9751000000
-0.2490000000 2.0739000000 0.9929000000
-0.2491000000 2.2238000000 1.0824000000
-0.2493000000 3.7495000000 0.9323000000
-0.2498000000 2.2365000000 1.0910000000
-0.2499000000 1.8354000000 0.8445000000
-0.2504000000 0.4753000000 0.0929000000
-0.2507000000 4.7200000000 0.3306000000
-0.2507000000 4.2190000000 0.6397000000
-0.2510000000 0.9102000000 0.2861000000
-0.2510000000 4.1528000000 0.6788000000
-0.2512000000 0.3660000000 0.0975000000
-0.2512000000 1.7091000000 0.7747000000
-0.2514000000 2.4902000000 1.2452000000
-0.2516000000 0.3798000000 0.0381000000
-0.2521000000 4.8528000000 0.2554000000
-0.2525000000 2.8268000000 1.4247000000
-0.2527000000 1.1067000000 0.4071000000
-0.2529000000 3.5096000000 1.0657000000
-0.2531000000 2.2496000000 1.0919000000
-0.2535000000 3.1762000000 1.2640000000
-0.2545000000 4.4794000000 0.4767000000
-0.4881000000 2.7654000000 1.1559000000
-0.4896000000 3.0887000000 1.0747000000
-0.4900000000 4.6711000000 0.1126000000
-0.4917000000 4.8109000000 0.1041000000
-0.4920000000 5.0646000000 0.0236000000
-0.4921000000 0.9338000000 0.1205000000
-0.4926000000 1.5205000000 0.4043000000
-0.4927000000 4.7471000000 0.1345000000
-0.4928000000 1.7225000000 0.5189000000
-0.4930000000 4.0795000000 0.4716000000
-0.4932000000 1.4040000000 0.3295000000
-0.4935000000 3.1976000000 1.0063000000
-0.4936000000 3.1295000000 1.0490000000
-0.4937000000 2.1093000000 0.7568000000
-0.4940000000 2.2179000000 0.8229000000
-0.4945000000 3.4844000000 0.8260000000
-0.4946000000 4.7638000000 0.1249000000
-0.4951000000 2.5496000000 1.0265000000
-0.4952000000 2.7709000000 1.1563000000
-0.4953000000 3.5694000000 0.7781000000
-0.4954000000 2.3582000000 0.9018000000
-0.4956000000 3.0679000000 1.0862000000
-0.4957000000 2.2340000000 0.8281000000
-0.4960000000 3.1565000000 1.0239000000
-0.4961000000 1.3936000000 0.3187000000
-0.4964000000 2.5800000000 1.0423000000
-0.4966000000 4.8719000000 0.0560000000
-0.4966000000 1.1306000000 0.1598000000
-0.4967000000 3.5876000000 0.7628000000
-0.4968000000 4.5307000000 0.1893000000
-0.4970000000 2.1427000000 0.7758000000
-0.4971000000 2.7185000000 1.1290000000
-0.4972000000 1.3487000000 0.2918000000
-0.4972000000 3.6419000000 0.7377000000
-0.4973000000 1.9403000000 0.6503000000
-0.4975000000 2.5787000000 1.0374000000
-0.4976000000 2.5181000000 1.0009000000
-0.4979000000 2.6448000000 1.0814000000
-0.4980000000 3.0767000000 1.0740000000
-0.4982000000 3.7595000000 0.6611000000
-0.4983000000 2.2787000000 0.8504000000
-0.4985000000 3.9810000000 0.5269000000
-0.4986000000 4.2023000000 0.3897000000
-0.4987000000 2.0666000000 0.7323000000
-0.4988000000 2.9476000000 1.1529000000
-0.4990000000 3.5163000000 0.8023000000
-0.4991000000 3.9203000000 0.5551000000
-0.4991000000 3.0787000000 1.0667000000
-0.4993000000 2.7388000000 1.1398000000
