4.7590000000 2.6757000000 0.0966000000
4.7575000000 2.6729000000 0.0939000000
4.7572000000 2.4214000000 0.0332000000
4.7570000000 2.8758000000 0.1851000000
4.7556000000 3.3506000000 0.0940000000
4.7556000000 2.6950000000 0.1098000000
4.7549000000 3.0122000000 0.1401000000
4.7543000000 2.5357000000 0.0935000000
4.7539000000 2.4928000000 0.0696000000
4.7533000000 2.7934000000 0.1694000000
4.7525000000 2.8547000000 0.1841000000
4.7516000000 3.0772000000 0.1074000000
4.7503000000 3.1637000000 0.0584000000
4.5131000000 3.4065000000 0.1530000000
4.5107000000 2.8172000000 0.4198000000
4.5088000000 3.2488000000 0.2458000000
4.5086000000 2.8240000000 0.4112000000
4.5083000000 2.5695000000 0.2781000000
4.5079000000 2.0358000000 0.0559000000
4.5075000000 2.9390000000 0.4196000000
4.5071000000 2.5813000000 0.2807000000
4.5064000000 3.6771000000 0.0842000000
4.5063000000 2.1457000000 0.1166000000
4.5062000000 3.5844000000 0.0633000000
4.5060000000 3.5037000000 0.1046000000
4.5056000000 3.4810000000 0.1214000000
4.5052000000 3.7129000000 0.0635000000
4.5050000000 3.9191000000 0.0179000000
4.5049000000 1.8667000000 0.0312000000
4.5043000000 3.1160000000 0.3237000000
4.5038000000 2.8927000000 0.4283000000
4.5036000000 2.0902000000 0.0919000000
4.5035000000 3.1911000000 0.2809000000
4.5029000000 2.5194000000 0.2587000000
4.5019000000 3.6315000000 0.1123000000
4.5013000000 2.2434000000 0.0964000000
4.5009000000 2.4285000000 0.2058000000
4.5004000000 2.2925000000 0.1277000000
4.4995000000 1.9297000000 0.0785000000
4.4984000000 2.4503000000 0.2222000000
4.2608000000 3.8372000000 0.1529000000
4.2605000000 1.7154000000 0.1109000000
4.2597000000 1.5929000000 0.0471000000
4.2588000000 2.0705000000 0.2440000000
4.2585000000 4.1207000000 0.0723000000
4.2585000000 2.5600000000 0.5174000000
4.2581000000 2.4662000000 0.4624000000
4.2573000000 1.6556000000 0.0876000000
4.2573000000 3.6400000000 0.2759000000
4.2567000000 2.1695000000 0.2996000000
4.2568000000 3.9277000000 0.1085000000
4.2567000000 1.6746000000 0.0999000000
4.2563000000 1.7060000000 0.1164000000
4.2562000000 3.5957000000 0.3032000000
4.2561000000 2.2762000000 0.3546000000
4.2560000000 1.9401000000 0.1702000000
4.2560000000 2.7813000000 0.6468000000
4.2558000000 2.0189000000 0.2178000000
4.2553000000 3.3726000000 0.4277000000
4.2552000000 1.6173000000 0.0649000000
4.2551000000 3.1709000000 0.5397000000
4.2549000000 2.3822000000 0.4244000000
4.2547000000 2.3772000000 0.4109000000
4.2541000000 2.7635000000 0.6404000000
4.2536000000 1.5559000000 0.0302000000
4.2537000000 1.4236000000 0.0292000000
4.2535000000 1.5615000000 0.0340000000
4.2533000000 1.5547000000 0.0261000000
4.2534000000 3.2014000000 0.5219000000
4.2527000000 2.4847000000 0.4822000000
4.2525000000 4.2185000000 0.0968000000
4.2520000000 2.5392000000 0.5167000000
4.2517000000 3.5329000000 0.3401000000
4.2515000000 4.3870000000 0.0045000000
4.2514000000 1.9456000000 0.1828000000
4.2514000000 2.8518000000 0.6710000000
4.2511000000 4.0345000000 0.1327000000
4.2506000000 2.4924000000 0.4882000000
4.2503000000 4.2274000000 0.0956000000
4.2502000000 3.8727000000 0.1452000000
4.2501000000 2.6039000000 0.5517000000
4.2501000000 2.4065000000 0.4400000000
4.2499000000 3.1737000000 0.5386000000
4.2496000000 1.4366000000 0.0433000000
4.2497000000 3.1337000000 0.5635000000
4.2492000000 1.8047000000 0.0981000000
4.2470000000 3.6449000000 0.2819000000
4.0118000000 4.7765000000 0.0183000000
4.0111000000 2.7975000000 0.8957000000
4.0110000000 3.6182000000 0.5206000000
4.0105000000 1.9428000000 0.4095000000
4.0098000000 2.9544000000 0.9042000000
4.0088000000 3.0959000000 0.8255000000
4.0082000000 3.4529000000 0.6177000000
4.0083000000 1.4137000000 0.1094000000
4.0079000000 1.8790000000 0.3817000000
4.0078000000 3.9284000000 0.3526000000
4.0078000000 3.6604000000 0.5045000000
4.0075000000 1.9608000000 0.4274000000
4.0068000000 1.4941000000 0.1647000000
4.0065000000 2.4158000000 0.6827000000
4.0064000000 2.8480000000 0.9099000000
4.0063000000 3.5572000000 0.5660000000
4.0062000000 2.5357000000 0.7564000000
4.0060000000 3.5802000000 0.5493000000
4.0054000000 2.6749000000 0.8322000000
4.0053000000 1.2025000000 0.0785000000
4.0052000000 1.9141000000 0.3997000000
4.0052000000 3.5324000000 0.5812000000
4.0050000000 1.9655000000 0.4264000000
4.0049000000 4.2532000000 0.1699000000
4.0045000000 1.1043000000 0.0930000000
4.0043000000 2.4353000000 0.6965000000
4.0042000000 0.9431000000 0.0034000000
4.0039000000 3.3069000000 0.7025000000
4.0039000000 2.6272000000 0.8015000000
4.0038000000 3.3650000000 0.6772000000
4.0037000000 3.1257000000 0.8136000000
4.0036000000 2.9868000000 0.8918000000
4.0034000000 3.2987000000 0.7160000000
4.0026000000 0.9671000000 0.0212000000
4.0025000000 2.9434000000 0.9107000000
4.0025000000 1.9245000000 0.4095000000
4.0025000000 2.2587000000 0.5918000000
4.0023000000 1.9801000000 0.4427000000
4.0022000000 1.4045000000 0.1156000000
4.0014000000 4.3936000000 0.1007000000
4.0010000000 2.4813000000 0.7285000000
4.0009000000 3.4531000000 0.6189000000
4.0007000000 4.0590000000 0.2887000000
4.0003000000 3.2771000000 0.7343000000
4.0003000000 2.5761000000 0.7748000000
3.9990000000 1.3677000000 0.1006000000
3.9990000000 2.8009000000 0.9116000000
3.9988000000 3.1724000000 0.7959000000
3.9985000000 3.3861000000 0.6710000000
3.7607000000 3.2592000000 0.9683000000
3.7602000000 4.3544000000 0.3550000000
3.7589000000 5.1678000000 0.0443000000
3.7589000000 0.9464000000 0.0940000000
3.7586000000 2.9932000000 1.1255000000
3.7577000000 2.8285000000 1.1475000000
3.7576000000 2.1619000000 0.7807000000
3.7575000000 3.7467000000 0.6948000000
3.7574000000 2.2737000000 0.8491000000
3.7570000000 4.8755000000 0.0677000000
3.7567000000 1.8147000000 0.5898000000
3.7564000000 4.6327000000 0.2004000000
3.7563000000 3.2655000000 0.9702000000
3.7563000000 1.1379000000 0.2065000000
3.7562000000 2.2087000000 0.8079000000
3.7562000000 3.5736000000 0.8006000000
3.7560000000 3.8741000000 0.6288000000
3.7559000000 3.1274000000 1.0443000000
3.7558000000 4.5208000000 0.2603000000
3.7558000000 3.6492000000 0.7554000000
3.7557000000 2.9697000000 1.1392000000
3.7555000000 2.5385000000 0.9952000000
3.7554000000 3.5924000000 0.7865000000
3.7554000000 2.4326000000 0.9409000000
3.7553000000 1.9855000000 0.6881000000
3.7553000000 2.0407000000 0.7171000000
3.7552000000 1.0164000000 0.1356000000
3.7548000000 4.4879000000 0.2828000000
3.7545000000 4.6117000000 0.2141000000
3.7543000000 3.2624000000 0.9795000000
3.7543000000 4.1000000000 0.5057000000
3.7541000000 1.4655000000 0.3957000000
3.7540000000 2.5165000000 0.9871000000
3.7539000000 3.0657000000 1.0904000000
3.7538000000 1.4122000000 0.3641000000
3.7538000000 2.2395000000 0.8317000000
3.7537000000 4.5464000000 0.2544000000
3.7535000000 5.0028000000 0.0700000000
3.7533000000 2.7706000000 1.1329000000
3.7531000000 4.5019000000 0.2801000000
3.7528000000 1.4795000000 0.3986000000
3.7527000000 3.9079000000 0.6164000000
3.7526000000 4.9230000000 0.1151000000
3.7525000000 1.8658000000 0.6199000000
3.7524000000 2.6336000000 1.0512000000
3.7522000000 2.7281000000 1.1103000000
3.7520000000 3.5658000000 0.8091000000
3.7519000000 0.5173000000 0.0184000000
3.7519000000 1.8204000000 0.5955000000
3.7518000000 2.7790000000 1.1370000000
3.7518000000 0.9174000000 0.0822000000
3.7517000000 2.5142000000 0.9907000000
3.7512000000 2.4143000000 0.9343000000
3.7508000000 3.4636000000 0.8648000000
3.7508000000 1.4394000000 0.3886000000
3.7507000000 2.3670000000 0.9070000000
3.7505000000 5.0340000000 0.0595000000
3.7502000000 0.5315000000 0.0190000000
3.7498000000 5.0577000000 0.0453000000
3.7497000000 2.4940000000 0.9759000000
3.7495000000 1.2221000000 0.2610000000
3.7493000000 1.3868000000 0.3534000000
3.7484000000 1.4334000000 0.3796000000
3.7483000000 2.2656000000 0.8463000000
3.7481000000 4.4913000000 0.2892000000
3.7477000000 1.7133000000 0.5447000000
3.7475000000 3.1280000000 1.0532000000
3.7468000000 1.0191000000 0.1480000000
3.5123000000 2.1133000000 0.9985000000
3.5111000000 2.8314000000 1.3879000000
3.5110000000 3.7403000000 0.9468000000
3.5100000000 2.4994000000 1.2194000000
3.5098000000 5.5100000000 0.1037000000
3.5089000000 5.5589000000 0.0701000000
3.5083000000 3.1188000000 1.3041000000
3.5083000000 4.6317000000 0.4448000000
3.5082000000 4.3829000000 0.5853000000
3.5080000000 3.9046000000 0.8526000000
3.5079000000 5.2429000000 0.1005000000
3.5079000000 2.3314000000 1.1202000000
3.5078000000 3.2013000000 1.2522000000
3.5074000000 1.9635000000 0.9160000000
3.5072000000 4.0265000000 0.7943000000
3.5071000000 4.3649000000 0.5998000000
3.5070000000 4.4604000000 0.5421000000
3.5070000000 4.8020000000 0.3526000000
3.5070000000 3.7543000000 0.9414000000
3.5068000000 5.4118000000 0.0764000000
3.5066000000 0.8729000000 0.3022000000
3.5066000000 4.4784000000 0.5307000000
3.5064000000 4.2513000000 0.6660000000
3.5063000000 0.2219000000 0.0823000000
3.5062000000 1.8442000000 0.8495000000
3.5062000000 4.5654000000 0.4828000000
3.5061000000 5.2411000000 0.1006000000
3.5060000000 2.1890000000 1.0472000000
3.5058000000 5.3027000000 0.0642000000
3.5055000000 3.7643000000 0.9401000000
3.5056000000 4.7865000000 0.3577000000
3.5054000000 0.7704000000 0.2433000000
3.5051000000 0.9482000000 0.3427000000
3.5051000000 5.0438000000 0.2136000000
3.5050000000 2.7794000000 1.3804000000
3.5048000000 3.5386000000 1.0633000000
3.5048000000 1.1086000000 0.4370000000
3.5046000000 2.2791000000 1.0990000000
3.5045000000 2.9237000000 1.3943000000
3.5044000000 2.0712000000 0.9764000000
3.5045000000 3.9604000000 0.8282000000
3.5044000000 5.0350000000 0.2214000000
3.5043000000 3.6217000000 1.0212000000
3.5042000000 5.6865000000 -0.0005000000
3.5042000000 4.5832000000 0.4796000000
3.5041000000 5.1286000000 0.1730000000
3.5040000000 5.0443000000 0.2184000000
3.5040000000 0.0740000000 0.0030000000
3.5040000000 0.4477000000 0.0625000000
3.5039000000 4.2505000000 0.6703000000
3.5038000000 4.0480000000 0.7812000000
3.5037000000 1.8402000000 0.8491000000
3.5036000000 3.3782000000 1.1598000000
3.5035000000 4.2382000000 0.6730000000
3.5035000000 2.5353000000 1.2415000000
3.5034000000 0.0765000000 0.0027000000
3.5030000000 0.8667000000 0.2976000000
3.5027000000 5.3813000000 0.0969000000
3.5026000000 4.2763000000 0.6532000000
3.5025000000 2.1767000000 1.0464000000
3.5024000000 1.4423000000 0.6297000000
3.5022000000 4.1566000000 0.7180000000
3.5020000000 3.0117000000 1.3655000000
3.5018000000 4.5353000000 0.5040000000
3.5017000000 5.5266000000 0.0946000000
3.5017000000 4.9920000000 0.2485000000
3.5014000000 0.3875000000 0.1035000000
3.5013000000 1.3729000000 0.5892000000
3.5012000000 3.2311000000 1.2410000000
3.5010000000 0.4226000000 0.1338000000
3.5010000000 0.6143000000 0.1611000000
3.5007000000 2.4514000000 1.1918000000
3.5004000000 0.2273000000 0.0939000000
3.5003000000 1.6641000000 0.7515000000
3.5001000000 0.4278000000 0.0551000000
3.5000000000 2.5447000000 1.2463000000
3.4998000000 2.3011000000 1.1124000000
3.4997000000 0.3298000000 0.0788000000
3.4997000000 1.9501000000 0.9163000000
3.5002000000 0.5801000000 0.1428000000
3.4996000000 5.4345000000 0.0746000000
3.4993000000 1.3408000000 0.5719000000
3.4992000000 4.1552000000 0.7273000000
3.4989000000 1.7992000000 0.8317000000
3.4987000000 1.0602000000 0.4185000000
3.4984000000 0.7204000000 0.2227000000
3.4984000000 0.7705000000 0.2485000000
3.4977000000 2.8958000000 1.4186000000
3.4966000000 1.4376000000 0.6292000000
3.4953000000 2.1466000000 1.0342000000
3.2642000000 2.9226000000 1.6318000000
3.2634000000 5.4103000000 0.2434000000
3.2629000000 3.5007000000 1.3233000000
3.2626000000 3.1925000000 1.4952000000
3.2613000000 4.3781000000 0.8299000000
3.2605000000 2.1663000000 1.2658000000
3.2601000000 5.5909000000 0.1269000000
3.2600000000 4.9368000000 0.5207000000
3.2600000000 4.8612000000 0.5615000000
3.2599000000 3.7372000000 1.1880000000
3.2595000000 5.7475000000 0.0649000000
3.2590000000 0.5754000000 0.3718000000
3.2590000000 0.8938000000 0.5537000000
3.2588000000 0.2641000000 0.1997000000
3.2586000000 3.5331000000 1.3140000000
3.2582000000 3.2203000000 1.4819000000
3.2580000000 3.9014000000 1.0957000000
3.2578000000 4.1961000000 0.9349000000
3.2577000000 2.5870000000 1.5126000000
3.2575000000 3.5302000000 1.3120000000
3.2571000000 2.6182000000 1.5278000000
3.2570000000 1.8469000000 1.0956000000
3.2568000000 4.3826000000 0.8378000000
3.2567000000 3.7101000000 1.2099000000
3.2565000000 0.5570000000 0.3656000000
3.2565000000 4.8809000000 0.5514000000
3.2564000000 3.6061000000 1.2719000000
3.2563000000 3.6481000000 1.2472000000
3.2563000000 2.2948000000 1.3541000000
3.2563000000 0.2653000000 0.2087000000
3.2562000000 2.2359000000 1.3223000000
3.2561000000 4.0877000000 0.9971000000
3.2561000000 2.7593000000 1.6130000000
3.2558000000 3.3431000000 1.4176000000
3.2559000000 1.1525000000 0.7120000000
3.2556000000 2.6036000000 1.5209000000
3.2555000000 0.5646000000 0.3699000000
3.2554000000 5.3999000000 0.2576000000
3.2555000000 2.7082000000 1.5813000000
3.2553000000 3.0431000000 1.5900000000
3.2552000000 1.3716000000 0.8250000000
3.2551000000 2.3955000000 1.4077000000
3.2549000000 1.5258000000 0.9143000000
3.2548000000 0.6425000000 0.4199000000
3.2548000000 4.2055000000 0.9288000000
3.2545000000 3.8712000000 1.1204000000
3.2545000000 0.3398000000 0.2480000000
3.2544000000 2.8621000000 1.6471000000
3.2544000000 1.7661000000 1.0514000000
3.2543000000 2.3770000000 1.4011000000
3.2543000000 1.1816000000 0.7222000000
3.2543000000 5.5097000000 0.1926000000
3.2542000000 0.7813000000 0.5019000000
3.2542000000 2.7747000000 1.6271000000
3.2540000000 1.6719000000 0.9946000000
3.2539000000 5.5767000000 0.1432000000
3.2538000000 0.5273000000 0.3528000000
3.2538000000 3.0401000000 1.5872000000
3.2537000000 4.4381000000 0.7994000000
3.2535000000 3.9813000000 1.0623000000
3.2535000000 5.2483000000 0.3450000000
3.2535000000 4.5066000000 0.7652000000
3.2534000000 1.6535000000 0.9828000000
3.2533000000 4.1192000000 0.9761000000
3.2533000000 2.2110000000 1.3050000000
3.2529000000 3.5352000000 1.3149000000
3.2529000000 1.1642000000 0.7071000000
3.2528000000 4.3331000000 0.8627000000
3.2528000000 4.2740000000 0.8938000000
3.2527000000 0.7362000000 0.4626000000
3.2525000000 1.5138000000 0.9100000000
3.2524000000 0.4648000000 0.3148000000
3.2523000000 0.1965000000 0.1535000000
3.2520000000 2.3828000000 1.4024000000
3.2514000000 2.4341000000 1.4295000000
3.2514000000 1.0603000000 0.6610000000
3.2513000000 2.4106000000 1.4213000000
3.2504000000 3.7102000000 1.2153000000
3.2504000000 2.5726000000 1.5137000000
3.2502000000 5.2300000000 0.3579000000
3.2500000000 4.1329000000 0.9794000000
3.2497000000 3.8990000000 1.1079000000
3.2494000000 0.0813000000 0.0550000000
3.2493000000 2.2614000000 1.3367000000
3.2491000000 1.7368000000 1.0448000000
3.2490000000 2.6419000000 1.5465000000
3.2488000000 5.6862000000 0.0512000000
3.2488000000 0.4569000000 0.3184000000
3.2487000000 2.0851000000 1.2388000000
3.2486000000 1.2939000000 0.7855000000
3.2480000000 1.5159000000 0.9162000000
3.2478000000 0.4917000000 0.3359000000
3.2468000000 1.2986000000 0.7943000000
3.2462000000 0.2672000000 0.2119000000
3.2413000000 0.4675000000 0.3372000000
3.0135000000 0.1877000000 0.2028000000
3.0125000000 3.1745000000 1.7520000000
3.0122000000 2.6908000000 1.8114000000
3.0114000000 2.8353000000 1.8743000000
3.0110000000 4.1784000000 1.1832000000
3.0105000000 4.5901000000 0.9559000000
3.0102000000 2.2214000000 1.5458000000
3.0098000000 5.1629000000 0.6122000000
3.0097000000 1.9194000000 1.3733000000
3.0098000000 3.6548000000 1.4820000000
3.0092000000 4.2054000000 1.1725000000
3.0090000000 4.0283000000 1.2711000000
3.0085000000 1.6127000000 1.2047000000
3.0083000000 4.2937000000 1.1233000000
3.0083000000 4.1507000000 1.2008000000
3.0079000000 4.5384000000 0.9831000000
3.0077000000 2.8682000000 1.8949000000
3.0073000000 3.9844000000 1.3009000000
3.0071000000 4.3481000000 1.0954000000
3.0068000000 5.4820000000 0.2987000000
3.0068000000 1.7884000000 1.3041000000
3.0067000000 4.5015000000 1.0047000000
3.0067000000 5.6013000000 0.1723000000
3.0065000000 2.7878000000 1.8775000000
3.0065000000 4.4560000000 1.0357000000
3.0059000000 0.9447000000 0.8250000000
3.0058000000 4.5380000000 0.9914000000
3.0057000000 3.3834000000 1.6426000000
3.0056000000 3.6188000000 1.5029000000
3.0055000000 2.8974000000 1.8940000000
3.0055000000 5.2908000000 0.4952000000
3.0053000000 1.1067000000 0.9232000000
3.0052000000 2.2800000000 1.5844000000
3.0051000000 4.3387000000 1.1013000000
3.0050000000 2.9889000000 1.8665000000
3.0048000000 3.0545000000 1.8287000000
3.0048000000 2.1333000000 1.5073000000
3.0047000000 4.7827000000 0.8530000000
3.0047000000 1.0762000000 0.9057000000
3.0046000000 5.6785000000 0.0851000000
3.0043000000 3.5836000000 1.5298000000
3.0041000000 0.7189000000 0.7072000000
3.0040000000 3.4738000000 1.5909000000
3.0040000000 1.4076000000 1.0930000000
3.0039000000 4.8089000000 0.8349000000
3.0036000000 4.5335000000 0.9963000000
3.0035000000 2.6057000000 1.7690000000
3.0034000000 1.1662000000 0.9597000000
3.0034000000 2.1886000000 1.5354000000
3.0033000000 5.3213000000 0.4785000000
3.0030000000 2.5947000000 1.7649000000
3.0028000000 5.2580000000 0.5355000000
3.0028000000 2.7997000000 1.8814000000
3.0027000000 2.2461000000 1.5611000000
3.0026000000 0.6747000000 0.6857000000
3.0024000000 2.2314000000 1.5639000000
3.0023000000 3.0913000000 1.8162000000
3.0022000000 3.4057000000 1.6309000000
3.0021000000 4.9312000000 0.7659000000
3.0021000000 3.8442000000 1.3834000000
3.0020000000 2.7764000000 1.8683000000
3.0019000000 1.5345000000 1.1709000000
3.0018000000 4.4972000000 1.0221000000
3.0015000000 0.9315000000 0.8283000000
3.0015000000 2.0379000000 1.4529000000
3.0014000000 1.9824000000 1.4229000000
3.0013000000 0.5444000000 0.5804000000
3.0013000000 0.5251000000 0.5609000000
3.0011000000 3.2596000000 1.7138000000
3.0011000000 1.4076000000 1.0935000000
3.0008000000 4.5508000000 0.9857000000
3.0007000000 3.0987000000 1.8087000000
3.0006000000 0.1716000000 0.1772000000
3.0005000000 1.9936000000 1.4274000000
3.0004000000 4.7163000000 0.8886000000
3.0000000000 3.3266000000 1.6808000000
2.9998000000 5.0607000000 0.7030000000
2.9995000000 2.5805000000 1.7625000000
2.9995000000 1.4878000000 1.1411000000
2.9995000000 5.0863000000 0.6769000000
2.9993000000 0.3634000000 0.3961000000
2.9990000000 4.8680000000 0.8092000000
2.9987000000 0.9649000000 0.8513000000
2.9983000000 3.2435000000 1.7297000000
2.9979000000 2.5407000000 1.7378000000
2.9976000000 1.6462000000 1.2348000000
2.9973000000 1.8057000000 1.3233000000
2.9971000000 3.7849000000 1.4208000000
2.9971000000 4.8446000000 0.8215000000
2.9958000000 2.2784000000 1.5925000000
2.9952000000 2.6185000000 1.7836000000
2.9952000000 4.3198000000 1.1167000000
2.7623000000 2.8646000000 2.1327000000
2.7623000000 1.1090000000 1.1631000000
2.7605000000 5.3759000000 0.4212000000
2.7593000000 4.3337000000 1.3465000000
2.7582000000 0.5799000000 0.6379000000
2.7582000000 3.4395000000 1.8510000000
2.7581000000 5.0723000000 0.7657000000
2.7577000000 1.5718000000 1.4288000000
2.7575000000 3.0353000000 2.0796000000
2.7572000000 2.7704000000 2.0975000000
2.7571000000 4.4231000000 1.2964000000
2.7570000000 0.8156000000 0.9036000000
2.7569000000 1.1335000000 1.1779000000
2.7568000000 3.6648000000 1.7283000000
2.7566000000 3.0504000000 2.0723000000
2.7565000000 3.5008000000 1.8150000000
2.7565000000 5.5245000000 0.2578000000
2.7562000000 2.5761000000 1.9979000000
2.7562000000 4.7436000000 1.1026000000
2.7560000000 4.3079000000 1.3646000000
2.7560000000 3.0761000000 2.0574000000
2.7559000000 3.9575000000 1.5622000000
2.7558000000 2.7281000000 2.0867000000
2.7558000000 4.6313000000 1.1773000000
2.7555000000 0.2716000000 0.2940000000
2.7553000000 3.6210000000 1.7491000000
2.7552000000 4.0020000000 1.5401000000
2.7552000000 5.5147000000 0.2683000000
2.7550000000 2.5484000000 1.9802000000
2.7550000000 3.9636000000 1.5602000000
2.7550000000 3.4623000000 1.8429000000
2.7548000000 1.3193000000 1.2884000000
2.7548000000 1.2916000000 1.2714000000
2.7546000000 0.1246000000 0.1255000000
2.7545000000 3.7711000000 1.6658000000
2.7544000000 2.5412000000 1.9784000000
2.7543000000 4.8396000000 1.0044000000
2.7542000000 0.0675000000 0.0621000000
2.7542000000 1.8857000000 1.6064000000
2.7541000000 5.0264000000 0.8191000000
2.7540000000 2.4994000000 1.9553000000
2.7539000000 1.6429000000 1.4626000000
2.7538000000 0.8489000000 0.9402000000
2.7535000000 2.7697000000 2.1089000000
2.7535000000 2.7029000000 2.0706000000
2.7532000000 4.2424000000 1.4050000000
2.7533000000 0.7807000000 0.8666000000
2.7530000000 1.3101000000 1.2809000000
2.7529000000 4.1567000000 1.4499000000
2.7529000000 1.2233000000 1.2337000000
2.7528000000 3.4622000000 1.8421000000
2.7527000000 2.4123000000 1.9062000000
2.7526000000 4.8198000000 1.0301000000
2.7521000000 4.3956000000 1.3115000000
2.7520000000 1.5425000000 1.4197000000
2.7517000000 1.2246000000 1.2370000000
2.7517000000 5.0182000000 0.8302000000
2.7513000000 1.8471000000 1.5869000000
2.7511000000 4.4851000000 1.2633000000
2.7508000000 4.6655000000 1.1547000000
2.7507000000 3.2193000000 1.9843000000
2.7506000000 1.7921000000 1.5576000000
2.7498000000 1.8424000000 1.5870000000
2.7495000000 2.9127000000 2.1379000000
2.7490000000 1.1764000000 1.2138000000
2.7490000000 2.7623000000 2.1086000000
2.7488000000 1.5244000000 1.4104000000
2.7484000000 0.7320000000 0.8069000000
2.7481000000 0.1623000000 0.1691000000
2.7481000000 4.0402000000 1.5193000000
2.7476000000 4.1303000000 1.4762000000
2.7466000000 1.3034000000 1.2865000000
2.5142000000 0.3536000000 0.3874000000
2.5126000000 4.0201000000 1.7674000000
2.5120000000 4.5229000000 1.3881000000
2.5117000000 1.9219000000 1.8653000000
2.5109000000 5.4981000000 0.2852000000
2.5103000000 5.4358000000 0.3528000000
2.5101000000 4.0570000000 1.7481000000
2.5087000000 2.4012000000 2.1391000000
2.5078000000 5.4802000000 0.3042000000
2.5076000000 5.7512000000 0.0723000000
2.5075000000 4.0185000000 1.7677000000
2.5075000000 2.5054000000 2.1990000000
2.5074000000 0.8381000000 0.9349000000
2.5070000000 4.9478000000 0.9049000000
2.5069000000 4.8257000000 1.0473000000
2.5068000000 4.2943000000 1.5965000000
2.5067000000 4.6877000000 1.1954000000
2.5064000000 0.7333000000 0.8113000000
2.5063000000 3.3442000000 2.1564000000
2.5060000000 3.3784000000 2.1291000000
2.5058000000 0.9345000000 1.0368000000
2.5055000000 4.5406000000 1.3678000000
2.5055000000 3.4703000000 2.0782000000
2.5055000000 5.7788000000 0.0410000000
2.5054000000 3.4831000000 2.0707000000
2.5053000000 2.2505000000 2.0565000000
2.5052000000 2.3623000000 2.1203000000
2.5051000000 0.5965000000 0.6654000000
2.5050000000 5.1960000000 0.6276000000
2.5048000000 4.5664000000 1.3324000000
2.5047000000 2.7977000000 2.3621000000
2.5045000000 3.2504000000 2.1997000000
2.5044000000 2.7011000000 2.3094000000
2.5043000000 4.0136000000 1.7775000000
2.5043000000 0.5190000000 0.5671000000
2.5041000000 2.5303000000 2.2152000000
2.5040000000 5.6181000000 0.1472000000
2.5040000000 2.9526000000 2.3735000000
2.5039000000 4.8566000000 1.0054000000
2.5038000000 4.0532000000 1.7486000000
2.5035000000 0.2830000000 0.3050000000
2.5033000000 1.9292000000 1.8817000000
2.5033000000 0.2367000000 0.2557000000
2.5031000000 0.5914000000 0.6555000000
2.5030000000 2.2917000000 2.0816000000
2.5028000000 2.4382000000 2.1666000000
2.5028000000 3.6569000000 1.9831000000
2.5027000000 5.6468000000 0.1092000000
2.5027000000 4.5576000000 1.3458000000
2.5025000000 2.8262000000 2.3772000000
2.5023000000 3.8839000000 1.8472000000
2.5024000000 2.5826000000 2.2476000000
2.5023000000 2.6198000000 2.2686000000
2.5021000000 2.4403000000 2.1658000000
2.5019000000 2.2433000000 2.0565000000
2.5018000000 2.0248000000 1.9356000000
2.5017000000 0.1469000000 0.1481000000
2.5018000000 2.5835000000 2.2494000000
2.5016000000 4.7907000000 1.0847000000
2.5016000000 2.3057000000 2.0894000000
2.5013000000 2.6748000000 2.2969000000
2.5010000000 0.2227000000 0.2339000000
2.5010000000 0.7160000000 0.7900000000
2.5007000000 0.7523000000 0.8340000000
2.5006000000 0.6998000000 0.7784000000
2.5001000000 3.0954000000 2.2978000000
2.5000000000 2.5197000000 2.2146000000
2.4990000000 2.1595000000 2.0140000000
2.4987000000 5.1490000000 0.6809000000
2.4980000000 0.4907000000 0.5322000000
2.4979000000 2.6241000000 2.2830000000
2.4978000000 2.6153000000 2.2706000000
2.4967000000 2.3844000000 2.1334000000
2.4965000000 0.5784000000 0.6415000000
2.4945000000 0.0653000000 0.0571000000
2.2635000000 5.0367000000 0.8018000000
2.2631000000 3.6062000000 2.2358000000
2.2630000000 5.0215000000 0.8174000000
2.2618000000 4.8162000000 1.0560000000
2.2610000000 3.8369000000 2.0935000000
2.2607000000 5.6814000000 0.0776000000
2.2602000000 2.5324000000 2.4567000000
2.2599000000 2.4253000000 2.3917000000
2.2599000000 4.7045000000 1.1812000000
2.2597000000 4.1674000000 1.7856000000
2.2598000000 1.1450000000 1.2816000000
2.2595000000 4.2431000000 1.6973000000
2.2595000000 5.5969000000 0.1704000000
2.2594000000 1.3436000000 1.5037000000
2.2587000000 5.4021000000 0.3908000000
2.2586000000 3.9786000000 1.9835000000
2.2587000000 1.4534000000 1.6257000000
2.2583000000 3.4111000000 2.3587000000
2.2578000000 3.3846000000 2.3655000000
2.2577000000 2.5024000000 2.4385000000
2.2572000000 4.9417000000 0.9111000000
2.2569000000 4.0474000000 1.9196000000
2.2567000000 4.3855000000 1.5367000000
2.2565000000 3.0285000000 2.5748000000
2.2563000000 1.1428000000 1.2758000000
2.2562000000 1.6573000000 1.8582000000
2.2561000000 0.9801000000 1.0970000000
2.2560000000 4.5720000000 1.3288000000
2.2559000000 3.8020000000 2.1191000000
2.2559000000 3.2687000000 2.4381000000
2.2558000000 4.8000000000 1.0706000000
2.2557000000 3.5456000000 2.2803000000
2.2558000000 0.4995000000 0.5505000000
2.2557000000 0.7332000000 0.8103000000
2.2556000000 2.3191000000 2.3399000000
2.2556000000 1.9156000000 2.0969000000
2.2555000000 3.1459000000 2.5075000000
2.2555000000 3.4894000000 2.3150000000
2.2555000000 1.1645000000 1.2939000000
2.2552000000 4.7975000000 1.0772000000
2.2550000000 1.4468000000 1.6098000000
2.2549000000 2.8477000000 2.6265000000
2.2549000000 5.2820000000 0.5288000000
2.2548000000 5.5988000000 0.1670000000
2.2548000000 5.6126000000 0.1516000000
2.2547000000 3.7522000000 2.1653000000
2.2546000000 0.6713000000 0.7436000000
2.2545000000 4.5929000000 1.3105000000
2.2546000000 5.6676000000 0.0921000000
2.2543000000 0.8774000000 0.9757000000
2.2543000000 1.4343000000 1.6051000000
2.2540000000 2.3729000000 2.3746000000
2.2540000000 3.9003000000 2.0628000000
2.2538000000 3.3488000000 2.3962000000
2.2538000000 2.1252000000 2.2292000000
2.2535000000 5.4777000000 0.3093000000
2.2534000000 2.2097000000 2.2823000000
2.2533000000 2.0562000000 2.1913000000
2.2533000000 5.4108000000 0.3862000000
2.2529000000 4.8701000000 0.9900000000
2.2528000000 0.8188000000 0.9084000000
2.2525000000 0.1840000000 0.1926000000
2.2523000000 3.4687000000 2.3243000000
2.2524000000 3.6409000000 2.2306000000
2.2523000000 2.6574000000 2.5288000000
2.2522000000 1.9633000000 2.1371000000
2.2523000000 3.0685000000 2.5599000000
2.2520000000 0.1123000000 0.1147000000
2.2518000000 5.4406000000 0.3476000000
2.2518000000 5.0008000000 0.8455000000
2.2517000000 3.6664000000 2.2207000000
2.2515000000 2.4069000000 2.3915000000
2.2513000000 0.8453000000 0.9384000000
2.2514000000 3.2203000000 2.4678000000
2.2510000000 0.4659000000 0.5083000000
2.2508000000 0.1478000000 0.1533000000
2.2504000000 2.4763000000 2.4367000000
2.2505000000 3.1424000000 2.5146000000
2.2503000000 2.2702000000 2.3185000000
2.2503000000 0.9050000000 1.0098000000
2.2493000000 2.0257000000 2.1784000000
2.2488000000 1.8473000000 2.0509000000
2.2485000000 0.7356000000 0.8182000000
2.2480000000 0.5607000000 0.6181000000
2.2478000000 2.5780000000 2.4938000000
2.2476000000 0.7821000000 0.8713000000
2.2470000000 1.3740000000 1.5363000000
2.2459000000 0.6764000000 0.7466000000
2.2455000000 1.0874000000 1.2105000000
2.2450000000 5.4590000000 0.3286000000
2.0122000000 3.6788000000 2.3397000000
2.0120000000 5.4459000000 0.3471000000
2.0111000000 1.7483000000 1.9553000000
2.0104000000 3.5101000000 2.5085000000
2.0100000000 4.4161000000 1.5097000000
2.0097000000 2.6129000000 2.7459000000
2.0092000000 5.1188000000 0.7086000000
2.0091000000 2.4435000000 2.6504000000
2.0090000000 1.9731000000 2.2185000000
2.0086000000 4.9263000000 0.9322000000
2.0076000000 3.7052000000 2.3009000000
2.0072000000 2.7114000000 2.8075000000
2.0071000000 2.6173000000 2.7548000000
2.0070000000 4.8231000000 1.0475000000
2.0070000000 2.2318000000 2.4915000000
2.0068000000 4.3593000000 1.5681000000
2.0067000000 4.9601000000 0.8933000000
2.0066000000 0.7359000000 0.8172000000
2.0065000000 5.0591000000 0.7760000000
2.0065000000 3.6036000000 2.4172000000
2.0063000000 0.9897000000 1.0997000000
2.0061000000 3.8528000000 2.1391000000
2.0061000000 5.7808000000 0.0392000000
2.0058000000 3.2933000000 2.6676000000
2.0057000000 4.1741000000 1.7817000000
2.0053000000 4.3417000000 1.5917000000
2.0049000000 4.1140000000 1.8456000000
2.0047000000 0.4578000000 0.4990000000
2.0045000000 1.1716000000 1.3034000000
2.0043000000 3.5877000000 2.4364000000
2.0042000000 2.2547000000 2.5106000000
2.0041000000 2.9612000000 2.8558000000
2.0046000000 4.0542000000 1.9158000000
2.0040000000 1.1666000000 1.3048000000
2.0036000000 2.5535000000 2.7170000000
2.0036000000 4.3850000000 1.5306000000
2.0035000000 3.1904000000 2.7275000000
2.0034000000 1.5071000000 1.6814000000
2.0034000000 1.0723000000 1.2021000000
2.0033000000 5.3015000000 0.5048000000
2.0031000000 5.0251000000 0.8163000000
2.0030000000 1.7624000000 1.9707000000
2.0028000000 0.6833000000 0.7541000000
2.0028000000 1.3924000000 1.5530000000
2.0027000000 3.4097000000 2.5839000000
2.0026000000 0.6722000000 0.7430000000
2.0025000000 3.5380000000 2.4764000000
2.0022000000 1.1964000000 1.3380000000
2.0021000000 4.2156000000 1.7233000000
2.0020000000 2.5515000000 2.7197000000
2.0021000000 2.2928000000 2.5532000000
2.0018000000 2.3939000000 2.6275000000
2.0018000000 1.0803000000 1.2092000000
2.0015000000 1.6076000000 1.8067000000
2.0014000000 0.2071000000 0.2247000000
2.0015000000 1.4770000000 1.6491000000
2.0010000000 1.5692000000 1.7591000000
2.0010000000 0.0126000000 0.0737000000
2.0009000000 2.1627000000 2.4323000000
2.0008000000 3.5402000000 2.4702000000
2.0007000000 3.7949000000 2.2090000000
2.0005000000 4.4376000000 1.4837000000
2.0003000000 4.2718000000 1.6616000000
2.0002000000 2.3499000000 2.5890000000
2.0000000000 3.1087000000 2.7762000000
1.9997000000 1.0213000000 1.1378000000
1.9997000000 0.8559000000 0.9522000000
1.9996000000 1.3730000000 1.5393000000
1.9995000000 0.1296000000 0.1350000000
1.9993000000 0.9633000000 1.0690000000
1.9985000000 0.7688000000 0.8539000000
1.9985000000 1.9222000000 2.1551000000
1.9984000000 0.3843000000 0.4205000000
1.9980000000 2.3262000000 2.5773000000
1.9978000000 1.5905000000 1.7835000000
1.9976000000 1.1209000000 1.2538000000
1.9957000000 1.8440000000 2.0660000000
1.7636000000 4.7367000000 1.1415000000
1.7609000000 5.4632000000 0.3289000000
1.7605000000 5.0268000000 0.8156000000
1.7605000000 4.0155000000 1.9612000000
1.7604000000 0.9988000000 1.1093000000
1.7598000000 5.4826000000 0.3056000000
1.7599000000 3.7861000000 2.2155000000
1.7594000000 5.7090000000 0.1151000000
1.7588000000 5.6327000000 0.1310000000
1.7584000000 2.6871000000 3.0034000000
1.7581000000 5.2917000000 0.5183000000
1.7579000000 3.4793000000 2.5642000000
1.7578000000 4.9664000000 0.8829000000
1.7576000000 3.5138000000 2.5213000000
1.7576000000 4.7396000000 1.1437000000
1.7573000000 4.0279000000 1.9424000000
1.7574000000 3.8992000000 2.0847000000
1.7572000000 0.8641000000 0.9581000000
1.7570000000 2.2558000000 2.5304000000
1.7569000000 3.0062000000 3.0552000000
1.7568000000 4.4780000000 1.4358000000
1.7565000000 2.8211000000 3.0968000000
1.7564000000 5.7134000000 0.1173000000
1.7565000000 3.6798000000 2.3348000000
1.7562000000 3.7966000000 2.2022000000
1.7560000000 3.9315000000 2.0564000000
1.7557000000 1.9571000000 2.1944000000
1.7555000000 0.7678000000 0.8542000000
1.7556000000 1.6438000000 1.8406000000
1.7555000000 2.0021000000 2.2474000000
1.7553000000 0.5773000000 0.6357000000
1.7552000000 3.2072000000 2.8703000000
1.7552000000 3.4803000000 2.5560000000
1.7553000000 4.4212000000 1.4986000000
1.7550000000 3.1100000000 2.9575000000
1.7547000000 2.8121000000 3.0825000000
1.7545000000 3.5005000000 2.5371000000
1.7543000000 2.3176000000 2.5956000000
1.7541000000 5.3516000000 0.4447000000
1.7541000000 2.8878000000 3.1402000000
1.7539000000 1.9815000000 2.2227000000
1.7538000000 1.3549000000 1.5102000000
1.7537000000 4.8603000000 1.0063000000
1.7536000000 2.8553000000 3.1401000000
1.7533000000 2.8637000000 3.1434000000
1.7533000000 5.6726000000 0.0862000000
1.7533000000 4.8155000000 1.0546000000
1.7530000000 3.3213000000 2.7441000000
1.7529000000 3.4482000000 2.5982000000
1.7526000000 4.0514000000 1.9115000000
1.7526000000 2.8003000000 3.0751000000
1.7525000000 1.2128000000 1.3557000000
1.7523000000 5.4391000000 0.3487000000
1.7523000000 1.4102000000 1.5861000000
1.7522000000 0.2893000000 0.3115000000
1.7522000000 1.7047000000 1.9117000000
1.7520000000 5.6256000000 0.1404000000
1.7518000000 5.2458000000 0.5683000000
1.7516000000 2.7975000000 3.0786000000
1.7516000000 5.2386000000 0.5719000000
1.7515000000 0.8773000000 0.9739000000
1.7514000000 0.5621000000 0.6230000000
1.7513000000 0.7775000000 0.8643000000
1.7513000000 4.0224000000 1.9467000000
1.7511000000 3.0200000000 3.0531000000
1.7508000000 2.0781000000 2.3358000000
1.7507000000 2.3876000000 2.6853000000
1.7506000000 2.1685000000 2.4350000000
1.7505000000 3.3190000000 2.7454000000
1.7503000000 0.5625000000 0.6229000000
1.7502000000 2.5950000000 2.9204000000
1.7500000000 2.7333000000 3.0492000000
1.7499000000 0.8010000000 0.8913000000
1.7493000000 0.8869000000 0.9880000000
1.7489000000 5.1351000000 0.6946000000
1.7486000000 1.0454000000 1.1688000000
1.7485000000 0.4393000000 0.4812000000
1.7484000000 4.1055000000 1.8559000000
1.7479000000 2.7472000000 3.0579000000
1.7478000000 2.4698000000 2.7748000000
1.7473000000 1.8764000000 2.1054000000
1.7465000000 0.2040000000 0.2187000000
1.7464000000 2.0892000000 2.3393000000
1.7452000000 1.3879000000 1.5492000000
1.5144000000 3.6717000000 2.3428000000
1.5115000000 2.9377000000 3.0489000000
1.5103000000 5.7680000000 0.0540000000
1.5103000000 4.3681000000 1.5668000000
1.5101000000 4.6333000000 1.2589000000
1.5091000000 2.1978000000 2.4655000000
1.5089000000 5.2762000000 0.5312000000
1.5089000000 4.1842000000 1.7656000000
1.5090000000 3.6107000000 2.4136000000
1.5088000000 3.9513000000 2.0312000000
1.5083000000 2.7877000000 3.0364000000
1.5078000000 5.7549000000 0.0653000000
1.5075000000 2.4139000000 2.7050000000
1.5075000000 4.1271000000 1.8311000000
1.5073000000 5.7065000000 0.1219000000
1.5068000000 4.0392000000 1.9308000000
1.5063000000 1.9761000000 2.2176000000
1.5063000000 1.9714000000 2.2122000000
1.5062000000 1.9132000000 2.1456000000
1.5061000000 2.6006000000 2.9004000000
1.5060000000 1.8916000000 2.1219000000
1.5058000000 3.6771000000 2.3458000000
1.5057000000 3.7753000000 2.2258000000
1.5056000000 2.5781000000 2.8782000000
1.5055000000 5.2488000000 0.5664000000
1.5054000000 1.4732000000 1.6518000000
1.5053000000 3.0055000000 3.0135000000
1.5050000000 0.5775000000 0.6381000000
1.5050000000 3.9554000000 2.0194000000
1.5050000000 4.1387000000 1.8201000000
1.5048000000 2.9605000000 3.0381000000
1.5044000000 2.4054000000 2.6989000000
1.5043000000 1.6493000000 1.8447000000
1.5042000000 3.4095000000 2.6340000000
1.5037000000 0.0435000000 0.1062000000
1.5036000000 4.9928000000 0.8545000000
1.5035000000 1.3348000000 1.4925000000
1.5034000000 2.5195000000 2.8112000000
1.5032000000 2.8434000000 3.0410000000
1.5028000000 1.1224000000 1.2540000000
1.5028000000 3.3220000000 2.7394000000
1.5029000000 4.2847000000 1.6535000000
1.5025000000 0.0234000000 0.0867000000
1.5024000000 1.0932000000 1.2198000000
1.5023000000 2.1489000000 2.4130000000
1.5023000000 4.2448000000 1.6945000000
1.5021000000 3.2448000000 2.8052000000
1.5020000000 0.6650000000 0.7348000000
1.5021000000 4.2943000000 1.6373000000
1.5019000000 3.6263000000 2.3910000000
1.5017000000 3.9870000000 1.9829000000
1.5017000000 4.0439000000 1.9250000000
1.5016000000 2.0618000000 2.3086000000
1.5015000000 3.4491000000 2.6005000000
1.5015000000 2.1970000000 2.4663000000
1.5014000000 0.2414000000 0.2658000000
1.5014000000 0.8889000000 0.9925000000
1.5010000000 0.5783000000 0.6383000000
1.5011000000 2.4907000000 2.7950000000
1.5009000000 1.8311000000 2.0537000000
1.5007000000 5.0916000000 0.7437000000
1.5006000000 2.8650000000 3.0472000000
1.5005000000 0.3508000000 0.3819000000
1.5005000000 0.1643000000 0.1669000000
1.5003000000 2.0696000000 2.3216000000
1.5002000000 3.3285000000 2.7335000000
1.5000000000 2.8695000000 3.0504000000
1.5000000000 4.1005000000 1.8595000000
1.4996000000 0.6074000000 0.6734000000
1.4994000000 1.6518000000 1.8502000000
1.4990000000 4.9591000000 0.8952000000
1.4985000000 2.1235000000 2.3801000000
1.4982000000 2.0817000000 2.3358000000
1.4965000000 0.4458000000 0.4869000000
1.4959000000 0.0498000000 0.1201000000
1.4949000000 2.9543000000 3.0312000000
1.2633000000 4.9634000000 0.8904000000
1.2626000000 4.9180000000 0.9371000000
1.2618000000 3.8703000000 2.1250000000
1.2615000000 3.8175000000 2.1790000000
1.2605000000 5.1150000000 0.7124000000
1.2593000000 1.4152000000 1.5811000000
1.2577000000 5.4214000000 0.3708000000
1.2577000000 1.8038000000 2.0147000000
1.2576000000 4.2373000000 1.7059000000
1.2575000000 4.1370000000 1.8190000000
1.2574000000 4.3305000000 1.6011000000
1.2571000000 4.2668000000 1.6753000000
1.2568000000 1.3260000000 1.4888000000
1.2564000000 0.1743000000 0.1831000000
1.2563000000 1.0957000000 1.2166000000
1.2561000000 1.2580000000 1.4038000000
1.2560000000 5.4270000000 0.3682000000
1.2557000000 5.2287000000 0.5901000000
1.2557000000 3.6843000000 2.3163000000
1.2558000000 0.1076000000 0.1017000000
1.2555000000 3.7936000000 2.2079000000
1.2554000000 2.8065000000 2.7987000000
1.2552000000 5.0640000000 0.7754000000
1.2553000000 0.5424000000 0.5946000000
1.2551000000 5.5929000000 0.1719000000
1.2550000000 0.9091000000 1.0131000000
1.2548000000 3.9303000000 2.0544000000
1.2548000000 0.3254000000 0.3570000000
1.2547000000 1.3223000000 1.4778000000
1.2544000000 2.1408000000 2.3863000000
1.2544000000 4.0563000000 1.9123000000
1.2543000000 5.4821000000 0.2983000000
1.2543000000 0.3520000000 0.3831000000
1.2541000000 3.9776000000 1.9994000000
1.2541000000 0.7600000000 0.8410000000
1.2540000000 0.0506000000 0.1166000000
1.2540000000 2.1544000000 2.4002000000
1.2539000000 1.7250000000 1.9364000000
1.2538000000 0.4885000000 0.5372000000
1.2536000000 4.6964000000 1.1879000000
1.2535000000 3.1578000000 2.6816000000
1.2534000000 4.4746000000 1.4409000000
1.2533000000 2.2398000000 2.4614000000
1.2533000000 2.0835000000 2.3241000000
1.2532000000 4.4973000000 1.4092000000
1.2530000000 1.9905000000 2.2415000000
1.2529000000 0.1398000000 0.1451000000
1.2528000000 3.5712000000 2.4305000000
1.2527000000 0.5049000000 0.5570000000
1.2526000000 2.9847000000 2.7777000000
1.2525000000 4.5465000000 1.3627000000
1.2524000000 2.4951000000 2.6208000000
1.2523000000 5.6270000000 0.1349000000
1.2520000000 3.8535000000 2.1353000000
1.2518000000 2.3861000000 2.5564000000
1.2518000000 2.6625000000 2.7082000000
1.2517000000 0.0388000000 0.1070000000
1.2516000000 0.2267000000 0.2433000000
1.2515000000 3.9599000000 2.0195000000
1.2514000000 5.1199000000 0.7147000000
1.2513000000 1.4999000000 1.6834000000
1.2513000000 2.1970000000 2.4295000000
1.2512000000 1.0831000000 1.2056000000
1.2509000000 1.0459000000 1.1692000000
1.2508000000 3.9085000000 2.0761000000
1.2506000000 0.1533000000 0.1612000000
1.2504000000 2.9105000000 2.7994000000
1.2503000000 0.8766000000 0.9734000000
1.2503000000 4.3777000000 1.5489000000
1.2502000000 1.0132000000 1.1299000000
1.2497000000 2.2830000000 2.4937000000
1.2495000000 4.1210000000 1.8332000000
1.2492000000 4.9808000000 0.8682000000
1.2489000000 0.8582000000 0.9569000000
1.2487000000 3.5194000000 2.4508000000
1.2488000000 1.4925000000 1.6795000000
1.2486000000 4.3577000000 1.5692000000
1.2481000000 3.0964000000 2.7138000000
1.2478000000 1.5512000000 1.7333000000
1.2473000000 1.0311000000 1.1450000000
1.0135000000 3.6949000000 2.1375000000
1.0106000000 2.2902000000 2.2634000000
1.0104000000 3.9216000000 1.9995000000
1.0102000000 1.1723000000 1.3067000000
1.0100000000 5.2723000000 0.5339000000
1.0097000000 4.1423000000 1.8141000000
1.0095000000 5.0276000000 0.8153000000
1.0093000000 5.5289000000 0.2484000000
1.0088000000 2.1036000000 2.1586000000
1.0086000000 0.9458000000 1.0523000000
1.0073000000 0.3304000000 0.3625000000
1.0072000000 0.5161000000 0.5691000000
1.0073000000 3.0388000000 2.5045000000
1.0071000000 3.3661000000 2.3226000000
1.0070000000 1.0502000000 1.1723000000
1.0070000000 1.5275000000 1.7097000000
1.0069000000 1.5129000000 1.7000000000
1.0069000000 3.2843000000 2.3689000000
1.0066000000 1.5254000000 1.7093000000
1.0065000000 4.7832000000 1.0933000000
1.0066000000 0.9351000000 1.0475000000
1.0063000000 0.1118000000 0.1072000000
1.0063000000 4.6136000000 1.2864000000
1.0063000000 3.8054000000 2.0697000000
1.0062000000 2.2705000000 2.2482000000
1.0059000000 3.0192000000 2.5172000000
1.0056000000 3.3765000000 2.3201000000
1.0056000000 2.4144000000 2.3349000000
1.0055000000 4.2745000000 1.6709000000
1.0054000000 1.5738000000 1.7653000000
1.0053000000 3.6928000000 2.1355000000
1.0051000000 3.6528000000 2.1572000000
1.0050000000 3.1204000000 2.4553000000
1.0052000000 0.6132000000 0.6793000000
1.0050000000 4.7589000000 1.1148000000
1.0049000000 1.8826000000 2.0283000000
1.0048000000 0.3574000000 0.3888000000
1.0047000000 2.2883000000 2.2558000000
1.0046000000 5.0164000000 0.8207000000
1.0045000000 2.8752000000 2.5685000000
1.0044000000 5.0697000000 0.7643000000
1.0040000000 2.1658000000 2.1881000000
1.0040000000 3.8081000000 2.0678000000
1.0038000000 4.5538000000 1.3495000000
1.0036000000 3.6664000000 2.1522000000
1.0035000000 2.0433000000 2.1175000000
1.0034000000 5.1038000000 0.7289000000
1.0032000000 1.4915000000 1.6760000000
1.0030000000 2.7625000000 2.5249000000
1.0029000000 1.1269000000 1.2611000000
1.0030000000 0.4998000000 0.5565000000
1.0030000000 1.7539000000 1.9364000000
1.0028000000 0.7702000000 0.8542000000
1.0026000000 1.1907000000 1.3257000000
1.0022000000 1.5192000000 1.7009000000
1.0020000000 1.6499000000 1.8319000000
1.0021000000 1.0020000000 1.1153000000
1.0018000000 5.4779000000 0.3119000000
1.0017000000 3.7401000000 2.1042000000
1.0016000000 5.3706000000 0.4251000000
1.0015000000 4.1576000000 1.7990000000
1.0013000000 0.1305000000 0.1394000000
1.0012000000 2.0628000000 2.1276000000
1.0011000000 2.6662000000 2.4734000000
1.0005000000 4.9772000000 0.8727000000
1.0003000000 3.5838000000 2.1952000000
0.9999000000 1.0676000000 1.1872000000
0.9997000000 5.0171000000 0.8262000000
0.9995000000 0.7217000000 0.8039000000
0.9990000000 3.5907000000 2.1856000000
0.9988000000 1.0693000000 1.1912000000
0.9988000000 1.0989000000 1.2228000000
0.9984000000 1.0915000000 1.2174000000
0.9981000000 0.2662000000 0.2894000000
0.9980000000 4.9204000000 0.9340000000
0.9976000000 1.1917000000 1.3280000000
0.9972000000 0.1704000000 0.1761000000
0.9967000000 0.2451000000 0.2647000000
0.9962000000 0.0110000000 0.0694000000
0.9957000000 1.2692000000 1.4196000000
0.9956000000 1.5876000000 1.7721000000
0.9955000000 2.4255000000 2.3314000000
0.9952000000 1.1886000000 1.3257000000
0.9924000000 1.7586000000 1.9302000000
0.9915000000 1.8379000000 1.9903000000
0.7616000000 1.7051000000 1.6935000000
0.7604000000 4.2364000000 1.5927000000
0.7603000000 5.0980000000 0.7368000000
0.7596000000 3.6585000000 1.9156000000
0.7591000000 2.1907000000 1.9626000000
0.7590000000 2.3914000000 2.0781000000
0.7585000000 5.1968000000 0.6270000000
0.7582000000 2.6793000000 2.2439000000
0.7579000000 5.6655000000 0.0991000000
0.7576000000 5.7383000000 0.0868000000
0.7576000000 2.0435000000 1.8805000000
0.7573000000 5.4845000000 0.2997000000
0.7570000000 1.4905000000 1.5638000000
0.7564000000 3.1306000000 2.2113000000
0.7563000000 3.6220000000 1.9334000000
0.7562000000 3.9387000000 1.7574000000
0.7561000000 0.1545000000 0.1584000000
0.7560000000 1.1672000000 1.3005000000
0.7559000000 1.0797000000 1.1995000000
0.7559000000 0.3770000000 0.4117000000
0.7558000000 5.4546000000 0.3307000000
0.7557000000 4.2331000000 1.5903000000
0.7554000000 0.7597000000 0.8441000000
0.7555000000 4.9888000000 0.8561000000
0.7553000000 3.2220000000 2.1618000000
0.7553000000 3.8585000000 1.8052000000
0.7552000000 5.1578000000 0.6625000000
0.7552000000 2.6645000000 2.2263000000
0.7548000000 1.5637000000 1.5986000000
0.7547000000 1.2155000000 1.3483000000
0.7546000000 2.3519000000 2.0514000000
0.7544000000 5.1523000000 0.6684000000
0.7539000000 4.9593000000 0.8949000000
0.7537000000 1.8011000000 1.7407000000
0.7540000000 5.2527000000 0.5576000000
0.7537000000 3.2518000000 2.1416000000
0.7536000000 3.9555000000 1.7427000000
0.7536000000 4.2968000000 1.5521000000
0.7535000000 3.6046000000 1.9453000000
0.7535000000 1.3158000000 1.4509000000
0.7533000000 5.1862000000 0.6356000000
0.7534000000 2.6028000000 2.1938000000
0.7533000000 5.5339000000 0.2401000000
0.7532000000 3.5454000000 1.9748000000
0.7531000000 0.1246000000 0.1263000000
0.7530000000 1.0120000000 1.1230000000
0.7530000000 0.9849000000 1.1000000000
0.7529000000 1.3449000000 1.4663000000
0.7528000000 3.2569000000 2.1337000000
0.7528000000 2.1631000000 1.9410000000
0.7528000000 4.7520000000 1.1258000000
0.7527000000 1.6057000000 1.6263000000
0.7525000000 2.4741000000 2.1233000000
0.7526000000 1.1923000000 1.3236000000
0.7524000000 4.8141000000 1.0525000000
0.7523000000 1.7710000000 1.7235000000
0.7523000000 0.9312000000 1.0320000000
0.7522000000 3.4797000000 2.0089000000
0.7522000000 3.4439000000 2.0313000000
0.7520000000 5.7609000000 0.0596000000
0.7519000000 2.5003000000 2.1359000000
0.7520000000 0.3913000000 0.4222000000
0.7519000000 2.6337000000 2.2105000000
0.7518000000 1.0765000000 1.2083000000
0.7518000000 5.0070000000 0.8326000000
0.7517000000 2.7411000000 2.2697000000
0.7515000000 0.5466000000 0.6021000000
0.7511000000 4.7122000000 1.1690000000
0.7508000000 1.4645000000 1.5469000000
0.7508000000 0.6057000000 0.6658000000
0.7504000000 4.0294000000 1.6964000000
0.7503000000 3.5969000000 1.9388000000
0.7503000000 5.7642000000 0.0575000000
0.7502000000 3.5340000000 1.9745000000
0.7502000000 5.4152000000 0.3762000000
0.7501000000 1.7699000000 1.7205000000
0.7500000000 0.7905000000 0.8785000000
0.7499000000 4.0826000000 1.6654000000
0.7500000000 2.0114000000 1.8528000000
0.7496000000 3.8429000000 1.7986000000
0.7489000000 3.4454000000 2.0279000000
0.7489000000 5.2794000000 0.5327000000
0.7486000000 0.3972000000 0.4367000000
0.7485000000 1.9698000000 1.8310000000
0.7483000000 5.3620000000 0.4378000000
0.7480000000 3.4819000000 2.0015000000
0.7478000000 3.4852000000 1.9986000000
0.7479000000 1.4225000000 1.5155000000
0.7477000000 2.5257000000 2.1433000000
0.7471000000 3.7223000000 1.8708000000
0.7467000000 1.2832000000 1.4194000000
0.7419000000 2.1218000000 1.9097000000
0.5130000000 3.7020000000 1.6482000000
0.5110000000 2.8782000000 2.0900000000
0.5090000000 4.9664000000 0.8644000000
0.5089000000 2.8274000000 2.0748000000
0.5083000000 5.7810000000 0.0391000000
0.5083000000 1.7663000000 1.4788000000
0.5080000000 0.0376000000 0.1012000000
0.5078000000 4.9865000000 0.8477000000
0.5076000000 3.7376000000 1.6256000000
0.5074000000 3.5066000000 1.7579000000
0.5072000000 3.2299000000 1.9076000000
0.5069000000 3.6585000000 1.6674000000
0.5068000000 5.1464000000 0.6821000000
0.5068000000 4.9736000000 0.8562000000
0.5067000000 3.0902000000 1.9873000000
0.5066000000 5.7427000000 0.0830000000
0.5064000000 5.7712000000 0.0458000000
0.5063000000 1.4916000000 1.3242000000
