5.5064000000 3.4270000000 0.0544000000
5.5047000000 3.2199000000 0.0354000000
5.5024000000 3.3331000000 0.0138000000
5.5010000000 3.0732000000 0.0796000000
5.2605000000 2.8505000000 0.0668000000
5.2590000000 2.8980000000 0.0888000000
5.2575000000 3.9200000000 0.0387000000
5.2569000000 2.7631000000 0.0450000000
5.2558000000 3.3217000000 0.1692000000
5.2547000000 3.2390000000 0.1836000000
5.2544000000 3.4087000000 0.1438000000
5.2535000000 3.9815000000 0.0199000000
5.2530000000 3.1808000000 0.1752000000
5.2523000000 2.9050000000 0.0938000000
5.2509000000 2.6233000000 0.0765000000
5.2503000000 2.4336000000 0.0059000000
5.0100000000 2.6370000000 0.1431000000
5.0085000000 2.8425000000 0.2162000000
5.0081000000 2.7940000000 0.1990000000
5.0070000000 3.2209000000 0.3281000000
5.0059000000 4.2332000000 0.0831000000
5.0051000000 2.3252000000 0.0440000000
5.0049000000 2.5003000000 0.1070000000
5.0040000000 4.0432000000 0.0686000000
5.0038000000 3.9089000000 0.1137000000
5.0035000000 3.6449000000 0.2127000000
5.0031000000 3.5932000000 0.2274000000
5.0025000000 4.0654000000 0.0633000000
5.0018000000 3.6291000000 0.2144000000
5.0016000000 2.9611000000 0.2577000000
5.0010000000 2.1636000000 0.0685000000
4.9985000000 2.4803000000 0.0961000000
4.7609000000 2.5368000000 0.2542000000
4.7591000000 1.9235000000 0.0494000000
4.7588000000 1.6998000000 0.0545000000
4.7583000000 4.3053000000 0.1200000000
4.7573000000 2.9601000000 0.4014000000
4.7569000000 4.7791000000 0.0365000000
4.7568000000 3.5597000000 0.3783000000
4.7559000000 2.0187000000 0.0909000000
4.7558000000 4.6983000000 0.0700000000
4.7556000000 4.3784000000 0.1032000000
4.7551000000 1.6136000000 0.0175000000
4.7547000000 3.5449000000 0.3855000000
4.7544000000 3.8654000000 0.2768000000
4.7543000000 1.8358000000 0.0269000000
4.7540000000 4.3728000000 0.1070000000
4.7535000000 3.8739000000 0.2720000000
4.7533000000 1.7949000000 0.0106000000
4.7529000000 4.0853000000 0.2036000000
4.7527000000 3.2718000000 0.4690000000
4.7522000000 2.9989000000 0.4159000000
4.7517000000 2.7587000000 0.3412000000
4.7512000000 2.9153000000 0.3880000000
4.7498000000 4.5664000000 0.0414000000
4.7480000000 1.6824000000 0.0497000000
4.7468000000 1.8986000000 0.0478000000
4.5104000000 5.2587000000 0.0193000000
4.5101000000 3.7960000000 0.4419000000
4.5089000000 4.9125000000 0.0612000000
4.5083000000 2.0126000000 0.2217000000
4.5078000000 3.9263000000 0.3982000000
4.5075000000 4.9149000000 0.0697000000
4.5065000000 2.3116000000 0.3318000000
4.5065000000 4.7152000000 0.1367000000
4.5061000000 2.1016000000 0.2582000000
4.5055000000 5.1324000000 0.0699000000
4.5054000000 4.4411000000 0.2298000000
4.5052000000 4.2759000000 0.2772000000
4.5050000000 4.9751000000 0.0486000000
4.5049000000 1.5800000000 0.0826000000
4.5045000000 3.7925000000 0.4494000000
4.5044000000 1.2846000000 0.0581000000
4.5040000000 5.0000000000 0.0396000000
4.5036000000 1.6774000000 0.1196000000
4.5034000000 3.2088000000 0.6243000000
4.5029000000 1.5674000000 0.0809000000
4.5028000000 1.3596000000 0.0126000000
4.5025000000 3.4904000000 0.5533000000
4.5022000000 1.2590000000 0.0510000000
4.5020000000 3.7507000000 0.4621000000
4.5018000000 3.5460000000 0.5317000000
4.5013000000 1.2856000000 0.0552000000
4.5012000000 4.5870000000 0.1757000000
4.5004000000 4.0313000000 0.3700000000
4.4991000000 2.4101000000 0.3701000000
4.4982000000 3.6021000000 0.5114000000
4.4964000000 3.2822000000 0.6282000000
4.2614000000 5.6724000000 0.0271000000
4.2597000000 1.3455000000 0.1456000000
4.2586000000 4.0826000000 0.4967000000
4.2578000000 3.5363000000 0.6780000000
4.2573000000 1.6422000000 0.2422000000
4.2569000000 0.9908000000 0.0296000000
4.2568000000 2.1110000000 0.4061000000
4.2566000000 4.2054000000 0.4510000000
4.2558000000 0.7231000000 0.0068000000
4.2553000000 3.2140000000 0.7752000000
4.2548000000 2.6468000000 0.5901000000
4.2547000000 3.8062000000 0.5889000000
4.2546000000 3.0073000000 0.7151000000
4.2541000000 1.9776000000 0.3673000000
4.2533000000 0.8726000000 0.0638000000
4.2532000000 1.0907000000 0.0670000000
4.2530000000 0.7084000000 0.0089000000
4.2528000000 4.2489000000 0.4375000000
4.2526000000 4.2524000000 0.4385000000
4.2521000000 2.6862000000 0.6081000000
4.2518000000 3.3233000000 0.7550000000
4.2514000000 2.1404000000 0.4245000000
4.2505000000 1.7306000000 0.2856000000
4.2496000000 3.0211000000 0.7234000000
4.2494000000 2.2606000000 0.4648000000
4.2486000000 1.5719000000 0.2325000000
4.2469000000 5.1241000000 0.1481000000
4.0115000000 5.4031000000 0.1938000000
4.0099000000 4.8329000000 0.3888000000
4.0094000000 4.2126000000 0.5928000000
4.0088000000 4.0508000000 0.6559000000
4.0086000000 3.3687000000 0.8822000000
4.0079000000 3.4061000000 0.8732000000
4.0076000000 3.0936000000 0.8896000000
4.0074000000 0.3925000000 0.0464000000
4.0069000000 3.7972000000 0.7409000000
4.0068000000 3.2498000000 0.9100000000
4.0065000000 1.3402000000 0.2884000000
4.0063000000 2.7117000000 0.7621000000
4.0060000000 3.8446000000 0.7244000000
4.0060000000 4.6759000000 0.4448000000
4.0057000000 4.7732000000 0.4155000000
4.0056000000 3.1749000000 0.9112000000
4.0054000000 5.8866000000 0.0322000000
4.0052000000 5.0893000000 0.3008000000
4.0050000000 3.9306000000 0.6957000000
4.0049000000 2.8700000000 0.8130000000
4.0048000000 1.9811000000 0.5139000000
4.0047000000 5.7107000000 0.0928000000
4.0045000000 0.6725000000 0.0651000000
4.0043000000 4.6162000000 0.4648000000
4.0042000000 1.9802000000 0.5117000000
4.0040000000 5.9227000000 0.0200000000
4.0037000000 6.1346000000 0.0212000000
4.0033000000 2.5718000000 0.7179000000
4.0031000000 2.9687000000 0.8440000000
4.0030000000 2.3946000000 0.6514000000
4.0029000000 0.8689000000 0.1339000000
4.0028000000 2.2132000000 0.5963000000
4.0024000000 0.6451000000 0.0631000000
4.0021000000 3.6429000000 0.7968000000
4.0020000000 6.1487000000 0.0232000000
4.0016000000 4.0973000000 0.6360000000
4.0013000000 1.1136000000 0.2249000000
4.0013000000 2.4402000000 0.6680000000
4.0011000000 2.3827000000 0.6555000000
4.0010000000 5.4404000000 0.1885000000
4.0006000000 4.2468000000 0.5887000000
4.0004000000 3.1186000000 0.9028000000
4.0000000000 5.0943000000 0.2999000000
3.9999000000 4.8635000000 0.3845000000
3.9994000000 2.8677000000 0.8200000000
3.9991000000 3.0880000000 0.8943000000
3.9985000000 2.7676000000 0.7802000000
3.9984000000 3.6767000000 0.7900000000
3.9982000000 5.4825000000 0.1721000000
3.9974000000 4.0841000000 0.6513000000
3.9952000000 1.7210000000 0.4286000000
3.9934000000 2.8407000000 0.8071000000
3.7603000000 5.3978000000 0.3384000000
3.7599000000 3.9155000000 0.8488000000
3.7590000000 6.4597000000 0.0470000000
3.7580000000 4.6713000000 0.5859000000
3.7579000000 5.9926000000 0.1383000000
3.7577000000 2.2809000000 0.7606000000
3.7575000000 2.4213000000 0.8024000000
3.7574000000 5.6823000000 0.2481000000
3.7572000000 0.8979000000 0.2917000000
3.7570000000 3.2864000000 1.0594000000
3.7566000000 3.5639000000 0.9669000000
3.7565000000 1.5125000000 0.4965000000
3.7563000000 2.7577000000 0.9234000000
3.7559000000 1.8874000000 0.6268000000
3.7558000000 0.9767000000 0.3239000000
3.7556000000 5.6299000000 0.2624000000
3.7552000000 4.4147000000 0.6808000000
3.7551000000 5.2504000000 0.3934000000
3.7549000000 2.8263000000 0.9441000000
3.7547000000 0.8241000000 0.2629000000
3.7545000000 3.1372000000 1.0537000000
3.7541000000 3.5778000000 0.9583000000
3.7540000000 3.9459000000 0.8394000000
3.7538000000 4.7721000000 0.5583000000
3.7536000000 0.9897000000 0.3250000000
3.7534000000 0.6347000000 0.2011000000
3.7533000000 2.7698000000 0.9252000000
3.7531000000 3.9016000000 0.8522000000
3.7530000000 0.2539000000 0.0743000000
3.7527000000 0.5983000000 0.1919000000
3.7523000000 0.7207000000 0.2363000000
3.7522000000 0.8641000000 0.2759000000
3.7520000000 6.0967000000 0.1072000000
3.7518000000 6.0216000000 0.1333000000
3.7516000000 2.1783000000 0.7227000000
3.7513000000 0.0429000000 0.0688000000
3.7511000000 0.4530000000 0.1437000000
3.7510000000 2.2392000000 0.7529000000
3.7508000000 0.9076000000 0.2923000000
3.7504000000 2.2263000000 0.7487000000
3.7503000000 2.4112000000 0.8090000000
3.7501000000 2.5982000000 0.8732000000
3.7493000000 2.8553000000 0.9579000000
3.7491000000 0.1248000000 0.0339000000
3.7488000000 0.3671000000 0.1145000000
3.7470000000 3.5060000000 0.9941000000
3.5150000000 3.5525000000 1.1065000000
3.5137000000 1.8027000000 0.7431000000
3.5125000000 5.1552000000 0.5668000000
3.5108000000 6.2244000000 0.1586000000
3.5105000000 5.0912000000 0.5922000000
3.5096000000 4.9968000000 0.6244000000
3.5092000000 0.3958000000 0.2523000000
3.5089000000 6.4497000000 0.0847000000
3.5088000000 5.8692000000 0.3301000000
3.5086000000 4.7395000000 0.7135000000
3.5080000000 3.2653000000 1.2005000000
3.5075000000 2.8888000000 1.1103000000
3.5073000000 3.6272000000 1.0903000000
3.5072000000 2.1114000000 0.8477000000
3.5070000000 1.7054000000 0.7107000000
3.5068000000 5.6199000000 0.4192000000
3.5067000000 2.7597000000 1.0699000000
3.5064000000 2.8239000000 1.0897000000
3.5063000000 4.7562000000 0.7083000000
3.5060000000 1.9627000000 0.8002000000
3.5059000000 5.8478000000 0.3364000000
3.5058000000 4.3898000000 0.8342000000
3.5054000000 2.3497000000 0.9274000000
3.5052000000 4.2737000000 0.8701000000
3.5050000000 1.9756000000 0.8006000000
3.5047000000 3.3660000000 1.1760000000
3.5045000000 5.0189000000 0.6178000000
3.5044000000 5.8927000000 0.3207000000
3.5042000000 4.1113000000 0.9307000000
3.5040000000 3.2483000000 1.2126000000
3.5039000000 2.0230000000 0.8184000000
3.5038000000 1.1327000000 0.5186000000
3.5037000000 2.8602000000 1.1040000000
3.5036000000 0.6974000000 0.3766000000
3.5034000000 2.5115000000 0.9865000000
3.5030000000 1.1163000000 0.5124000000
3.5028000000 0.5678000000 0.3282000000
3.5027000000 1.1307000000 0.5183000000
3.5025000000 1.6722000000 0.7063000000
3.5023000000 3.6932000000 1.0719000000
3.5020000000 4.7831000000 0.6971000000
3.5019000000 0.7478000000 0.3884000000
3.5018000000 1.0066000000 0.4746000000
3.5017000000 0.7273000000 0.3815000000
3.5015000000 5.2969000000 0.5251000000
3.5012000000 3.7082000000 1.0698000000
3.5011000000 2.5707000000 1.0086000000
3.5005000000 2.6494000000 1.0386000000
3.5004000000 2.2641000000 0.9093000000
3.5002000000 0.6419000000 0.3542000000
3.5000000000 0.2720000000 0.1906000000
3.4998000000 0.5885000000 0.3347000000
3.4995000000 1.4090000000 0.6196000000
3.4994000000 0.6675000000 0.3612000000
3.4992000000 2.8453000000 1.1076000000
3.4987000000 4.7176000000 0.7218000000
3.4978000000 3.8031000000 1.0409000000
3.4972000000 6.0858000000 0.2418000000
3.4949000000 0.1156000000 0.0888000000
3.2613000000 5.1465000000 0.7208000000
3.2600000000 6.2216000000 0.1625000000
3.2593000000 5.0119000000 0.7672000000
3.2588000000 2.4561000000 1.1181000000
3.2585000000 3.7801000000 1.1852000000
3.2580000000 5.8957000000 0.3826000000
3.2575000000 5.2976000000 0.6701000000
3.2573000000 3.0259000000 1.3038000000
3.2571000000 4.3437000000 0.9881000000
3.2569000000 0.1271000000 0.0861000000
3.2568000000 4.2662000000 1.0195000000
3.2564000000 3.4513000000 1.2934000000
3.2563000000 2.2819000000 1.0524000000
3.2561000000 4.1567000000 1.0581000000
3.2560000000 4.4427000000 0.9602000000
3.2558000000 1.8510000000 0.9089000000
3.2555000000 6.1352000000 0.2189000000
3.2554000000 3.9070000000 1.1412000000
3.2553000000 2.4915000000 1.1266000000
3.2552000000 2.6379000000 1.1776000000
3.2550000000 5.8793000000 0.3922000000
3.2549000000 1.6683000000 0.8512000000
3.2547000000 3.3039000000 1.3443000000
3.2545000000 3.6518000000 1.2329000000
3.2544000000 4.6856000000 0.8820000000
3.2543000000 1.4795000000 0.7800000000
3.2540000000 4.4051000000 0.9769000000
3.2538000000 5.2725000000 0.6780000000
3.2535000000 6.4570000000 0.0776000000
3.2535000000 1.7649000000 0.8769000000
3.2534000000 4.8979000000 0.8083000000
3.2532000000 0.0359000000 0.0311000000
3.2530000000 4.7724000000 0.8471000000
3.2529000000 5.4483000000 0.6212000000
3.2527000000 0.5037000000 0.3512000000
3.2524000000 3.8734000000 1.1560000000
3.2522000000 4.7412000000 0.8623000000
3.2520000000 4.8748000000 0.8156000000
3.2515000000 6.0992000000 0.2401000000
3.2512000000 1.0401000000 0.6355000000
3.2511000000 0.9556000000 0.6102000000
3.2510000000 3.6382000000 1.2410000000
3.2505000000 0.1130000000 0.0825000000
3.2502000000 5.6388000000 0.5482000000
3.2499000000 6.1604000000 0.2034000000
3.2496000000 2.7532000000 1.2163000000
3.2493000000 1.1758000000 0.6831000000
3.2487000000 2.1055000000 1.0039000000
3.2485000000 3.1831000000 1.3522000000
3.2480000000 4.5041000000 0.9508000000
3.2475000000 4.3304000000 1.0035000000
3.2471000000 0.8689000000 0.5665000000
3.2464000000 3.7458000000 1.2023000000
3.2438000000 1.5014000000 0.7981000000
3.0127000000 6.0982000000 0.2401000000
3.0105000000 1.3187000000 0.8631000000
3.0097000000 4.2556000000 1.1678000000
3.0095000000 6.2665000000 0.1316000000
3.0086000000 1.6558000000 0.9861000000
3.0083000000 5.6708000000 0.5387000000
3.0080000000 3.2755000000 1.4939000000
3.0079000000 1.8758000000 1.0644000000
3.0073000000 5.9563000000 0.3417000000
3.0070000000 0.8672000000 0.5881000000
3.0069000000 3.1669000000 1.5002000000
3.0066000000 6.3315000000 0.0931000000
3.0065000000 3.1998000000 1.5023000000
3.0060000000 5.6873000000 0.5247000000
3.0058000000 4.0924000000 1.2235000000
3.0057000000 1.6308000000 0.9804000000
3.0052000000 5.3194000000 0.7743000000
3.0051000000 4.3795000000 1.1250000000
3.0050000000 1.7699000000 1.0243000000
3.0048000000 2.2644000000 1.2019000000
3.0046000000 5.6794000000 0.5276000000
3.0045000000 3.7150000000 1.3591000000
3.0044000000 6.3493000000 0.0745000000
3.0042000000 5.3252000000 0.7667000000
3.0040000000 2.8080000000 1.3798000000
3.0038000000 5.0947000000 0.8856000000
3.0035000000 4.5748000000 1.0650000000
3.0034000000 2.5411000000 1.2943000000
3.0031000000 4.2497000000 1.1722000000
3.0027000000 4.3628000000 1.1362000000
3.0025000000 2.0197000000 1.1113000000
3.0022000000 4.8780000000 0.9644000000
3.0016000000 0.6246000000 0.4282000000
3.0015000000 3.2439000000 1.5027000000
3.0013000000 1.9916000000 1.1050000000
3.0010000000 2.1833000000 1.1653000000
3.0006000000 1.6204000000 0.9813000000
3.0005000000 2.5121000000 1.2802000000
3.0004000000 0.8169000000 0.5587000000
2.9995000000 1.9088000000 1.0740000000
2.9992000000 5.6269000000 0.5700000000
2.9989000000 3.7425000000 1.3490000000
2.9988000000 3.3994000000 1.4707000000
2.9980000000 4.0145000000 1.2584000000
2.9978000000 1.2255000000 0.8228000000
2.9975000000 0.0676000000 0.0493000000
2.9973000000 5.6138000000 0.5714000000
2.9968000000 0.3396000000 0.2360000000
2.9959000000 0.7620000000 0.5283000000
2.7657000000 2.9828000000 1.5760000000
2.7606000000 3.0440000000 1.6003000000
2.7593000000 0.2504000000 0.1762000000
2.7589000000 1.2801000000 0.8745000000
2.7587000000 4.6558000000 1.1782000000
2.7578000000 3.1942000000 1.6470000000
2.7575000000 4.7669000000 1.1351000000
2.7568000000 0.2026000000 0.1444000000
2.7565000000 1.4379000000 0.9837000000
2.7565000000 2.5966000000 1.4528000000
2.7563000000 1.7515000000 1.1533000000
2.7561000000 0.6316000000 0.4392000000
2.7558000000 1.1482000000 0.7847000000
2.7556000000 0.0891000000 0.0675000000
2.7556000000 2.6048000000 1.4585000000
2.7554000000 1.4487000000 0.9909000000
2.7551000000 1.9900000000 1.2525000000
2.7548000000 2.2443000000 1.3311000000
2.7546000000 1.4504000000 0.9922000000
2.7543000000 0.1599000000 0.1177000000
2.7542000000 4.3495000000 1.2832000000
2.7540000000 4.6620000000 1.1838000000
2.7538000000 2.1838000000 1.3158000000
2.7535000000 4.2349000000 1.3262000000
2.7535000000 1.4047000000 0.9599000000
2.7533000000 4.7432000000 1.1422000000
2.7530000000 3.0725000000 1.6219000000
2.7529000000 6.3681000000 0.0661000000
2.7528000000 3.9257000000 1.4284000000
2.7525000000 5.2017000000 0.8577000000
2.7523000000 5.4053000000 0.7129000000
2.7521000000 5.7693000000 0.4655000000
2.7520000000 5.6281000000 0.5616000000
2.7519000000 1.3182000000 0.8969000000
2.7516000000 2.6731000000 1.4817000000
2.7515000000 2.0772000000 1.2796000000
2.7512000000 1.5846000000 1.0689000000
2.7511000000 0.2797000000 0.1973000000
2.7508000000 3.2472000000 1.6549000000
2.7500000000 3.5169000000 1.5774000000
2.7500000000 1.6796000000 1.1402000000
2.7495000000 0.6670000000 0.4593000000
2.7490000000 5.0249000000 0.9719000000
2.7488000000 4.6785000000 1.1672000000
2.7487000000 1.0987000000 0.7508000000
2.7482000000 3.1830000000 1.6498000000
2.7478000000 0.2378000000 0.1687000000
2.7460000000 4.1605000000 1.3604000000
2.7433000000 0.3715000000 0.2578000000
2.5116000000 3.0495000000 1.7524000000
2.5109000000 3.5334000000 1.7057000000
2.5100000000 4.1621000000 1.4952000000
2.5097000000 4.3902000000 1.3941000000
2.5093000000 2.1157000000 1.4254000000
2.5088000000 6.3055000000 0.0973000000
2.5084000000 3.4189000000 1.7430000000
2.5083000000 2.3987000000 1.5328000000
2.5078000000 0.9522000000 0.6495000000
2.5075000000 0.8771000000 0.6058000000
2.5072000000 0.9045000000 0.6177000000
2.5070000000 3.3368000000 1.7741000000
2.5070000000 4.5827000000 1.2745000000
2.5065000000 5.5430000000 0.6142000000
2.5064000000 4.9466000000 1.0281000000
2.5063000000 0.1975000000 0.1387000000
2.5061000000 3.7972000000 1.6206000000
2.5059000000 2.5960000000 1.6045000000
2.5057000000 6.1270000000 0.2194000000
2.5055000000 5.5394000000 0.6246000000
2.5051000000 5.0682000000 0.9438000000
2.5050000000 3.9838000000 1.5632000000
2.5048000000 2.5941000000 1.6035000000
2.5046000000 2.5591000000 1.5961000000
2.5043000000 0.6674000000 0.4636000000
2.5043000000 3.5109000000 1.7197000000
2.5040000000 6.0556000000 0.2737000000
2.5034000000 0.0150000000 0.0194000000
2.5032000000 5.0181000000 0.9760000000
2.5031000000 0.7454000000 0.5074000000
2.5030000000 3.8743000000 1.5920000000
2.5029000000 4.2918000000 1.4452000000
2.5028000000 1.0146000000 0.6940000000
2.5025000000 0.8758000000 0.5989000000
2.5023000000 1.2147000000 0.8309000000
2.5018000000 1.5728000000 1.0719000000
2.5015000000 1.7048000000 1.1621000000
2.5010000000 3.7899000000 1.6271000000
2.5008000000 5.2481000000 0.8307000000
2.5003000000 2.7931000000 1.6722000000
2.4998000000 1.0553000000 0.7212000000
2.4995000000 4.7843000000 1.1367000000
2.4990000000 0.6548000000 0.4484000000
2.4989000000 1.4052000000 0.9600000000
2.4964000000 2.5896000000 1.6019000000
2.4958000000 1.5600000000 1.0639000000
2.2619000000 4.9843000000 1.0039000000
2.2616000000 4.2335000000 1.5106000000
2.2602000000 4.9061000000 1.0530000000
2.2599000000 3.6957000000 1.8026000000
2.2593000000 1.3022000000 0.8922000000
2.2591000000 5.7718000000 0.4643000000
2.2589000000 0.3917000000 0.2710000000
2.2583000000 2.9658000000 1.8717000000
2.2580000000 6.3043000000 0.1072000000
2.2576000000 3.6116000000 1.8296000000
2.2574000000 1.3261000000 0.9062000000
2.2572000000 3.8590000000 1.7391000000
2.2568000000 4.8006000000 1.1237000000
2.2567000000 5.3033000000 0.7866000000
2.2563000000 6.0765000000 0.2579000000
2.2560000000 6.0328000000 0.2903000000
2.2556000000 0.1883000000 0.1392000000
2.2555000000 2.7472000000 1.7965000000
2.2553000000 1.9575000000 1.3393000000
2.2550000000 5.0088000000 0.9823000000
2.2545000000 6.4440000000 0.0057000000
2.2544000000 3.6112000000 1.8287000000
2.2543000000 0.1636000000 0.1152000000
2.2542000000 2.8525000000 1.8349000000
2.2540000000 2.0686000000 1.4089000000
2.2539000000 4.7723000000 1.1452000000
2.2537000000 5.1885000000 0.8647000000
2.2532000000 0.5945000000 0.4080000000
2.2531000000 5.1140000000 0.9150000000
2.2530000000 0.9688000000 0.6656000000
2.2529000000 2.3905000000 1.6264000000
2.2526000000 4.6227000000 1.2489000000
2.2525000000 2.9806000000 1.8772000000
2.2523000000 4.8562000000 1.0839000000
2.2521000000 3.3792000000 1.9117000000
2.2519000000 1.9697000000 1.3443000000
2.2516000000 4.3419000000 1.4379000000
2.2516000000 1.8494000000 1.2610000000
2.2515000000 1.7215000000 1.1759000000
2.2512000000 1.7631000000 1.2027000000
2.2509000000 4.2324000000 1.5106000000
2.2508000000 1.4406000000 0.9851000000
2.2506000000 3.3116000000 1.9377000000
2.2504000000 1.8599000000 1.2671000000
2.2503000000 2.0547000000 1.4028000000
2.2502000000 2.0190000000 1.3771000000
2.2500000000 4.4271000000 1.3768000000
2.2496000000 2.0183000000 1.3775000000
2.2494000000 2.3481000000 1.5986000000
2.2491000000 4.4579000000 1.3591000000
2.2490000000 0.6597000000 0.4525000000
2.2475000000 0.8355000000 0.5685000000
2.0099000000 0.1956000000 0.1439000000
2.0093000000 4.3603000000 1.4222000000
2.0084000000 1.6859000000 1.1484000000
2.0080000000 5.2537000000 0.8225000000
2.0079000000 5.5474000000 0.6170000000
2.0074000000 2.4348000000 1.6584000000
2.0073000000 5.6206000000 0.5668000000
2.0072000000 6.2504000000 0.1454000000
2.0068000000 3.1320000000 2.0735000000
2.0067000000 4.4692000000 1.3500000000
2.0064000000 2.5024000000 1.7005000000
2.0063000000 2.8478000000 1.9430000000
2.0061000000 0.8690000000 0.5906000000
2.0060000000 3.1347000000 2.0794000000
2.0059000000 3.0902000000 2.0618000000
2.0055000000 4.7452000000 1.1693000000
2.0052000000 3.5552000000 1.9551000000
2.0051000000 1.9643000000 1.3417000000
2.0049000000 2.3487000000 1.5997000000
2.0046000000 5.8591000000 0.4072000000
2.0045000000 2.7101000000 1.8468000000
2.0043000000 2.7310000000 1.8584000000
2.0040000000 5.0724000000 0.9441000000
2.0038000000 3.3798000000 2.0537000000
2.0035000000 2.2645000000 1.5383000000
2.0033000000 5.9821000000 0.3226000000
2.0032000000 1.5533000000 1.0567000000
2.0030000000 1.4481000000 0.9854000000
2.0028000000 2.3276000000 1.5850000000
2.0026000000 0.1617000000 0.1118000000
2.0022000000 2.3457000000 1.6016000000
2.0019000000 6.0691000000 0.2615000000
2.0016000000 4.1254000000 1.5827000000
2.0014000000 0.0524000000 0.0436000000
2.0012000000 1.5092000000 1.0253000000
2.0008000000 3.3167000000 2.0760000000
2.0007000000 0.6238000000 0.4239000000
2.0005000000 5.7707000000 0.4712000000
2.0003000000 1.4565000000 0.9950000000
2.0001000000 0.8091000000 0.5562000000
1.9995000000 0.5871000000 0.3999000000
1.9994000000 0.3468000000 0.2379000000
1.9991000000 3.4061000000 2.0440000000
1.9988000000 0.5563000000 0.3833000000
1.9984000000 0.8528000000 0.5856000000
1.9977000000 0.3748000000 0.2620000000
1.9970000000 0.2383000000 0.1668000000
1.7627000000 5.7352000000 0.4877000000
1.7604000000 0.6925000000 0.4784000000
1.7596000000 5.0723000000 0.9444000000
1.7593000000 4.9624000000 1.0146000000
1.7587000000 3.0962000000 2.0766000000
1.7585000000 2.8246000000 1.9222000000
1.7583000000 2.3574000000 1.6064000000
1.7579000000 6.0065000000 0.3060000000
1.7573000000 1.9155000000 1.3051000000
1.7568000000 3.6468000000 1.9081000000
1.7566000000 1.2903000000 0.8779000000
1.7562000000 2.3256000000 1.5798000000
1.7559000000 0.4855000000 0.3327000000
1.7558000000 4.1026000000 1.5997000000
1.7556000000 5.8351000000 0.4275000000
1.7555000000 5.7083000000 0.5160000000
1.7550000000 5.7991000000 0.4512000000
1.7549000000 5.6470000000 0.5528000000
1.7547000000 1.2139000000 0.8318000000
1.7547000000 0.1586000000 0.1158000000
1.7545000000 2.4987000000 1.7015000000
1.7543000000 1.9400000000 1.3222000000
1.7541000000 4.9649000000 1.0169000000
1.7536000000 1.3520000000 0.9216000000
1.7532000000 3.7292000000 1.8502000000
1.7529000000 1.1576000000 0.7911000000
1.7528000000 5.9385000000 0.3515000000
1.7526000000 3.4902000000 2.0001000000
1.7524000000 0.5103000000 0.3499000000
1.7523000000 0.0732000000 0.0548000000
1.7521000000 5.9809000000 0.3308000000
1.7518000000 4.6321000000 1.2404000000
1.7516000000 2.3893000000 1.6270000000
1.7513000000 2.2500000000 1.5305000000
1.7507000000 1.8416000000 1.2518000000
1.7506000000 4.1782000000 1.5467000000
1.7505000000 0.5131000000 0.3529000000
1.7503000000 4.8760000000 1.0716000000
1.7501000000 0.8381000000 0.5742000000
1.7500000000 0.9631000000 0.6552000000
1.7496000000 0.1104000000 0.0825000000
1.7492000000 2.7952000000 1.9020000000
1.7489000000 2.1629000000 1.4755000000
1.7480000000 1.2366000000 0.8482000000
1.7476000000 2.6374000000 1.7961000000
1.7470000000 1.9828000000 1.3507000000
1.7453000000 5.8807000000 0.3874000000
1.5116000000 4.9186000000 1.0460000000
1.5103000000 2.0272000000 1.3782000000
1.5098000000 0.6106000000 0.4204000000
1.5090000000 5.2013000000 0.8585000000
1.5088000000 5.5162000000 0.6393000000
1.5082000000 0.0277000000 0.0224000000
1.5080000000 6.3327000000 0.0873000000
1.5073000000 6.2487000000 0.1405000000
1.5071000000 5.6595000000 0.5442000000
1.5069000000 5.5865000000 0.5952000000
1.5068000000 2.7605000000 1.8333000000
1.5065000000 6.3999000000 0.0464000000
1.5061000000 2.7383000000 1.8164000000
1.5058000000 4.7406000000 1.1635000000
1.5058000000 2.8973000000 1.8727000000
1.5055000000 2.2278000000 1.5202000000
1.5054000000 0.2676000000 0.1885000000
1.5050000000 3.2549000000 1.9639000000
1.5047000000 2.3014000000 1.5703000000
1.5042000000 2.2728000000 1.5489000000
1.5040000000 1.0254000000 0.7022000000
1.5038000000 3.9360000000 1.7002000000
1.5035000000 0.0480000000 0.0374000000
1.5034000000 1.5638000000 1.0639000000
1.5032000000 0.5385000000 0.3787000000
1.5031000000 4.6374000000 1.2383000000
1.5030000000 0.3506000000 0.2413000000
1.5028000000 3.7680000000 1.7858000000
1.5027000000 2.1687000000 1.4750000000
1.5025000000 2.2823000000 1.5588000000
1.5024000000 4.9120000000 1.0511000000
1.5021000000 6.1357000000 0.2157000000
1.5018000000 1.8220000000 1.2431000000
1.5016000000 4.5985000000 1.2633000000
1.5014000000 0.4502000000 0.3125000000
1.5011000000 4.2486000000 1.5011000000
1.5006000000 2.8190000000 1.8400000000
1.5002000000 0.7197000000 0.4980000000
1.4998000000 4.9734000000 1.0103000000
1.4995000000 2.0554000000 1.3978000000
1.4993000000 4.0655000000 1.6257000000
1.4989000000 1.2185000000 0.8320000000
1.4985000000 5.0574000000 0.9551000000
1.4982000000 0.0809000000 0.0600000000
1.4979000000 3.0369000000 1.9156000000
1.4973000000 2.6625000000 1.7782000000
1.4954000000 2.7379000000 1.8141000000
1.2605000000 3.5115000000 1.7436000000
1.2594000000 3.2954000000 1.8154000000
1.2588000000 1.2826000000 0.8736000000
1.2584000000 5.0212000000 0.9777000000
1.2582000000 5.0021000000 0.9921000000
1.2581000000 4.5805000000 1.2735000000
1.2578000000 3.7704000000 1.6543000000
1.2573000000 5.1802000000 0.8728000000
1.2569000000 6.1715000000 0.1974000000
1.2563000000 5.7183000000 0.5044000000
1.2561000000 2.7395000000 1.6778000000
1.2558000000 2.8489000000 1.7111000000
1.2555000000 4.7344000000 1.1682000000
1.2552000000 0.4695000000 0.3231000000
1.2549000000 0.2560000000 0.1816000000
1.2548000000 1.4907000000 1.0176000000
1.2545000000 1.9860000000 1.3554000000
1.2543000000 4.4471000000 1.3630000000
1.2542000000 0.9407000000 0.6417000000
1.2537000000 0.2492000000 0.1765000000
1.2535000000 5.0560000000 0.9526000000
1.2533000000 0.5335000000 0.3653000000
1.2528000000 5.8014000000 0.4515000000
1.2526000000 4.1226000000 1.5253000000
1.2525000000 0.3671000000 0.2565000000
1.2523000000 4.5679000000 1.2833000000
1.2522000000 2.4595000000 1.5752000000
1.2517000000 1.2741000000 0.8623000000
1.2515000000 2.0079000000 1.3700000000
1.2514000000 2.7237000000 1.6659000000
1.2513000000 3.9435000000 1.5911000000
1.2512000000 0.6266000000 0.4347000000
1.2510000000 3.4780000000 1.7488000000
1.2509000000 1.7373000000 1.1842000000
1.2508000000 0.8389000000 0.5692000000
1.2506000000 5.1049000000 0.9183000000
1.2503000000 0.8848000000 0.6054000000
1.2499000000 1.4160000000 0.9670000000
1.2495000000 3.0699000000 1.7797000000
1.2493000000 1.0819000000 0.7382000000
1.2486000000 0.2931000000 0.2045000000
1.2479000000 0.0806000000 0.0651000000
1.2476000000 0.4324000000 0.2964000000
1.2465000000 0.4129000000 0.2869000000
1.2407000000 0.0401000000 0.0309000000
1.0100000000 5.3093000000 0.7769000000
1.0093000000 0.3159000000 0.2219000000
1.0089000000 4.7238000000 1.1653000000
1.0086000000 3.1768000000 1.6678000000
1.0084000000 2.5996000000 1.4801000000
1.0082000000 2.8732000000 1.5737000000
1.0078000000 1.7255000000 1.1598000000
1.0075000000 4.2116000000 1.3639000000
1.0074000000 2.1454000000 1.3234000000
1.0072000000 6.0674000000 0.2623000000
1.0070000000 2.8116000000 1.5515000000
1.0068000000 2.5156000000 1.4464000000
1.0065000000 3.5077000000 1.5947000000
1.0062000000 0.6755000000 0.4626000000
1.0060000000 2.6383000000 1.4929000000
1.0058000000 4.2129000000 1.3566000000
1.0055000000 5.8676000000 0.4006000000
1.0054000000 3.9833000000 1.4380000000
1.0051000000 4.1920000000 1.3596000000
1.0051000000 3.2766000000 1.6714000000
1.0043000000 0.7663000000 0.5272000000
1.0041000000 6.1247000000 0.2262000000
1.0040000000 2.4259000000 1.4188000000
1.0039000000 4.6272000000 1.2062000000
1.0038000000 3.5621000000 1.5722000000
1.0036000000 5.0139000000 0.9811000000
1.0035000000 1.9099000000 1.2391000000
1.0034000000 5.4270000000 0.7051000000
1.0030000000 4.7478000000 1.1456000000
1.0026000000 0.1010000000 0.0704000000
1.0025000000 1.7844000000 1.1881000000
1.0024000000 0.8966000000 0.6134000000
1.0023000000 1.5703000000 1.0684000000
1.0021000000 0.2770000000 0.1941000000
1.0020000000 5.4154000000 0.7084000000
1.0019000000 2.0697000000 1.3016000000
1.0018000000 6.2119000000 0.1714000000
1.0017000000 5.0299000000 0.9713000000
1.0015000000 0.1333000000 0.0982000000
1.0013000000 2.5145000000 1.4493000000
1.0009000000 1.3318000000 0.9106000000
1.0007000000 3.4231000000 1.6207000000
1.0006000000 3.4811000000 1.5992000000
1.0004000000 1.9602000000 1.2596000000
1.0003000000 2.3367000000 1.3801000000
1.0002000000 5.5050000000 0.6495000000
0.9999000000 2.4682000000 1.4254000000
0.9993000000 1.4566000000 0.9956000000
0.9991000000 6.0869000000 0.2518000000
0.9988000000 0.3256000000 0.2272000000
0.9985000000 2.5471000000 1.4572000000
0.9982000000 5.9153000000 0.3684000000
0.9960000000 0.5203000000 0.3597000000
0.7618000000 2.2419000000 1.2216000000
0.7607000000 5.9728000000 0.3294000000
0.7598000000 5.1176000000 0.8930000000
0.7592000000 5.4975000000 0.6573000000
0.7588000000 1.5199000000 0.9658000000
0.7585000000 5.3291000000 0.7666000000
0.7582000000 2.4729000000 1.2898000000
0.7575000000 0.7092000000 0.4841000000
0.7571000000 5.3660000000 0.7380000000
0.7570000000 3.8447000000 1.3308000000
0.7569000000 4.6039000000 1.0726000000
0.7568000000 3.9732000000 1.2898000000
0.7563000000 1.7521000000 1.0396000000
0.7560000000 4.5421000000 1.0979000000
0.7559000000 3.4947000000 1.4551000000
0.7556000000 0.9301000000 0.6370000000
0.7552000000 6.4613000000 0.0798000000
0.7549000000 2.9930000000 1.4615000000
0.7546000000 6.3244000000 0.0895000000
0.7544000000 6.4129000000 0.0374000000
0.7543000000 6.2244000000 0.1607000000
0.7539000000 1.7943000000 1.0546000000
0.7537000000 2.1696000000 1.1882000000
0.7535000000 0.3062000000 0.2171000000
0.7534000000 1.6326000000 0.9988000000
0.7533000000 4.2613000000 1.1861000000
0.7530000000 5.1739000000 0.8579000000
0.7528000000 2.7375000000 1.3792000000
0.7524000000 1.4153000000 0.9283000000
0.7522000000 4.8639000000 0.9831000000
0.7521000000 3.8982000000 1.3174000000
0.7518000000 6.0578000000 0.2729000000
0.7515000000 1.2865000000 0.8612000000
0.7513000000 2.6538000000 1.3435000000
0.7510000000 3.2062000000 1.5220000000
0.7505000000 4.4507000000 1.1250000000
0.7504000000 0.3968000000 0.2752000000
0.7503000000 0.3970000000 0.2777000000
0.7498000000 3.8875000000 1.3137000000
0.7494000000 0.1332000000 0.0945000000
0.7495000000 2.0460000000 1.1423000000
0.7491000000 3.2555000000 1.5271000000
0.7483000000 6.4353000000 0.0210000000
0.7480000000 2.5559000000 1.3147000000
0.7442000000 0.9094000000 0.6255000000
0.5115000000 2.6450000000 1.1997000000
0.5100000000 5.1035000000 0.7633000000
0.5093000000 6.3463000000 0.0782000000
0.5091000000 5.4687000000 0.6283000000
0.5090000000 2.1499000000 1.0287000000
0.5085000000 2.5508000000 1.1699000000
0.5082000000 4.4568000000 0.9836000000
0.5080000000 5.2478000000 0.7087000000
0.5078000000 4.3238000000 1.0281000000
0.5073000000 3.3403000000 1.3612000000
0.5072000000 6.0401000000 0.2846000000
0.5068000000 2.8018000000 1.2558000000
0.5068000000 0.0834000000 0.0627000000
0.5060000000 6.0127000000 0.3037000000
0.5059000000 1.9818000000 0.9729000000
0.5057000000 2.2151000000 1.0539000000
0.5055000000 0.3760000000 0.2646000000
0.5054000000 0.3036000000 0.2135000000
0.5052000000 1.5717000000 0.8405000000
0.5049000000 4.2093000000 1.0614000000
0.5048000000 4.1602000000 1.0793000000
0.5048000000 4.3235000000 1.0224000000
0.5046000000 4.6975000000 0.8980000000
0.5044000000 1.5427000000 0.8277000000
0.5041000000 0.6818000000 0.4732000000
0.5039000000 6.1066000000 0.2380000000
0.5038000000 2.8948000000 1.2804000000
0.5035000000 3.7680000000 1.2134000000
0.5034000000 3.3910000000 1.3376000000
0.5032000000 5.9987000000 0.3165000000
0.5025000000 0.6035000000 0.4119000000
0.5023000000 0.2810000000 0.1974000000
0.5020000000 4.3579000000 1.0078000000
0.5017000000 3.7295000000 1.2215000000
0.5016000000 3.1972000000 1.3745000000
0.5015000000 1.7826000000 0.9064000000
0.5014000000 6.1304000000 0.2222000000
0.5013000000 3.4826000000 1.3076000000
0.5010000000 4.4893000000 0.9647000000
0.5008000000 0.5609000000 0.3885000000
0.5003000000 2.0474000000 0.9898000000
0.4999000000 0.3821000000 0.2747000000
0.4995000000 5.2471000000 0.7061000000
0.4990000000 2.5122000000 1.1524000000
0.4984000000 1.0138000000 0.6439000000
0.4978000000 4.9857000000 0.7952000000
0.4970000000 0.2031000000 0.1422000000
0.4966000000 5.0156000000 0.7851000000
0.4960000000 3.0738000000 1.3381000000
0.4956000000 2.7599000000 1.2323000000
0.2613000000 1.7661000000 0.7572000000
0.2603000000 6.4091000000 0.0346000000
0.2596000000 2.8748000000 1.1400000000
0.2586000000 5.0274000000 0.6422000000
0.2584000000 4.0542000000 0.9671000000
0.2582000000 4.3642000000 0.8687000000
0.2577000000 3.7949000000 1.0544000000
0.2575000000 4.4669000000 0.8316000000
0.2569000000 6.3678000000 0.0649000000
0.2564000000 4.8739000000 0.6932000000
0.2562000000 6.0722000000 0.2511000000
0.2561000000 0.9478000000 0.4788000000
0.2557000000 0.4544000000 0.3019000000
0.2550000000 2.4348000000 0.9824000000
0.2548000000 5.1155000000 0.6016000000
0.2548000000 4.0589000000 0.9661000000
0.2546000000 1.9041000000 0.8010000000
0.2545000000 0.6638000000 0.3838000000
0.2543000000 1.8444000000 0.7866000000
0.2540000000 4.6293000000 0.7695000000
0.2539000000 1.7705000000 0.7522000000
0.2538000000 3.3787000000 1.1916000000
0.2535000000 1.6576000000 0.7168000000
0.2533000000 0.1348000000 0.0985000000
0.2532000000 3.7769000000 1.0563000000
0.2530000000 3.9059000000 1.0114000000
0.2528000000 3.6859000000 1.0874000000
0.2527000000 1.1684000000 0.5496000000
0.2527000000 0.1468000000 0.1052000000
0.2522000000 4.1694000000 0.9287000000
0.2519000000 4.0165000000 0.9831000000
0.2518000000 1.6951000000 0.7311000000
0.2516000000 5.9436000000 0.3190000000
0.2515000000 1.6874000000 0.7265000000
0.2513000000 1.5704000000 0.6905000000
0.2510000000 0.7194000000 0.4053000000
0.2508000000 1.5916000000 0.6998000000
0.2507000000 3.5487000000 1.1407000000
0.2505000000 3.3778000000 1.1930000000
0.2502000000 2.0973000000 0.8660000000
0.2497000000 5.6693000000 0.4189000000
0.2496000000 0.9768000000 0.4867000000
0.2493000000 1.7927000000 0.7607000000
0.2484000000 3.2896000000 1.2268000000
0.2480000000 6.0102000000 0.2921000000
0.2478000000 2.1594000000 0.8833000000
0.2465000000 0.3560000000 0.2320000000
0.2453000000 3.0115000000 1.1770000000
0.2435000000 0.2965000000 0.2130000000
0.0105000000 5.5735000000 0.3113000000
0.0092000000 6.2694000000 0.0740000000
0.0082000000 6.3440000000 0.0353000000
0.0081000000 5.5106000000 0.3263000000
0.0077000000 3.1200000000 1.0654000000
0.0075000000 6.3793000000 0.0232000000
0.0070000000 1.7956000000 0.6190000000
0.0069000000 4.7174000000 0.5997000000
0.0067000000 4.4501000000 0.6882000000
0.0063000000 0.9505000000 0.3271000000
0.0061000000 1.7023000000 0.5854000000
0.0057000000 4.7034000000 0.6025000000
0.0054000000 5.1161000000 0.4665000000
0.0050000000 3.2610000000 1.0837000000
0.0048000000 3.7503000000 0.9302000000
0.0045000000 4.9887000000 0.5045000000
0.0041000000 4.1409000000 0.7922000000
0.0040000000 6.2031000000 0.0914000000
0.0037000000 4.0043000000 0.8410000000
0.0035000000 2.2617000000 0.7740000000
0.0034000000 4.1892000000 0.7761000000
0.0033000000 0.4944000000 0.1708000000
0.0032000000 2.8656000000 0.9809000000
0.0031000000 3.3619000000 1.0506000000
0.0028000000 1.2808000000 0.4393000000
0.0026000000 3.7592000000 0.9182000000
0.0025000000 4.2638000000 0.7490000000
0.0022000000 2.0879000000 0.7184000000
0.0021000000 0.3325000000 0.1209000000
0.0018000000 4.2789000000 0.7405000000
0.0016000000 6.4107000000 0.0053000000
0.0015000000 6.2683000000 0.0716000000
0.0012000000 4.9001000000 0.5309000000
0.0010000000 1.0010000000 0.3492000000
0.0005000000 1.7250000000 0.5909000000
0.0002000000 1.4346000000 0.4920000000
-0.0001000000 1.3171000000 0.4553000000
-0.0005000000 3.1237000000 1.0694000000
-0.0011000000 2.7126000000 0.9251000000
-0.0019000000 5.2293000000 0.4184000000
-0.0030000000 3.6628000000 0.9456000000
-0.0039000000 1.5642000000 0.5348000000
-0.0054000000 0.4889000000 0.1675000000
-0.2398000000 3.2757000000 0.9307000000
-0.2402000000 5.0271000000 0.3455000000
-0.2402000000 1.5157000000 0.3798000000
-0.2411000000 4.6675000000 0.4702000000
-0.2419000000 5.1174000000 0.3168000000
-0.2422000000 4.3428000000 0.5778000000
-0.2425000000 3.7110000000 0.7941000000
-0.2426000000 5.4383000000 0.2029000000
-0.2434000000 5.1346000000 0.3138000000
-0.2437000000 1.1800000000 0.2600000000
-0.2441000000 5.4312000000 0.2093000000
-0.2442000000 4.0103000000 0.6885000000
-0.2445000000 4.6098000000 0.4881000000
-0.2448000000 6.0768000000 0.0619000000
-0.2449000000 3.5772000000 0.8333000000
-0.2452000000 4.2937000000 0.5901000000
-0.2454000000 3.4553000000 0.8797000000
-0.2460000000 1.5277000000 0.3811000000
-0.2461000000 3.1570000000 0.9292000000
-0.2465000000 6.1491000000 0.0397000000
-0.2468000000 1.1250000000 0.2435000000
-0.2470000000 3.5191000000 0.8552000000
-0.2471000000 1.9402000000 0.5206000000
-0.2472000000 0.7828000000 0.1291000000
-0.2476000000 3.4752000000 0.8709000000
-0.2477000000 6.0938000000 0.0605000000
-0.2479000000 2.7935000000 0.8093000000
-0.2480000000 4.1943000000 0.6215000000
-0.2483000000 0.4864000000 0.0310000000
-0.2485000000 3.3173000000 0.9200000000
-0.2488000000 0.7284000000 0.1052000000
-0.2491000000 2.8313000000 0.8180000000
-0.2495000000 0.4207000000 0.0756000000
-0.2499000000 2.0619000000 0.5612000000
-0.2502000000 3.3207000000 0.9215000000
-0.2504000000 1.8464000000 0.4932000000
-0.2506000000 3.7468000000 0.7782000000
-0.2512000000 0.8592000000 0.1476000000
-0.2515000000 2.7462000000 0.7907000000
-0.2520000000 1.7486000000 0.4510000000
-0.2532000000 3.3163000000 0.9211000000
-0.2549000000 3.7863000000 0.7618000000
-0.4912000000 3.8802000000 0.5903000000
-0.4917000000 5.0691000000 0.1860000000
-0.4922000000 3.6111000000 0.6773000000
-0.4927000000 3.3230000000 0.7805000000
-0.4930000000 4.0081000000 0.5464000000
-0.4934000000 1.7836000000 0.3226000000
-0.4935000000 3.8832000000 0.5875000000
-0.4936000000 4.8291000000 0.2661000000
-0.4940000000 0.7732000000 0.0559000000
-0.4943000000 4.5164000000 0.3715000000
-0.4945000000 5.0343000000 0.1946000000
-0.4948000000 4.0135000000 0.5405000000
-0.4950000000 3.3278000000 0.7712000000
-0.4952000000 1.7867000000 0.3211000000
-0.4954000000 0.8007000000 0.0618000000
-0.4956000000 3.5716000000 0.6917000000
-0.4960000000 1.6196000000 0.2634000000
-0.4965000000 1.3039000000 0.1645000000
-0.4967000000 1.5150000000 0.2263000000
-0.4969000000 2.3932000000 0.5233000000
-0.4971000000 5.7365000000 0.0333000000
-0.4972000000 4.8238000000 0.2685000000
-0.4974000000 4.8403000000 0.2598000000
-0.4976000000 3.4747000000 0.7222000000
-0.4978000000 3.3045000000 0.7751000000
-0.4982000000 2.3276000000 0.5072000000
-0.4986000000 3.8970000000 0.5816000000
-0.4988000000 1.2810000000 0.1515000000
-0.4990000000 5.6993000000 0.0448000000
-0.4994000000 0.6763000000 0.0153000000
-0.4996000000 2.3859000000 0.5209000000
-0.4999000000 2.7754000000 0.6591000000
-0.5000000000 2.4543000000 0.5457000000
-0.5003000000 4.9348000000 0.2295000000
-0.5006000000 1.4662000000 0.2106000000
-0.5011000000 1.3474000000 0.1672000000
-0.5019000000 2.5627000000 0.5767000000
-0.5022000000 4.7583000000 0.2879000000
-0.5032000000 2.6700000000 0.6149000000
-0.5032000000 2.0759000000 0.4156000000
-0.7379000000 3.9639000000 0.4173000000
-0.7391000000 4.2983000000 0.3023000000
-0.7405000000 1.7861000000 0.1769000000
-0.7420000000 1.8025000000 0.1774000000
-0.7434000000 4.2421000000 0.3217000000
-0.7442000000 4.4522000000 0.2418000000
-0.7445000000 3.8697000000 0.4425000000
-0.7449000000 4.5431000000 0.2162000000
-0.7452000000 2.4269000000 0.3912000000
-0.7454000000 4.2138000000 0.3229000000
-0.7459000000 3.6785000000 0.5124000000
-0.7463000000 3.4231000000 0.5941000000
-0.7466000000 3.7109000000 0.4976000000
-0.7467000000 4.2523000000 0.3131000000
-0.7472000000 2.6318000000 0.4650000000
-0.7475000000 2.9879000000 0.5873000000
-0.7479000000 2.0939000000 0.2710000000
-0.7482000000 2.9351000000 0.5670000000
-0.7486000000 2.5832000000 0.4426000000
-0.7490000000 2.5642000000 0.4357000000
-0.7491000000 4.2272000000 0.3195000000
-0.7493000000 1.2698000000 0.0747000000
-0.7497000000 2.1383000000 0.2862000000
-0.7499000000 3.7098000000 0.4972000000
-0.7502000000 5.3499000000 0.0124000000
-0.7506000000 3.4974000000 0.5681000000
-0.7513000000 3.4675000000 0.5762000000
-0.7515000000 2.9771000000 0.5749000000
-0.7515000000 1.4256000000 0.0430000000
-0.7520000000 4.7482000000 0.1411000000
-0.7521000000 1.5211000000 0.0847000000
-0.7535000000 2.0527000000 0.2598000000
-0.7545000000 2.9213000000 0.5562000000
-0.7555000000 2.1678000000 0.2964000000
-0.9903000000 4.6283000000 0.0416000000
-0.9924000000 3.9484000000 0.2704000000
-0.9936000000 4.6277000000 0.0410000000
-0.9937000000 2.5783000000 0.2967000000
-0.9941000000 3.0651000000 0.4566000000
-0.9942000000 2.2184000000 0.1730000000
-0.9950000000 4.1949000000 0.1860000000
-0.9949000000 1.8982000000 0.0651000000
-0.9953000000 2.9998000000 0.4398000000
-0.9962000000 3.6797000000 0.3592000000
-0.9966000000 2.6147000000 0.3056000000
-0.9967000000 3.5615000000 0.3977000000
-0.9970000000 2.9051000000 0.4035000000
-0.9972000000 3.1493000000 0.4890000000
-0.9979000000 3.6774000000 0.3626000000
-0.9981000000 2.1261000000 0.1381000000
-0.9995000000 4.2700000000 0.1559000000
-1.0000000000 4.0749000000 0.2258000000
-1.0005000000 2.9202000000 0.4079000000
-1.0021000000 3.0185000000 0.4401000000
-1.0050000000 3.3496000000 0.4665000000
-1.2394000000 2.2346000000 0.0334000000
-1.2433000000 2.1145000000 0.0657000000
-1.2443000000 2.8829000000 0.2524000000
-1.2452000000 2.6408000000 0.1696000000
-1.2456000000 3.0226000000 0.2981000000
-1.2459000000 2.6672000000 0.1795000000
-1.2464000000 2.9350000000 0.2691000000
-1.2467000000 2.1305000000 0.0716000000
-1.2468000000 2.7402000000 0.2017000000
-1.2475000000 2.3085000000 0.0559000000
-1.2481000000 3.9723000000 0.1144000000
-1.2487000000 2.9252000000 0.2704000000
-1.2497000000 4.1607000000 0.0499000000
-1.2500000000 3.6992000000 0.2056000000
-1.2504000000 4.2750000000 0.0104000000
-1.2513000000 4.3152000000 0.0694000000
-1.2516000000 3.5891000000 0.2426000000
-1.4873000000 3.7117000000 0.0607000000
-1.4921000000 3.3306000000 0.1853000000
-1.4935000000 3.4651000000 0.1400000000
-1.4947000000 3.1284000000 0.1883000000
-1.4960000000 3.0474000000 0.1597000000
-1.4970000000 3.8501000000 0.0054000000
-1.4980000000 3.3345000000 0.1881000000
-1.4990000000 3.2478000000 0.2048000000
-1.5006000000 2.7392000000 0.0504000000
-1.5015000000 2.6096000000 0.0117000000
-1.5040000000 2.8290000000 0.0829000000
-1.7357000000 3.3283000000 0.0453000000
-1.7418000000 3.2723000000 0.0487000000
-1.7437000000 3.5667000000 0.0357000000
-1.7450000000 3.2423000000 0.0615000000
-1.7476000000 3.4046000000 0.0109000000
-1.7492000000 3.5024000000 0.0494000000
-1.7520000000 3.2641000000 0.0472000000
