5.7603000000 3.2294000000 0.0214000000
5.7586000000 3.6193000000 0.0166000000
5.7573000000 3.2924000000 0.0421000000
5.7561000000 3.0482000000 0.0032000000
5.7524000000 3.2506000000 0.0406000000
5.5123000000 3.9086000000 0.0833000000
5.5099000000 3.4787000000 0.1594000000
5.5090000000 3.5214000000 0.1433000000
5.5086000000 3.2617000000 0.1805000000
5.5065000000 3.7760000000 0.0761000000
5.5053000000 3.6879000000 0.0602000000
5.5046000000 3.7690000000 0.0862000000
5.5038000000 4.0664000000 0.0193000000
5.5032000000 2.9791000000 0.0456000000
5.5023000000 3.0910000000 0.0963000000
5.4998000000 3.4064000000 0.2026000000
5.4985000000 3.8969000000 0.0263000000
5.4974000000 2.8233000000 0.0479000000
5.2596000000 4.4078000000 0.0602000000
5.2583000000 3.7114000000 0.2602000000
5.2570000000 3.3154000000 0.4151000000
5.2565000000 3.7387000000 0.2523000000
5.2558000000 3.1129000000 0.3294000000
5.2557000000 2.5606000000 0.0487000000
5.2554000000 4.0970000000 0.0670000000
5.2553000000 3.1399000000 0.3537000000
5.2548000000 3.5122000000 0.3693000000
5.2540000000 3.1685000000 0.3554000000
5.2536000000 2.5554000000 0.0419000000
5.2534000000 3.0014000000 0.2787000000
5.2523000000 3.8138000000 0.2157000000
5.2513000000 2.8687000000 0.2118000000
5.2499000000 2.5927000000 0.0688000000
5.2480000000 3.5567000000 0.3520000000
5.2471000000 2.9199000000 0.2353000000
5.0180000000 3.1871000000 0.5773000000
5.0098000000 2.9270000000 0.4536000000
5.0085000000 1.8007000000 0.0232000000
5.0075000000 4.7193000000 0.0458000000
5.0072000000 4.3110000000 0.1717000000
5.0068000000 4.3112000000 0.1846000000
5.0055000000 3.0351000000 0.5174000000
5.0052000000 4.5480000000 0.0551000000
5.0045000000 4.6645000000 0.0729000000
5.0042000000 3.7531000000 0.4637000000
5.0038000000 4.1914000000 0.2462000000
5.0037000000 1.9062000000 0.0897000000
5.0035000000 2.4458000000 0.2112000000
5.0030000000 4.7030000000 0.0536000000
5.0028000000 2.1877000000 0.0804000000
5.0021000000 3.1057000000 0.5480000000
5.0017000000 3.5579000000 0.5683000000
5.0014000000 3.4564000000 0.6233000000
4.9993000000 2.6837000000 0.3407000000
4.9984000000 1.9032000000 0.0910000000
4.9973000000 4.1762000000 0.2534000000
4.9962000000 1.8007000000 0.0372000000
4.7643000000 2.1611000000 0.2780000000
4.7624000000 5.2446000000 0.0674000000
4.7607000000 4.7074000000 0.1936000000
4.7605000000 4.7488000000 0.1713000000
4.7593000000 1.6006000000 0.0738000000
4.7585000000 4.4426000000 0.3338000000
4.7577000000 2.3865000000 0.4045000000
4.7571000000 2.7824000000 0.6007000000
4.7568000000 1.9203000000 0.1664000000
4.7567000000 2.9079000000 0.6659000000
4.7562000000 1.5717000000 0.0616000000
4.7560000000 5.2312000000 0.0790000000
4.7556000000 4.4951000000 0.3069000000
4.7555000000 3.3395000000 0.8759000000
4.7550000000 4.9747000000 0.0600000000
4.7549000000 3.2122000000 0.8295000000
4.7548000000 2.2833000000 0.3419000000
4.7545000000 5.3181000000 0.0342000000
4.7544000000 3.7006000000 0.7120000000
4.7543000000 4.9535000000 0.0735000000
4.7540000000 4.0005000000 0.5630000000
4.7537000000 2.2188000000 0.3140000000
4.7536000000 2.1521000000 0.2856000000
4.7535000000 2.5040000000 0.4692000000
4.7533000000 4.9709000000 0.0660000000
4.7528000000 4.7414000000 0.1832000000
4.7525000000 4.7078000000 0.2012000000
4.7523000000 4.4957000000 0.3063000000
4.7519000000 2.1195000000 0.2708000000
4.7517000000 1.3211000000 0.0132000000
4.7516000000 1.7238000000 0.0719000000
4.7515000000 1.3355000000 0.0190000000
4.7511000000 2.9842000000 0.7114000000
4.7505000000 4.5498000000 0.2882000000
4.7498000000 1.7931000000 0.1028000000
4.7492000000 1.8275000000 0.1215000000
4.7487000000 1.7959000000 0.1036000000
4.7474000000 4.6079000000 0.2567000000
4.7466000000 3.6293000000 0.7564000000
4.7451000000 4.8492000000 0.1372000000
4.5113000000 2.7894000000 0.8257000000
4.5103000000 4.9380000000 0.2969000000
4.5100000000 5.7125000000 0.0500000000
4.5094000000 3.1820000000 1.0221000000
4.5089000000 1.1940000000 0.0853000000
4.5087000000 4.5168000000 0.5158000000
4.5083000000 2.9535000000 0.9112000000
4.5081000000 2.6786000000 0.7679000000
4.5078000000 5.4176000000 0.0525000000
4.5076000000 2.9760000000 0.9225000000
4.5070000000 3.0265000000 0.9489000000
4.5068000000 5.5001000000 0.0914000000
4.5066000000 4.7577000000 0.3858000000
4.5064000000 3.5203000000 1.0301000000
4.5063000000 5.4062000000 0.0614000000
4.5060000000 2.9363000000 0.9091000000
4.5058000000 1.0558000000 0.0204000000
4.5056000000 2.1432000000 0.5035000000
4.5055000000 3.0380000000 0.9599000000
4.5051000000 1.6273000000 0.2386000000
4.5048000000 2.4322000000 0.6491000000
4.5043000000 4.6316000000 0.4611000000
4.5043000000 5.0614000000 0.2379000000
4.5040000000 2.5337000000 0.7020000000
4.5038000000 0.9342000000 0.0300000000
4.5033000000 1.4915000000 0.1698000000
4.5031000000 1.2029000000 0.0974000000
4.5027000000 5.1943000000 0.1769000000
4.5025000000 5.0242000000 0.2556000000
4.5024000000 3.0191000000 0.9491000000
4.5021000000 3.5979000000 0.9905000000
4.5019000000 2.0520000000 0.4542000000
4.5018000000 4.4295000000 0.5672000000
4.5014000000 1.7865000000 0.3222000000
4.5008000000 1.3538000000 0.1034000000
4.5004000000 1.3472000000 0.0961000000
4.4995000000 1.1891000000 0.0972000000
4.4991000000 1.7012000000 0.2809000000
4.4987000000 4.5348000000 0.5113000000
4.4979000000 1.7874000000 0.3233000000
4.4931000000 1.1033000000 0.0560000000
4.2610000000 3.0880000000 1.2067000000
4.2608000000 4.5241000000 0.7288000000
4.2594000000 3.5706000000 1.2164000000
4.2590000000 4.6292000000 0.6805000000
4.2589000000 5.5726000000 0.1955000000
4.2588000000 3.0567000000 1.1879000000
4.2582000000 1.3873000000 0.3286000000
4.2580000000 2.2934000000 0.7960000000
4.2576000000 1.2186000000 0.2460000000
4.2574000000 3.8411000000 1.0797000000
4.2572000000 2.2513000000 0.7794000000
4.2569000000 2.1767000000 0.7395000000
4.2565000000 1.9010000000 0.5910000000
4.2562000000 1.7116000000 0.4972000000
4.2559000000 4.1921000000 0.9046000000
4.2556000000 1.9738000000 0.6352000000
4.2555000000 2.8798000000 1.0938000000
4.2553000000 4.8941000000 0.5495000000
4.2550000000 1.5428000000 0.4158000000
4.2545000000 4.4615000000 0.7729000000
4.2540000000 2.2033000000 0.7538000000
4.2536000000 3.0570000000 1.1885000000
4.2534000000 0.8380000000 0.0575000000
4.2533000000 0.5623000000 0.0638000000
4.2531000000 5.8437000000 0.0611000000
4.2527000000 4.9761000000 0.5006000000
4.2525000000 4.4256000000 0.7878000000
4.2523000000 5.1541000000 0.4178000000
4.2521000000 1.4115000000 0.3518000000
4.2521000000 4.5689000000 0.7143000000
4.2517000000 0.9582000000 0.1168000000
4.2516000000 4.1110000000 0.9485000000
4.2514000000 3.9051000000 1.0538000000
4.2508000000 0.9945000000 0.1398000000
4.2505000000 1.6284000000 0.4655000000
4.2500000000 4.5026000000 0.7508000000
4.2495000000 5.5885000000 0.1974000000
4.2493000000 3.0332000000 1.1843000000
4.2486000000 4.7731000000 0.6208000000
4.2478000000 2.5877000000 0.9569000000
4.0138000000 4.5219000000 0.9534000000
4.0134000000 6.5689000000 0.0589000000
4.0110000000 4.9553000000 0.7295000000
4.0102000000 3.9704000000 1.2373000000
4.0100000000 4.2080000000 1.1169000000
4.0093000000 2.9187000000 1.3336000000
4.0091000000 0.0349000000 0.0053000000
4.0090000000 5.8219000000 0.2852000000
4.0086000000 1.7865000000 0.7613000000
4.0085000000 5.5590000000 0.4220000000
4.0081000000 2.8786000000 1.3185000000
4.0080000000 5.5104000000 0.4542000000
4.0078000000 1.0592000000 0.3888000000
4.0075000000 4.8602000000 0.7841000000
4.0072000000 5.2539000000 0.5800000000
4.0068000000 5.9895000000 0.2044000000
4.0066000000 6.4895000000 0.0304000000
4.0063000000 3.8641000000 1.2846000000
4.0062000000 1.9315000000 0.8349000000
4.0060000000 2.6219000000 1.1850000000
4.0059000000 3.9199000000 1.2588000000
4.0054000000 0.1522000000 0.0777000000
4.0052000000 3.9681000000 1.2389000000
4.0047000000 6.0920000000 0.1525000000
4.0045000000 4.9406000000 0.7425000000
4.0044000000 1.9672000000 0.8577000000
4.0042000000 4.8677000000 0.7770000000
4.0041000000 3.3329000000 1.5355000000
4.0038000000 3.5508000000 1.4560000000
4.0035000000 0.9627000000 0.3388000000
4.0031000000 4.8481000000 0.7927000000
4.0028000000 6.3067000000 0.0542000000
4.0025000000 0.5780000000 0.1457000000
4.0023000000 6.5225000000 0.0882000000
4.0021000000 2.6904000000 1.2266000000
4.0018000000 1.3601000000 0.5464000000
4.0016000000 1.9596000000 0.8527000000
4.0014000000 1.3715000000 0.5511000000
4.0012000000 2.4063000000 1.0811000000
4.0009000000 1.3190000000 0.5265000000
4.0008000000 4.0190000000 1.2216000000
4.0007000000 6.4955000000 0.0320000000
3.9993000000 3.2521000000 1.5192000000
3.9988000000 6.5113000000 0.0162000000
3.9982000000 3.8782000000 1.2947000000
3.7639000000 3.8967000000 1.4863000000
3.7610000000 4.7517000000 1.0613000000
3.7600000000 5.9160000000 0.4611000000
3.7598000000 0.0207000000 0.0706000000
3.7592000000 0.2948000000 0.2119000000
3.7589000000 5.7114000000 0.5638000000
3.7584000000 3.9821000000 1.4546000000
3.7583000000 6.4252000000 0.1918000000
3.7577000000 3.9748000000 1.4564000000
3.7575000000 3.0566000000 1.6299000000
3.7573000000 4.2104000000 1.3366000000
3.7567000000 4.9387000000 0.9684000000
3.7563000000 2.5788000000 1.3829000000
3.7562000000 6.5031000000 0.1449000000
3.7561000000 4.1528000000 1.3715000000
3.7558000000 5.1929000000 0.8330000000
3.7556000000 4.7710000000 1.0579000000
3.7554000000 3.9092000000 1.4910000000
3.7552000000 1.0825000000 0.6186000000
3.7551000000 0.9887000000 0.5751000000
3.7550000000 2.9681000000 1.5897000000
3.7547000000 1.0064000000 0.5864000000
3.7546000000 0.6024000000 0.3734000000
3.7542000000 3.8645000000 1.5156000000
3.7541000000 2.5282000000 1.3574000000
3.7540000000 3.0463000000 1.6266000000
3.7537000000 0.3616000000 0.2621000000
3.7535000000 6.4385000000 0.1865000000
3.7529000000 1.9372000000 1.0661000000
3.7526000000 4.5678000000 1.1554000000
3.7520000000 1.5171000000 0.8485000000
3.7520000000 1.6539000000 0.9196000000
3.7518000000 4.0299000000 1.4357000000
3.7513000000 1.9934000000 1.0937000000
3.7512000000 2.2164000000 1.2039000000
3.7511000000 5.8707000000 0.4921000000
3.7508000000 1.5843000000 0.8836000000
3.7508000000 0.7309000000 0.4478000000
3.7505000000 5.2356000000 0.8179000000
3.7501000000 6.0214000000 0.4191000000
3.7499000000 2.5035000000 1.3547000000
3.7496000000 0.0655000000 0.0428000000
3.7489000000 2.8768000000 1.5442000000
3.7482000000 0.9250000000 0.5535000000
3.7480000000 0.2172000000 0.1697000000
3.7463000000 0.5572000000 0.3605000000
3.7425000000 1.7924000000 0.9954000000
3.5123000000 2.7283000000 1.6777000000
3.5112000000 3.7809000000 1.7744000000
3.5105000000 3.3989000000 1.9589000000
3.5103000000 4.2308000000 1.5467000000
3.5101000000 4.2649000000 1.5354000000
3.5095000000 5.4373000000 0.9316000000
3.5094000000 3.4930000000 1.9251000000
3.5090000000 6.1561000000 0.5081000000
3.5085000000 6.7229000000 0.0928000000
3.5083000000 6.2586000000 0.4152000000
3.5079000000 5.2941000000 1.0014000000
3.5076000000 5.5316000000 0.8810000000
3.5074000000 6.0384000000 0.6105000000
3.5070000000 0.4563000000 0.4389000000
3.5067000000 4.9294000000 1.1906000000
3.5065000000 3.9758000000 1.6774000000
3.5060000000 2.5041000000 1.5647000000
3.5058000000 0.3536000000 0.3339000000
3.5057000000 3.2951000000 1.9667000000
3.5054000000 5.1510000000 1.0784000000
3.5050000000 2.5202000000 1.5817000000
3.5049000000 4.1959000000 1.5688000000
3.5047000000 3.9444000000 1.7037000000
3.5046000000 2.0045000000 1.3162000000
3.5044000000 4.4350000000 1.4417000000
3.5040000000 4.5783000000 1.3791000000
3.5038000000 0.4775000000 0.4630000000
3.5033000000 2.0440000000 1.3374000000
3.5033000000 3.0986000000 1.8746000000
3.5031000000 2.8084000000 1.7292000000
3.5030000000 2.0534000000 1.3459000000
3.5029000000 4.9129000000 1.1980000000
3.5027000000 4.2769000000 1.5322000000
3.5025000000 3.0616000000 1.8610000000
3.5019000000 5.6302000000 0.8328000000
3.5018000000 5.4878000000 0.9133000000
3.5016000000 3.9317000000 1.7050000000
3.5015000000 4.9174000000 1.2040000000
3.5014000000 1.3352000000 0.9799000000
3.5012000000 0.0872000000 0.0621000000
3.5008000000 1.1997000000 0.9076000000
3.5006000000 0.9171000000 0.7586000000
3.5003000000 2.7621000000 1.7061000000
3.5001000000 5.8700000000 0.7199000000
3.4999000000 4.7431000000 1.2963000000
3.4997000000 1.6349000000 1.1344000000
3.4992000000 2.3130000000 1.4746000000
3.4990000000 3.1177000000 1.8920000000
3.4988000000 1.4695000000 1.0471000000
3.4980000000 2.2874000000 1.4586000000
3.4969000000 2.2603000000 1.4520000000
3.4959000000 0.9577000000 0.7970000000
3.2670000000 4.6108000000 1.5654000000
3.2608000000 0.7073000000 0.6960000000
3.2602000000 4.8590000000 1.4490000000
3.2594000000 6.3888000000 0.2846000000
3.2588000000 5.1781000000 1.2853000000
3.2586000000 2.1163000000 1.5879000000
3.2583000000 6.4201000000 0.2537000000
3.2581000000 6.2146000000 0.4649000000
3.2576000000 5.6248000000 1.0468000000
3.2574000000 3.3419000000 2.2061000000
3.2571000000 4.0862000000 1.8446000000
3.2567000000 6.5501000000 0.1255000000
3.2565000000 0.1199000000 0.0947000000
3.2564000000 2.2548000000 1.6647000000
3.2563000000 2.0821000000 1.5738000000
3.2562000000 1.9446000000 1.5071000000
3.2561000000 4.2979000000 1.7335000000
3.2560000000 3.2450000000 2.1699000000
3.2558000000 4.2693000000 1.7567000000
3.2555000000 6.2153000000 0.4622000000
3.2553000000 0.1390000000 0.1151000000
3.2553000000 6.5052000000 0.1705000000
3.2551000000 0.2339000000 0.2125000000
3.2549000000 4.9077000000 1.4262000000
3.2548000000 2.6737000000 1.8782000000
3.2547000000 4.0576000000 1.8583000000
3.2544000000 5.2112000000 1.2737000000
3.2543000000 5.6670000000 1.0089000000
3.2542000000 3.1032000000 2.0990000000
3.2541000000 4.2524000000 1.7553000000
3.2540000000 4.2028000000 1.7858000000
3.2537000000 3.3340000000 2.2009000000
3.2534000000 3.6061000000 2.0898000000
3.2533000000 1.2894000000 1.1693000000
3.2531000000 0.1469000000 0.1235000000
3.2529000000 1.9972000000 1.5326000000
3.2528000000 2.7880000000 1.9345000000
3.2525000000 4.8648000000 1.4512000000
3.2523000000 2.4939000000 1.7883000000
3.2521000000 3.9070000000 1.9377000000
3.2520000000 0.2444000000 0.2225000000
3.2518000000 0.2493000000 0.2305000000
3.2516000000 0.4111000000 0.3936000000
3.2510000000 3.4935000000 2.1575000000
3.2510000000 2.7457000000 1.9202000000
3.2507000000 0.0487000000 0.0988000000
3.2503000000 0.3048000000 0.2873000000
3.2501000000 1.0647000000 1.0407000000
3.2496000000 1.2676000000 1.1661000000
3.2495000000 1.4528000000 1.2610000000
3.2493000000 1.6556000000 1.3642000000
3.2478000000 0.6910000000 0.6775000000
3.2464000000 5.0460000000 1.3678000000
3.2436000000 1.9960000000 1.5414000000
3.0154000000 4.5990000000 1.7959000000
3.0110000000 6.1390000000 0.5387000000
3.0108000000 6.5498000000 0.1171000000
3.0104000000 5.1227000000 1.5150000000
3.0100000000 6.3910000000 0.2824000000
3.0092000000 5.5372000000 1.1546000000
3.0089000000 2.6368000000 2.0832000000
3.0088000000 3.5024000000 2.3666000000
3.0086000000 0.2755000000 0.2567000000
3.0084000000 2.3272000000 1.9201000000
3.0083000000 6.6957000000 0.0394000000
3.0082000000 5.2249000000 1.4606000000
3.0078000000 0.8438000000 0.8370000000
3.0076000000 4.8031000000 1.6999000000
3.0072000000 0.8717000000 0.8654000000
3.0071000000 2.6374000000 2.0856000000
3.0070000000 5.7371000000 0.9557000000
3.0066000000 3.3776000000 2.4076000000
3.0064000000 5.6266000000 1.0667000000
3.0063000000 6.0770000000 0.6049000000
3.0057000000 6.2197000000 0.4595000000
3.0055000000 3.6689000000 2.2736000000
3.0054000000 1.9209000000 1.7133000000
3.0053000000 1.4145000000 1.4084000000
3.0047000000 4.3321000000 1.9418000000
3.0045000000 2.0207000000 1.7625000000
3.0043000000 3.0768000000 2.3056000000
3.0042000000 6.6278000000 0.0434000000
3.0040000000 4.8387000000 1.6844000000
3.0039000000 4.5859000000 1.8129000000
3.0037000000 1.4048000000 1.3877000000
3.0034000000 3.0302000000 2.2795000000
3.0030000000 2.9814000000 2.2633000000
3.0025000000 4.0718000000 2.0764000000
3.0023000000 1.0332000000 1.0278000000
3.0020000000 3.5158000000 2.3681000000
3.0015000000 0.8008000000 0.7890000000
3.0012000000 5.1737000000 1.4969000000
3.0010000000 4.8610000000 1.6724000000
3.0008000000 0.9834000000 0.9753000000
3.0007000000 2.6418000000 2.0921000000
3.0003000000 2.1213000000 1.8248000000
3.0001000000 6.0294000000 0.6511000000
2.9997000000 2.2488000000 1.8865000000
2.9992000000 3.5959000000 2.3228000000
2.9985000000 0.4639000000 0.4423000000
2.9980000000 1.1234000000 1.1198000000
2.9977000000 1.1793000000 1.1791000000
2.9963000000 1.1436000000 1.1412000000
2.9950000000 1.7118000000 1.6162000000
2.9924000000 2.8712000000 2.2068000000
2.7615000000 2.1909000000 2.0672000000
2.7613000000 2.4340000000 2.1878000000
2.7602000000 4.1478000000 2.2496000000
2.7587000000 4.1420000000 2.2561000000
2.7588000000 3.4382000000 2.6210000000
2.7579000000 5.6773000000 1.0115000000
2.7577000000 4.0904000000 2.2811000000
2.7571000000 5.1961000000 1.5059000000
2.7569000000 4.1947000000 2.2282000000
2.7567000000 2.5791000000 2.2779000000
2.7564000000 1.1289000000 1.1306000000
2.7561000000 3.4814000000 2.6003000000
2.7558000000 4.5155000000 2.0675000000
2.7555000000 5.0674000000 1.6373000000
2.7553000000 5.9795000000 0.7016000000
2.7550000000 1.1165000000 1.1154000000
2.7549000000 4.2862000000 2.1953000000
2.7547000000 1.5937000000 1.6076000000
2.7545000000 1.8928000000 1.8908000000
2.7540000000 1.4054000000 1.4079000000
2.7536000000 2.6914000000 2.3336000000
2.7535000000 1.2283000000 1.2342000000
2.7533000000 0.6824000000 0.6702000000
2.7533000000 2.9468000000 2.4656000000
2.7532000000 6.6460000000 0.0951000000
2.7530000000 5.3243000000 1.3725000000
2.7529000000 4.8716000000 1.8284000000
2.7527000000 0.6180000000 0.5999000000
2.7525000000 4.1192000000 2.2738000000
2.7524000000 6.5702000000 0.0998000000
2.7522000000 3.1676000000 2.5749000000
2.7519000000 1.8263000000 1.8265000000
2.7518000000 1.7723000000 1.7842000000
2.7517000000 1.7103000000 1.7193000000
2.7515000000 0.2251000000 0.2056000000
2.7513000000 1.8922000000 1.8915000000
2.7505000000 0.9389000000 0.9323000000
2.7502000000 3.1294000000 2.5593000000
2.7499000000 2.5586000000 2.2677000000
2.7498000000 3.0696000000 2.5303000000
2.7489000000 5.1726000000 1.5244000000
2.7485000000 3.2114000000 2.5971000000
2.7479000000 0.6373000000 0.6226000000
2.7477000000 0.1419000000 0.1129000000
2.7473000000 0.0506000000 0.1040000000
2.7455000000 4.8915000000 1.8204000000
2.7421000000 1.7413000000 1.7558000000
2.5114000000 6.3908000000 0.2833000000
2.5095000000 2.6128000000 2.5085000000
2.5093000000 6.6455000000 0.0939000000
2.5089000000 2.7728000000 2.5939000000
2.5087000000 4.8993000000 1.8087000000
2.5081000000 4.1888000000 2.4562000000
2.5080000000 3.5828000000 2.7615000000
2.5076000000 6.7142000000 0.0273000000
2.5075000000 4.6172000000 2.0956000000
2.5073000000 1.3864000000 1.3941000000
2.5067000000 0.0598000000 0.1015000000
2.5065000000 5.3126000000 1.3819000000
2.5062000000 0.3404000000 0.3190000000
2.5059000000 5.2044000000 1.5027000000
2.5056000000 4.3614000000 2.3464000000
2.5054000000 2.0961000000 2.1146000000
2.5053000000 6.5870000000 0.0785000000
2.5050000000 5.0697000000 1.6375000000
2.5049000000 5.9874000000 0.6966000000
2.5047000000 4.0012000000 2.5564000000
2.5046000000 1.9347000000 1.9482000000
2.5045000000 1.7218000000 1.7361000000
2.5043000000 5.6550000000 1.0385000000
2.5041000000 5.3250000000 1.3784000000
2.5037000000 4.8929000000 1.8175000000
2.5035000000 0.7009000000 0.6929000000
2.5033000000 5.4474000000 1.2470000000
2.5030000000 2.4667000000 2.4372000000
2.5027000000 0.2536000000 0.2303000000
2.5026000000 6.1859000000 0.4932000000
2.5023000000 4.6324000000 2.0835000000
2.5020000000 3.2113000000 2.8252000000
2.5020000000 0.6302000000 0.6193000000
2.5018000000 1.4464000000 1.4490000000
2.5016000000 0.3166000000 0.3025000000
2.5015000000 1.5477000000 1.5542000000
2.5013000000 6.0570000000 0.6248000000
2.5011000000 2.4933000000 2.4578000000
2.5008000000 6.1710000000 0.5125000000
2.5004000000 3.2865000000 2.8624000000
2.5001000000 0.3741000000 0.3578000000
2.4995000000 0.2663000000 0.2443000000
2.4988000000 0.3118000000 0.2949000000
2.4983000000 4.0952000000 2.5147000000
2.4980000000 4.9289000000 1.7819000000
2.4971000000 0.5251000000 0.5052000000
2.2648000000 4.2910000000 2.4296000000
2.2611000000 0.3597000000 0.3427000000
2.2605000000 1.7118000000 1.7255000000
2.2595000000 5.8131000000 0.8782000000
2.2590000000 2.7776000000 2.7983000000
2.2587000000 5.3163000000 1.3751000000
2.2580000000 2.5574000000 2.5904000000
2.2578000000 1.6055000000 1.6174000000
2.2575000000 6.2275000000 0.4424000000
2.2570000000 2.0768000000 2.0968000000
2.2569000000 5.4231000000 1.2721000000
2.2564000000 2.3621000000 2.3902000000
2.2563000000 6.2733000000 0.4079000000
2.2558000000 3.9073000000 2.8054000000
2.2556000000 4.6731000000 2.0415000000
2.2553000000 2.3783000000 2.4030000000
2.2552000000 4.8606000000 1.8495000000
2.2549000000 1.4957000000 1.5060000000
2.2548000000 3.6300000000 2.9684000000
2.2546000000 4.4912000000 2.2192000000
2.2544000000 0.0987000000 0.0746000000
2.2540000000 3.5274000000 3.0190000000
2.2539000000 1.7875000000 1.8040000000
2.2537000000 1.6365000000 1.6473000000
2.2535000000 5.9526000000 0.7314000000
2.2533000000 4.2336000000 2.4901000000
2.2530000000 2.8518000000 2.8423000000
2.2529000000 3.3223000000 3.0874000000
2.2528000000 -0.0003000000 0.0479000000
2.2526000000 5.8398000000 0.8447000000
2.2523000000 6.6188000000 0.0518000000
2.2520000000 3.4662000000 3.0538000000
2.2516000000 2.3387000000 2.3652000000
2.2514000000 3.2483000000 3.0555000000
2.2510000000 0.9720000000 0.9686000000
2.2507000000 1.0773000000 1.0746000000
2.2505000000 2.2562000000 2.2773000000
2.2503000000 2.8536000000 2.8463000000
2.2501000000 1.8980000000 1.9129000000
2.2500000000 1.3870000000 1.3896000000
2.2492000000 4.5856000000 2.1309000000
2.2490000000 5.1713000000 1.5400000000
2.2485000000 1.5469000000 1.5605000000
2.2482000000 1.8619000000 1.8710000000
2.2471000000 3.6540000000 2.9621000000
2.2440000000 1.6121000000 1.6225000000
2.0135000000 6.3036000000 0.3778000000
2.0117000000 5.6217000000 1.0702000000
2.0113000000 4.0826000000 2.6420000000
2.0103000000 6.0485000000 0.6322000000
2.0099000000 6.4957000000 0.1748000000
2.0090000000 3.9692000000 2.7604000000
2.0087000000 2.2120000000 2.2329000000
2.0082000000 4.3153000000 2.4041000000
2.0076000000 6.5347000000 0.1352000000
2.0075000000 0.8947000000 0.8854000000
2.0070000000 0.2625000000 0.2382000000
2.0068000000 6.4324000000 0.2410000000
2.0066000000 4.8328000000 1.8793000000
2.0065000000 6.5529000000 0.1145000000
2.0062000000 2.0550000000 2.0768000000
2.0060000000 1.6209000000 1.6311000000
2.0058000000 2.1193000000 2.1429000000
2.0057000000 5.4984000000 1.1948000000
2.0051000000 4.3527000000 2.3688000000
2.0050000000 1.3019000000 1.3045000000
2.0045000000 2.7292000000 2.7602000000
2.0041000000 2.1722000000 2.1932000000
2.0038000000 6.6427000000 0.1015000000
2.0037000000 0.4368000000 0.4167000000
2.0035000000 0.0164000000 0.0636000000
2.0035000000 1.1015000000 1.0976000000
2.0033000000 2.1814000000 2.2082000000
2.0031000000 5.4449000000 1.2482000000
2.0030000000 4.9286000000 1.7826000000
2.0029000000 6.3345000000 0.3413000000
2.0028000000 1.5429000000 1.5491000000
2.0025000000 5.1462000000 1.5589000000
2.0024000000 4.8868000000 1.8255000000
2.0020000000 0.1406000000 0.1189000000
2.0018000000 5.1566000000 1.5442000000
2.0015000000 0.2370000000 0.2147000000
2.0014000000 0.6402000000 0.6286000000
2.0012000000 1.3627000000 1.3635000000
2.0011000000 1.8172000000 1.8319000000
2.0008000000 3.1055000000 3.1463000000
2.0002000000 3.9315000000 2.8026000000
1.9998000000 2.8332000000 2.8672000000
1.9995000000 4.5046000000 2.2106000000
1.9987000000 2.0765000000 2.0933000000
1.9985000000 0.5630000000 0.5477000000
1.9979000000 5.8015000000 0.8868000000
1.9969000000 1.7201000000 1.7315000000
1.7617000000 5.9164000000 0.7662000000
1.7609000000 4.2045000000 2.5214000000
1.7592000000 5.7873000000 0.8959000000
1.7584000000 4.2403000000 2.4798000000
1.7583000000 0.9747000000 0.9692000000
1.7578000000 6.0380000000 0.6433000000
1.7577000000 5.5265000000 1.1723000000
1.7573000000 0.4180000000 0.4034000000
1.7570000000 3.1521000000 3.1326000000
1.7569000000 5.7984000000 0.8855000000
1.7568000000 5.5853000000 1.1105000000
1.7565000000 6.5554000000 0.1091000000
1.7562000000 3.8371000000 2.8940000000
1.7558000000 4.1586000000 2.5675000000
1.7557000000 2.6271000000 2.6582000000
1.7555000000 1.5385000000 1.5431000000
1.7553000000 3.8421000000 2.8942000000
1.7549000000 0.6081000000 0.5940000000
1.7544000000 6.5147000000 0.1601000000
1.7541000000 2.9079000000 2.9514000000
1.7536000000 2.9745000000 2.9925000000
1.7535000000 5.3671000000 1.3354000000
1.7533000000 5.0056000000 1.6990000000
1.7530000000 3.0712000000 3.0761000000
1.7528000000 2.8773000000 2.9167000000
1.7526000000 0.0296000000 0.0815000000
1.7525000000 1.3848000000 1.3851000000
1.7524000000 0.8743000000 0.8650000000
1.7523000000 2.0378000000 2.0565000000
1.7522000000 5.7112000000 0.9788000000
1.7520000000 1.5197000000 1.5262000000
1.7519000000 3.4588000000 3.1809000000
1.7517000000 3.3115000000 3.2022000000
1.7513000000 1.4647000000 1.4703000000
1.7511000000 1.2614000000 1.2632000000
1.7508000000 5.8388000000 0.8560000000
1.7505000000 1.6165000000 1.6268000000
1.7503000000 5.0703000000 1.6277000000
1.7499000000 0.9046000000 0.9000000000
1.7493000000 2.2752000000 2.2966000000
1.7489000000 3.8559000000 2.8778000000
1.7483000000 1.6355000000 1.6455000000
1.7481000000 3.2352000000 3.1712000000
1.7462000000 2.0401000000 2.0590000000
1.7449000000 2.9504000000 2.9737000000
1.5117000000 2.0152000000 2.0311000000
1.5111000000 6.3196000000 0.3575000000
1.5094000000 6.4284000000 0.2449000000
1.5086000000 6.2175000000 0.4630000000
1.5083000000 5.1607000000 1.5417000000
1.5078000000 6.5652000000 0.1049000000
1.5076000000 5.5011000000 1.1896000000
1.5073000000 5.5949000000 1.1004000000
1.5068000000 6.7202000000 0.0200000000
1.5066000000 0.7608000000 0.7461000000
1.5064000000 2.3652000000 2.3922000000
1.5062000000 4.1755000000 2.5343000000
1.5059000000 4.9832000000 1.7224000000
1.5058000000 1.5999000000 1.6003000000
1.5057000000 5.6153000000 1.0765000000
1.5051000000 2.3423000000 2.3731000000
1.5050000000 5.9687000000 0.7142000000
1.5048000000 6.0530000000 0.6233000000
1.5048000000 1.7325000000 1.7436000000
1.5041000000 2.9349000000 2.8052000000
1.5040000000 5.9364000000 0.7492000000
1.5037000000 3.3359000000 2.9924000000
1.5036000000 3.3487000000 3.0040000000
1.5033000000 0.9785000000 0.9737000000
1.5029000000 1.9350000000 1.9520000000
1.5028000000 0.1365000000 0.1144000000
1.5028000000 0.6409000000 0.6277000000
1.5027000000 3.1698000000 2.9261000000
1.5024000000 1.7370000000 1.7539000000
1.5020000000 1.7498000000 1.7615000000
1.5019000000 1.9070000000 1.9192000000
1.5018000000 0.4730000000 0.4541000000
1.5014000000 1.0239000000 1.0219000000
1.5012000000 1.2508000000 1.2560000000
1.5005000000 6.2834000000 0.3908000000
1.5003000000 2.9653000000 2.8130000000
1.5001000000 3.4157000000 2.9779000000
1.4998000000 1.8017000000 1.8170000000
1.4994000000 5.7750000000 0.9149000000
1.4983000000 2.6216000000 2.6260000000
1.4981000000 4.5658000000 2.1568000000
1.4965000000 1.3426000000 1.3485000000
1.4937000000 1.1598000000 1.1573000000
1.2604000000 5.0099000000 1.7042000000
1.2599000000 4.7048000000 2.0071000000
1.2596000000 6.2066000000 0.4718000000
1.2593000000 3.0093000000 2.6275000000
1.2592000000 0.3322000000 0.3156000000
1.2590000000 6.0838000000 0.6007000000
1.2585000000 3.4651000000 2.7374000000
1.2582000000 5.6858000000 1.0020000000
1.2578000000 6.1376000000 0.5402000000
1.2574000000 4.3622000000 2.2821000000
1.2573000000 4.7639000000 1.9435000000
1.2571000000 4.1921000000 2.3677000000
1.2567000000 5.3665000000 1.3296000000
1.2564000000 5.4531000000 1.2409000000
1.2561000000 6.0737000000 0.6058000000
1.2558000000 3.9182000000 2.5106000000
1.2555000000 6.5298000000 0.1488000000
1.2553000000 3.3856000000 2.7619000000
1.2549000000 1.8261000000 1.8387000000
1.2548000000 6.2930000000 0.3804000000
1.2546000000 1.7538000000 1.7673000000
1.2545000000 1.8451000000 1.8574000000
1.2540000000 3.1171000000 2.6800000000
1.2537000000 2.6757000000 2.4510000000
1.2536000000 0.1985000000 0.1763000000
1.2533000000 0.9553000000 0.9475000000
1.2534000000 2.7198000000 2.4743000000
1.2532000000 2.8587000000 2.5488000000
1.2529000000 1.7356000000 1.7440000000
1.2526000000 1.7101000000 1.7251000000
1.2524000000 0.0087000000 0.0608000000
1.2522000000 1.7183000000 1.7287000000
1.2518000000 2.1562000000 2.1600000000
1.2514000000 1.1902000000 1.1900000000
1.2514000000 1.4598000000 1.4699000000
1.2511000000 2.4338000000 2.3259000000
1.2510000000 2.9716000000 2.5990000000
1.2507000000 4.2946000000 2.3107000000
1.2505000000 6.3876000000 0.2858000000
1.2501000000 2.9329000000 2.5791000000
1.2497000000 4.5345000000 2.1652000000
1.2494000000 0.2339000000 0.2116000000
1.2487000000 0.9848000000 0.9775000000
1.2481000000 2.7370000000 2.4726000000
1.2473000000 1.0787000000 1.0819000000
1.2465000000 3.2145000000 2.7249000000
1.2452000000 1.5872000000 1.5982000000
1.0161000000 2.5335000000 2.1658000000
1.0098000000 0.0701000000 0.0399000000
1.0090000000 5.8372000000 0.8454000000
1.0083000000 1.5367000000 1.5436000000
1.0080000000 1.4486000000 1.4521000000
1.0078000000 1.8875000000 1.8310000000
1.0077000000 6.6584000000 0.0877000000
1.0075000000 5.6320000000 1.0638000000
1.0074000000 6.1573000000 0.5207000000
1.0072000000 5.7734000000 0.9129000000
1.0070000000 4.8448000000 1.8038000000
1.0068000000 5.1730000000 1.5268000000
1.0067000000 5.3459000000 1.3535000000
1.0066000000 6.6114000000 0.0550000000
1.0064000000 5.5626000000 1.1256000000
1.0062000000 4.5351000000 1.9610000000
1.0058000000 6.6698000000 0.0733000000
1.0057000000 3.8625000000 2.3142000000
1.0055000000 3.6144000000 2.4462000000
1.0051000000 1.3039000000 1.3096000000
1.0050000000 2.9283000000 2.3600000000
1.0047000000 5.0707000000 1.6311000000
1.0044000000 0.8609000000 0.8554000000
1.0042000000 0.0510000000 0.0942000000
1.0039000000 3.4103000000 2.5381000000
1.0038000000 5.2100000000 1.4985000000
1.0035000000 1.6245000000 1.6362000000
1.0034000000 4.7523000000 1.8514000000
1.0033000000 0.4050000000 0.3883000000
1.0032000000 0.5657000000 0.5467000000
1.0030000000 1.4607000000 1.4693000000
1.0030000000 4.3040000000 2.0852000000
1.0027000000 3.6860000000 2.4005000000
1.0024000000 3.1880000000 2.4899000000
1.0022000000 0.7351000000 0.7290000000
1.0021000000 3.9050000000 2.2805000000
1.0015000000 5.4229000000 1.2717000000
1.0015000000 5.4398000000 1.2537000000
1.0012000000 0.0899000000 0.0691000000
1.0010000000 4.7953000000 1.8376000000
1.0005000000 4.6317000000 1.9156000000
1.0002000000 0.8211000000 0.8092000000
0.9999000000 4.5392000000 1.9668000000
0.9995000000 1.3313000000 1.3318000000
0.9991000000 2.2091000000 1.9855000000
0.9980000000 0.1850000000 0.1629000000
0.9953000000 1.1975000000 1.1998000000
0.7599000000 3.9662000000 2.0405000000
0.7589000000 1.7594000000 1.5411000000
0.7584000000 3.3699000000 2.3300000000
0.7580000000 5.4607000000 1.2170000000
0.7576000000 6.6299000000 0.0434000000
0.7575000000 0.4968000000 0.4839000000
0.7573000000 0.3123000000 0.2911000000
0.7570000000 2.9061000000 2.1295000000
0.7568000000 3.2156000000 2.2854000000
0.7565000000 2.2446000000 1.7884000000
0.7560000000 5.8674000000 0.8183000000
0.7559000000 3.7322000000 2.1563000000
0.7556000000 6.4780000000 0.1942000000
0.7555000000 2.3726000000 1.8476000000
0.7554000000 4.7341000000 1.6464000000
0.7552000000 6.4775000000 0.1940000000
0.7550000000 3.1293000000 2.2411000000
0.7549000000 1.4869000000 1.4003000000
0.7548000000 3.6041000000 2.2193000000
0.7546000000 1.7369000000 1.5271000000
0.7545000000 1.5297000000 1.4173000000
0.7543000000 6.0094000000 0.6785000000
0.7542000000 0.0591000000 0.1127000000
0.7540000000 1.1753000000 1.1768000000
0.7538000000 2.8595000000 2.1022000000
0.7536000000 0.4280000000 0.4110000000
0.7534000000 1.0639000000 1.0533000000
0.7532000000 4.0507000000 1.9912000000
0.7531000000 5.1165000000 1.4487000000
0.7530000000 5.5069000000 1.1883000000
0.7527000000 3.4936000000 2.2768000000
0.7524000000 5.6792000000 1.0069000000
0.7520000000 1.5352000000 1.4295000000
0.7517000000 0.4972000000 0.4808000000
0.7515000000 2.0084000000 1.6660000000
0.7514000000 2.0144000000 1.6703000000
0.7513000000 6.0600000000 0.6232000000
0.7508000000 2.3508000000 1.8424000000
0.7506000000 3.5151000000 2.2641000000
0.7502000000 4.5680000000 1.7261000000
0.7496000000 2.3281000000 1.8315000000
0.7493000000 2.0517000000 1.6816000000
0.7488000000 1.4423000000 1.3760000000
0.7481000000 0.1636000000 0.1393000000
0.7472000000 2.5395000000 1.9332000000
0.7465000000 1.7200000000 1.5093000000
0.5150000000 4.3047000000 1.6499000000
0.5094000000 6.0893000000 0.5955000000
0.5091000000 5.7963000000 0.8642000000
0.5090000000 4.7071000000 1.4431000000
0.5081000000 3.7790000000 1.9128000000
0.5075000000 2.8625000000 1.8910000000
0.5074000000 6.6672000000 0.0728000000
0.5072000000 3.9087000000 1.8468000000
0.5068000000 5.5005000000 1.0362000000
0.5067000000 4.3721000000 1.6087000000
0.5065000000 6.1169000000 0.5604000000
0.5059000000 2.9730000000 1.9395000000
0.5057000000 4.0342000000 1.7756000000
0.5055000000 6.6594000000 0.0790000000
0.5054000000 6.0195000000 0.6653000000
0.5050000000 3.7263000000 1.9325000000
0.5048000000 3.6374000000 1.9805000000
0.5047000000 2.7795000000 1.8416000000
0.5045000000 1.6090000000 1.2420000000
0.5041000000 2.5981000000 1.7478000000
0.5040000000 3.9591000000 1.8226000000
0.5036000000 1.2321000000 1.0495000000
0.5035000000 4.0000000000 1.7979000000
0.5033000000 1.0406000000 0.9504000000
0.5031000000 1.7342000000 1.2996000000
0.5028000000 3.0435000000 1.9709000000
0.5021000000 3.7479000000 1.9201000000
0.5020000000 4.6632000000 1.4525000000
0.5017000000 3.0236000000 1.9607000000
0.5015000000 5.9588000000 0.7275000000
0.5014000000 4.4337000000 1.5692000000
0.5012000000 4.4445000000 1.5699000000
0.5010000000 5.8688000000 0.8058000000
0.5008000000 4.4965000000 1.5361000000
0.5007000000 1.2064000000 1.0372000000
0.5006000000 4.1569000000 1.7133000000
0.5005000000 5.4789000000 1.0365000000
0.5004000000 2.0428000000 1.4587000000
0.5000000000 5.0766000000 1.2422000000
0.4997000000 1.2051000000 1.0346000000
0.4990000000 6.3316000000 0.3451000000
0.4988000000 2.3288000000 1.6101000000
0.4980000000 0.0424000000 0.0887000000
0.4969000000 0.6660000000 0.6534000000
0.4964000000 4.7172000000 1.4202000000
0.4959000000 2.5303000000 1.7086000000
0.4945000000 1.1605000000 1.0039000000
0.2623000000 4.5825000000 1.2885000000
0.2603000000 1.5861000000 1.0121000000
0.2603000000 5.0698000000 1.0428000000
0.2596000000 4.5744000000 1.2890000000
0.2589000000 2.5957000000 1.5234000000
0.2583000000 3.6816000000 1.7398000000
0.2580000000 6.5967000000 0.0752000000
0.2578000000 3.1578000000 1.8144000000
0.2575000000 1.8097000000 1.1299000000
0.2574000000 3.4340000000 1.8685000000
0.2571000000 4.2871000000 1.4307000000
0.2568000000 6.2855000000 0.3714000000
0.2564000000 5.8393000000 0.6342000000
0.2563000000 2.6112000000 1.5346000000
0.2561000000 4.4143000000 1.3650000000
0.2560000000 6.4056000000 0.2624000000
0.2557000000 0.3474000000 0.3217000000
0.2556000000 3.2689000000 1.8667000000
0.2554000000 6.1121000000 0.4941000000
0.2552000000 4.9310000000 1.0998000000
0.2551000000 5.3200000000 0.8994000000
0.2549000000 4.6098000000 1.2665000000
0.2548000000 1.1834000000 0.8028000000
0.2546000000 4.0892000000 1.5269000000
0.2545000000 1.9424000000 1.1903000000
0.2543000000 2.0083000000 1.2287000000
0.2541000000 5.4377000000 0.8417000000
0.2540000000 1.5516000000 0.9925000000
0.2539000000 6.6210000000 0.0490000000
0.2538000000 2.8919000000 1.6802000000
0.2537000000 3.5672000000 1.7970000000
0.2534000000 0.2746000000 0.2535000000
0.2531000000 0.5305000000 0.4493000000
0.2528000000 2.6390000000 1.5469000000
0.2527000000 2.8832000000 1.6738000000
0.2525000000 2.0825000000 1.2653000000
0.2524000000 3.3309000000 1.8850000000
0.2523000000 6.0994000000 0.4997000000
0.2518000000 0.7641000000 0.5812000000
0.2515000000 3.8414000000 1.6517000000
0.2511000000 1.1495000000 0.7857000000
0.2510000000 5.9724000000 0.5668000000
0.2507000000 4.0968000000 1.5226000000
0.2505000000 4.8463000000 1.1398000000
0.2504000000 3.4557000000 1.8454000000
0.2502000000 2.0325000000 1.2334000000
0.2500000000 3.4613000000 1.8454000000
0.2496000000 2.3710000000 1.4060000000
0.2492000000 1.3346000000 0.8832000000
0.2487000000 0.4836000000 0.4277000000
0.2485000000 0.5219000000 0.4455000000
0.2480000000 0.1870000000 0.1595000000
0.2473000000 4.3596000000 1.3815000000
0.2469000000 0.3870000000 0.3499000000
0.2468000000 4.8832000000 1.1191000000
0.2465000000 1.8195000000 1.1253000000
0.0125000000 2.7942000000 1.4077000000
0.0105000000 6.2140000000 0.2285000000
0.0102000000 4.6994000000 1.0051000000
0.0100000000 6.5148000000 0.0777000000
0.0093000000 4.6997000000 1.0000000000
0.0090000000 5.1945000000 0.7432000000
0.0087000000 4.2153000000 1.2481000000
0.0081000000 4.5523000000 1.0745000000
0.0077000000 6.3974000000 0.1354000000
0.0074000000 4.9190000000 0.8888000000
0.0070000000 6.4380000000 0.1156000000
0.0067000000 6.0393000000 0.3130000000
0.0064000000 4.4935000000 1.1033000000
0.0061000000 6.6355000000 0.0674000000
0.0057000000 5.8965000000 0.3860000000
0.0053000000 0.4550000000 0.2138000000
0.0052000000 5.3163000000 0.6868000000
0.0051000000 1.7165000000 0.8582000000
0.0049000000 3.2815000000 1.6550000000
0.0045000000 2.1418000000 1.0765000000
0.0043000000 5.9172000000 0.3769000000
0.0041000000 1.3668000000 0.6726000000
0.0040000000 6.4501000000 0.0998000000
0.0038000000 3.3689000000 1.6603000000
0.0036000000 1.7563000000 0.8726000000
0.0035000000 0.5869000000 0.2800000000
0.0034000000 2.4499000000 1.2262000000
0.0032000000 1.1822000000 0.5812000000
0.0031000000 2.0194000000 1.0084000000
0.0027000000 0.5801000000 0.2688000000
0.0026000000 3.1756000000 1.6034000000
0.0023000000 4.1362000000 1.2790000000
0.0020000000 0.5739000000 0.2714000000
0.0018000000 5.5511000000 0.5580000000
0.0015000000 0.2496000000 0.1044000000
0.0012000000 3.2677000000 1.6418000000
0.0010000000 5.9815000000 0.3406000000
0.0005000000 0.2425000000 0.0981000000
-0.0002000000 1.3066000000 0.6438000000
-0.0005000000 4.3319000000 1.1773000000
-0.0012000000 2.6849000000 1.3422000000
-0.0030000000 3.4486000000 1.6255000000
-0.2382000000 5.0194000000 0.6210000000
-0.2399000000 2.9463000000 1.2686000000
-0.2402000000 3.3232000000 1.4401000000
-0.2407000000 4.0192000000 1.1269000000
-0.2411000000 5.6125000000 0.3130000000
-0.2416000000 0.2325000000 0.0294000000
-0.2419000000 2.1659000000 0.8657000000
-0.2422000000 2.2915000000 0.9332000000
-0.2427000000 6.0400000000 0.0904000000
-0.2430000000 1.2921000000 0.4236000000
-0.2431000000 5.2208000000 0.5112000000
-0.2438000000 5.1721000000 0.5323000000
-0.2439000000 1.1084000000 0.3214000000
-0.2446000000 3.4234000000 1.4281000000
-0.2448000000 3.7379000000 1.2663000000
-0.2452000000 3.4162000000 1.4303000000
-0.2455000000 3.7263000000 1.2729000000
-0.2458000000 0.8302000000 0.1797000000
-0.2459000000 0.8517000000 0.1889000000
-0.2466000000 4.7033000000 0.7791000000
-0.2467000000 1.3452000000 0.4388000000
-0.2468000000 4.2731000000 0.9874000000
-0.2470000000 3.2876000000 1.4378000000
-0.2474000000 2.9133000000 1.2393000000
-0.2476000000 1.9085000000 0.7322000000
-0.2477000000 4.0873000000 1.0836000000
-0.2479000000 6.2484000000 0.0553000000
-0.2480000000 1.9860000000 0.7662000000
-0.2483000000 2.7180000000 1.1455000000
-0.2489000000 4.6926000000 0.7738000000
-0.2492000000 3.0211000000 1.2975000000
-0.2493000000 3.9949000000 1.1289000000
-0.2495000000 1.3768000000 0.4523000000
-0.2500000000 5.5475000000 0.3389000000
-0.2505000000 0.2589000000 0.0282000000
-0.2512000000 1.4502000000 0.4970000000
-0.2515000000 0.2972000000 0.0572000000
-0.2516000000 1.2587000000 0.3943000000
-0.2530000000 0.1988000000 -0.0051000000
-0.2545000000 1.3683000000 0.4485000000
-0.4882000000 4.6371000000 0.5915000000
-0.4901000000 4.4842000000 0.6729000000
-0.4911000000 5.6175000000 0.0869000000
-0.4917000000 4.1872000000 0.8257000000
-0.4924000000 2.1446000000 0.6308000000
-0.4930000000 3.8736000000 0.9831000000
-0.4937000000 0.8625000000 0.0519000000
-0.4940000000 4.2796000000 0.7700000000
-0.4942000000 3.4248000000 1.2105000000
-0.4943000000 0.8097000000 0.0239000000
-0.4945000000 2.8168000000 0.9762000000
-0.4950000000 5.5732000000 0.1046000000
-0.4952000000 2.7304000000 0.9272000000
-0.4953000000 3.9786000000 0.9204000000
-0.4955000000 1.9527000000 0.5335000000
-0.4957000000 3.2868000000 1.2139000000
-0.4960000000 2.4089000000 0.7635000000
-0.4964000000 3.9700000000 0.9253000000
-0.4965000000 0.7851000000 0.0831000000
-0.4967000000 4.6085000000 0.5966000000
-0.4972000000 3.9089000000 0.9553000000
-0.4975000000 1.3810000000 0.2364000000
-0.4977000000 2.7867000000 0.9582000000
-0.4980000000 3.0242000000 1.0769000000
-0.4983000000 5.7490000000 0.0972000000
-0.4984000000 5.5128000000 0.1293000000
-0.4987000000 1.6126000000 0.3521000000
-0.4990000000 3.1434000000 1.1364000000
-0.4995000000 1.6950000000 0.3998000000
-0.4995000000 4.6858000000 0.5598000000
-0.4997000000 3.8611000000 0.9805000000
-0.4998000000 0.9654000000 0.1012000000
-0.5002000000 0.8590000000 0.0454000000
-0.5003000000 5.4225000000 0.1846000000
-0.5005000000 2.1229000000 0.6124000000
-0.5007000000 1.3362000000 0.2083000000
-0.5010000000 3.2769000000 1.2122000000
-0.5014000000 1.0903000000 0.0834000000
-0.5020000000 2.7247000000 0.9273000000
-0.5024000000 3.0534000000 1.0920000000
-0.5035000000 1.7917000000 0.4453000000
-0.7391000000 3.9764000000 0.7067000000
-0.7405000000 3.9679000000 0.7144000000
-0.7412000000 4.5896000000 0.3931000000
-0.7415000000 4.2408000000 0.5747000000
-0.7417000000 2.0087000000 0.3420000000
-0.7421000000 4.3216000000 0.5308000000
-0.7424000000 2.9691000000 0.8309000000
-0.7425000000 5.0484000000 0.1516000000
-0.7430000000 4.5297000000 0.4189000000
-0.7435000000 3.6035000000 0.9020000000
-0.7437000000 4.5462000000 0.4122000000
-0.7440000000 3.9801000000 0.7025000000
-0.7445000000 4.7135000000 0.3252000000
-0.7450000000 2.1389000000 0.4057000000
-0.7453000000 4.6209000000 0.3693000000
-0.7455000000 4.4965000000 0.4352000000
-0.7457000000 3.0833000000 0.8900000000
-0.7459000000 2.8899000000 0.7978000000
-0.7461000000 4.1589000000 0.6141000000
-0.7462000000 5.0459000000 0.1558000000
-0.7465000000 2.7007000000 0.6946000000
-0.7466000000 2.4101000000 0.5418000000
-0.7468000000 5.0774000000 0.1426000000
-0.7474000000 1.2162000000 0.0807000000
-0.7477000000 4.1111000000 0.6298000000
-0.7480000000 3.1063000000 0.8999000000
-0.7482000000 1.8317000000 0.2464000000
-0.7485000000 5.3963000000 0.0511000000
-0.7490000000 1.7616000000 0.2117000000
-0.7494000000 1.8465000000 0.2486000000
-0.7501000000 3.9864000000 0.6923000000
-0.7504000000 2.1310000000 0.3983000000
-0.7505000000 4.8879000000 0.2317000000
-0.7508000000 3.4331000000 0.9769000000
-0.7512000000 3.9389000000 0.7165000000
-0.7519000000 1.8904000000 0.2727000000
-0.7542000000 2.6756000000 0.6702000000
-0.9906000000 4.1330000000 0.4043000000
-0.9919000000 3.2596000000 0.7612000000
-0.9924000000 5.1418000000 0.0363000000
-0.9931000000 3.6450000000 0.6501000000
-0.9935000000 2.2170000000 0.2315000000
-0.9938000000 3.0117000000 0.6343000000
-0.9943000000 2.3875000000 0.3157000000
-0.9945000000 4.8513000000 0.1043000000
-0.9949000000 2.2410000000 0.2338000000
-0.9954000000 3.3887000000 0.7631000000
-0.9957000000 2.8994000000 0.5748000000
-0.9960000000 4.3167000000 0.3043000000
-0.9962000000 4.0420000000 0.4399000000
-0.9965000000 3.2938000000 0.7687000000
-0.9966000000 2.0622000000 0.1457000000
-0.9968000000 3.1588000000 0.7035000000
-0.9971000000 3.9727000000 0.4808000000
-0.9977000000 2.3414000000 0.2893000000
-0.9979000000 1.7328000000 0.0506000000
-0.9984000000 3.8231000000 0.5586000000
-0.9985000000 2.4688000000 0.3532000000
-0.9989000000 3.7253000000 0.6014000000
-0.9990000000 3.3242000000 0.7724000000
-0.9993000000 4.3070000000 0.3096000000
-0.9997000000 3.9927000000 0.4678000000
-1.0005000000 4.8263000000 0.0393000000
-1.0008000000 4.8122000000 0.0484000000
-1.0015000000 2.3577000000 0.2945000000
-1.0025000000 4.3317000000 0.2940000000
-1.0041000000 3.7260000000 0.5988000000
-1.2424000000 2.3506000000 0.0727000000
-1.2443000000 3.6867000000 0.4093000000
-1.2456000000 3.4384000000 0.5331000000
-1.2460000000 4.1997000000 0.1526000000
-1.2465000000 4.3696000000 0.0559000000
-1.2469000000 4.0198000000 0.2366000000
-1.2472000000 3.2979000000 0.5390000000
-1.2473000000 2.3634000000 0.0754000000
-1.2477000000 2.6617000000 0.2315000000
-1.2480000000 3.4998000000 0.4975000000
-1.2483000000 4.3792000000 0.0450000000
-1.2487000000 2.2074000000 0.0654000000
-1.2493000000 4.0141000000 0.2382000000
-1.2497000000 3.9682000000 0.2575000000
-1.2498000000 4.3446000000 0.0651000000
-1.2504000000 2.4193000000 0.1000000000
-1.2515000000 3.6705000000 0.4128000000
-1.4893000000 3.9072000000 0.0863000000
-1.4914000000 3.7136000000 0.1747000000
-1.4929000000 2.4688000000 0.0655000000
-1.4933000000 3.7569000000 0.1518000000
-1.4936000000 3.8163000000 0.1220000000
-1.4941000000 4.0600000000 0.0657000000
-1.4949000000 3.8243000000 0.1144000000
-1.4952000000 2.8565000000 0.1102000000
-1.4954000000 3.4952000000 0.2827000000
-1.4964000000 3.6299000000 0.2149000000
-1.4968000000 2.6105000000 0.0598000000
-1.4970000000 2.8692000000 0.1102000000
-1.4978000000 2.7843000000 0.0744000000
-1.4981000000 3.4227000000 0.3182000000
-1.4987000000 2.9896000000 0.1709000000
-1.4997000000 4.2311000000 0.0579000000
-1.5011000000 3.3150000000 0.3223000000
-1.5029000000 3.9160000000 0.0648000000
-1.5055000000 2.7307000000 0.0388000000
-1.7415000000 3.9052000000 0.0064000000
-1.7421000000 3.2726000000 0.0970000000
-1.7425000000 3.6724000000 0.0434000000
-1.7436000000 2.7921000000 0.0003000000
-1.7457000000 2.8241000000 0.0257000000
-1.7462000000 3.1182000000 0.0962000000
-1.7468000000 2.9990000000 0.0367000000
-1.7473000000 3.6794000000 0.0407000000
-1.7482000000 3.0836000000 0.0760000000
-1.7495000000 3.0873000000 0.0763000000
-1.7500000000 3.0623000000 0.0591000000
-1.7511000000 2.9682000000 0.0909000000
-1.7531000000 3.8315000000 0.0374000000
