3.2451000000 0.3457000000 0.2540000000
3.2448000000 0.2682000000 0.2062000000
3.2440000000 0.2621000000 0.2023000000
3.0120000000 0.6682000000 0.7042000000
3.0118000000 5.2956000000 0.4623000000
3.0108000000 5.1667000000 0.5962000000
3.0107000000 3.2525000000 1.8129000000
3.0103000000 0.5574000000 0.6197000000
3.0088000000 2.3811000000 1.7766000000
3.0088000000 1.4152000000 1.1757000000
3.0085000000 1.8348000000 1.4351000000
3.0085000000 4.2918000000 1.1624000000
3.0084000000 4.4637000000 1.0570000000
3.0082000000 2.5657000000 1.8989000000
3.0073000000 2.6695000000 1.9552000000
3.0072000000 4.5562000000 0.9914000000
3.0071000000 5.0538000000 0.6914000000
3.0070000000 2.9002000000 2.0268000000
3.0068000000 3.5863000000 1.6025000000
3.0068000000 3.0386000000 1.9394000000
3.0064000000 4.0838000000 1.2981000000
3.0062000000 1.9594000000 1.5180000000
3.0059000000 4.3897000000 1.1017000000
3.0056000000 1.2134000000 1.0570000000
3.0055000000 3.9113000000 1.4054000000
3.0055000000 5.3848000000 0.3758000000
3.0054000000 4.3324000000 1.1383000000
3.0053000000 2.7464000000 2.0108000000
3.0053000000 3.3905000000 1.7291000000
3.0051000000 2.5946000000 1.9128000000
3.0049000000 4.9254000000 0.7725000000
3.0048000000 3.9944000000 1.3517000000
3.0046000000 1.8163000000 1.4307000000
3.0045000000 1.5089000000 1.2366000000
3.0045000000 2.4706000000 1.8339000000
3.0044000000 3.6657000000 1.5606000000
3.0043000000 5.1734000000 0.5956000000
3.0042000000 2.8520000000 2.0395000000
3.0042000000 0.4678000000 0.5639000000
3.0041000000 3.5260000000 1.6479000000
3.0040000000 1.4461000000 1.2003000000
3.0037000000 0.2789000000 0.3512000000
3.0035000000 3.9183000000 1.3993000000
3.0035000000 2.7042000000 1.9841000000
3.0033000000 4.4499000000 1.0743000000
3.0034000000 2.0514000000 1.5770000000
3.0033000000 4.1409000000 1.2608000000
3.0033000000 0.2471000000 0.3027000000
3.0032000000 2.0913000000 1.6037000000
3.0031000000 1.1956000000 1.0451000000
3.0030000000 5.1089000000 0.6389000000
3.0030000000 4.7296000000 0.8976000000
3.0030000000 4.1369000000 1.2641000000
3.0029000000 2.6086000000 1.9265000000
3.0028000000 4.6843000000 0.9219000000
3.0027000000 4.3531000000 1.1296000000
3.0026000000 5.4823000000 0.2533000000
3.0025000000 4.3984000000 1.0924000000
3.0025000000 1.7209000000 1.3706000000
3.0023000000 0.8738000000 0.8389000000
3.0022000000 2.6709000000 1.9685000000
3.0021000000 0.0492000000 0.1371000000
3.0021000000 4.0556000000 1.3164000000
3.0019000000 1.2948000000 1.1095000000
3.0018000000 3.6655000000 1.5654000000
3.0018000000 5.3680000000 0.3930000000
3.0018000000 4.5183000000 1.0264000000
3.0011000000 5.1539000000 0.6140000000
3.0010000000 2.7672000000 2.0262000000
3.0010000000 2.7636000000 2.0245000000
3.0010000000 2.3137000000 1.7441000000
3.0009000000 2.2477000000 1.6981000000
3.0008000000 5.4519000000 0.2869000000
3.0008000000 1.6561000000 1.3369000000
3.0005000000 1.2304000000 1.0716000000
3.0002000000 1.1754000000 1.0342000000
3.0000000000 0.9670000000 0.9053000000
3.0000000000 0.4608000000 0.5538000000
2.9998000000 4.1232000000 1.2786000000
2.9998000000 1.9580000000 1.5236000000
2.9993000000 1.5097000000 1.2403000000
2.9990000000 0.7831000000 0.7979000000
2.9988000000 3.5796000000 1.6153000000
2.9985000000 0.7135000000 0.7489000000
2.9985000000 3.6144000000 1.5960000000
2.9980000000 4.7839000000 0.8634000000
2.9971000000 2.0053000000 1.5607000000
2.9966000000 3.6168000000 1.5971000000
2.9939000000 1.5065000000 1.2496000000
2.9938000000 1.8633000000 1.4713000000
2.9930000000 1.6090000000 1.3093000000
2.7615000000 3.7821000000 1.7415000000
2.7611000000 4.7515000000 1.1273000000
2.7599000000 4.0975000000 1.5500000000
2.7592000000 1.8478000000 1.7196000000
2.7590000000 4.1201000000 1.5423000000
2.7588000000 4.1749000000 1.5048000000
2.7587000000 1.6293000000 1.5817000000
2.7583000000 4.0063000000 1.6144000000
2.7577000000 5.2535000000 0.5372000000
2.7574000000 0.6920000000 0.8591000000
2.7572000000 0.2484000000 0.3142000000
2.7571000000 2.4303000000 2.0833000000
2.7570000000 4.5097000000 1.3008000000
2.7570000000 3.5645000000 1.8829000000
2.7569000000 0.9396000000 1.1284000000
2.7568000000 4.9745000000 0.8855000000
2.7567000000 5.0640000000 0.7630000000
2.7566000000 4.6965000000 1.1650000000
2.7565000000 0.3004000000 0.3745000000
2.7565000000 2.4615000000 2.1038000000
2.7565000000 4.0774000000 1.5676000000
2.7564000000 1.5675000000 1.5459000000
2.7563000000 2.9531000000 2.2672000000
2.7560000000 1.7184000000 1.6388000000
2.7557000000 3.5807000000 1.8758000000
2.7557000000 4.2089000000 1.4835000000
2.7556000000 0.2564000000 0.3191000000
2.7555000000 5.1425000000 0.6675000000
2.7553000000 2.6853000000 2.2383000000
2.7552000000 2.7769000000 2.2988000000
2.7551000000 0.7912000000 0.9868000000
2.7551000000 0.7833000000 0.9809000000
2.7550000000 2.6906000000 2.2397000000
2.7548000000 2.8002000000 2.2918000000
2.7546000000 3.7945000000 1.7440000000
2.7545000000 0.4402000000 0.5484000000
2.7543000000 1.3820000000 1.4271000000
2.7543000000 2.0615000000 1.8508000000
2.7543000000 3.2055000000 2.1070000000
2.7541000000 2.1659000000 1.9087000000
2.7540000000 1.9482000000 1.7799000000
2.7540000000 2.5298000000 2.1437000000
2.7539000000 4.9669000000 0.8923000000
2.7537000000 4.3885000000 1.3765000000
2.7536000000 2.7462000000 2.2801000000
2.7535000000 0.9706000000 1.1561000000
2.7534000000 1.1066000000 1.2564000000
2.7533000000 2.2238000000 1.9567000000
2.7534000000 0.6514000000 0.8120000000
2.7533000000 3.6125000000 1.8589000000
2.7531000000 4.8180000000 1.0568000000
2.7530000000 3.0174000000 2.2322000000
2.7530000000 2.5565000000 2.1624000000
2.7529000000 4.0583000000 1.5778000000
2.7522000000 4.7876000000 1.0965000000
2.7521000000 1.0964000000 1.2529000000
2.7520000000 1.9699000000 1.7968000000
2.7520000000 2.5815000000 2.1798000000
2.7519000000 5.1609000000 0.6573000000
2.7518000000 0.3594000000 0.4501000000
2.7518000000 2.5781000000 2.1774000000
2.7515000000 4.3706000000 1.3952000000
2.7515000000 5.5232000000 0.1966000000
2.7514000000 0.1769000000 0.2163000000
2.7510000000 0.5314000000 0.6588000000
2.7508000000 1.6700000000 1.6143000000
2.7507000000 5.5155000000 0.2094000000
2.7506000000 0.4615000000 0.5727000000
2.7505000000 0.9384000000 1.1388000000
2.7502000000 0.5949000000 0.7386000000
2.7500000000 4.7158000000 1.1556000000
2.7498000000 4.2707000000 1.4543000000
2.7495000000 0.2200000000 0.2670000000
2.7493000000 1.0434000000 1.2284000000
2.7493000000 2.1407000000 1.9089000000
2.7491000000 0.6701000000 0.8357000000
2.7490000000 0.0069000000 0.0815000000
2.7490000000 3.3361000000 2.0348000000
2.7483000000 0.5088000000 0.6337000000
2.7482000000 1.5699000000 1.5488000000
2.7473000000 4.3936000000 1.3768000000
2.7465000000 0.5414000000 0.6765000000
2.5122000000 3.7134000000 2.0582000000
2.5114000000 2.1816000000 2.1882000000
2.5108000000 0.9830000000 1.2251000000
2.5108000000 4.9674000000 0.8920000000
2.5103000000 4.9201000000 0.9506000000
2.5098000000 5.2364000000 0.5580000000
2.5097000000 3.7990000000 2.0110000000
2.5096000000 1.1449000000 1.4252000000
2.5095000000 1.7985000000 1.9549000000
2.5092000000 2.0496000000 2.1090000000
2.5086000000 3.8912000000 1.9522000000
2.5083000000 4.5351000000 1.4317000000
2.5082000000 5.3009000000 0.4807000000
2.5082000000 5.1893000000 0.6154000000
2.5081000000 3.0408000000 2.4835000000
2.5080000000 5.4115000000 0.3390000000
2.5078000000 5.5231000000 0.1961000000
2.5074000000 2.6198000000 2.4745000000
2.5073000000 3.7187000000 2.0673000000
2.5073000000 2.1176000000 2.1510000000
2.5072000000 2.4906000000 2.3882000000
2.5068000000 2.4557000000 2.3666000000
2.5067000000 5.2584000000 0.5315000000
2.5066000000 4.8141000000 1.0876000000
2.5065000000 4.8193000000 1.0802000000
2.5063000000 3.2737000000 2.3394000000
2.5058000000 4.8028000000 1.0976000000
2.5057000000 0.2888000000 0.3591000000
2.5055000000 2.3172000000 2.2799000000
2.5055000000 2.5123000000 2.4032000000
2.5054000000 4.8358000000 1.0522000000
2.5053000000 3.1770000000 2.3933000000
2.5052000000 2.8952000000 2.5675000000
2.5050000000 2.8658000000 2.5711000000
2.5049000000 1.1207000000 1.3975000000
2.5049000000 3.6781000000 2.0889000000
2.5048000000 5.0444000000 0.7958000000
2.5048000000 4.7307000000 1.1901000000
2.5046000000 0.3169000000 0.3954000000
2.5046000000 3.4879000000 2.2117000000
2.5045000000 0.9143000000 1.1415000000
2.5044000000 3.0492000000 2.4769000000
2.5040000000 0.4892000000 0.6118000000
2.5039000000 3.0685000000 2.4756000000
2.5038000000 2.3042000000 2.2730000000
2.5037000000 5.2132000000 0.5865000000
2.5037000000 0.4539000000 0.5678000000
2.5036000000 0.9145000000 1.1365000000
2.5035000000 3.7452000000 2.0434000000
2.5035000000 4.3302000000 1.6691000000
2.5034000000 0.8895000000 1.1051000000
2.5033000000 4.2835000000 1.6949000000
2.5031000000 5.2374000000 0.5615000000
2.5030000000 0.7016000000 0.8730000000
2.5029000000 4.3450000000 1.6557000000
2.5028000000 0.6340000000 0.7928000000
2.5027000000 2.0246000000 2.1001000000
2.5026000000 3.0053000000 2.5097000000
2.5025000000 1.7986000000 1.9595000000
2.5023000000 3.6356000000 2.1143000000
2.5023000000 4.4654000000 1.5165000000
2.5022000000 4.3476000000 1.6438000000
2.5022000000 0.3106000000 0.3834000000
2.5021000000 3.9049000000 1.9488000000
2.5018000000 4.0266000000 1.8764000000
2.5018000000 3.1108000000 2.4424000000
2.5016000000 2.1853000000 2.1994000000
2.5016000000 3.4631000000 2.2257000000
2.5015000000 1.3840000000 1.6787000000
2.5015000000 2.8814000000 2.5678000000
2.5013000000 2.1125000000 2.1616000000
2.5013000000 0.5087000000 0.6321000000
2.5012000000 0.7138000000 0.8898000000
2.5008000000 2.5423000000 2.4308000000
2.5004000000 3.9913000000 1.8952000000
2.5003000000 1.5828000000 1.8279000000
2.5001000000 2.5943000000 2.4613000000
2.4999000000 3.8976000000 1.9568000000
2.4997000000 0.0830000000 0.1007000000
2.4995000000 0.2087000000 0.2571000000
2.4989000000 3.2019000000 2.3900000000
2.4987000000 0.2772000000 0.3444000000
2.4983000000 3.0635000000 2.4790000000
2.4978000000 0.5137000000 0.6456000000
2.4975000000 0.4174000000 0.5237000000
2.4958000000 1.1961000000 1.4896000000
2.2619000000 4.3546000000 1.6538000000
2.2595000000 5.1736000000 0.6325000000
2.2595000000 3.5818000000 2.4104000000
2.2593000000 4.6430000000 1.2925000000
2.2592000000 5.1278000000 0.6915000000
2.2589000000 0.7886000000 0.9798000000
2.2583000000 3.8370000000 2.2424000000
2.2579000000 4.9692000000 0.8903000000
2.2578000000 3.5482000000 2.4364000000
2.2576000000 4.1896000000 1.8603000000
2.2573000000 3.4522000000 2.4902000000
2.2573000000 2.9767000000 2.7938000000
2.2572000000 2.5109000000 2.6695000000
2.2572000000 4.3535000000 1.6579000000
2.2569000000 1.3530000000 1.6814000000
2.2568000000 1.8623000000 2.2493000000
2.2567000000 2.5346000000 2.6835000000
2.2565000000 5.3643000000 0.3978000000
2.2564000000 1.7944000000 2.2030000000
2.2563000000 1.2606000000 1.5713000000
2.2563000000 2.1549000000 2.4508000000
2.2562000000 3.8724000000 2.2169000000
2.2560000000 4.7193000000 1.2002000000
2.2560000000 2.9316000000 2.8213000000
2.2556000000 3.6456000000 2.3732000000
2.2555000000 5.6562000000 0.0331000000
2.2552000000 3.3400000000 2.5657000000
2.2551000000 3.4834000000 2.4763000000
2.2549000000 3.0117000000 2.7710000000
2.2548000000 0.8926000000 1.1171000000
2.2548000000 3.9250000000 2.1723000000
2.2548000000 2.0067000000 2.3576000000
2.2546000000 0.8391000000 1.0502000000
2.2545000000 5.2143000000 0.5891000000
2.2545000000 5.5967000000 0.1052000000
2.2544000000 0.9236000000 1.1499000000
2.2543000000 1.9312000000 2.3086000000
2.2542000000 0.1270000000 0.1629000000
2.2540000000 5.5566000000 0.1570000000
2.2540000000 3.5809000000 2.4147000000
2.2537000000 1.5516000000 1.9409000000
2.2536000000 0.4363000000 0.5453000000
2.2535000000 4.8210000000 1.0777000000
2.2535000000 5.4307000000 0.3165000000
2.2533000000 0.4699000000 0.5853000000
2.2532000000 1.3373000000 1.6646000000
2.2532000000 4.8565000000 1.0332000000
2.2531000000 4.3575000000 1.6560000000
2.2531000000 2.2465000000 2.5089000000
2.2530000000 1.9724000000 2.3405000000
2.2530000000 5.5754000000 0.1392000000
2.2529000000 5.5121000000 0.2115000000
2.2529000000 0.6775000000 0.8457000000
2.2528000000 3.0428000000 2.7552000000
2.2527000000 0.4528000000 0.5644000000
2.2526000000 4.1264000000 1.9411000000
2.2523000000 1.6529000000 2.0643000000
2.2522000000 1.5027000000 1.8716000000
2.2521000000 5.4000000000 0.3503000000
2.2520000000 4.1050000000 1.9602000000
2.2517000000 1.0746000000 1.3327000000
2.2516000000 1.0480000000 1.3040000000
2.2513000000 4.4599000000 1.5231000000
2.2509000000 0.4067000000 0.5128000000
2.2505000000 1.6758000000 2.0791000000
2.2499000000 0.2280000000 0.2815000000
2.2498000000 1.5577000000 1.9375000000
2.2497000000 2.2662000000 2.5234000000
2.2496000000 3.8076000000 2.2690000000
2.2496000000 2.3150000000 2.5510000000
2.2493000000 0.2139000000 0.2671000000
2.2493000000 2.7571000000 2.8335000000
2.2493000000 1.7838000000 2.2078000000
2.2492000000 2.2985000000 2.5486000000
2.2485000000 2.7658000000 2.8385000000
2.2483000000 2.2198000000 2.4964000000
2.2477000000 1.2947000000 1.6120000000
2.2468000000 0.1014000000 0.1272000000
2.2460000000 2.0255000000 2.3843000000
2.2436000000 0.3101000000 0.3852000000
2.0119000000 3.5515000000 2.6439000000
2.0116000000 4.1093000000 1.9638000000
2.0115000000 3.2184000000 2.9046000000
2.0102000000 4.7173000000 1.2039000000
2.0097000000 3.4635000000 2.7365000000
2.0090000000 3.8563000000 2.2801000000
2.0081000000 4.3268000000 1.6897000000
2.0080000000 0.4197000000 0.5252000000
2.0077000000 5.1206000000 0.6941000000
2.0073000000 3.8256000000 2.3124000000
2.0071000000 1.7654000000 2.2014000000
2.0070000000 3.2549000000 2.8893000000
2.0070000000 2.9893000000 3.0545000000
2.0068000000 5.4044000000 0.3471000000
2.0070000000 4.1526000000 1.9064000000
2.0069000000 5.0731000000 0.7623000000
2.0063000000 4.1641000000 1.8954000000
2.0060000000 1.9365000000 2.4115000000
2.0060000000 3.7565000000 2.4011000000
2.0059000000 3.7655000000 2.3895000000
2.0055000000 3.6878000000 2.4874000000
2.0053000000 2.8002000000 3.1026000000
2.0050000000 2.7182000000 3.0778000000
2.0048000000 1.8501000000 2.3039000000
2.0047000000 5.1141000000 0.7124000000
2.0046000000 1.5203000000 1.8975000000
2.0041000000 1.2500000000 1.5593000000
2.0041000000 1.5491000000 1.9305000000
2.0040000000 5.1332000000 0.6876000000
2.0039000000 4.3927000000 1.6087000000
2.0038000000 4.2085000000 1.8363000000
2.0037000000 1.9394000000 2.4161000000
2.0036000000 0.6748000000 0.8418000000
2.0033000000 2.5707000000 2.9795000000
2.0031000000 4.5281000000 1.4466000000
2.0030000000 3.3235000000 2.8514000000
2.0030000000 0.4595000000 0.5736000000
2.0027000000 2.2225000000 2.7470000000
2.0026000000 4.7367000000 1.1830000000
2.0024000000 3.2713000000 2.8865000000
2.0023000000 0.4770000000 0.5938000000
2.0020000000 1.0520000000 1.3119000000
2.0019000000 1.4998000000 1.8691000000
2.0018000000 0.6069000000 0.7564000000
2.0016000000 0.4259000000 0.5317000000
2.0014000000 0.5420000000 0.6767000000
2.0013000000 1.5043000000 1.8752000000
2.0013000000 0.8171000000 1.0134000000
2.0012000000 2.1435000000 2.6522000000
2.0011000000 5.7059000000 0.0464000000
2.0007000000 3.5383000000 2.6507000000
2.0007000000 1.2953000000 1.6199000000
2.0006000000 3.0274000000 3.0430000000
2.0005000000 4.9976000000 0.8566000000
2.0004000000 4.5390000000 1.4243000000
2.0003000000 1.2891000000 1.6096000000
1.9997000000 3.9362000000 2.1813000000
1.9996000000 3.0992000000 2.9908000000
1.9995000000 2.5904000000 2.9974000000
1.9993000000 4.1383000000 1.9270000000
1.9989000000 1.9263000000 2.4074000000
1.9975000000 3.8382000000 2.3032000000
1.9973000000 0.1947000000 0.2438000000
1.9973000000 3.7689000000 2.3896000000
1.9973000000 1.7187000000 2.1493000000
1.9972000000 0.8326000000 1.0360000000
1.9970000000 2.7350000000 3.0934000000
1.9968000000 0.7641000000 0.9507000000
1.9962000000 1.8649000000 2.3233000000
1.9953000000 3.2111000000 2.9230000000
1.7615000000 4.8262000000 1.0643000000
1.7607000000 5.6814000000 0.0751000000
1.7600000000 4.7025000000 1.2272000000
1.7593000000 3.7721000000 2.3853000000
1.7591000000 0.8258000000 1.0298000000
1.7587000000 4.3553000000 1.6520000000
1.7586000000 1.9117000000 2.3812000000
1.7585000000 4.1367000000 1.9230000000
1.7584000000 1.9983000000 2.4907000000
1.7578000000 3.9471000000 2.1635000000
1.7577000000 4.8019000000 1.1019000000
1.7576000000 2.9589000000 3.3231000000
1.7575000000 3.9929000000 2.1065000000
1.7571000000 0.8200000000 1.0226000000
1.7569000000 3.2032000000 3.0981000000
1.7566000000 1.4441000000 1.8035000000
1.7565000000 5.3782000000 0.3817000000
1.7565000000 1.8996000000 2.3603000000
1.7564000000 2.9008000000 3.3723000000
1.7562000000 5.3236000000 0.4474000000
1.7562000000 5.5734000000 0.1386000000
1.7561000000 4.6727000000 1.2582000000
1.7559000000 5.3167000000 0.4529000000
1.7555000000 5.6180000000 0.0842000000
1.7554000000 1.8417000000 2.2965000000
1.7553000000 4.0956000000 1.9753000000
1.7553000000 2.5175000000 3.1355000000
1.7551000000 0.0211000000 0.0974000000
1.7552000000 3.2546000000 3.0278000000
1.7551000000 2.5329000000 3.1478000000
1.7550000000 4.9182000000 0.9557000000
1.7550000000 0.5904000000 0.7357000000
1.7549000000 2.4104000000 3.0041000000
1.7548000000 1.7540000000 2.1875000000
1.7548000000 2.6661000000 3.2925000000
1.7547000000 1.2516000000 1.5635000000
1.7546000000 5.4955000000 0.2334000000
1.7546000000 1.0507000000 1.3079000000
1.7545000000 5.1415000000 0.6778000000
1.7544000000 1.5007000000 1.8729000000
1.7541000000 4.7504000000 1.1699000000
1.7540000000 0.0451000000 0.1291000000
1.7538000000 3.2068000000 3.0895000000
1.7538000000 2.0503000000 2.5550000000
1.7536000000 4.4484000000 1.5388000000
1.7533000000 2.6781000000 3.3006000000
1.7532000000 1.7006000000 2.1217000000
1.7532000000 2.2626000000 2.8246000000
1.7533000000 1.2192000000 1.5157000000
1.7530000000 2.8619000000 3.3617000000
1.7529000000 4.6245000000 1.3229000000
1.7528000000 1.9614000000 2.4492000000
1.7528000000 1.6493000000 2.0581000000
1.7526000000 2.3113000000 2.8815000000
1.7526000000 3.3593000000 2.9005000000
1.7524000000 0.3617000000 0.4514000000
1.7522000000 1.7378000000 2.1699000000
1.7522000000 0.4909000000 0.6138000000
1.7521000000 0.5730000000 0.7132000000
1.7520000000 4.5033000000 1.4729000000
1.7520000000 3.6091000000 2.5856000000
1.7520000000 3.6069000000 2.5887000000
1.7519000000 0.3226000000 0.3981000000
1.7518000000 2.2799000000 2.8403000000
1.7515000000 0.8465000000 1.0583000000
1.7515000000 3.5909000000 2.6071000000
1.7515000000 4.3264000000 1.6924000000
1.7512000000 0.9121000000 1.1382000000
1.7511000000 4.9540000000 0.9087000000
1.7511000000 2.7670000000 3.3754000000
1.7510000000 1.3451000000 1.6768000000
1.7507000000 3.9753000000 2.1283000000
1.7506000000 0.3796000000 0.4680000000
1.7504000000 0.0885000000 0.1089000000
1.7500000000 4.1621000000 1.8926000000
1.7496000000 2.3492000000 2.9288000000
1.7491000000 0.0737000000 0.0914000000
1.7486000000 0.7275000000 0.9055000000
1.7483000000 0.6725000000 0.8376000000
1.7479000000 4.6151000000 1.3331000000
1.7473000000 4.8371000000 1.0564000000
1.7467000000 1.0977000000 1.3660000000
1.7466000000 0.6320000000 0.7860000000
1.7422000000 1.0784000000 1.3430000000
1.5123000000 4.0557000000 2.0317000000
1.5110000000 5.3741000000 0.3917000000
1.5110000000 4.6343000000 1.3105000000
1.5105000000 5.2641000000 0.5211000000
1.5104000000 3.4957000000 2.7306000000
1.5100000000 5.2775000000 0.5042000000
1.5100000000 3.3316000000 2.9294000000
1.5099000000 3.8367000000 2.3002000000
1.5098000000 1.7343000000 2.1573000000
1.5093000000 4.3738000000 1.6311000000
1.5089000000 5.6890000000 0.0673000000
1.5085000000 4.9248000000 0.9449000000
1.5084000000 5.1395000000 0.6743000000
1.5081000000 4.5240000000 1.4468000000
1.5075000000 2.5538000000 3.1684000000
1.5069000000 3.1591000000 3.1256000000
1.5067000000 3.3038000000 2.9647000000
1.5066000000 2.7475000000 3.3384000000
1.5065000000 4.4687000000 1.5137000000
1.5064000000 5.6134000000 0.0955000000
1.5063000000 2.3777000000 2.9645000000
1.5061000000 2.7824000000 3.3600000000
1.5061000000 1.5450000000 1.9329000000
1.5060000000 3.0020000000 3.2815000000
1.5059000000 5.0425000000 0.7982000000
1.5058000000 5.1031000000 0.7224000000
1.5057000000 4.8962000000 0.9840000000
1.5057000000 3.0883000000 3.2189000000
1.5056000000 1.5332000000 1.9095000000
1.5055000000 1.4404000000 1.8020000000
1.5053000000 2.1597000000 2.6889000000
1.5051000000 2.0888000000 2.6005000000
1.5050000000 4.1329000000 1.9330000000
1.5050000000 0.5392000000 0.6726000000
1.5049000000 5.6255000000 0.0727000000
1.5048000000 3.5400000000 2.6734000000
1.5048000000 2.9142000000 3.3512000000
1.5048000000 1.8399000000 2.2919000000
1.5047000000 3.2234000000 3.0668000000
1.5046000000 1.7687000000 2.1999000000
1.5045000000 1.2473000000 1.5595000000
1.5045000000 1.8187000000 2.2696000000
1.5044000000 3.6107000000 2.5860000000
1.5044000000 5.4573000000 0.2814000000
1.5042000000 4.0196000000 2.0751000000
1.5041000000 0.3163000000 0.3941000000
1.5040000000 4.6806000000 1.2533000000
1.5040000000 1.7067000000 2.1309000000
1.5038000000 0.4062000000 0.5082000000
1.5037000000 0.4879000000 0.6075000000
1.5036000000 2.4072000000 3.0013000000
1.5035000000 3.8917000000 2.2370000000
1.5035000000 5.0067000000 0.8475000000
1.5033000000 4.4058000000 1.5881000000
1.5032000000 0.4792000000 0.6007000000
1.5031000000 1.4560000000 1.8127000000
1.5030000000 4.0812000000 1.9992000000
1.5028000000 4.7643000000 1.1537000000
1.5027000000 3.7263000000 2.4359000000
1.5025000000 1.7109000000 2.1313000000
1.5023000000 3.9827000000 2.1220000000
1.5020000000 3.6047000000 2.5956000000
1.5018000000 1.2805000000 1.6016000000
1.5018000000 1.2955000000 1.6172000000
1.5014000000 5.5566000000 0.1588000000
1.5013000000 1.5184000000 1.8884000000
1.5013000000 1.7378000000 2.1634000000
1.5012000000 0.7253000000 0.9035000000
1.5012000000 4.5131000000 1.4613000000
1.5011000000 1.8455000000 2.3037000000
1.5010000000 2.9822000000 3.2927000000
1.5008000000 2.5932000000 3.2111000000
1.5009000000 0.2574000000 0.3210000000
1.5008000000 3.1892000000 3.0965000000
1.5007000000 3.6858000000 2.4878000000
1.5003000000 0.2777000000 0.3441000000
1.5002000000 2.1948000000 2.7313000000
1.5000000000 2.0978000000 2.6187000000
1.4999000000 3.1729000000 3.1100000000
1.4995000000 2.4099000000 3.0058000000
1.4993000000 1.0780000000 1.3427000000
1.4993000000 1.3100000000 1.6337000000
1.4992000000 1.0798000000 1.3485000000
1.4991000000 0.6726000000 0.8414000000
1.4990000000 0.0516000000 0.1413000000
1.4975000000 3.3997000000 2.8409000000
1.4974000000 2.3888000000 2.9813000000
1.4973000000 0.1496000000 0.1881000000
1.4974000000 2.7633000000 3.3362000000
1.4973000000 0.2171000000 0.2782000000
1.4967000000 2.0199000000 2.5181000000
1.4955000000 1.5685000000 1.9596000000
1.2626000000 4.8730000000 1.0105000000
1.2608000000 4.1383000000 1.9240000000
1.2603000000 1.7382000000 2.1682000000
1.2602000000 4.4386000000 1.5463000000
1.2598000000 4.8697000000 1.0146000000
1.2594000000 2.1693000000 2.6844000000
1.2589000000 1.6096000000 2.0042000000
1.2586000000 3.7854000000 2.3666000000
1.2581000000 3.8231000000 2.3140000000
1.2575000000 5.6843000000 0.0762000000
1.2572000000 1.9004000000 2.3725000000
1.2570000000 4.0683000000 2.0158000000
1.2570000000 4.9047000000 0.9731000000
1.2569000000 4.2420000000 1.7924000000
1.2567000000 0.9710000000 1.2090000000
1.2566000000 3.3212000000 2.8356000000
1.2565000000 5.4515000000 0.2875000000
1.2564000000 3.0523000000 2.9992000000
1.2563000000 5.4164000000 0.3372000000
1.2562000000 2.5792000000 2.9640000000
1.2561000000 1.8378000000 2.2944000000
1.2560000000 0.0066000000 0.0820000000
1.2558000000 3.0468000000 3.0006000000
1.2558000000 2.9089000000 3.0891000000
1.2557000000 3.7814000000 2.3752000000
1.2557000000 2.4125000000 2.8581000000
1.2555000000 1.1413000000 1.4228000000
1.2555000000 1.5846000000 1.9782000000
1.2551000000 3.7686000000 2.3879000000
1.2550000000 3.5566000000 2.6303000000
1.2549000000 3.5257000000 2.6693000000
1.2546000000 4.4596000000 1.5221000000
1.2545000000 5.4003000000 0.3564000000
1.2544000000 2.2217000000 2.7195000000
1.2544000000 3.1945000000 2.9058000000
1.2543000000 2.3891000000 2.8465000000
1.2542000000 2.3369000000 2.8116000000
1.2541000000 1.5228000000 1.8949000000
1.2539000000 2.3727000000 2.8315000000
1.2538000000 1.9409000000 2.4212000000
1.2536000000 2.3286000000 2.8096000000
1.2535000000 2.1968000000 2.7059000000
1.2535000000 0.3226000000 0.4017000000
1.2534000000 1.5343000000 1.9099000000
1.2534000000 5.0686000000 0.7660000000
1.2532000000 3.4290000000 2.7401000000
1.2530000000 2.6856000000 3.0267000000
1.2529000000 1.1243000000 1.4068000000
1.2529000000 0.2127000000 0.2649000000
1.2527000000 0.8131000000 1.0124000000
1.2525000000 4.3472000000 1.6672000000
1.2525000000 5.0116000000 0.8367000000
1.2524000000 2.4007000000 2.8461000000
1.2523000000 0.9165000000 1.1371000000
1.2521000000 0.7909000000 0.9886000000
1.2521000000 3.7839000000 2.3735000000
1.2520000000 4.8398000000 1.0538000000
1.2518000000 3.3706000000 2.7904000000
1.2517000000 3.8561000000 2.2781000000
1.2517000000 4.1326000000 1.9338000000
1.2516000000 2.1314000000 2.6322000000
1.2515000000 0.2386000000 0.2934000000
1.2514000000 0.8079000000 1.0075000000
1.2513000000 0.9146000000 1.1337000000
1.2512000000 4.2313000000 1.8197000000
1.2511000000 5.1645000000 0.6481000000
1.2508000000 3.5979000000 2.5881000000
1.2507000000 5.4135000000 0.3411000000
1.2503000000 3.6284000000 2.5549000000
1.2500000000 1.7028000000 2.1271000000
1.2499000000 2.8144000000 3.0816000000
1.2497000000 0.4023000000 0.4967000000
1.2495000000 2.7614000000 3.0612000000
1.2494000000 0.0440000000 0.1325000000
1.2494000000 2.7362000000 3.0563000000
1.2492000000 1.7728000000 2.2046000000
1.2489000000 2.8184000000 3.0854000000
1.2489000000 1.8950000000 2.3689000000
1.2486000000 0.5283000000 0.6560000000
1.2485000000 1.5424000000 1.9213000000
1.2471000000 2.5157000000 2.9144000000
1.2464000000 2.3976000000 2.8412000000
1.2457000000 0.1843000000 0.2285000000
1.2455000000 2.5776000000 2.9536000000
1.2442000000 3.0878000000 2.9660000000
1.0120000000 5.1232000000 0.7035000000
1.0118000000 3.8032000000 2.2730000000
1.0113000000 5.4351000000 0.3102000000
1.0107000000 3.6872000000 2.3296000000
1.0104000000 3.9249000000 2.1665000000
1.0098000000 2.4843000000 2.6399000000
1.0095000000 4.8448000000 1.0467000000
1.0095000000 4.2964000000 1.7312000000
1.0094000000 5.5690000000 0.1444000000
1.0093000000 0.6898000000 0.8577000000
1.0091000000 3.2757000000 2.5907000000
1.0090000000 1.5482000000 1.9291000000
1.0088000000 4.9099000000 0.9619000000
1.0087000000 4.7553000000 1.1561000000
1.0086000000 3.6648000000 2.3489000000
1.0083000000 3.2728000000 2.5953000000
1.0078000000 0.4690000000 0.5780000000
1.0077000000 4.5301000000 1.4355000000
1.0076000000 4.6648000000 1.2682000000
1.0075000000 3.3497000000 2.5426000000
1.0072000000 3.5264000000 2.4370000000
1.0067000000 3.7003000000 2.3206000000
1.0066000000 3.3436000000 2.5426000000
1.0063000000 3.1357000000 2.6747000000
1.0062000000 1.4118000000 1.7569000000
1.0060000000 5.0009000000 0.8422000000
1.0058000000 1.5538000000 1.9390000000
1.0058000000 4.8400000000 1.0571000000
1.0054000000 2.1776000000 2.4403000000
1.0053000000 4.0909000000 1.9910000000
1.0052000000 0.4293000000 0.5361000000
1.0050000000 2.8637000000 2.8244000000
1.0047000000 3.8104000000 2.2517000000
1.0045000000 3.8057000000 2.2565000000
1.0044000000 0.7972000000 0.9942000000
1.0043000000 0.9627000000 1.2022000000
1.0042000000 3.1026000000 2.6948000000
1.0040000000 5.5686000000 0.1413000000
1.0040000000 4.3335000000 1.6826000000
1.0040000000 4.1945000000 1.8541000000
1.0038000000 4.6814000000 1.2458000000
1.0035000000 3.6770000000 2.3353000000
1.0033000000 0.6572000000 0.8192000000
1.0032000000 1.0106000000 1.2631000000
1.0031000000 2.9025000000 2.8186000000
1.0030000000 2.1920000000 2.4498000000
1.0029000000 0.9546000000 1.1868000000
1.0028000000 5.5490000000 0.1710000000
1.0026000000 4.0564000000 2.0239000000
1.0024000000 0.6758000000 0.8440000000
1.0024000000 2.2313000000 2.4728000000
1.0021000000 4.2206000000 1.8228000000
1.0020000000 5.1256000000 0.7007000000
1.0020000000 4.9796000000 0.8768000000
1.0020000000 3.8845000000 2.1824000000
1.0019000000 1.9296000000 2.2855000000
1.0017000000 3.0623000000 2.7137000000
1.0016000000 3.0336000000 2.7324000000
1.0015000000 4.1626000000 1.8917000000
1.0014000000 4.3209000000 1.7028000000
1.0010000000 3.0892000000 2.7024000000
1.0006000000 1.5092000000 1.8817000000
1.0005000000 1.1666000000 1.4541000000
1.0003000000 0.4117000000 0.5152000000
1.0003000000 0.8598000000 1.0727000000
1.0000000000 3.5961000000 2.3835000000
0.9999000000 1.4976000000 1.8651000000
0.9998000000 4.3717000000 1.6351000000
0.9993000000 3.2587000000 2.5909000000
0.9993000000 0.0586000000 0.1516000000
0.9991000000 0.5347000000 0.6679000000
0.9987000000 2.9119000000 2.8108000000
0.9983000000 3.2299000000 2.6114000000
0.9980000000 0.8409000000 1.0443000000
0.9979000000 0.3626000000 0.4523000000
0.9967000000 3.0570000000 2.7146000000
0.9957000000 0.5448000000 0.6787000000
0.9952000000 3.1992000000 2.6267000000
0.9950000000 1.1173000000 1.3968000000
0.7640000000 4.6527000000 1.2859000000
0.7589000000 0.4929000000 0.6132000000
0.7588000000 1.4787000000 1.7379000000
0.7583000000 4.4910000000 1.4843000000
0.7583000000 3.2726000000 2.3242000000
0.7580000000 1.5504000000 1.7824000000
0.7577000000 2.4105000000 2.3226000000
0.7574000000 3.6440000000 2.0913000000
0.7568000000 0.8314000000 1.0389000000
0.7568000000 2.6501000000 2.4668000000
0.7565000000 5.3151000000 0.4606000000
0.7562000000 3.3754000000 2.2545000000
0.7562000000 1.8107000000 1.9446000000
0.7559000000 2.2210000000 2.2022000000
0.7559000000 3.1902000000 2.3693000000
0.7557000000 0.1702000000 0.2143000000
0.7555000000 1.7166000000 1.8854000000
0.7553000000 4.9732000000 0.8871000000
0.7553000000 2.4599000000 2.3444000000
0.7552000000 0.5000000000 0.6271000000
0.7551000000 4.2184000000 1.7297000000
0.7550000000 2.2869000000 2.2392000000
0.7549000000 4.7742000000 1.1351000000
0.7548000000 5.0958000000 0.7315000000
0.7547000000 1.2179000000 1.5001000000
0.7546000000 3.9155000000 1.9170000000
0.7546000000 5.3794000000 0.3785000000
0.7544000000 1.8947000000 1.9964000000
0.7543000000 2.2008000000 2.1927000000
0.7543000000 3.3844000000 2.2486000000
0.7542000000 1.3082000000 1.6097000000
0.7540000000 4.4145000000 1.5685000000
0.7539000000 2.7575000000 2.5339000000
0.7538000000 3.9916000000 1.8706000000
0.7537000000 1.9634000000 2.0366000000
0.7537000000 0.7626000000 0.9495000000
0.7536000000 1.6695000000 1.8565000000
0.7535000000 2.9501000000 2.5151000000
0.7534000000 5.2729000000 0.5129000000
0.7533000000 2.1616000000 2.1591000000
0.7533000000 4.6215000000 1.3240000000
0.7530000000 4.1926000000 1.7415000000
0.7529000000 0.7440000000 0.9249000000
0.7528000000 3.9004000000 1.9245000000
0.7528000000 0.8705000000 1.0847000000
0.7525000000 4.7962000000 1.1106000000
0.7525000000 2.6751000000 2.4775000000
0.7524000000 0.6709000000 0.8382000000
0.7523000000 2.9524000000 2.5136000000
0.7520000000 2.1675000000 2.1698000000
0.7520000000 0.0536000000 0.1440000000
0.7519000000 2.8416000000 2.5606000000
0.7518000000 0.7743000000 0.9636000000
0.7518000000 1.3870000000 1.6551000000
0.7517000000 1.1405000000 1.4195000000
0.7515000000 2.4304000000 2.3270000000
0.7513000000 4.8417000000 1.0545000000
0.7513000000 0.2484000000 0.3126000000
0.7512000000 3.8744000000 1.9425000000
0.7512000000 0.3903000000 0.4833000000
0.7511000000 1.2000000000 1.4800000000
0.7510000000 3.6717000000 2.0672000000
0.7510000000 1.1347000000 1.4133000000
0.7508000000 3.7551000000 2.0128000000
0.7507000000 3.7285000000 2.0304000000
0.7506000000 3.0137000000 2.4769000000
0.7505000000 0.8166000000 1.0206000000
0.7504000000 2.7534000000 2.5273000000
0.7503000000 1.2427000000 1.5259000000
0.7502000000 1.4920000000 1.7367000000
0.7501000000 4.8826000000 1.0049000000
0.7500000000 4.0234000000 1.8466000000
0.7499000000 3.0644000000 2.4421000000
0.7497000000 2.8253000000 2.5514000000
0.7497000000 0.9508000000 1.1871000000
0.7488000000 4.2835000000 1.6785000000
0.7487000000 0.7002000000 0.8704000000
0.7484000000 0.7109000000 0.8927000000
0.7483000000 1.9494000000 2.0225000000
0.7482000000 2.9025000000 2.5395000000
0.7475000000 2.5908000000 2.4190000000
0.7472000000 1.4644000000 1.7159000000
0.7456000000 3.2940000000 2.2977000000
0.7455000000 4.5048000000 1.4608000000
0.7448000000 0.6888000000 0.8558000000
0.7447000000 1.7259000000 1.8819000000
0.7445000000 4.1071000000 1.7810000000
0.5125000000 4.4450000000 1.3302000000
0.5109000000 4.2093000000 1.4677000000
0.5106000000 0.5241000000 0.6564000000
0.5092000000 4.0858000000 1.5441000000
0.5088000000 4.1201000000 1.5239000000
0.5084000000 0.6478000000 0.8071000000
0.5084000000 4.2792000000 1.4246000000
0.5082000000 2.9531000000 2.2520000000
0.5081000000 5.1012000000 0.7314000000
0.5080000000 3.5313000000 1.8839000000
0.5080000000 2.4601000000 2.0850000000
0.5078000000 3.8053000000 1.7171000000
0.5077000000 0.5204000000 0.6478000000
0.5074000000 1.8675000000 1.7107000000
0.5074000000 0.2489000000 0.3092000000
0.5072000000 2.3791000000 2.0295000000
0.5070000000 3.4716000000 1.9271000000
0.5069000000 4.1533000000 1.5037000000
0.5068000000 4.1094000000 1.5252000000
0.5066000000 3.5366000000 1.8856000000
0.5065000000 3.6270000000 1.8305000000
0.5065000000 3.1871000000 2.0986000000
0.5064000000 3.1025000000 2.1568000000
0.5063000000 4.7878000000 1.0815000000
0.5060000000 4.7753000000 1.0882000000
0.5058000000 4.1307000000 1.5148000000
0.5055000000 1.0235000000 1.1834000000
0.5051000000 3.3703000000 1.9854000000
0.5050000000 4.5088000000 1.2800000000
0.5050000000 2.9030000000 2.2800000000
0.5050000000 2.6825000000 2.2108000000
0.5049000000 2.3278000000 1.9982000000
0.5048000000 4.5953000000 1.2278000000
0.5048000000 5.2801000000 0.5008000000
0.5047000000 2.8417000000 2.2930000000
0.5046000000 3.2517000000 2.0671000000
0.5045000000 4.8063000000 1.0728000000
0.5045000000 5.1879000000 0.6170000000
0.5045000000 2.5142000000 2.1110000000
0.5044000000 3.9041000000 1.6576000000
0.5043000000 5.6233000000 0.0767000000
0.5041000000 4.2486000000 1.4374000000
0.5040000000 1.6234000000 1.5564000000
0.5039000000 1.9286000000 1.7463000000
0.5035000000 2.6970000000 2.2277000000
0.5034000000 1.3413000000 1.3793000000
0.5034000000 0.7555000000 0.9405000000
0.5033000000 0.9889000000 1.1589000000
0.5033000000 2.7908000000 2.2728000000
0.5033000000 1.2979000000 1.3513000000
0.5032000000 4.7597000000 1.1044000000
0.5029000000 3.2748000000 2.0438000000
0.5028000000 2.6065000000 2.1659000000
0.5028000000 3.3276000000 2.0030000000
0.5027000000 2.7159000000 2.2338000000
0.5027000000 0.5556000000 0.6904000000
0.5025000000 3.4961000000 1.9116000000
0.5025000000 3.3437000000 2.0031000000
0.5024000000 1.0364000000 1.1888000000
0.5020000000 2.8914000000 2.2680000000
0.5020000000 5.5966000000 0.1108000000
0.5016000000 1.3128000000 1.3581000000
0.5015000000 3.0258000000 2.2001000000
0.5015000000 5.5105000000 0.2174000000
0.5012000000 5.1765000000 0.6340000000
0.5011000000 4.6934000000 1.1550000000
0.5010000000 2.9545000000 2.2379000000
0.5010000000 4.4918000000 1.2828000000
0.5008000000 0.9668000000 1.1309000000
0.5008000000 1.9365000000 1.7555000000
0.5006000000 1.7716000000 1.6441000000
0.5005000000 2.4645000000 2.0803000000
0.5004000000 3.2583000000 2.0537000000
0.4998000000 4.4618000000 1.2988000000
0.4996000000 2.1976000000 1.9120000000
0.4995000000 1.5959000000 1.5332000000
0.4994000000 5.5409000000 0.1798000000
0.4993000000 0.0236000000 0.1061000000
0.4993000000 1.5740000000 1.5189000000
0.4987000000 0.2769000000 0.3471000000
0.4987000000 0.4859000000 0.6062000000
0.4983000000 0.2645000000 0.3294000000
0.4980000000 1.3063000000 1.3574000000
0.4978000000 3.2018000000 2.0843000000
0.4976000000 1.3458000000 1.3759000000
0.4970000000 4.1108000000 1.5179000000
0.4967000000 0.4336000000 0.5402000000
0.4964000000 3.1447000000 2.1188000000
0.4955000000 0.3046000000 0.3760000000
0.2598000000 4.7319000000 0.8716000000
0.2596000000 3.3256000000 1.7533000000
0.2596000000 4.1700000000 1.2220000000
0.2592000000 4.2514000000 1.1779000000
0.2589000000 4.9826000000 0.7174000000
0.2586000000 2.4916000000 1.8319000000
0.2580000000 5.0005000000 0.7022000000
0.2578000000 5.1563000000 0.5939000000
0.2575000000 5.6226000000 0.0765000000
0.2572000000 5.3697000000 0.3935000000
0.2569000000 5.0706000000 0.6608000000
0.2568000000 4.4373000000 1.0533000000
0.2567000000 3.2909000000 1.7653000000
0.2567000000 5.5543000000 0.1617000000
0.2566000000 4.9896000000 0.7119000000
0.2565000000 4.5981000000 0.9566000000
0.2565000000 3.5129000000 1.6262000000
0.2562000000 2.1660000000 1.6296000000
0.2560000000 3.7944000000 1.4508000000
0.2559000000 2.5256000000 1.8470000000
0.2557000000 3.6302000000 1.5510000000
0.2557000000 3.6188000000 1.5628000000
0.2554000000 3.4082000000 1.6950000000
0.2554000000 1.3646000000 1.1255000000
0.2553000000 1.8728000000 1.4449000000
0.2552000000 2.8439000000 2.0266000000
0.2552000000 5.3125000000 0.4429000000
0.2550000000 0.8277000000 0.7923000000
0.2549000000 2.3842000000 1.7616000000
0.2546000000 1.7870000000 1.3888000000
0.2545000000 1.0182000000 0.9074000000
0.2545000000 0.9808000000 0.8852000000
0.2544000000 2.1678000000 1.6261000000
0.2543000000 3.3406000000 1.7357000000
0.2543000000 4.3548000000 1.1051000000
0.2542000000 5.2841000000 0.4777000000
0.2539000000 4.8158000000 0.8172000000
0.2537000000 2.0104000000 1.5303000000
0.2537000000 1.6784000000 1.3211000000
0.2535000000 0.5782000000 0.6378000000
0.2533000000 1.2108000000 1.0293000000
0.2532000000 2.6305000000 1.9102000000
0.2530000000 4.6712000000 0.9084000000
0.2528000000 3.2507000000 1.7946000000
0.2527000000 4.1666000000 1.2144000000
0.2526000000 0.5226000000 0.5804000000
0.2525000000 3.3845000000 1.7026000000
0.2524000000 4.7117000000 0.8786000000
0.2523000000 4.9093000000 0.7569000000
0.2523000000 2.7477000000 1.9912000000
0.2522000000 0.5522000000 0.6109000000
0.2521000000 0.4929000000 0.5615000000
0.2520000000 5.5945000000 0.1137000000
0.2519000000 2.6992000000 1.9578000000
0.2519000000 4.1147000000 1.2546000000
0.2515000000 2.1098000000 1.5867000000
0.2513000000 3.5510000000 1.6023000000
0.2512000000 0.2968000000 0.3700000000
0.2511000000 5.2964000000 0.4615000000
0.2511000000 2.2641000000 1.6787000000
0.2510000000 2.4119000000 1.7759000000
0.2509000000 0.6122000000 0.6550000000
0.2505000000 0.0327000000 0.1187000000
0.2503000000 0.3689000000 0.4417000000
0.2502000000 2.0861000000 1.5733000000
0.2501000000 1.6408000000 1.2872000000
0.2499000000 1.4085000000 1.1464000000
0.2498000000 0.0691000000 0.0846000000
0.2493000000 0.8991000000 0.8331000000
0.2491000000 1.3601000000 1.1164000000
0.2489000000 0.7010000000 0.7035000000
0.2483000000 2.6568000000 1.9247000000
0.2480000000 4.9599000000 0.7160000000
0.2479000000 1.6778000000 1.3073000000
0.2478000000 0.1345000000 0.1672000000
0.2475000000 2.2034000000 1.6414000000
0.2470000000 1.4064000000 1.1439000000
0.2466000000 1.8802000000 1.4411000000
0.2464000000 2.7257000000 1.9611000000
0.2441000000 0.2839000000 0.3542000000
0.2418000000 3.3693000000 1.6963000000
0.0132000000 2.8808000000 1.7429000000
0.0111000000 4.4168000000 0.7940000000
0.0096000000 1.3712000000 0.8679000000
0.0083000000 5.0658000000 0.3955000000
0.0082000000 0.7373000000 0.4649000000
0.0080000000 0.9130000000 0.5740000000
0.0077000000 5.4154000000 0.1700000000
0.0076000000 3.7500000000 1.2150000000
0.0075000000 5.3262000000 0.2316000000
0.0075000000 3.7441000000 1.2127000000
0.0073000000 4.6575000000 0.6468000000
0.0073000000 4.0035000000 1.0515000000
0.0071000000 3.6645000000 1.2629000000
0.0070000000 5.3174000000 0.2372000000
0.0064000000 4.7112000000 0.6130000000
0.0060000000 3.8663000000 1.1434000000
0.0059000000 4.8770000000 0.5073000000
0.0058000000 4.3896000000 0.8094000000
0.0058000000 1.8267000000 1.1419000000
0.0056000000 1.8962000000 1.1899000000
0.0054000000 5.2080000000 0.2982000000
0.0053000000 5.0840000000 0.3787000000
0.0053000000 3.2069000000 1.5504000000
0.0053000000 0.4219000000 0.2707000000
0.0050000000 4.3725000000 0.8245000000
0.0050000000 0.0464000000 0.0919000000
0.0050000000 1.8980000000 1.1901000000
0.0043000000 5.5222000000 0.1004000000
0.0043000000 5.1752000000 0.3218000000
0.0041000000 5.1687000000 0.3274000000
0.0040000000 2.5249000000 1.5819000000
0.0039000000 0.9556000000 0.6051000000
0.0038000000 4.6347000000 0.6608000000
0.0037000000 4.1230000000 0.9768000000
0.0035000000 1.2671000000 0.7929000000
0.0034000000 4.5566000000 0.7047000000
0.0032000000 1.8300000000 1.1490000000
0.0031000000 0.0276000000 0.0764000000
0.0029000000 1.2648000000 0.7938000000
0.0028000000 0.9945000000 0.6256000000
0.0027000000 5.6756000000 0.0625000000
0.0027000000 4.9672000000 0.4527000000
0.0026000000 1.6952000000 1.0597000000
0.0026000000 2.0865000000 1.3025000000
0.0025000000 0.3238000000 0.2032000000
0.0024000000 4.5579000000 0.7021000000
0.0024000000 3.8317000000 1.1598000000
0.0022000000 1.0196000000 0.6398000000
0.0021000000 5.0254000000 0.4100000000
0.0022000000 0.5790000000 0.3615000000
0.0020000000 5.1916000000 0.3032000000
0.0018000000 4.9794000000 0.4401000000
0.0014000000 2.5974000000 1.6183000000
0.0013000000 4.2457000000 0.8967000000
0.0010000000 3.1001000000 1.6074000000
0.0006000000 1.2916000000 0.8057000000
0.0005000000 1.3998000000 0.8698000000
0.0003000000 1.4839000000 0.9243000000
0.0003000000 3.8147000000 1.1652000000
0.0003000000 2.3080000000 1.4388000000
-0.0000000000 4.0017000000 1.0467000000
-0.0001000000 1.7733000000 1.1068000000
-0.0005000000 1.8314000000 1.1443000000
-0.0009000000 2.2081000000 1.3699000000
-0.0017000000 1.8313000000 1.1428000000
-0.0018000000 5.6774000000 0.0578000000
-0.0022000000 1.8908000000 1.1784000000
-0.0025000000 1.9657000000 1.2222000000
-0.0028000000 5.4885000000 0.1193000000
-0.0031000000 0.8085000000 0.4999000000
-0.0034000000 0.5340000000 0.3335000000
-0.0035000000 2.2807000000 1.4185000000
-0.0042000000 0.2849000000 0.1674000000
-0.0047000000 0.2108000000 0.1239000000
-0.0048000000 0.5129000000 0.3183000000
-0.0062000000 1.7331000000 1.0738000000
-0.2388000000 4.2759000000 0.6200000000
-0.2391000000 2.8108000000 1.4742000000
-0.2394000000 4.0765000000 0.7420000000
-0.2395000000 4.9499000000 0.2035000000
-0.2416000000 0.3636000000 0.0410000000
-0.2421000000 3.2699000000 1.2455000000
-0.2423000000 2.7692000000 1.4669000000
-0.2425000000 1.5034000000 0.6748000000
-0.2426000000 4.2218000000 0.6482000000
-0.2427000000 4.6738000000 0.3633000000
-0.2428000000 5.2499000000 0.0111000000
-0.2431000000 3.3974000000 1.1646000000
-0.2432000000 3.6835000000 0.9880000000
-0.2432000000 4.9230000000 0.2141000000
-0.2433000000 2.4843000000 1.2840000000
-0.2435000000 2.6447000000 1.3866000000
-0.2438000000 3.5057000000 1.0919000000
-0.2439000000 2.0585000000 1.0221000000
-0.2442000000 0.6217000000 0.1185000000
-0.2445000000 3.5132000000 1.0940000000
-0.2445000000 0.9004000000 0.2982000000
-0.2446000000 5.4400000000 0.0365000000
-0.2450000000 4.6184000000 0.3943000000
-0.2451000000 1.1428000000 0.4496000000
-0.2451000000 2.1324000000 1.0584000000
-0.2452000000 4.7451000000 0.3245000000
-0.2452000000 2.6388000000 1.3834000000
-0.2454000000 5.1111000000 0.0939000000
-0.2455000000 4.0052000000 0.7803000000
-0.2456000000 3.8066000000 0.9024000000
-0.2457000000 1.6243000000 0.7446000000
-0.2459000000 3.7811000000 0.9197000000
-0.2460000000 4.2542000000 0.6246000000
-0.2460000000 1.6905000000 0.7882000000
-0.2462000000 2.6447000000 1.3765000000
-0.2463000000 1.8217000000 0.8695000000
-0.2465000000 3.8563000000 0.8748000000
-0.2466000000 4.6742000000 0.3676000000
-0.2467000000 5.0652000000 0.1145000000
-0.2468000000 4.2249000000 0.6405000000
-0.2469000000 3.1400000000 1.3225000000
-0.2470000000 0.9528000000 0.3311000000
-0.2470000000 2.7307000000 1.4347000000
-0.2472000000 0.2151000000 0.0164000000
-0.2473000000 0.7645000000 0.2075000000
-0.2472000000 1.1046000000 0.4218000000
-0.2472000000 2.1331000000 1.0605000000
-0.2473000000 3.3344000000 1.1987000000
-0.2474000000 0.6025000000 0.1072000000
-0.2475000000 3.4186000000 1.1393000000
-0.2476000000 1.8845000000 0.9028000000
-0.2478000000 2.6213000000 1.3678000000
-0.2478000000 1.3511000000 0.5796000000
-0.2479000000 4.7524000000 0.3139000000
-0.2479000000 1.5918000000 0.7245000000
-0.2480000000 3.3729000000 1.1711000000
-0.2481000000 2.1268000000 1.0621000000
-0.2482000000 3.1468000000 1.3186000000
-0.2483000000 1.2135000000 0.4897000000
-0.2486000000 3.7428000000 0.9383000000
-0.2487000000 4.9569000000 0.1831000000
-0.2489000000 3.8555000000 0.8698000000
-0.2490000000 2.0868000000 1.0336000000
-0.2492000000 2.4291000000 1.2471000000
-0.2493000000 4.1805000000 0.6698000000
-0.2493000000 1.0050000000 0.3564000000
-0.2495000000 0.4971000000 0.1169000000
-0.2496000000 2.1155000000 1.0483000000
-0.2497000000 4.2383000000 0.6309000000
-0.2499000000 3.1468000000 1.3104000000
-0.2500000000 3.5266000000 1.0770000000
-0.2501000000 4.3127000000 0.5860000000
-0.2502000000 1.9367000000 0.9409000000
-0.2504000000 1.8228000000 0.8634000000
-0.2505000000 1.4207000000 0.6129000000
-0.2506000000 4.1626000000 0.6790000000
-0.2510000000 1.4365000000 0.6255000000
-0.2510000000 3.8616000000 0.8621000000
-0.2512000000 1.3949000000 0.5976000000
-0.2517000000 2.1098000000 1.0421000000
-0.2519000000 0.9133000000 0.2990000000
-0.2522000000 0.5522000000 0.1444000000
-0.2522000000 3.1183000000 1.3280000000
-0.2529000000 1.4785000000 0.6470000000
-0.2560000000 4.2538000000 0.6155000000
-0.4846000000 4.7192000000 0.0753000000
-0.4877000000 1.9940000000 0.7170000000
-0.4884000000 1.4769000000 0.3960000000
-0.4887000000 5.0417000000 0.0214000000
-0.4893000000 1.6733000000 0.5182000000
-0.4895000000 2.2518000000 0.8663000000
-0.4902000000 2.3672000000 0.9412000000
-0.4905000000 4.6661000000 0.1015000000
-0.4919000000 3.7083000000 0.6984000000
-0.4925000000 1.5271000000 0.4173000000
-0.4926000000 1.7032000000 0.5315000000
-0.4927000000 3.0325000000 1.1184000000
-0.4931000000 1.0498000000 0.1235000000
-0.4935000000 3.5112000000 0.8208000000
-0.4940000000 1.4941000000 0.3959000000
-0.4942000000 2.5976000000 1.0823000000
-0.4943000000 2.2188000000 0.8468000000
-0.4945000000 4.6248000000 0.1241000000
-0.4945000000 4.1265000000 0.4386000000
-0.4945000000 3.4249000000 0.8710000000
-0.4947000000 3.0652000000 1.0974000000
-0.4949000000 4.5312000000 0.1840000000
-0.4952000000 3.1892000000 1.0186000000
-0.4952000000 2.8707000000 1.2013000000
-0.4955000000 1.8768000000 0.6359000000
-0.4956000000 2.4840000000 1.0149000000
-0.4959000000 4.6575000000 0.1048000000
-0.4960000000 2.0622000000 0.7454000000
-0.4960000000 3.9896000000 0.5209000000
-0.4961000000 1.8971000000 0.6449000000
-0.4962000000 1.9245000000 0.6666000000
-0.4963000000 1.6259000000 0.4824000000
-0.4964000000 4.7967000000 0.0907000000
-0.4964000000 2.3303000000 0.9120000000
-0.4965000000 2.9519000000 1.1620000000
-0.4965000000 2.8475000000 1.2113000000
-0.4968000000 4.0706000000 0.4658000000
-0.4969000000 2.1800000000 0.8211000000
-0.4970000000 0.9060000000 0.0975000000
-0.4971000000 4.7473000000 0.0528000000
-0.4972000000 3.2319000000 0.9907000000
-0.4973000000 1.8672000000 0.6234000000
-0.4974000000 1.4356000000 0.3550000000
-0.4975000000 2.6903000000 1.1420000000
-0.4978000000 4.6933000000 0.0815000000
-0.4980000000 1.3311000000 0.2967000000
-0.4980000000 1.1162000000 0.1532000000
-0.4982000000 1.8060000000 0.5887000000
-0.4983000000 0.7987000000 0.0348000000
-0.4986000000 0.6539000000 0.0230000000
-0.4987000000 0.7361000000 0.0667000000
-0.4988000000 3.1767000000 1.0255000000
-0.4990000000 4.5319000000 0.1813000000
-0.4990000000 0.9174000000 0.1063000000
-0.4995000000 2.9598000000 1.1568000000
-0.4997000000 1.5488000000 0.4268000000
-0.5000000000 0.9542000000 0.1327000000
-0.5002000000 1.8014000000 0.5768000000
-0.5005000000 4.2078000000 0.3779000000
