5.2535000000 2.6567000000 0.2424000000
5.2528000000 2.0545000000 0.0152000000
5.2526000000 4.6430000000 0.1581000000
5.2521000000 3.3470000000 0.4985000000
5.2520000000 5.0157000000 0.0873000000
5.2519000000 4.2411000000 0.2955000000
5.2510000000 1.9241000000 0.0501000000
5.2508000000 2.3516000000 0.1315000000
5.2503000000 3.2086000000 0.4393000000
5.2496000000 2.2535000000 0.0923000000
5.2489000000 2.5100000000 0.1862000000
5.0137000000 5.5541000000 0.0424000000
5.0099000000 3.7931000000 0.6137000000
5.0097000000 3.2407000000 0.6112000000
5.0095000000 4.7309000000 0.2671000000
5.0084000000 4.0334000000 0.5322000000
5.0079000000 3.6989000000 0.6484000000
5.0077000000 1.9196000000 0.1201000000
5.0070000000 2.8275000000 0.4571000000
5.0068000000 4.1605000000 0.4802000000
5.0065000000 5.1188000000 0.1302000000
5.0063000000 3.7773000000 0.6236000000
5.0062000000 4.1823000000 0.4712000000
5.0060000000 4.8014000000 0.2511000000
5.0055000000 1.4868000000 0.0380000000
5.0055000000 3.5235000000 0.7020000000
5.0049000000 4.7703000000 0.2557000000
5.0043000000 1.5662000000 0.0696000000
5.0043000000 4.3819000000 0.3980000000
5.0035000000 5.2015000000 0.1045000000
5.0033000000 4.3087000000 0.4358000000
5.0029000000 5.5834000000 0.0418000000
5.0028000000 3.3682000000 0.6565000000
5.0023000000 1.9481000000 0.1421000000
5.0019000000 2.8543000000 0.4692000000
5.0017000000 1.7778000000 0.0760000000
5.0013000000 1.3966000000 0.0067000000
5.0010000000 1.5360000000 0.0615000000
5.0007000000 3.5382000000 0.7008000000
5.0004000000 4.8327000000 0.2439000000
4.9993000000 4.4092000000 0.3919000000
4.9988000000 1.7017000000 0.0456000000
4.9959000000 3.4676000000 0.7022000000
4.7634000000 6.0765000000 0.0120000000
4.7613000000 4.4897000000 0.5178000000
4.7598000000 3.6911000000 0.8131000000
4.7584000000 5.1401000000 0.2836000000
4.7571000000 3.7621000000 0.7832000000
4.7566000000 3.2531000000 0.7657000000
4.7564000000 2.5102000000 0.4999000000
4.7560000000 2.0276000000 0.3234000000
4.7557000000 5.1232000000 0.2902000000
4.7555000000 3.2967000000 0.7854000000
4.7555000000 4.3447000000 0.5722000000
4.7553000000 5.5774000000 0.1177000000
4.7550000000 1.3941000000 0.0923000000
4.7548000000 1.8799000000 0.2678000000
4.7544000000 4.1789000000 0.6359000000
4.7543000000 5.3428000000 0.2124000000
4.7541000000 3.8555000000 0.7517000000
4.7539000000 0.9795000000 0.0166000000
4.7536000000 2.7500000000 0.5862000000
4.7534000000 5.8411000000 0.0261000000
4.7532000000 5.3877000000 0.1930000000
4.7528000000 2.5366000000 0.5115000000
4.7527000000 3.7921000000 0.7785000000
4.7513000000 4.9745000000 0.3474000000
4.7509000000 6.1072000000 0.0054000000
4.7508000000 4.8625000000 0.3865000000
4.7507000000 1.0414000000 0.0442000000
4.7501000000 1.0571000000 0.0483000000
4.7498000000 2.8032000000 0.6148000000
4.7496000000 4.6711000000 0.4583000000
4.7494000000 1.5199000000 0.1390000000
4.7493000000 2.8955000000 0.6450000000
4.7486000000 3.0818000000 0.7196000000
4.7478000000 3.6207000000 0.8454000000
4.7460000000 3.6117000000 0.8482000000
4.5096000000 4.2099000000 0.7784000000
4.5095000000 5.2868000000 0.3877000000
4.5091000000 5.1601000000 0.4292000000
4.5085000000 4.0963000000 0.8236000000
4.5080000000 4.4733000000 0.6822000000
4.5075000000 6.0812000000 0.0978000000
4.5072000000 2.5670000000 0.6799000000
4.5068000000 6.4020000000 0.0549000000
4.5067000000 1.8624000000 0.4233000000
4.5065000000 5.5914000000 0.2824000000
4.5063000000 5.9663000000 0.1366000000
4.5060000000 2.9212000000 0.8069000000
4.5058000000 2.1451000000 0.5226000000
4.5055000000 3.2615000000 0.9377000000
4.5053000000 3.7681000000 0.9443000000
4.5052000000 5.6563000000 0.2493000000
4.5050000000 2.0141000000 0.4769000000
4.5049000000 2.1980000000 0.5435000000
4.5047000000 1.9187000000 0.4446000000
4.5044000000 6.4594000000 0.0394000000
4.5040000000 6.2286000000 0.0449000000
4.5039000000 5.2013000000 0.4218000000
4.5038000000 1.4071000000 0.2623000000
4.5035000000 5.2717000000 0.3946000000
4.5033000000 2.6402000000 0.7034000000
4.5031000000 3.5845000000 1.0111000000
4.5028000000 5.0508000000 0.4767000000
4.5027000000 3.4263000000 0.9938000000
4.5024000000 0.9907000000 0.1030000000
4.5023000000 3.9360000000 0.8827000000
4.5020000000 2.4366000000 0.6333000000
4.5016000000 0.6029000000 0.0368000000
4.5012000000 5.8693000000 0.1770000000
4.5010000000 2.1133000000 0.5121000000
4.5007000000 3.9718000000 0.8708000000
4.5002000000 1.1692000000 0.1710000000
4.4999000000 5.5358000000 0.3062000000
4.4993000000 4.4120000000 0.7099000000
4.4987000000 0.5596000000 0.0227000000
4.4981000000 4.6939000000 0.6044000000
4.4979000000 3.2125000000 0.9249000000
4.4977000000 4.8984000000 0.5410000000
4.4953000000 1.2084000000 0.1871000000
4.2602000000 6.8408000000 0.0506000000
4.2594000000 4.4281000000 0.8601000000
4.2591000000 4.9793000000 0.6584000000
4.2585000000 5.5598000000 0.4449000000
4.2581000000 1.5398000000 0.4651000000
4.2579000000 0.6333000000 0.1258000000
4.2578000000 1.4162000000 0.4150000000
4.2575000000 3.5185000000 1.1821000000
4.2575000000 4.7435000000 0.7435000000
4.2573000000 5.1399000000 0.6004000000
4.2569000000 0.1807000000 0.0432000000
4.2567000000 0.9018000000 0.2263000000
4.2565000000 3.1892000000 1.0655000000
4.2562000000 1.7670000000 0.5483000000
4.2560000000 5.0497000000 0.6308000000
4.2558000000 0.1051000000 0.0091000000
4.2555000000 3.2371000000 1.0897000000
4.2553000000 2.3911000000 0.7827000000
4.2550000000 4.9803000000 0.6564000000
4.2549000000 4.7866000000 0.7261000000
4.2547000000 6.2938000000 0.1759000000
4.2546000000 6.0227000000 0.2783000000
4.2544000000 0.4042000000 0.0451000000
4.2540000000 3.4693000000 1.1720000000
4.2536000000 5.5335000000 0.4596000000
4.2535000000 0.5597000000 0.1039000000
4.2535000000 0.1747000000 0.0402000000
4.2533000000 5.5866000000 0.4436000000
4.2532000000 2.3346000000 0.7572000000
4.2528000000 1.3117000000 0.3730000000
4.2527000000 0.2084000000 0.0485000000
4.2525000000 4.8842000000 0.6972000000
4.2523000000 0.2005000000 0.0508000000
4.2519000000 4.9543000000 0.6657000000
4.2516000000 3.7765000000 1.1067000000
4.2515000000 1.6709000000 0.5148000000
4.2511000000 4.9747000000 0.6636000000
4.2503000000 1.3545000000 0.3997000000
4.2501000000 2.2329000000 0.7169000000
4.2495000000 6.2333000000 0.2033000000
4.2493000000 2.6634000000 0.8785000000
4.2489000000 4.9648000000 0.6650000000
4.2484000000 0.4329000000 0.0594000000
4.2477000000 1.6129000000 0.4926000000
4.2471000000 4.3223000000 0.9095000000
4.2464000000 0.9674000000 0.2596000000
4.2435000000 0.4972000000 0.0908000000
4.0124000000 4.1948000000 1.1017000000
4.0115000000 5.5629000000 0.5974000000
4.0108000000 5.8558000000 0.4923000000
4.0102000000 6.9349000000 0.0902000000
4.0095000000 0.2070000000 0.1170000000
4.0093000000 5.8664000000 0.4913000000
4.0089000000 6.3265000000 0.3240000000
4.0086000000 3.4784000000 1.3265000000
4.0083000000 3.4059000000 1.2992000000
4.0076000000 5.7395000000 0.5423000000
4.0073000000 3.1929000000 1.2258000000
4.0070000000 2.0748000000 0.8171000000
4.0070000000 1.1200000000 0.4661000000
4.0066000000 2.8827000000 1.1197000000
4.0065000000 3.2733000000 1.2528000000
4.0064000000 4.6064000000 0.9587000000
4.0060000000 3.5325000000 1.3339000000
4.0061000000 4.3657000000 1.0470000000
4.0058000000 2.6316000000 1.0176000000
4.0056000000 2.4831000000 0.9650000000
4.0054000000 2.9222000000 1.1269000000
4.0053000000 3.3560000000 1.2911000000
4.0051000000 3.5217000000 1.3435000000
4.0046000000 4.3026000000 1.0678000000
4.0045000000 4.3790000000 1.0372000000
4.0044000000 2.7622000000 1.0658000000
4.0042000000 5.2240000000 0.7332000000
4.0038000000 5.2785000000 0.7070000000
4.0036000000 6.5773000000 0.2382000000
4.0034000000 4.7855000000 0.8933000000
4.0033000000 5.4818000000 0.6354000000
4.0030000000 5.2228000000 0.7264000000
4.0025000000 0.4311000000 0.2178000000
4.0024000000 4.6784000000 0.9247000000
4.0022000000 0.1372000000 0.0935000000
4.0019000000 6.1719000000 0.3818000000
4.0018000000 0.6699000000 0.3056000000
4.0016000000 6.4047000000 0.2984000000
4.0010000000 1.6987000000 0.6801000000
4.0007000000 5.6403000000 0.5765000000
4.0004000000 1.0027000000 0.4258000000
3.9999000000 6.2054000000 0.3696000000
3.9992000000 6.8188000000 0.1416000000
3.9990000000 4.6161000000 0.9566000000
3.9980000000 5.2279000000 0.7339000000
3.9978000000 0.6482000000 0.2986000000
3.9956000000 2.8964000000 1.1237000000
3.9951000000 0.6229000000 0.2943000000
3.7635000000 6.9288000000 0.1092000000
3.7608000000 5.9557000000 0.6146000000
3.7603000000 3.7743000000 1.4189000000
3.7598000000 1.4292000000 0.7393000000
3.7590000000 1.8145000000 0.8737000000
3.7588000000 7.0172000000 0.0428000000
3.7585000000 1.6809000000 0.8331000000
3.7582000000 0.7435000000 0.4892000000
3.7578000000 4.8080000000 1.0359000000
3.7575000000 1.2054000000 0.6535000000
3.7573000000 1.3533000000 0.7106000000
3.7571000000 2.0752000000 0.9785000000
3.7570000000 3.2642000000 1.4125000000
3.7569000000 4.7446000000 1.0659000000
3.7567000000 7.0700000000 0.0767000000
3.7567000000 1.1578000000 0.6368000000
3.7565000000 2.4391000000 1.1084000000
3.7563000000 6.7744000000 0.2221000000
3.7562000000 5.6297000000 0.7425000000
3.7560000000 0.7354000000 0.4856000000
3.7560000000 5.1182000000 0.9253000000
3.7559000000 3.3530000000 1.4489000000
3.7556000000 1.7074000000 0.8449000000
3.7553000000 6.2744000000 0.5058000000
3.7549000000 3.2675000000 1.4161000000
3.7545000000 3.3476000000 1.4436000000
3.7545000000 5.3974000000 0.8233000000
3.7543000000 6.2606000000 0.5051000000
3.7541000000 0.4024000000 0.3095000000
3.7539000000 6.2794000000 0.5029000000
3.7538000000 0.4604000000 0.3417000000
3.7536000000 2.3144000000 1.0681000000
3.7535000000 3.9483000000 1.3563000000
3.7533000000 3.0230000000 1.3274000000
3.7530000000 4.1757000000 1.2731000000
3.7529000000 0.4980000000 0.3635000000
3.7528000000 6.8353000000 0.1757000000
3.7526000000 0.5559000000 0.4035000000
3.7525000000 4.1589000000 1.2798000000
3.7523000000 1.0237000000 0.5871000000
3.7520000000 3.3572000000 1.4487000000
3.7520000000 2.1186000000 0.9899000000
3.7517000000 5.0850000000 0.9358000000
3.7515000000 1.8812000000 0.9094000000
3.7514000000 1.8497000000 0.8984000000
3.7512000000 4.1168000000 1.3002000000
3.7504000000 1.8653000000 0.9019000000
3.7502000000 6.2138000000 0.5252000000
3.7500000000 4.6356000000 1.1103000000
3.7498000000 4.2359000000 1.2571000000
3.7496000000 3.6107000000 1.4792000000
3.7490000000 0.7125000000 0.4800000000
3.7470000000 3.3148000000 1.4382000000
3.7456000000 3.8885000000 1.3830000000
3.5119000000 6.6808000000 0.2848000000
3.5113000000 6.8972000000 0.1305000000
3.5098000000 7.0082000000 0.0529000000
3.5096000000 4.9373000000 1.1470000000
3.5089000000 0.0983000000 0.0870000000
3.5087000000 4.9014000000 1.1646000000
3.5077000000 6.7920000000 0.2063000000
3.5076000000 6.8933000000 0.1327000000
3.5075000000 2.9436000000 1.4554000000
3.5070000000 2.5153000000 1.2936000000
3.5068000000 4.7818000000 1.1995000000
3.5065000000 4.8290000000 1.1916000000
3.5063000000 4.1013000000 1.4578000000
3.5061000000 5.3074000000 1.0190000000
3.5057000000 6.4021000000 0.4934000000
3.5055000000 0.9295000000 0.6845000000
3.5052000000 6.3782000000 0.5123000000
3.5048000000 4.4575000000 1.3234000000
3.5047000000 4.4840000000 1.3199000000
3.5046000000 0.1290000000 0.1102000000
3.5045000000 1.9811000000 1.0984000000
3.5041000000 3.6932000000 1.6053000000
3.5039000000 2.3381000000 1.2303000000
3.5038000000 5.2934000000 1.0225000000
3.5036000000 4.4136000000 1.3432000000
3.5034000000 5.5128000000 0.9340000000
3.5032000000 2.0358000000 1.1221000000
3.5030000000 6.4685000000 0.4480000000
3.5029000000 3.3755000000 1.6085000000
3.5027000000 2.5594000000 1.3114000000
3.5024000000 5.5905000000 0.9092000000
3.5024000000 1.0743000000 0.7519000000
3.5020000000 1.9173000000 1.0786000000
3.5019000000 2.0948000000 1.1440000000
3.5017000000 0.8522000000 0.6454000000
3.5015000000 1.0765000000 0.7622000000
3.5013000000 2.5046000000 1.2965000000
3.5010000000 0.1921000000 0.1543000000
3.5010000000 6.2360000000 0.6150000000
3.5008000000 0.8878000000 0.6586000000
3.5007000000 4.8306000000 1.1904000000
3.5005000000 0.7296000000 0.5483000000
3.5003000000 2.7941000000 1.4037000000
3.4998000000 2.0955000000 1.1424000000
3.4997000000 0.3732000000 0.2908000000
3.4996000000 3.2362000000 1.5641000000
3.4992000000 6.5043000000 0.4257000000
3.4988000000 4.1224000000 1.4501000000
3.4984000000 6.8146000000 0.1944000000
3.4973000000 1.5531000000 0.9440000000
3.4961000000 5.5358000000 0.9390000000
3.4958000000 0.7178000000 0.5381000000
3.4929000000 4.7189000000 1.2429000000
3.2635000000 6.3616000000 0.5193000000
3.2630000000 5.7787000000 0.9508000000
3.2623000000 2.4999000000 1.4441000000
3.2615000000 6.1738000000 0.6615000000
3.2610000000 5.9927000000 0.7916000000
3.2603000000 5.9559000000 0.8164000000
3.2600000000 4.2445000000 1.5667000000
3.2598000000 4.9193000000 1.3103000000
3.2595000000 2.6395000000 1.4939000000
3.2586000000 4.3531000000 1.5234000000
3.2583000000 5.4899000000 1.1030000000
3.2580000000 4.9702000000 1.2930000000
3.2578000000 3.1655000000 1.6907000000
3.2576000000 6.5305000000 0.3990000000
3.2574000000 7.0187000000 0.0444000000
3.2570000000 1.1695000000 0.8698000000
3.2568000000 3.0688000000 1.6574000000
3.2565000000 3.6486000000 1.7867000000
3.2563000000 5.0104000000 1.2855000000
3.2559000000 6.3535000000 0.5285000000
3.2556000000 4.6764000000 1.4069000000
3.2553000000 3.5056000000 1.8068000000
3.2551000000 3.6562000000 1.7797000000
3.2549000000 1.5027000000 1.0671000000
3.2547000000 1.7399000000 1.1727000000
3.2540000000 6.1394000000 0.6930000000
3.2538000000 0.4373000000 0.3324000000
3.2535000000 2.4689000000 1.4395000000
3.2533000000 5.9639000000 0.8138000000
3.2531000000 2.6924000000 1.5200000000
3.2530000000 6.9507000000 0.0884000000
3.2526000000 5.9213000000 0.8505000000
3.2525000000 0.3091000000 0.2397000000
3.2522000000 6.8647000000 0.1591000000
3.2521000000 1.0517000000 0.7869000000
3.2519000000 3.5414000000 1.8121000000
3.2518000000 0.6588000000 0.4947000000
3.2516000000 0.8714000000 0.6481000000
3.2515000000 2.2046000000 1.3396000000
3.2513000000 6.0555000000 0.7518000000
3.2511000000 0.2931000000 0.2272000000
3.2509000000 0.0611000000 0.0518000000
3.2508000000 1.4863000000 1.0729000000
3.2506000000 5.4535000000 1.1244000000
3.2504000000 0.0853000000 0.0758000000
3.2502000000 4.5477000000 1.4598000000
3.2499000000 2.5788000000 1.4859000000
3.2496000000 4.6062000000 1.4377000000
3.2494000000 3.9810000000 1.6677000000
3.2493000000 2.6808000000 1.5244000000
3.2488000000 1.7338000000 1.1740000000
3.2485000000 5.8835000000 0.8730000000
3.2477000000 4.8966000000 1.3292000000
3.2469000000 3.5899000000 1.8076000000
3.2435000000 1.5101000000 1.0838000000
3.2423000000 3.4402000000 1.7987000000
3.0139000000 2.7243000000 1.6832000000
3.0120000000 4.7142000000 1.5430000000
3.0108000000 2.5483000000 1.6265000000
3.0098000000 1.2055000000 0.8998000000
3.0090000000 2.8488000000 1.7332000000
3.0087000000 4.3148000000 1.6947000000
3.0084000000 4.4815000000 1.6362000000
3.0080000000 6.8828000000 0.1438000000
3.0078000000 5.4622000000 1.1835000000
3.0077000000 7.0559000000 0.0883000000
3.0074000000 0.6411000000 0.4857000000
3.0069000000 4.3282000000 1.6866000000
3.0068000000 2.0068000000 1.4274000000
3.0064000000 1.6484000000 1.2268000000
3.0062000000 6.4965000000 0.4244000000
3.0059000000 2.3238000000 1.5469000000
3.0058000000 0.7326000000 0.5424000000
3.0055000000 4.0908000000 1.7769000000
3.0054000000 3.2296000000 1.8738000000
3.0053000000 5.1316000000 1.3857000000
3.0051000000 1.6598000000 1.2322000000
3.0049000000 6.5584000000 0.3787000000
3.0048000000 4.9285000000 1.4654000000
3.0046000000 6.9927000000 0.0624000000
3.0045000000 1.9218000000 1.3803000000
3.0042000000 0.7007000000 0.5290000000
3.0040000000 5.9410000000 0.8320000000
3.0038000000 4.7658000000 1.5324000000
3.0037000000 5.7956000000 0.9316000000
3.0035000000 4.4225000000 1.6607000000
3.0032000000 6.0096000000 0.7828000000
3.0031000000 0.7057000000 0.5309000000
3.0028000000 4.0571000000 1.7885000000
3.0026000000 5.8686000000 0.8881000000
3.0025000000 3.6141000000 1.9536000000
3.0021000000 0.0255000000 0.0274000000
3.0018000000 0.9608000000 0.7129000000
3.0015000000 6.5217000000 0.4105000000
3.0010000000 6.3507000000 0.5334000000
3.0007000000 4.9659000000 1.4577000000
3.0006000000 1.5811000000 1.1727000000
3.0000000000 0.8744000000 0.6554000000
2.9997000000 1.5948000000 1.1851000000
2.9990000000 4.9053000000 1.4889000000
2.9988000000 2.3875000000 1.5712000000
2.9985000000 5.6125000000 1.0735000000
2.9982000000 3.1970000000 1.8657000000
2.9975000000 1.6206000000 1.2033000000
2.7627000000 3.0112000000 1.9503000000
2.7610000000 2.4042000000 1.7261000000
2.7609000000 2.6143000000 1.8019000000
2.7603000000 2.4434000000 1.7385000000
2.7594000000 1.3912000000 1.0333000000
2.7588000000 3.9611000000 1.9845000000
2.7585000000 6.6184000000 0.3398000000
2.7580000000 5.5398000000 1.1249000000
2.7578000000 6.0510000000 0.7522000000
2.7574000000 1.7251000000 1.2792000000
2.7570000000 4.5597000000 1.7654000000
2.7563000000 1.6732000000 1.2397000000
2.7562000000 3.2395000000 2.0388000000
2.7560000000 1.3945000000 1.0401000000
2.7558000000 6.2509000000 0.6093000000
2.7557000000 0.0371000000 0.0404000000
2.7556000000 3.0833000000 1.9820000000
2.7553000000 5.0352000000 1.4939000000
2.7551000000 5.2743000000 1.3217000000
2.7549000000 1.1013000000 0.8213000000
2.7548000000 3.2043000000 2.0266000000
2.7547000000 2.9482000000 1.9308000000
2.7545000000 3.6165000000 2.1191000000
2.7544000000 1.8446000000 1.3689000000
2.7541000000 3.7915000000 2.0509000000
2.7538000000 2.6134000000 1.8088000000
2.7535000000 5.4329000000 1.2082000000
2.7531000000 5.0051000000 1.5196000000
2.7530000000 1.0137000000 0.7581000000
2.7529000000 1.3362000000 0.9941000000
2.7525000000 4.7741000000 1.6700000000
2.7523000000 6.8123000000 0.1946000000
2.7523000000 6.7111000000 0.2688000000
2.7521000000 5.5919000000 1.0850000000
2.7515000000 1.5775000000 1.1707000000
2.7513000000 1.2666000000 0.9393000000
2.7510000000 6.7379000000 0.2497000000
2.7508000000 3.5484000000 2.1250000000
2.7501000000 0.4419000000 0.3360000000
2.7499000000 1.5774000000 1.1607000000
2.7498000000 1.1842000000 0.8778000000
2.7490000000 0.9406000000 0.7020000000
2.7487000000 2.8833000000 1.9104000000
2.7479000000 1.0805000000 0.8116000000
2.7466000000 0.1009000000 0.0879000000
2.7457000000 4.8066000000 1.6520000000
2.7448000000 0.4993000000 0.3792000000
2.7527000000 4.5697000000 1.7682000000
2.5145000000 3.6596000000 2.2477000000
2.5108000000 0.7487000000 0.5620000000
2.5100000000 5.4521000000 1.1929000000
2.5089000000 0.6102000000 0.4599000000
2.5088000000 5.5346000000 1.1229000000
2.5083000000 6.9380000000 0.1052000000
2.5080000000 6.3717000000 0.5171000000
2.5070000000 6.1958000000 0.6450000000
2.5068000000 6.2538000000 0.6096000000
2.5067000000 6.7893000000 0.2100000000
2.5066000000 3.1712000000 2.1716000000
2.5064000000 3.9504000000 2.1475000000
2.5062000000 2.9989000000 2.1089000000
2.5060000000 2.0766000000 1.5443000000
2.5059000000 1.9981000000 1.4786000000
2.5058000000 5.6220000000 1.0654000000
2.5054000000 3.6495000000 2.2542000000
2.5053000000 1.6209000000 1.2020000000
2.5049000000 7.0463000000 0.0180000000
2.5047000000 3.0424000000 2.1256000000
2.5046000000 4.9613000000 1.5506000000
2.5045000000 3.6929000000 2.2405000000
2.5044000000 4.1607000000 2.0746000000
2.5041000000 1.9717000000 1.4580000000
2.5040000000 2.3901000000 1.7607000000
2.5039000000 0.6132000000 0.4658000000
2.5036000000 4.9130000000 1.5861000000
2.5035000000 3.7517000000 2.2256000000
2.5034000000 3.1153000000 2.1546000000
2.5033000000 6.7322000000 0.2514000000
2.5031000000 0.3619000000 0.2774000000
2.5030000000 0.5242000000 0.3987000000
2.5025000000 3.3437000000 2.2362000000
2.5023000000 4.5502000000 1.8568000000
2.5020000000 0.0178000000 0.0255000000
2.5020000000 2.7084000000 1.9912000000
2.5018000000 0.8687000000 0.6503000000
2.5017000000 1.9953000000 1.4751000000
2.5015000000 4.7974000000 1.6725000000
2.5013000000 2.8905000000 2.0704000000
2.5010000000 5.2002000000 1.3697000000
2.5008000000 6.7570000000 0.2306000000
2.5005000000 1.6048000000 1.1871000000
2.5000000000 3.7672000000 2.2225000000
2.4998000000 6.4574000000 0.4509000000
2.4991000000 5.0969000000 1.4489000000
2.4988000000 0.2653000000 0.2056000000
2.4985000000 4.9529000000 1.5598000000
2.4979000000 0.0043000000 0.0160000000
2.4971000000 3.8571000000 2.1918000000
2.4950000000 0.2267000000 0.1784000000
2.2617000000 2.2545000000 1.6724000000
2.2613000000 5.1792000000 1.3875000000
2.2601000000 0.5708000000 0.4315000000
2.2593000000 6.8014000000 0.2026000000
2.2588000000 3.4236000000 2.4169000000
2.2586000000 5.7738000000 0.9552000000
2.2585000000 0.8417000000 0.6246000000
2.2578000000 5.4749000000 1.1718000000
2.2574000000 6.2665000000 0.5925000000
2.2571000000 5.6671000000 1.0330000000
2.2570000000 1.7905000000 1.3230000000
2.2567000000 3.4604000000 2.4360000000
2.2565000000 6.7665000000 0.2304000000
2.2563000000 2.1545000000 1.5887000000
2.2560000000 5.6748000000 1.0304000000
2.2559000000 6.0414000000 0.7572000000
2.2558000000 1.5875000000 1.1770000000
2.2556000000 5.6556000000 1.0420000000
2.2554000000 1.6078000000 1.1890000000
2.2551000000 3.1748000000 2.3210000000
2.2548000000 5.2185000000 1.3611000000
2.2548000000 6.3023000000 0.5632000000
2.2545000000 3.8467000000 2.3355000000
2.2543000000 5.4464000000 1.1920000000
2.2541000000 5.6830000000 1.0216000000
2.2539000000 3.4375000000 2.4306000000
2.2537000000 3.1560000000 2.3169000000
2.2536000000 2.2371000000 1.6600000000
2.2535000000 5.1549000000 1.4147000000
2.2535000000 2.8014000000 2.0655000000
2.2533000000 6.6528000000 0.3077000000
2.2532000000 4.9367000000 1.5674000000
2.2531000000 0.2094000000 0.1640000000
2.2529000000 2.3908000000 1.7647000000
2.2527000000 3.9701000000 2.2629000000
2.2526000000 2.8896000000 2.1318000000
2.2524000000 0.7513000000 0.5623000000
2.2523000000 6.8136000000 0.1929000000
2.2521000000 1.8853000000 1.3945000000
2.2519000000 4.7075000000 1.7360000000
2.2518000000 4.6107000000 1.8082000000
2.2514000000 1.2254000000 0.9112000000
2.2513000000 7.0783000000 0.0767000000
2.2511000000 2.9819000000 2.1990000000
2.2510000000 3.5312000000 2.4525000000
2.2510000000 0.7478000000 0.5635000000
2.2505000000 5.1857000000 1.3870000000
2.2503000000 6.8093000000 0.1974000000
2.2502000000 0.2077000000 0.1645000000
2.2498000000 2.5354000000 1.8758000000
2.2491000000 0.4597000000 0.3503000000
2.2488000000 0.3714000000 0.2845000000
2.2481000000 2.8285000000 2.0857000000
2.2461000000 1.0895000000 0.8073000000
2.0128000000 5.3558000000 1.2615000000
2.0114000000 5.5303000000 1.1318000000
2.0101000000 7.0316000000 0.0289000000
2.0094000000 5.0560000000 1.4792000000
2.0092000000 1.4495000000 1.0763000000
2.0085000000 6.6294000000 0.3270000000
2.0083000000 6.8894000000 0.1428000000
2.0079000000 6.7315000000 0.2497000000
2.0074000000 3.5647000000 2.5040000000
2.0070000000 2.7004000000 1.9888000000
2.0069000000 3.7466000000 2.4394000000
2.0065000000 6.9256000000 0.1094000000
2.0061000000 3.6998000000 2.4695000000
2.0057000000 3.7711000000 2.4234000000
2.0055000000 4.9945000000 1.5302000000
2.0053000000 6.0312000000 0.7722000000
2.0052000000 5.5093000000 1.1523000000
2.0050000000 1.3015000000 0.9682000000
2.0049000000 6.8048000000 0.1990000000
2.0048000000 2.0633000000 1.5307000000
2.0046000000 4.8222000000 1.6476000000
2.0044000000 3.2284000000 2.3781000000
2.0042000000 2.3630000000 1.7530000000
2.0039000000 6.7085000000 0.2684000000
2.0037000000 3.3705000000 2.4793000000
2.0036000000 2.6832000000 1.9770000000
2.0032000000 4.7198000000 1.7287000000
2.0031000000 5.4092000000 1.2212000000
2.0030000000 5.7971000000 0.9398000000
2.0027000000 3.4671000000 2.4881000000
2.0024000000 2.5653000000 1.8930000000
2.0023000000 1.3074000000 0.9700000000
2.0022000000 2.4229000000 1.7871000000
2.0020000000 2.1870000000 1.6130000000
2.0017000000 2.2410000000 1.6581000000
2.0016000000 4.9761000000 1.5363000000
2.0014000000 4.4553000000 1.9220000000
2.0012000000 0.0414000000 0.0451000000
2.0011000000 5.2833000000 1.3163000000
2.0009000000 1.8909000000 1.4076000000
2.0005000000 3.5144000000 2.4971000000
2.0001000000 3.6185000000 2.4936000000
1.9998000000 4.3314000000 2.0123000000
1.9993000000 2.2477000000 1.6610000000
1.9989000000 0.1567000000 0.1324000000
1.9988000000 0.0249000000 0.0318000000
1.9975000000 4.2153000000 2.0944000000
1.7624000000 2.4951000000 1.8422000000
1.7614000000 4.8946000000 1.6029000000
1.7608000000 1.1724000000 0.8680000000
1.7607000000 3.6559000000 2.3782000000
1.7600000000 5.2640000000 1.3270000000
1.7594000000 3.0312000000 2.2317000000
1.7585000000 4.3307000000 2.0096000000
1.7583000000 2.9207000000 2.1513000000
1.7579000000 4.3116000000 2.0297000000
1.7573000000 4.4796000000 1.9050000000
1.7570000000 3.5859000000 2.4022000000
1.7569000000 4.5732000000 1.8383000000
1.7565000000 0.6576000000 0.4957000000
1.7563000000 5.1175000000 1.4408000000
1.7561000000 3.2851000000 2.3374000000
1.7559000000 3.1674000000 2.2870000000
1.7553000000 1.5522000000 1.1463000000
1.7552000000 2.5047000000 1.8480000000
1.7551000000 6.1456000000 0.6831000000
1.7549000000 3.2984000000 2.3383000000
1.7548000000 4.9787000000 1.5344000000
1.7545000000 6.8576000000 0.1634000000
1.7544000000 5.3674000000 1.2537000000
1.7542000000 1.2658000000 0.9443000000
1.7540000000 3.8768000000 2.2931000000
1.7539000000 2.0559000000 1.5250000000
1.7537000000 3.0341000000 2.2220000000
1.7536000000 2.8973000000 2.1370000000
1.7533000000 3.5244000000 2.4052000000
1.7531000000 4.3982000000 1.9633000000
1.7529000000 3.7895000000 2.3201000000
1.7527000000 1.0971000000 0.8204000000
1.7520000000 0.4055000000 0.3099000000
1.7520000000 0.0970000000 0.0822000000
1.7515000000 1.0226000000 0.7597000000
1.7513000000 3.0954000000 2.2504000000
1.7512000000 2.7421000000 2.0301000000
1.7510000000 2.7588000000 2.0319000000
1.7507000000 3.7526000000 2.3400000000
1.7506000000 3.0449000000 2.2292000000
1.7502000000 0.9224000000 0.6913000000
1.7495000000 1.8612000000 1.3820000000
1.7487000000 0.7764000000 0.5835000000
1.7483000000 3.6656000000 2.3692000000
1.7478000000 2.1229000000 1.5671000000
1.7471000000 4.0673000000 2.1977000000
1.7461000000 0.3038000000 0.2333000000
1.7419000000 1.2647000000 0.9383000000
1.5108000000 5.0756000000 1.4658000000
1.5102000000 4.4121000000 1.9315000000
1.5097000000 4.2809000000 1.9910000000
1.5096000000 5.0858000000 1.4592000000
1.5095000000 6.6834000000 0.2857000000
1.5091000000 3.2302000000 2.1544000000
1.5081000000 3.8956000000 2.1320000000
1.5077000000 6.0392000000 0.7602000000
1.5076000000 4.7002000000 1.7456000000
1.5075000000 2.1875000000 1.6171000000
1.5074000000 4.0470000000 2.0779000000
1.5073000000 0.0380000000 0.0429000000
1.5072000000 6.4711000000 0.4472000000
1.5070000000 0.9719000000 0.7266000000
1.5068000000 3.4405000000 2.2325000000
1.5065000000 2.0584000000 1.5176000000
1.5064000000 3.4057000000 2.2168000000
1.5062000000 3.5488000000 2.2415000000
1.5059000000 6.7784000000 0.2164000000
1.5055000000 3.6874000000 2.2048000000
1.5053000000 4.0444000000 2.0763000000
1.5052000000 2.8526000000 2.0200000000
1.5050000000 6.3430000000 0.5417000000
1.5049000000 1.4737000000 1.0992000000
1.5048000000 6.8829000000 0.1467000000
1.5046000000 5.9302000000 0.8391000000
1.5044000000 0.9371000000 0.7009000000
1.5043000000 4.4928000000 1.8887000000
1.5040000000 4.8239000000 1.6507000000
1.5037000000 3.7077000000 2.1994000000
1.5035000000 1.9705000000 1.4552000000
1.5034000000 1.2657000000 0.9458000000
1.5032000000 7.0470000000 0.0246000000
1.5030000000 3.5949000000 2.2386000000
1.5028000000 0.7449000000 0.5599000000
1.5026000000 0.3561000000 0.2710000000
1.5021000000 5.2898000000 1.3136000000
1.5017000000 3.5648000000 2.2334000000
1.5016000000 1.8567000000 1.3731000000
1.5009000000 1.5945000000 1.1777000000
1.5007000000 3.9255000000 2.1130000000
1.5005000000 6.2561000000 0.6020000000
1.5003000000 2.5446000000 1.8681000000
1.5000000000 3.6291000000 2.2278000000
1.4993000000 2.4799000000 1.8315000000
1.4992000000 6.7487000000 0.2392000000
1.4991000000 3.8915000000 2.1231000000
1.4989000000 4.5110000000 1.8679000000
1.4982000000 0.0697000000 0.0652000000
1.4970000000 3.9753000000 2.0948000000
1.4954000000 0.9141000000 0.6826000000
1.4943000000 1.0284000000 0.7624000000
1.2630000000 4.5622000000 1.7331000000
1.2608000000 6.7610000000 0.2317000000
1.2600000000 6.5902000000 0.3551000000
1.2593000000 5.0516000000 1.4864000000
1.2592000000 5.6547000000 1.0441000000
1.2588000000 6.5345000000 0.4054000000
1.2581000000 2.0430000000 1.5117000000
1.2579000000 1.3817000000 1.0269000000
1.2574000000 4.7749000000 1.6449000000
1.2572000000 4.7625000000 1.6551000000
1.2568000000 2.6674000000 1.7920000000
1.2563000000 6.7602000000 0.2335000000
1.2561000000 3.9028000000 1.9652000000
1.2558000000 1.2887000000 0.9632000000
1.2557000000 5.5297000000 1.1376000000
1.2555000000 4.0369000000 1.9191000000
1.2553000000 0.2035000000 0.1648000000
1.2552000000 4.6148000000 1.7076000000
1.2550000000 5.8614000000 0.8904000000
1.2548000000 6.9635000000 0.0815000000
1.2548000000 2.2340000000 1.6225000000
1.2546000000 1.7511000000 1.2976000000
1.2544000000 3.4452000000 2.0721000000
1.2542000000 0.4991000000 0.3787000000
1.2538000000 0.1264000000 0.0997000000
1.2536000000 6.1651000000 0.6651000000
1.2536000000 6.2283000000 0.6203000000
1.2535000000 5.8416000000 0.9102000000
1.2533000000 6.6846000000 0.2852000000
1.2530000000 2.0433000000 1.5127000000
1.2528000000 5.8171000000 0.9218000000
1.2523000000 2.5441000000 1.7417000000
1.2523000000 1.3517000000 1.0042000000
1.2520000000 5.5861000000 1.0897000000
1.2518000000 5.1169000000 1.4349000000
1.2515000000 1.0827000000 0.8038000000
1.2512000000 4.5480000000 1.7264000000
1.2510000000 2.4074000000 1.6890000000
1.2505000000 4.4817000000 1.7528000000
1.2500000000 6.6412000000 0.3182000000
1.2498000000 5.2898000000 1.3085000000
1.2495000000 1.2743000000 0.9448000000
1.2491000000 2.1036000000 1.5427000000
1.2486000000 0.7811000000 0.5903000000
1.2483000000 0.2318000000 0.1850000000
1.2479000000 3.6410000000 2.0581000000
1.2460000000 0.5558000000 0.4208000000
1.2459000000 2.2063000000 1.5961000000
1.2453000000 0.6164000000 0.4672000000
1.2450000000 2.9689000000 1.8942000000
1.0121000000 4.1137000000 1.7332000000
1.0104000000 6.5679000000 0.3765000000
1.0099000000 6.1339000000 0.6869000000
1.0095000000 2.1032000000 1.4256000000
1.0094000000 6.7987000000 0.1993000000
1.0090000000 3.6466000000 1.9071000000
1.0086000000 2.1651000000 1.4410000000
1.0083000000 2.7344000000 1.6599000000
1.0081000000 2.8104000000 1.6782000000
1.0077000000 2.4734000000 1.5636000000
1.0076000000 6.6461000000 0.3115000000
1.0074000000 6.1708000000 0.6676000000
1.0071000000 2.4227000000 1.5466000000
1.0069000000 3.7136000000 1.8805000000
1.0068000000 6.7216000000 0.2605000000
1.0067000000 2.4581000000 1.5555000000
1.0065000000 1.7057000000 1.2564000000
1.0063000000 6.5247000000 0.4042000000
1.0063000000 2.6691000000 1.6261000000
1.0061000000 5.4407000000 1.1992000000
1.0059000000 1.6104000000 1.1933000000
1.0055000000 1.5585000000 1.1536000000
1.0054000000 2.1859000000 1.4514000000
1.0051000000 3.1268000000 1.7983000000
1.0050000000 5.2033000000 1.3354000000
1.0048000000 7.0830000000 0.0714000000
1.0046000000 6.4824000000 0.4325000000
1.0044000000 1.4852000000 1.1045000000
1.0043000000 7.0520000000 0.0169000000
1.0041000000 4.6214000000 1.5387000000
1.0040000000 5.2208000000 1.3186000000
1.0039000000 5.9413000000 0.8284000000
1.0036000000 4.6803000000 1.5227000000
1.0033000000 3.3305000000 1.8731000000
1.0032000000 0.3280000000 0.2552000000
1.0030000000 3.0011000000 1.7470000000
1.0028000000 0.1255000000 0.1042000000
1.0025000000 1.4626000000 1.0925000000
1.0022000000 5.7556000000 0.9649000000
1.0021000000 4.8773000000 1.4503000000
1.0017000000 2.3001000000 1.4993000000
1.0014000000 2.9051000000 1.7183000000
1.0013000000 5.0790000000 1.3736000000
1.0011000000 5.9376000000 0.8380000000
1.0010000000 3.2230000000 1.8275000000
1.0008000000 6.6115000000 0.3408000000
1.0007000000 3.5205000000 1.9261000000
0.9994000000 2.6028000000 1.6019000000
0.9990000000 5.1174000000 1.3579000000
0.9987000000 5.1840000000 1.3347000000
0.9978000000 5.8076000000 0.9340000000
0.9962000000 1.1633000000 0.8654000000
0.9951000000 4.3116000000 1.6521000000
0.7610000000 4.1036000000 1.5810000000
0.7599000000 2.4203000000 1.3828000000
0.7596000000 5.9676000000 0.8158000000
0.7593000000 6.6210000000 0.3370000000
0.7588000000 5.3206000000 1.1327000000
0.7585000000 5.2545000000 1.1534000000
0.7579000000 6.1507000000 0.6817000000
0.7572000000 5.7241000000 0.9690000000
0.7564000000 4.9219000000 1.2768000000
0.7563000000 4.0547000000 1.5928000000
0.7560000000 4.4041000000 1.4671000000
0.7558000000 6.6947000000 0.2740000000
0.7558000000 3.9472000000 1.6351000000
0.7556000000 0.5651000000 0.4278000000
0.7553000000 6.4766000000 0.4356000000
0.7550000000 3.8060000000 1.6858000000
0.7548000000 3.8463000000 1.6682000000
0.7547000000 6.7755000000 0.2142000000
0.7543000000 2.5432000000 1.4256000000
0.7541000000 0.7224000000 0.5444000000
0.7540000000 1.3906000000 0.9900000000
0.7537000000 3.6752000000 1.7327000000
0.7535000000 3.9976000000 1.6062000000
0.7533000000 0.3422000000 0.2630000000
0.7530000000 6.0494000000 0.7554000000
0.7529000000 2.0571000000 1.2455000000
0.7527000000 1.2152000000 0.8980000000
0.7525000000 2.5385000000 1.4189000000
0.7524000000 4.9529000000 1.2633000000
0.7523000000 4.2601000000 1.5192000000
0.7520000000 0.2138000000 0.1663000000
0.7518000000 6.6080000000 0.3459000000
0.7513000000 4.5757000000 1.4055000000
0.7508000000 1.3123000000 0.9619000000
0.7505000000 3.7148000000 1.7133000000
0.7502000000 3.6127000000 1.7528000000
0.7501000000 0.7775000000 0.5792000000
0.7499000000 2.2569000000 1.3150000000
0.7490000000 2.0248000000 1.2254000000
0.7488000000 3.8556000000 1.6593000000
0.7484000000 1.1728000000 0.8739000000
0.7477000000 2.7015000000 1.4781000000
0.7473000000 0.9953000000 0.7448000000
0.7452000000 1.9421000000 1.1946000000
0.5109000000 4.4753000000 1.2819000000
0.5094000000 1.6271000000 0.9363000000
0.5090000000 1.8465000000 1.0171000000
0.5078000000 5.5144000000 0.9042000000
0.5078000000 4.8274000000 1.1487000000
0.5075000000 6.8832000000 0.1400000000
0.5073000000 0.5279000000 0.3965000000
0.5070000000 1.7827000000 0.9864000000
0.5068000000 0.3934000000 0.3018000000
0.5065000000 4.4240000000 1.3058000000
0.5064000000 3.9862000000 1.4572000000
0.5062000000 5.3631000000 0.9523000000
0.5059000000 4.4743000000 1.2855000000
0.5057000000 0.3370000000 0.2621000000
0.5056000000 3.5953000000 1.6026000000
0.5053000000 4.9074000000 1.1227000000
0.5051000000 5.5230000000 0.8990000000
0.5050000000 6.9273000000 0.1126000000
0.5048000000 2.8885000000 1.3923000000
0.5046000000 2.0067000000 1.0710000000
0.5044000000 2.6016000000 1.2842000000
0.5043000000 0.6528000000 0.4939000000
0.5041000000 5.8344000000 0.7820000000
0.5040000000 7.0461000000 0.0188000000
0.5039000000 0.8450000000 0.6209000000
0.5037000000 4.3144000000 1.3363000000
0.5035000000 0.7270000000 0.5471000000
0.5033000000 0.2885000000 0.2315000000
0.5031000000 0.5282000000 0.4058000000
0.5030000000 6.9293000000 0.1075000000
0.5029000000 6.0661000000 0.6939000000
0.5028000000 3.6463000000 1.5830000000
0.5026000000 4.8494000000 1.1422000000
0.5024000000 1.7102000000 0.9573000000
0.5023000000 4.5378000000 1.2537000000
0.5020000000 1.2733000000 0.8035000000
0.5018000000 2.6389000000 1.3002000000
0.5017000000 3.3366000000 1.5528000000
0.5013000000 2.2303000000 1.1462000000
0.5008000000 3.1113000000 1.4758000000
0.5005000000 1.3644000000 0.8340000000
0.5003000000 5.2921000000 0.9827000000
0.5002000000 4.5352000000 1.2509000000
0.4997000000 3.5484000000 1.6053000000
0.4992000000 2.5880000000 1.2748000000
0.4989000000 6.3788000000 0.5096000000
0.4984000000 2.8084000000 1.3596000000
0.4979000000 2.2085000000 1.1389000000
0.4962000000 0.0989000000 0.0871000000
0.4937000000 0.4499000000 0.3383000000
0.2605000000 5.3896000000 0.7834000000
0.2597000000 3.5058000000 1.4557000000
0.2593000000 6.3813000000 0.4329000000
0.2590000000 0.3638000000 0.2662000000
0.2587000000 3.1113000000 1.3194000000
0.2573000000 5.8331000000 0.6231000000
0.2571000000 6.9176000000 0.1159000000
0.2569000000 6.7203000000 0.2554000000
0.2567000000 5.7580000000 0.6550000000
0.2565000000 5.9596000000 0.5778000000
0.2563000000 1.0306000000 0.5536000000
0.2560000000 5.0179000000 0.9269000000
0.2560000000 2.6559000000 1.1491000000
0.2559000000 3.0543000000 1.2903000000
0.2557000000 2.8070000000 1.2008000000
0.2554000000 3.5348000000 1.4553000000
0.2552000000 4.5025000000 1.1093000000
0.2549000000 5.7308000000 0.6629000000
0.2548000000 1.3109000000 0.6538000000
0.2545000000 0.3282000000 0.2523000000
0.2544000000 2.3659000000 1.0409000000
0.2543000000 3.3818000000 1.4114000000
0.2542000000 2.6537000000 1.1460000000
0.2541000000 5.0393000000 0.9139000000
0.2537000000 5.3518000000 0.7982000000
0.2536000000 5.6792000000 0.6771000000
0.2535000000 2.6425000000 1.1400000000
0.2533000000 0.6358000000 0.4099000000
0.2532000000 2.4023000000 1.0545000000
0.2531000000 4.7274000000 1.0307000000
0.2530000000 1.2479000000 0.6356000000
0.2528000000 2.7152000000 1.1721000000
0.2527000000 6.8752000000 0.1491000000
0.2525000000 3.4646000000 1.4440000000
0.2523000000 3.1636000000 1.3296000000
0.2521000000 3.9367000000 1.3187000000
0.2520000000 1.8485000000 0.8542000000
0.2516000000 5.0792000000 0.9025000000
0.2513000000 0.1586000000 0.1212000000
0.2512000000 1.6492000000 0.7810000000
0.2509000000 3.7603000000 1.3822000000
0.2509000000 1.3357000000 0.6616000000
0.2505000000 3.4235000000 1.4290000000
0.2503000000 2.0226000000 0.9134000000
0.2500000000 5.8157000000 0.6259000000
0.2496000000 3.1588000000 1.3304000000
0.2486000000 0.0365000000 0.0383000000
0.2482000000 3.4015000000 1.4191000000
0.2479000000 1.8502000000 0.8487000000
0.2455000000 0.0790000000 0.0791000000
0.0141000000 4.7145000000 0.8806000000
0.0120000000 3.5870000000 1.2886000000
0.0101000000 5.4019000000 0.6255000000
0.0093000000 3.4305000000 1.2808000000
0.0090000000 1.4831000000 0.5644000000
0.0086000000 4.9110000000 0.8056000000
0.0085000000 4.8884000000 0.8132000000
0.0083000000 1.6477000000 0.6237000000
0.0079000000 5.9507000000 0.4270000000
0.0076000000 1.9159000000 0.7191000000
0.0074000000 5.1112000000 0.7351000000
0.0072000000 6.3992000000 0.2599000000
0.0067000000 6.9749000000 0.0374000000
0.0065000000 6.2147000000 0.3256000000
0.0063000000 4.0300000000 1.1291000000
0.0060000000 1.2926000000 0.4880000000
0.0059000000 4.6306000000 0.9053000000
0.0057000000 3.6383000000 1.2693000000
0.0054000000 2.9354000000 1.0933000000
0.0052000000 3.6207000000 1.2718000000
0.0050000000 6.5041000000 0.2233000000
0.0047000000 5.4628000000 0.5989000000
0.0046000000 3.7373000000 1.2312000000
0.0043000000 3.3330000000 1.2409000000
0.0042000000 5.4208000000 0.6207000000
0.0041000000 3.2218000000 1.1924000000
0.0038000000 5.1878000000 0.7057000000
0.0035000000 1.9645000000 0.7377000000
0.0034000000 3.0852000000 1.1428000000
0.0031000000 4.0499000000 1.1151000000
0.0031000000 1.1216000000 0.4306000000
0.0029000000 1.9764000000 0.7345000000
0.0027000000 5.1803000000 0.7041000000
0.0026000000 2.1375000000 0.7994000000
0.0025000000 1.6994000000 0.6403000000
0.0024000000 4.6603000000 0.8944000000
0.0023000000 1.8065000000 0.6783000000
0.0020000000 0.0881000000 0.0313000000
0.0018000000 6.5661000000 0.1975000000
0.0017000000 0.6668000000 0.2596000000
0.0016000000 4.4769000000 0.9620000000
0.0015000000 0.3376000000 0.1353000000
0.0012000000 5.1791000000 0.6970000000
0.0007000000 6.6227000000 0.1705000000
0.0006000000 0.6048000000 0.2347000000
0.0003000000 6.0067000000 0.3999000000
-0.0002000000 6.9949000000 0.0284000000
-0.0005000000 2.4190000000 0.9009000000
-0.0009000000 0.5329000000 0.2117000000
-0.0011000000 0.5073000000 0.1984000000
-0.0017000000 1.5191000000 0.5708000000
-0.0021000000 0.6847000000 0.2671000000
-0.0034000000 1.8786000000 0.7026000000
-0.0047000000 1.4906000000 0.5593000000
-0.2395000000 4.9165000000 0.6423000000
-0.2410000000 6.2733000000 0.1478000000
-0.2412000000 5.8712000000 0.2946000000
-0.2416000000 2.4139000000 0.7463000000
-0.2417000000 3.9827000000 0.9875000000
-0.2421000000 6.5497000000 0.0439000000
-0.2426000000 4.6374000000 0.7477000000
-0.2431000000 3.0865000000 0.9957000000
-0.2433000000 6.4111000000 0.0956000000
-0.2437000000 2.9622000000 0.9476000000
-0.2440000000 5.3276000000 0.4929000000
-0.2441000000 5.1847000000 0.5490000000
-0.2442000000 2.8865000000 0.9138000000
-0.2445000000 6.1650000000 0.1926000000
-0.2447000000 2.8031000000 0.8812000000
-0.2449000000 5.8895000000 0.2863000000
-0.2452000000 4.2051000000 0.9029000000
-0.2457000000 2.7286000000 0.8537000000
-0.2458000000 6.4668000000 0.0740000000
-0.2461000000 5.6879000000 0.3540000000
-0.2464000000 3.4707000000 1.1229000000
-0.2466000000 2.1922000000 0.6617000000
-0.2468000000 6.3546000000 0.1166000000
-0.2469000000 1.3269000000 0.3474000000
-0.2470000000 4.8853000000 0.6518000000
-0.2472000000 5.2822000000 0.5057000000
-0.2473000000 0.8247000000 0.1597000000
-0.2474000000 1.5594000000 0.4336000000
-0.2475000000 3.1249000000 1.0043000000
-0.2476000000 5.0648000000 0.5889000000
-0.2479000000 1.0687000000 0.2555000000
-0.2482000000 1.7650000000 0.4985000000
-0.2485000000 0.3810000000 0.0688000000
-0.2485000000 5.5268000000 0.4139000000
-0.2487000000 5.3859000000 0.4632000000
-0.2488000000 6.8233000000 0.0216000000
-0.2492000000 6.0056000000 0.2430000000
-0.2493000000 5.9432000000 0.2672000000
-0.2499000000 0.3317000000 0.0527000000
-0.2501000000 3.9445000000 1.0004000000
-0.2510000000 1.5614000000 0.4281000000
-0.2522000000 0.1991000000 0.0050000000
-0.2524000000 5.2845000000 0.5095000000
-0.2527000000 6.4229000000 0.0851000000
-0.2529000000 2.7676000000 0.8668000000
-0.2550000000 0.2803000000 0.0379000000
-0.4884000000 4.2380000000 0.7355000000
-0.4896000000 4.0409000000 0.8062000000
-0.4920000000 2.6809000000 0.6837000000
-0.4925000000 5.7098000000 0.2014000000
-0.4927000000 5.6212000000 0.2223000000
-0.4935000000 6.1573000000 0.0285000000
-0.4936000000 4.2534000000 0.7294000000
-0.4938000000 2.1951000000 0.5038000000
-0.4942000000 2.9479000000 0.7791000000
-0.4944000000 5.4862000000 0.2804000000
-0.4945000000 6.1218000000 0.0376000000
-0.4947000000 5.7165000000 0.1918000000
-0.4949000000 2.4159000000 0.5890000000
-0.4951000000 4.2562000000 0.7318000000
-0.4955000000 3.6884000000 0.9410000000
-0.4957000000 2.9514000000 0.7778000000
-0.4959000000 5.6813000000 0.2011000000
-0.4961000000 5.1267000000 0.4131000000
-0.4964000000 4.2193000000 0.7394000000
-0.4965000000 6.3872000000 0.0212000000
-0.4967000000 4.7371000000 0.5525000000
-0.4968000000 5.6515000000 0.2087000000
-0.4970000000 4.3067000000 0.7086000000
-0.4970000000 2.3826000000 0.5767000000
-0.4972000000 2.5245000000 0.6259000000
-0.4972000000 4.2920000000 0.7109000000
-0.4975000000 3.8511000000 0.8769000000
-0.4977000000 4.3951000000 0.6762000000
-0.4980000000 0.6422000000 0.0019000000
-0.4987000000 3.3835000000 0.9396000000
-0.4988000000 1.9147000000 0.3997000000
-0.4993000000 2.4064000000 0.5800000000
-0.5007000000 1.1804000000 0.1254000000
-0.5015000000 1.0621000000 0.0764000000
-0.5020000000 6.3278000000 0.0343000000
-0.5026000000 1.9023000000 0.3917000000
-0.5028000000 2.9828000000 0.7852000000
-0.5037000000 0.8012000000 0.0625000000
-0.5050000000 4.5715000000 0.6072000000
-0.5062000000 0.6766000000 0.0151000000
-0.7376000000 2.5655000000 0.4810000000
-0.7400000000 1.9556000000 0.2627000000
-0.7402000000 5.5292000000 0.1030000000
-0.7404000000 2.3302000000 0.3989000000
-0.7410000000 2.6304000000 0.5067000000
-0.7415000000 2.1864000000 0.3448000000
-0.7422000000 2.1079000000 0.3173000000
-0.7425000000 4.5812000000 0.4508000000
-0.7426000000 5.1753000000 0.2308000000
-0.7427000000 3.8025000000 0.7306000000
-0.7429000000 4.6909000000 0.4085000000
-0.7435000000 3.7745000000 0.7470000000
-0.7440000000 2.3554000000 0.4009000000
-0.7443000000 4.6962000000 0.4054000000
-0.7445000000 2.2076000000 0.3473000000
-0.7446000000 5.2153000000 0.2167000000
-0.7448000000 5.0228000000 0.2855000000
-0.7453000000 1.1200000000 0.0265000000
-0.7456000000 5.7927000000 0.0797000000
-0.7457000000 3.4472000000 0.7992000000
-0.7458000000 5.3219000000 0.1755000000
-0.7460000000 5.1679000000 0.2319000000
-0.7461000000 1.2043000000 0.0559000000
-0.7463000000 4.1705000000 0.6027000000
-0.7465000000 4.3060000000 0.5481000000
-0.7467000000 4.0684000000 0.6335000000
-0.7472000000 5.0445000000 0.2783000000
-0.7473000000 2.4743000000 0.4479000000
-0.7475000000 2.4284000000 0.4306000000
-0.7477000000 3.9415000000 0.6839000000
-0.7479000000 3.5568000000 0.8060000000
-0.7482000000 4.8101000000 0.3647000000
-0.7484000000 4.5811000000 0.4504000000
-0.7487000000 3.8024000000 0.7299000000
-0.7488000000 5.2975000000 0.1803000000
-0.7493000000 2.6975000000 0.5286000000
-0.7495000000 4.3938000000 0.5118000000
-0.7502000000 1.5667000000 0.1104000000
-0.7508000000 2.0159000000 0.2789000000
-0.7519000000 2.8553000000 0.5751000000
-0.7535000000 1.0908000000 0.0071000000
-0.9908000000 4.4169000000 0.3554000000
-0.9913000000 5.2365000000 0.0556000000
-0.9919000000 3.2704000000 0.5843000000
-0.9926000000 5.3967000000 0.0671000000
-0.9927000000 4.6533000000 0.2633000000
-0.9933000000 2.1455000000 0.1685000000
-0.9937000000 4.8213000000 0.2048000000
-0.9940000000 1.9851000000 0.1115000000
-0.9942000000 5.0615000000 0.1122000000
-0.9946000000 2.0652000000 0.1393000000
-0.9949000000 4.0423000000 0.4870000000
-0.9954000000 3.9700000000 0.5128000000
-0.9954000000 3.8722000000 0.5511000000
-0.9958000000 3.4985000000 0.6495000000
-0.9965000000 4.7924000000 0.2148000000
-0.9969000000 2.6166000000 0.3353000000
-0.9973000000 1.8334000000 0.0539000000
-0.9977000000 4.4690000000 0.3305000000
-0.9982000000 3.8433000000 0.5622000000
-0.9987000000 1.9140000000 0.0779000000
-0.9989000000 3.5327000000 0.6599000000
-0.9992000000 3.8237000000 0.5653000000
-0.9996000000 3.9178000000 0.5264000000
-1.0002000000 1.8150000000 0.0385000000
-1.0005000000 3.9401000000 0.5177000000
-1.0012000000 2.6610000000 0.3577000000
-1.0016000000 3.4106000000 0.6215000000
-1.0044000000 3.6483000000 0.6246000000
-1.0059000000 3.8050000000 0.5651000000
-1.2384000000 4.1848000000 0.2786000000
-1.2408000000 2.2862000000 0.0650000000
-1.2422000000 2.6595000000 0.1986000000
-1.2425000000 4.0663000000 0.3220000000
-1.2428000000 4.0002000000 0.3442000000
-1.2434000000 2.9276000000 0.2974000000
-1.2436000000 3.1850000000 0.3909000000
-1.2443000000 2.2040000000 0.0239000000
-1.2447000000 3.1366000000 0.3742000000
-1.2453000000 3.8689000000 0.3903000000
-1.2459000000 4.9209000000 0.0829000000
-1.2461000000 2.4626000000 0.1285000000
-1.2464000000 2.9043000000 0.2886000000
-1.2466000000 4.8368000000 0.0348000000
-1.2473000000 2.5651000000 0.1635000000
-1.2476000000 3.0407000000 0.3305000000
-1.2481000000 4.3728000000 0.2098000000
-1.2489000000 3.3642000000 0.4497000000
-1.2491000000 2.7563000000 0.2269000000
-1.2492000000 3.9663000000 0.3560000000
-1.2493000000 4.1983000000 0.2673000000
-1.2499000000 4.1173000000 0.2984000000
-1.2508000000 2.2202000000 0.0382000000
-1.2510000000 1.9965000000 0.0266000000
-1.2519000000 4.6118000000 0.1150000000
-1.2528000000 3.7754000000 0.4191000000
-1.4915000000 4.0090000000 0.1823000000
-1.4921000000 4.3053000000 0.0757000000
-1.4924000000 2.6010000000 0.0182000000
-1.4940000000 4.5935000000 0.0437000000
-1.4949000000 3.6777000000 0.3020000000
-1.4960000000 2.9412000000 0.1412000000
-1.4961000000 3.0957000000 0.1912000000
-1.4962000000 4.0110000000 0.1895000000
-1.4965000000 4.1543000000 0.1257000000
-1.4972000000 2.9535000000 0.1476000000
-1.4978000000 2.7315000000 0.0644000000
-1.4982000000 2.9467000000 0.1451000000
-1.4991000000 2.8456000000 0.1006000000
-1.5000000000 3.1677000000 0.2218000000
-1.5002000000 4.0612000000 0.1584000000
