6.7628000000 3.7787000000 0.0148000000
6.7551000000 3.6732000000 0.0441000000
6.7522000000 4.2953000000 0.0044000000
6.5098000000 3.5114000000 0.1023000000
6.5078000000 4.2914000000 0.0689000000
6.5049000000 3.6364000000 0.0950000000
6.5040000000 4.6901000000 0.0234000000
6.5010000000 4.4649000000 0.0624000000
6.4999000000 4.4015000000 0.1007000000
6.4990000000 3.8051000000 0.1846000000
6.2608000000 2.8699000000 0.0692000000
6.2586000000 2.8309000000 0.0476000000
6.2577000000 4.5331000000 0.1631000000
6.2572000000 4.5643000000 0.1464000000
6.2568000000 3.2442000000 0.1176000000
6.2555000000 3.1235000000 0.0546000000
6.2550000000 4.8769000000 0.0724000000
6.2537000000 4.2579000000 0.3071000000
6.2529000000 3.9368000000 0.4515000000
6.2524000000 3.1885000000 0.0911000000
6.2519000000 4.9931000000 0.0893000000
6.2505000000 3.9086000000 0.4384000000
6.2467000000 4.0931000000 0.4017000000
6.0128000000 3.2663000000 0.3455000000
6.0104000000 4.0116000000 0.6505000000
6.0096000000 2.5554000000 0.0587000000
6.0083000000 3.0614000000 0.2392000000
6.0078000000 5.0756000000 0.1090000000
6.0070000000 3.4364000000 0.4361000000
6.0068000000 4.5958000000 0.3535000000
6.0062000000 2.6672000000 0.0412000000
6.0053000000 4.2791000000 0.5177000000
6.0051000000 2.6190000000 0.0917000000
6.0045000000 3.2009000000 0.3111000000
6.0037000000 4.2958000000 0.5085000000
6.0029000000 3.2150000000 0.3211000000
6.0024000000 3.0946000000 0.2666000000
6.0021000000 2.8782000000 0.1425000000
6.0010000000 5.4915000000 0.0598000000
6.0007000000 2.7420000000 0.0881000000
5.9988000000 3.3086000000 0.3784000000
5.9978000000 3.0535000000 0.2398000000
5.9954000000 2.8237000000 0.1314000000
5.7621000000 4.1030000000 0.8147000000
5.7598000000 5.2633000000 0.2328000000
5.7586000000 2.8381000000 0.3417000000
5.7582000000 3.1140000000 0.4835000000
5.7570000000 2.3095000000 0.0756000000
5.7565000000 1.9431000000 0.0457000000
5.7558000000 2.0668000000 0.0349000000
5.7554000000 5.0197000000 0.3571000000
5.7550000000 3.3272000000 0.5940000000
5.7548000000 4.7646000000 0.4844000000
5.7543000000 2.2044000000 0.1050000000
5.7533000000 5.4070000000 0.1701000000
5.7525000000 3.9278000000 0.8861000000
5.7517000000 1.9466000000 0.0526000000
5.7510000000 2.4785000000 0.1710000000
5.7489000000 1.9224000000 0.0351000000
5.7450000000 4.1613000000 0.8030000000
5.5123000000 3.1645000000 0.7301000000
5.5098000000 5.4964000000 0.3356000000
5.5090000000 5.5671000000 0.3008000000
5.5082000000 6.3073000000 0.0757000000
5.5075000000 2.7365000000 0.5169000000
5.5070000000 4.3256000000 0.9267000000
5.5066000000 5.9764000000 0.0895000000
5.5063000000 1.8867000000 0.0890000000
5.5058000000 4.8692000000 0.6570000000
5.5054000000 5.7182000000 0.2252000000
5.5049000000 4.9026000000 0.6369000000
5.5046000000 6.1127000000 0.1043000000
5.5043000000 4.8001000000 0.6883000000
5.5040000000 3.3806000000 0.8466000000
5.5034000000 3.5818000000 0.9463000000
5.5028000000 5.4627000000 0.3568000000
5.5022000000 3.0894000000 0.6966000000
5.5017000000 5.3675000000 0.4091000000
5.5012000000 2.1249000000 0.2145000000
5.5006000000 3.5558000000 0.9332000000
5.4970000000 2.0051000000 0.1540000000
5.2622000000 4.7549000000 0.9258000000
5.2600000000 5.4048000000 0.6002000000
5.2588000000 1.2413000000 0.0517000000
5.2585000000 4.9576000000 0.8270000000
5.2583000000 1.0551000000 0.0314000000
5.2576000000 1.0048000000 0.0040000000
5.2570000000 3.2334000000 0.9847000000
5.2565000000 2.2703000000 0.5032000000
5.2560000000 5.7622000000 0.4204000000
5.2555000000 3.3312000000 1.0394000000
5.2551000000 2.0395000000 0.3843000000
5.2548000000 2.7683000000 0.7554000000
5.2545000000 3.6389000000 1.1948000000
5.2543000000 5.4181000000 0.5999000000
5.2541000000 1.0124000000 0.0161000000
5.2538000000 3.4540000000 1.1010000000
5.2534000000 4.7303000000 0.9438000000
5.2531000000 5.2113000000 0.7089000000
5.2525000000 6.7617000000 0.0667000000
5.2523000000 5.5097000000 0.5500000000
5.2520000000 2.7074000000 0.7225000000
5.2515000000 2.6901000000 0.7178000000
5.2513000000 3.2976000000 1.0300000000
5.2510000000 2.4795000000 0.6122000000
5.2503000000 2.5049000000 0.6236000000
5.2480000000 1.9936000000 0.3709000000
5.2468000000 4.2451000000 1.1953000000
5.0116000000 1.6332000000 0.3905000000
5.0100000000 0.6737000000 0.0641000000
5.0098000000 4.7665000000 1.1442000000
5.0092000000 5.6966000000 0.6726000000
5.0091000000 5.3068000000 0.8683000000
5.0083000000 1.6982000000 0.4228000000
5.0082000000 4.6211000000 1.2100000000
5.0078000000 3.3824000000 1.2814000000
5.0073000000 4.1835000000 1.4384000000
5.0070000000 7.0077000000 0.0836000000
5.0065000000 4.9882000000 1.0313000000
5.0063000000 5.6255000000 0.7131000000
5.0058000000 2.6545000000 0.9112000000
5.0055000000 3.8946000000 1.5245000000
5.0052000000 6.2028000000 0.4198000000
5.0048000000 6.7400000000 0.1442000000
5.0044000000 2.8934000000 1.0280000000
5.0043000000 3.5473000000 1.3700000000
5.0040000000 1.7769000000 0.4687000000
5.0039000000 1.2737000000 0.2182000000
5.0036000000 3.8535000000 1.5252000000
5.0035000000 4.1003000000 1.4829000000
5.0032000000 1.0863000000 0.1201000000
5.0028000000 3.0146000000 1.0953000000
5.0025000000 4.8583000000 1.1053000000
5.0021000000 6.7691000000 0.1352000000
5.0020000000 3.8333000000 1.5097000000
5.0011000000 6.2577000000 0.3940000000
5.0009000000 0.9637000000 0.0623000000
5.0004000000 1.0774000000 0.1217000000
4.9997000000 0.6546000000 0.0563000000
4.9993000000 1.2908000000 0.2313000000
4.9988000000 2.0497000000 0.6045000000
4.9965000000 0.8171000000 0.0635000000
4.7639000000 7.6750000000 0.0337000000
4.7602000000 4.4413000000 1.5251000000
4.7596000000 6.0715000000 0.7071000000
4.7590000000 5.4508000000 1.0155000000
4.7583000000 4.6452000000 1.4226000000
4.7580000000 1.7381000000 0.6668000000
4.7578000000 5.1192000000 1.1826000000
4.7575000000 3.7573000000 1.6908000000
4.7574000000 5.0926000000 1.2009000000
4.7570000000 5.5017000000 0.9885000000
4.7568000000 1.4224000000 0.5085000000
4.7563000000 5.2219000000 1.1364000000
4.7562000000 6.4464000000 0.5129000000
4.7558000000 4.9483000000 1.2752000000
4.7554000000 4.2034000000 1.6524000000
4.7553000000 4.9497000000 1.2658000000
4.7550000000 1.4845000000 0.5378000000
4.7548000000 3.6760000000 1.6496000000
4.7547000000 7.6139000000 0.0711000000
4.7543000000 0.2304000000 0.0605000000
4.7542000000 3.8961000000 1.7460000000
4.7538000000 4.2462000000 1.6290000000
4.7535000000 6.0590000000 0.7145000000
4.7532000000 7.7108000000 0.0310000000
4.7528000000 7.3832000000 0.0437000000
4.7527000000 0.6973000000 0.1508000000
4.7519000000 2.3859000000 1.0042000000
4.7516000000 3.0820000000 1.3515000000
4.7511000000 7.6595000000 0.0543000000
4.7506000000 6.9725000000 0.2578000000
4.7504000000 0.4729000000 0.0348000000
4.7501000000 1.3396000000 0.4724000000
4.7494000000 1.8928000000 0.7539000000
4.7489000000 5.2154000000 1.1438000000
4.7485000000 3.7312000000 1.6814000000
4.7473000000 1.8508000000 0.7315000000
4.5165000000 4.2220000000 1.8470000000
4.5125000000 6.7924000000 0.5492000000
4.5120000000 4.9566000000 1.4795000000
4.5105000000 7.3894000000 0.2523000000
4.5095000000 3.9050000000 1.9627000000
4.5090000000 7.2980000000 0.2979000000
4.5087000000 6.5440000000 0.6814000000
4.5083000000 1.1995000000 0.6090000000
4.5082000000 6.7758000000 0.5586000000
4.5077000000 2.7197000000 1.3804000000
4.5074000000 7.7327000000 0.0635000000
4.5073000000 2.6593000000 1.3503000000
4.5070000000 4.5326000000 1.6967000000
4.5062000000 0.6567000000 0.3384000000
4.5059000000 6.3742000000 0.7713000000
4.5056000000 7.9266000000 0.0738000000
4.5054000000 6.1769000000 0.8685000000
4.5053000000 3.3699000000 1.7164000000
4.5048000000 0.8197000000 0.4285000000
4.5047000000 4.1051000000 1.9172000000
4.5045000000 7.3986000000 0.2506000000
4.5044000000 5.7945000000 1.0629000000
4.5042000000 6.3344000000 0.7885000000
4.5041000000 4.3870000000 1.7801000000
4.5038000000 5.2216000000 1.3547000000
4.5037000000 5.7423000000 1.0921000000
4.5035000000 5.3261000000 1.2991000000
4.5034000000 1.8801000000 0.9598000000
4.5033000000 4.9481000000 1.4914000000
4.5030000000 2.2094000000 1.1294000000
4.5027000000 5.0591000000 1.4351000000
4.5025000000 5.0333000000 1.4526000000
4.5022000000 4.0098000000 1.9658000000
4.5020000000 2.7138000000 1.3832000000
4.5018000000 0.4605000000 0.2503000000
4.5015000000 0.3007000000 0.1658000000
4.5014000000 6.7674000000 0.5734000000
4.5012000000 1.0484000000 0.5436000000
4.5007000000 5.1135000000 1.4115000000
4.4995000000 1.0094000000 0.5206000000
4.4992000000 0.8984000000 0.4676000000
4.4969000000 1.6057000000 0.8300000000
4.4962000000 1.2048000000 0.6292000000
4.2616000000 7.7599000000 0.0907000000
4.2614000000 3.2390000000 1.8607000000
4.2608000000 6.1683000000 1.0898000000
4.2600000000 4.6593000000 1.8488000000
4.2597000000 5.1874000000 1.5855000000
4.2595000000 6.9762000000 0.6836000000
4.2592000000 6.3763000000 0.9844000000
4.2589000000 7.6476000000 0.2005000000
4.2581000000 6.4674000000 0.9414000000
4.2578000000 5.0262000000 1.6691000000
4.2574000000 5.9510000000 1.2012000000
4.2570000000 6.7457000000 0.7978000000
4.2568000000 2.6702000000 1.5788000000
4.2563000000 0.4517000000 0.4174000000
4.2560000000 2.9670000000 1.7297000000
4.2558000000 2.5023000000 1.4903000000
4.2553000000 4.5675000000 1.9002000000
4.2548000000 6.9597000000 0.6988000000
4.2546000000 7.4681000000 0.3754000000
4.2543000000 4.8642000000 1.7531000000
4.2541000000 7.6725000000 0.1838000000
4.2538000000 3.8514000000 2.1773000000
4.2535000000 7.1437000000 0.6006000000
4.2533000000 7.7411000000 0.1161000000
4.2529000000 5.8945000000 1.2272000000
4.2525000000 5.3227000000 1.5220000000
4.2522000000 2.4112000000 1.4488000000
4.2520000000 6.7460000000 0.8065000000
4.2516000000 0.0228000000 0.0699000000
4.2515000000 4.8418000000 1.7633000000
4.2512000000 4.1682000000 2.1128000000
4.2508000000 1.6296000000 1.0519000000
4.2503000000 7.8765000000 0.0474000000
4.2499000000 1.1961000000 0.8356000000
4.2495000000 4.3317000000 2.0222000000
4.2485000000 1.7666000000 1.1263000000
4.2477000000 6.2035000000 1.0867000000
4.2472000000 0.5259000000 0.4817000000
4.0148000000 4.3865000000 2.2061000000
4.0128000000 7.5209000000 0.3322000000
4.0103000000 7.2442000000 0.6125000000
4.0093000000 1.1880000000 1.0469000000
4.0085000000 6.8625000000 0.9385000000
4.0079000000 4.8983000000 1.9529000000
4.0075000000 7.5011000000 0.3575000000
4.0071000000 3.9658000000 2.4068000000
4.0068000000 4.7280000000 2.0350000000
4.0065000000 5.8098000000 1.4867000000
4.0063000000 5.1101000000 1.8442000000
4.0060000000 3.5207000000 2.2243000000
4.0058000000 7.3630000000 0.4927000000
4.0055000000 2.2800000000 1.6001000000
4.0052000000 6.8759000000 0.9401000000
4.0050000000 4.8062000000 2.0036000000
4.0046000000 7.3221000000 0.5317000000
4.0043000000 3.0349000000 1.9823000000
4.0040000000 4.4377000000 2.1881000000
4.0038000000 6.4551000000 1.1689000000
4.0034000000 0.5225000000 0.4970000000
4.0032000000 3.4547000000 2.1978000000
4.0031000000 4.3486000000 2.2347000000
4.0029000000 3.6090000000 2.2722000000
4.0028000000 1.3201000000 1.1127000000
4.0026000000 3.9152000000 2.4161000000
4.0020000000 1.1549000000 1.0349000000
4.0015000000 0.4855000000 0.4663000000
4.0007000000 6.2737000000 1.2668000000
4.0004000000 6.3433000000 1.2258000000
4.0002000000 5.4071000000 1.7096000000
4.0000000000 5.0696000000 1.8725000000
3.9997000000 3.8407000000 2.3945000000
3.9994000000 5.2659000000 1.7784000000
3.9993000000 2.3220000000 1.6215000000
3.9987000000 3.1593000000 2.0533000000
3.9984000000 4.7020000000 2.0626000000
3.9976000000 0.4459000000 0.4192000000
3.9933000000 1.2274000000 1.0828000000
3.7622000000 5.4331000000 1.9003000000
3.7607000000 6.4060000000 1.4000000000
3.7601000000 2.8224000000 2.0912000000
3.7593000000 2.2942000000 1.8264000000
3.7585000000 5.3841000000 1.9258000000
3.7580000000 7.2941000000 0.5615000000
3.7574000000 7.1539000000 0.7059000000
3.7569000000 2.9283000000 2.1423000000
3.7567000000 5.0180000000 2.1124000000
3.7565000000 3.0435000000 2.2058000000
3.7564000000 4.5183000000 2.3676000000
3.7561000000 6.1901000000 1.5184000000
3.7558000000 3.7094000000 2.5391000000
3.7553000000 1.7773000000 1.5660000000
3.7552000000 3.9471000000 2.6372000000
3.7550000000 1.3500000000 1.3226000000
3.7546000000 5.6969000000 1.7736000000
3.7543000000 2.4712000000 1.9186000000
3.7541000000 6.2537000000 1.4909000000
3.7539000000 2.1802000000 1.7707000000
3.7536000000 1.3085000000 1.2810000000
3.7534000000 7.3093000000 0.5485000000
3.7532000000 5.1012000000 2.0733000000
3.7530000000 0.7050000000 0.6823000000
3.7527000000 2.7572000000 2.0657000000
3.7522000000 3.8169000000 2.5955000000
3.7518000000 0.4451000000 0.4201000000
3.7514000000 2.8724000000 2.1223000000
3.7512000000 4.7904000000 2.2338000000
3.7508000000 3.1873000000 2.2799000000
3.7505000000 0.9187000000 0.9038000000
3.7502000000 4.0288000000 2.6140000000
3.7497000000 0.6132000000 0.5864000000
3.7495000000 2.9085000000 2.1404000000
3.7491000000 2.9083000000 2.1390000000
3.7489000000 1.0346000000 1.0174000000
3.7485000000 2.7790000000 2.0770000000
3.7470000000 5.5792000000 1.8362000000
3.5149000000 4.9557000000 2.3576000000
3.5115000000 0.4051000000 0.3827000000
3.5105000000 6.6442000000 1.2208000000
3.5096000000 3.6733000000 2.7377000000
3.5092000000 7.2192000000 0.6376000000
3.5085000000 3.5637000000 2.6818000000
3.5082000000 6.5124000000 1.3569000000
3.5078000000 6.8520000000 1.0082000000
3.5074000000 6.7891000000 1.0780000000
3.5070000000 5.0309000000 2.3240000000
3.5065000000 7.7757000000 0.0755000000
3.5062000000 6.1758000000 1.6893000000
3.5058000000 5.9696000000 1.8402000000
3.5056000000 1.1128000000 1.0972000000
3.5054000000 6.1088000000 1.7481000000
3.5051000000 2.0269000000 1.9089000000
3.5049000000 7.8509000000 0.0744000000
3.5046000000 2.6111000000 2.2043000000
3.5045000000 4.5109000000 2.5881000000
3.5042000000 1.0514000000 1.0333000000
3.5039000000 6.2676000000 1.5949000000
3.5036000000 1.2072000000 1.1935000000
3.5035000000 6.7514000000 1.1109000000
3.5031000000 1.1135000000 1.0954000000
3.5030000000 6.8970000000 0.9659000000
3.5029000000 6.8147000000 1.0494000000
3.5027000000 1.8155000000 1.7887000000
3.5024000000 4.8010000000 2.4435000000
3.5018000000 0.8851000000 0.8674000000
3.5017000000 0.0128000000 0.0583000000
3.5013000000 6.8233000000 1.0448000000
3.5005000000 0.8201000000 0.7980000000
3.5001000000 1.9481000000 1.8694000000
3.4989000000 2.8587000000 2.3329000000
3.4980000000 0.6737000000 0.6524000000
3.4967000000 1.0570000000 1.0392000000
3.4951000000 1.4301000000 1.4156000000
3.2609000000 1.7802000000 1.7763000000
3.2601000000 5.8634000000 2.0136000000
3.2595000000 4.3013000000 2.9098000000
3.2589000000 5.7464000000 2.1199000000
3.2583000000 2.6052000000 2.4167000000
3.2579000000 0.4342000000 0.4114000000
3.2578000000 7.9011000000 0.0203000000
3.2575000000 1.5562000000 1.5425000000
3.2571000000 0.2182000000 0.1964000000
3.2570000000 3.2215000000 2.7296000000
3.2565000000 2.4149000000 2.3187000000
3.2561000000 6.8993000000 0.9616000000
3.2559000000 5.4562000000 2.3255000000
3.2556000000 6.2839000000 1.5854000000
3.2555000000 1.4290000000 1.4171000000
3.2550000000 6.9285000000 0.9288000000
3.2548000000 2.4331000000 2.3364000000
3.2547000000 1.5936000000 1.5822000000
3.2545000000 0.2655000000 0.2456000000
3.2541000000 6.6399000000 1.2277000000
3.2538000000 4.4922000000 2.8146000000
3.2536000000 3.4738000000 2.8655000000
3.2535000000 4.0265000000 3.0511000000
3.2533000000 4.6405000000 2.7442000000
3.2527000000 0.8733000000 0.8605000000
3.2525000000 1.3093000000 1.2921000000
3.2523000000 0.3167000000 0.2941000000
3.2519000000 3.4696000000 2.8607000000
3.2516000000 2.2341000000 2.2196000000
3.2512000000 0.2365000000 0.2074000000
3.2510000000 3.9061000000 3.0752000000
3.2503000000 3.5745000000 2.9184000000
3.2498000000 3.4415000000 2.8501000000
3.2492000000 0.5935000000 0.5731000000
3.2476000000 1.5927000000 1.5798000000
3.2465000000 7.3011000000 0.5559000000
3.0153000000 5.5102000000 2.3664000000
3.0119000000 6.4959000000 1.3715000000
3.0107000000 3.2023000000 2.9370000000
3.0093000000 1.3303000000 1.3152000000
3.0092000000 6.6175000000 1.2489000000
3.0090000000 7.8513000000 0.0786000000
3.0082000000 6.6043000000 1.2642000000
3.0080000000 7.7251000000 0.1295000000
3.0071000000 2.4458000000 2.4420000000
3.0066000000 0.3707000000 0.3454000000
3.0063000000 5.7259000000 2.1546000000
3.0060000000 3.8360000000 3.2569000000
3.0058000000 1.9946000000 1.9874000000
3.0056000000 4.8821000000 2.8399000000
3.0053000000 5.3889000000 2.4861000000
3.0050000000 7.7306000000 0.1197000000
3.0046000000 0.1663000000 0.1448000000
3.0043000000 6.9961000000 0.8692000000
3.0040000000 6.1642000000 1.7066000000
3.0037000000 2.9572000000 2.8156000000
3.0033000000 7.4582000000 0.4013000000
3.0032000000 2.4718000000 2.4697000000
3.0028000000 5.8348000000 2.0410000000
3.0025000000 1.6327000000 1.6230000000
3.0022000000 1.5893000000 1.5766000000
3.0019000000 3.0900000000 2.8856000000
3.0015000000 6.9709000000 0.8906000000
3.0012000000 4.6102000000 2.9815000000
3.0007000000 2.2403000000 2.2380000000
3.0003000000 1.9637000000 1.9567000000
3.0000000000 1.2494000000 1.2344000000
2.9994000000 2.9286000000 2.8102000000
2.9990000000 2.4519000000 2.4535000000
2.9985000000 2.3442000000 2.3397000000
2.9981000000 0.2493000000 0.2290000000
2.9958000000 5.1924000000 2.6805000000
2.7619000000 7.5765000000 0.2814000000
2.7607000000 6.0011000000 1.8677000000
2.7598000000 5.9090000000 1.9641000000
2.7594000000 5.4803000000 2.4015000000
2.7586000000 3.5916000000 3.3563000000
2.7581000000 4.7173000000 3.1201000000
2.7578000000 4.8439000000 3.0227000000
2.7576000000 1.8975000000 1.8954000000
2.7573000000 5.6925000000 2.1832000000
2.7569000000 1.5290000000 1.5148000000
2.7565000000 4.1645000000 3.4143000000
2.7563000000 6.7316000000 1.1341000000
2.7560000000 1.2310000000 1.2134000000
2.7559000000 1.5276000000 1.5179000000
2.7558000000 3.3167000000 3.2199000000
2.7555000000 6.1597000000 1.7152000000
2.7553000000 6.9761000000 0.8827000000
2.7550000000 5.3832000000 2.4938000000
2.7549000000 3.8261000000 3.4749000000
2.7546000000 1.4630000000 1.4561000000
2.7545000000 7.5406000000 0.3115000000
2.7544000000 3.1615000000 3.1258000000
2.7542000000 2.8998000000 2.9020000000
2.7539000000 5.2676000000 2.6112000000
2.7538000000 3.8062000000 3.4659000000
2.7535000000 6.2266000000 1.6385000000
2.7533000000 7.7390000000 0.1133000000
2.7528000000 3.6226000000 3.3784000000
2.7526000000 3.4583000000 3.2905000000
2.7525000000 1.8214000000 1.8133000000
2.7523000000 2.6210000000 2.6188000000
2.7520000000 1.6645000000 1.6602000000
2.7518000000 4.5940000000 3.2041000000
2.7514000000 7.2300000000 0.6327000000
2.7512000000 0.8585000000 0.8383000000
2.7510000000 3.4619000000 3.2913000000
2.7506000000 0.9485000000 0.9308000000
2.7497000000 0.4075000000 0.3862000000
2.7495000000 1.3156000000 1.3007000000
2.7490000000 2.3056000000 2.2997000000
2.7488000000 1.9189000000 1.9100000000
2.7480000000 1.8156000000 1.8045000000
2.7465000000 2.3710000000 2.3711000000
2.7448000000 1.5319000000 1.5194000000
2.5133000000 4.9840000000 2.9035000000
2.5112000000 7.8609000000 0.0618000000
2.5101000000 6.8733000000 0.9908000000
2.5099000000 6.5845000000 1.2860000000
2.5095000000 2.0175000000 2.0127000000
2.5092000000 7.8101000000 0.0412000000
2.5083000000 6.9320000000 0.9268000000
2.5076000000 5.2362000000 2.6482000000
2.5071000000 2.2022000000 2.1977000000
2.5068000000 6.9934000000 0.8740000000
2.5066000000 5.6716000000 2.2052000000
2.5061000000 7.8792000000 0.0450000000
2.5060000000 0.4362000000 0.4124000000
2.5058000000 1.3787000000 1.3698000000
2.5056000000 2.1910000000 2.1902000000
2.5053000000 4.3362000000 3.5388000000
2.5048000000 4.8565000000 3.0280000000
2.5048000000 1.0886000000 1.0804000000
2.5045000000 1.0884000000 1.0706000000
2.5041000000 2.0997000000 2.0971000000
2.5039000000 5.7668000000 2.1067000000
2.5037000000 6.7064000000 1.1631000000
2.5035000000 1.8297000000 1.8212000000
2.5033000000 1.4006000000 1.3874000000
2.5031000000 1.7722000000 1.7627000000
2.5029000000 6.1522000000 1.7200000000
2.5026000000 6.4590000000 1.4083000000
2.5023000000 4.2585000000 3.5780000000
2.5018000000 7.5347000000 0.3210000000
2.5013000000 5.5843000000 2.2925000000
2.5010000000 5.9882000000 1.8825000000
2.5008000000 0.5620000000 0.5398000000
2.5005000000 3.2080000000 3.2137000000
2.5003000000 1.9495000000 1.9364000000
2.5001000000 2.8086000000 2.8140000000
2.4998000000 1.2260000000 1.2123000000
2.4996000000 2.9919000000 2.9992000000
2.4992000000 5.7788000000 2.1034000000
2.4989000000 1.8306000000 1.8232000000
2.4979000000 3.1012000000 3.1086000000
2.4969000000 0.0667000000 0.0396000000
2.4934000000 3.5328000000 3.5309000000
2.2607000000 2.7113000000 2.7155000000
2.2595000000 6.8648000000 0.9975000000
2.2592000000 7.0577000000 0.7988000000
2.2590000000 6.5309000000 1.3371000000
2.2585000000 4.3531000000 3.5393000000
2.2580000000 1.3745000000 1.3577000000
2.2578000000 5.0279000000 2.8554000000
2.2576000000 2.4915000000 2.4890000000
2.2573000000 6.1350000000 1.7389000000
2.2568000000 0.4123000000 0.3875000000
2.2566000000 0.6926000000 0.6714000000
2.2562000000 1.3320000000 1.3190000000
2.2558000000 6.2627000000 1.6091000000
2.2555000000 0.9862000000 0.9643000000
2.2551000000 6.8680000000 1.0000000000
2.2549000000 4.9714000000 2.9154000000
2.2545000000 6.4230000000 1.4477000000
2.2544000000 7.3354000000 0.5243000000
2.2543000000 3.1875000000 3.1976000000
2.2538000000 2.2265000000 2.2228000000
2.2537000000 1.3912000000 1.3764000000
2.2535000000 1.0222000000 1.0033000000
2.2534000000 3.6010000000 3.6116000000
2.2532000000 2.7645000000 2.7635000000
2.2529000000 2.2829000000 2.2773000000
2.2528000000 7.7751000000 0.0751000000
2.2525000000 2.5427000000 2.5412000000
2.2523000000 2.1085000000 2.1084000000
2.2521000000 4.1745000000 3.7175000000
2.2515000000 1.6686000000 1.6610000000
2.2513000000 3.5362000000 3.5412000000
2.2509000000 0.9531000000 0.9321000000
2.2506000000 2.2356000000 2.2281000000
2.2503000000 4.2861000000 3.6089000000
2.2494000000 0.5872000000 0.5649000000
2.2490000000 4.7398000000 3.1441000000
2.2483000000 3.8227000000 3.8140000000
2.2472000000 0.3164000000 0.2925000000
2.2465000000 0.1613000000 0.1383000000
2.0125000000 4.6125000000 3.2767000000
2.0101000000 2.8702000000 2.8718000000
2.0092000000 6.2606000000 1.6128000000
2.0086000000 4.1431000000 3.6200000000
2.0082000000 0.1248000000 0.0943000000
2.0081000000 6.8013000000 1.0609000000
2.0078000000 0.4799000000 0.4528000000
2.0074000000 2.5322000000 2.5332000000
2.0068000000 6.8064000000 1.0620000000
2.0066000000 4.8794000000 3.0084000000
2.0062000000 0.1344000000 0.1090000000
2.0061000000 3.6698000000 3.5858000000
2.0058000000 1.5292000000 1.5168000000
2.0054000000 2.6518000000 2.6463000000
2.0052000000 4.3505000000 3.4988000000
2.0051000000 2.5288000000 2.5292000000
2.0050000000 4.0328000000 3.6728000000
2.0047000000 5.1309000000 2.7512000000
2.0043000000 3.0063000000 3.0079000000
2.0041000000 2.8482000000 2.8537000000
2.0036000000 3.0185000000 3.0258000000
2.0035000000 0.8565000000 0.8381000000
2.0033000000 6.4015000000 1.4695000000
2.0032000000 1.4983000000 1.4891000000
2.0030000000 3.8363000000 3.6709000000
2.0027000000 3.0607000000 3.0697000000
2.0024000000 6.4361000000 1.4336000000
2.0021000000 5.1032000000 2.7838000000
2.0018000000 7.6950000000 0.1539000000
2.0016000000 3.2563000000 3.2703000000
2.0015000000 5.6475000000 2.2329000000
2.0012000000 2.2930000000 2.2919000000
2.0010000000 3.5489000000 3.5017000000
2.0005000000 2.3038000000 2.3019000000
2.0000000000 6.2183000000 1.6495000000
1.9988000000 0.7063000000 0.6852000000
1.9977000000 0.4689000000 0.4456000000
1.9963000000 2.6522000000 2.6509000000
1.7643000000 5.8466000000 2.0306000000
1.7625000000 7.7442000000 0.1062000000
1.7614000000 4.7469000000 3.0826000000
1.7606000000 2.9301000000 2.9380000000
1.7595000000 7.1490000000 0.7079000000
1.7592000000 6.5833000000 1.2832000000
1.7587000000 5.0981000000 2.7870000000
1.7581000000 6.9093000000 0.9522000000
1.7573000000 7.8070000000 0.0428000000
1.7571000000 3.6507000000 3.3543000000
1.7568000000 4.8817000000 2.9897000000
1.7563000000 2.7156000000 2.7164000000
1.7555000000 2.4590000000 2.4600000000
1.7551000000 1.2598000000 1.2453000000
1.7544000000 5.6286000000 2.2424000000
1.7542000000 0.8259000000 0.8034000000
1.7538000000 0.0848000000 0.0592000000
1.7531000000 6.0821000000 1.7898000000
1.7530000000 6.6469000000 1.2191000000
1.7526000000 2.4540000000 2.4608000000
1.7524000000 1.9499000000 1.9465000000
1.7519000000 7.4770000000 0.3788000000
1.7515000000 0.9264000000 0.9104000000
1.7513000000 7.5396000000 0.3112000000
1.7509000000 5.3925000000 2.4882000000
1.7508000000 5.2023000000 2.6839000000
1.7503000000 0.6076000000 0.5917000000
1.7499000000 0.8040000000 0.7838000000
1.7493000000 1.4294000000 1.4183000000
1.7483000000 5.6746000000 2.2029000000
1.5135000000 6.3984000000 1.4707000000
1.5113000000 6.1785000000 1.6923000000
1.5102000000 7.3843000000 0.4747000000
1.5099000000 3.9267000000 3.2636000000
1.5093000000 5.5862000000 2.2939000000
1.5090000000 0.0319000000 0.0763000000
1.5087000000 5.9595000000 1.9161000000
1.5081000000 7.1147000000 0.7450000000
1.5077000000 0.3216000000 0.3007000000
1.5075000000 5.3440000000 2.5195000000
1.5073000000 5.9627000000 1.9068000000
1.5068000000 7.8936000000 0.0319000000
1.5066000000 4.1267000000 3.1936000000
1.5063000000 1.7174000000 1.7075000000
1.5062000000 3.7143000000 3.1732000000
1.5060000000 6.3810000000 1.4870000000
1.5056000000 2.4520000000 2.4557000000
1.5053000000 6.1936000000 1.6794000000
1.5048000000 3.7218000000 3.1719000000
1.5047000000 5.6142000000 2.2629000000
1.5045000000 5.0607000000 2.7125000000
1.5041000000 6.4605000000 1.4112000000
1.5040000000 6.1912000000 1.6773000000
1.5038000000 1.6465000000 1.6346000000
1.5035000000 5.9523000000 1.9190000000
1.5033000000 3.4566000000 3.0418000000
1.5029000000 2.4995000000 2.4919000000
1.5027000000 7.1757000000 0.6801000000
1.5025000000 5.1838000000 2.6335000000
1.5023000000 0.9965000000 0.9793000000
1.5019000000 5.5965000000 2.2840000000
1.5016000000 3.9190000000 3.2522000000
1.5013000000 4.2512000000 3.1199000000
1.5009000000 7.7097000000 0.1467000000
1.5007000000 0.3514000000 0.3328000000
1.5003000000 5.5794000000 2.2993000000
1.4993000000 3.8148000000 3.2131000000
1.4988000000 2.0543000000 2.0522000000
1.4983000000 1.1620000000 1.1473000000
1.4980000000 0.9092000000 0.8899000000
1.4971000000 0.7856000000 0.7681000000
1.2657000000 7.1082000000 0.7519000000
1.2615000000 5.2115000000 2.4211000000
1.2604000000 4.7825000000 2.6426000000
1.2595000000 4.6784000000 2.6881000000
1.2589000000 3.4694000000 2.8277000000
1.2583000000 5.6151000000 2.2096000000
1.2577000000 2.3084000000 2.2384000000
1.2576000000 4.6477000000 2.7095000000
1.2575000000 4.6191000000 2.7239000000
1.2571000000 7.2067000000 0.6540000000
1.2564000000 5.9877000000 1.8919000000
1.2562000000 3.9819000000 3.0280000000
1.2560000000 6.0139000000 1.8625000000
1.2558000000 2.9627000000 2.5772000000
1.2554000000 3.5999000000 2.8920000000
1.2553000000 2.5505000000 2.3619000000
1.2551000000 4.4625000000 2.7982000000
1.2549000000 7.5780000000 0.2756000000
1.2547000000 2.2042000000 2.1722000000
1.2542000000 5.3822000000 2.3358000000
1.2540000000 6.9217000000 0.9425000000
1.2538000000 6.6480000000 1.2185000000
1.2536000000 5.4093000000 2.3200000000
1.2533000000 3.2685000000 2.7262000000
1.2531000000 0.7278000000 0.7092000000
1.2528000000 0.4193000000 0.3930000000
1.2526000000 0.7287000000 0.7066000000
1.2523000000 5.2595000000 2.3929000000
1.2520000000 4.0520000000 3.0069000000
1.2513000000 6.3120000000 1.5535000000
1.2512000000 7.5790000000 0.2789000000
1.2510000000 1.2575000000 1.2423000000
1.2508000000 0.9244000000 0.9034000000
1.2502000000 0.8946000000 0.8771000000
1.2495000000 3.5447000000 2.8603000000
1.2487000000 1.9777000000 1.9710000000
1.2484000000 1.6396000000 1.6313000000
1.0143000000 6.0470000000 1.7682000000
1.0110000000 7.0742000000 0.7844000000
1.0098000000 0.9364000000 0.9151000000
1.0095000000 1.8441000000 1.7719000000
1.0089000000 3.0745000000 2.4068000000
1.0085000000 5.3852000000 2.1168000000
1.0084000000 6.2940000000 1.5768000000
1.0076000000 7.6855000000 0.1653000000
1.0073000000 6.9701000000 0.8936000000
1.0070000000 5.4299000000 2.0896000000
1.0066000000 2.0523000000 1.8927000000
1.0064000000 6.4786000000 1.3903000000
1.0062000000 4.8560000000 2.3829000000
1.0059000000 6.7829000000 1.0826000000
1.0058000000 7.7872000000 0.0618000000
1.0056000000 3.1565000000 2.4478000000
1.0055000000 1.3904000000 1.3742000000
1.0053000000 2.1430000000 1.9327000000
1.0051000000 7.4469000000 0.4098000000
1.0048000000 3.6587000000 2.7039000000
1.0045000000 7.5190000000 0.3332000000
1.0044000000 5.2381000000 2.1878000000
1.0040000000 6.0548000000 1.7565000000
1.0037000000 2.6709000000 2.2023000000
1.0036000000 2.8684000000 2.2994000000
1.0035000000 0.0163000000 0.0646000000
1.0031000000 5.9397000000 1.8348000000
1.0029000000 6.4525000000 1.4187000000
1.0028000000 0.0712000000 0.0418000000
1.0024000000 2.7472000000 2.2412000000
1.0023000000 2.2123000000 1.9692000000
1.0019000000 2.7775000000 2.2494000000
1.0017000000 1.1932000000 1.1803000000
1.0013000000 0.2126000000 0.1908000000
1.0011000000 1.5076000000 1.4952000000
1.0009000000 3.5282000000 2.6305000000
1.0007000000 2.7234000000 2.2300000000
1.0005000000 7.3377000000 0.5203000000
1.0001000000 3.3050000000 2.5195000000
0.9995000000 1.1627000000 1.1519000000
0.9985000000 2.9747000000 2.3486000000
0.9980000000 2.3931000000 2.0560000000
0.7622000000 2.1200000000 1.7096000000
0.7599000000 5.9123000000 1.6351000000
0.7595000000 6.4059000000 1.3819000000
0.7585000000 6.0644000000 1.5528000000
0.7580000000 3.1031000000 2.2092000000
0.7578000000 1.1508000000 1.1360000000
0.7574000000 3.1690000000 2.2320000000
0.7571000000 5.8665000000 1.6536000000
0.7568000000 7.2904000000 0.5716000000
0.7566000000 7.7807000000 0.0711000000
0.7562000000 5.3148000000 1.9297000000
0.7560000000 5.3887000000 1.8939000000
0.7559000000 7.4288000000 0.4249000000
0.7555000000 7.3661000000 0.4918000000
0.7553000000 1.5818000000 1.4332000000
0.7549000000 2.5709000000 1.9343000000
0.7548000000 0.9364000000 0.9196000000
0.7546000000 0.9037000000 0.8825000000
0.7543000000 0.6655000000 0.6477000000
0.7540000000 0.6009000000 0.5795000000
0.7539000000 4.0122000000 2.5867000000
0.7535000000 7.3354000000 0.5282000000
0.7531000000 3.4952000000 2.3970000000
0.7530000000 6.9346000000 0.9220000000
0.7528000000 1.0998000000 1.0855000000
0.7523000000 5.9577000000 1.6072000000
0.7520000000 6.3354000000 1.4137000000
0.7519000000 3.4214000000 2.3603000000
0.7515000000 0.1388000000 0.1182000000
0.7510000000 3.5774000000 2.4402000000
0.7508000000 1.8426000000 1.5614000000
0.7506000000 1.9217000000 1.6023000000
0.7501000000 0.0592000000 0.1061000000
0.7496000000 2.1425000000 1.7137000000
0.7490000000 1.3098000000 1.2800000000
0.7483000000 1.3838000000 1.3124000000
0.7471000000 1.3926000000 1.3234000000
0.7438000000 0.9242000000 0.9057000000
0.5106000000 7.0560000000 0.7884000000
0.5098000000 7.5107000000 0.3464000000
0.5095000000 2.3320000000 1.5898000000
0.5087000000 0.7949000000 0.7585000000
0.5080000000 0.4401000000 0.4176000000
0.5078000000 6.8824000000 0.9198000000
0.5070000000 6.8151000000 0.9508000000
0.5067000000 7.9089000000 0.0891000000
0.5064000000 7.4041000000 0.4526000000
0.5063000000 6.2359000000 1.2456000000
0.5061000000 5.2175000000 1.7579000000
0.5058000000 3.1994000000 2.0364000000
0.5055000000 2.8657000000 1.8631000000
0.5053000000 1.8700000000 1.3628000000
0.5058000000 3.9254000000 2.3852000000
0.5045000000 4.8654000000 1.9371000000
0.5042000000 1.9118000000 1.3767000000
0.5040000000 6.6812000000 1.0223000000
0.5037000000 4.3871000000 2.1752000000
0.5035000000 3.5323000000 2.1973000000
0.5033000000 2.3435000000 1.6030000000
0.5030000000 1.8534000000 1.3529000000
0.5026000000 0.5761000000 0.5554000000
0.5024000000 3.9613000000 2.3814000000
0.5022000000 7.8182000000 0.1105000000
0.5021000000 2.8635000000 1.8586000000
0.5017000000 4.5425000000 2.0995000000
0.5013000000 2.1250000000 1.4857000000
0.5008000000 1.5236000000 1.1808000000
0.5007000000 0.7266000000 0.7083000000
0.5005000000 5.4096000000 1.6580000000
0.5006000000 2.7881000000 1.8208000000
0.4996000000 7.0909000000 0.7559000000
0.4984000000 1.9006000000 1.3669000000
0.4976000000 0.0966000000 0.0696000000
0.4960000000 5.8709000000 1.4210000000
0.2617000000 4.9872000000 1.6688000000
0.2608000000 4.6485000000 1.8363000000
0.2593000000 0.0705000000 0.0401000000
0.2588000000 4.7859000000 1.7644000000
0.2584000000 7.1632000000 0.5553000000
0.2580000000 6.9849000000 0.6480000000
0.2575000000 7.4188000000 0.4199000000
0.2572000000 3.4811000000 1.9590000000
0.2568000000 2.6671000000 1.5450000000
0.2565000000 0.1174000000 0.0847000000
0.2563000000 5.7132000000 1.2918000000
0.2559000000 1.2768000000 0.8429000000
0.2557000000 7.4949000000 0.3453000000
0.2551000000 6.1758000000 1.0547000000
0.2550000000 4.4048000000 1.9507000000
0.2546000000 5.7625000000 1.2694000000
0.2544000000 3.8462000000 2.1423000000
0.2543000000 1.6042000000 1.0020000000
0.2541000000 5.5764000000 1.3572000000
0.2539000000 7.5148000000 0.3221000000
0.2537000000 0.9276000000 0.6633000000
0.2533000000 6.7288000000 0.7754000000
0.2531000000 3.6626000000 2.0464000000
0.2529000000 0.6070000000 0.4998000000
0.2527000000 3.3689000000 1.8972000000
0.2526000000 6.3409000000 0.9616000000
0.2523000000 0.2945000000 0.2683000000
0.2521000000 0.3929000000 0.3496000000
0.2516000000 5.8588000000 1.2093000000
0.2514000000 0.4634000000 0.4080000000
0.2510000000 1.9968000000 1.2045000000
0.2508000000 5.2095000000 1.5432000000
0.2503000000 4.0569000000 2.1247000000
0.2501000000 0.8922000000 0.6431000000
0.2499000000 3.5673000000 1.9947000000
0.2497000000 7.0052000000 0.6278000000
0.2488000000 2.7562000000 1.5840000000
0.2477000000 1.8779000000 1.1363000000
0.2444000000 1.6563000000 1.0219000000
0.0120000000 7.3447000000 0.2523000000
0.0115000000 6.8004000000 0.5298000000
0.0103000000 7.9069000000 0.0042000000
0.0098000000 4.6612000000 1.6005000000
0.0088000000 6.6646000000 0.5929000000
0.0078000000 6.3676000000 0.7466000000
0.0075000000 4.9499000000 1.4626000000
0.0067000000 6.0753000000 0.8876000000
0.0062000000 6.4140000000 0.7205000000
0.0059000000 5.9970000000 0.9314000000
0.0057000000 6.0999000000 0.8748000000
0.0053000000 4.7496000000 1.5572000000
0.0051000000 4.0594000000 1.9058000000
0.0049000000 7.0417000000 0.3993000000
0.0047000000 4.8591000000 1.5013000000
0.0045000000 2.1309000000 1.0460000000
0.0044000000 7.0530000000 0.3947000000
0.0043000000 6.1946000000 0.8311000000
0.0042000000 2.5515000000 1.2640000000
0.0038000000 3.6198000000 1.8067000000
0.0035000000 0.5091000000 0.2231000000
0.0033000000 4.4246000000 1.7185000000
0.0031000000 7.1232000000 0.3579000000
0.0030000000 6.4912000000 0.6737000000
0.0026000000 5.8002000000 1.0274000000
0.0022000000 0.1377000000 0.0464000000
0.0019000000 1.4076000000 0.6843000000
0.0017000000 2.1613000000 1.0637000000
0.0015000000 2.8177000000 1.3935000000
0.0010000000 7.9134000000 0.0679000000
0.0007000000 6.4353000000 0.7001000000
0.0003000000 0.5808000000 0.2631000000
0.0002000000 5.2685000000 1.2905000000
-0.0001000000 3.3415000000 1.6582000000
-0.0007000000 1.8167000000 0.8851000000
-0.0009000000 5.9124000000 0.9617000000
-0.0017000000 4.1494000000 1.8570000000
-0.0028000000 1.9218000000 0.9363000000
-0.2360000000 6.7976000000 0.3100000000
-0.2395000000 4.3399000000 1.5506000000
-0.2402000000 4.7854000000 1.3285000000
-0.2411000000 3.0773000000 1.3219000000
-0.2417000000 6.0769000000 0.6726000000
-0.2420000000 7.1795000000 0.1058000000
-0.2427000000 7.6064000000 0.0439000000
-0.2430000000 7.0114000000 0.1922000000
-0.2434000000 3.0986000000 1.3254000000
-0.2436000000 7.6403000000 0.0287000000
-0.2439000000 6.3279000000 0.5475000000
-0.2442000000 1.7720000000 0.6517000000
-0.2446000000 0.3546000000 0.0875000000
-0.2447000000 1.1295000000 0.3255000000
-0.2450000000 5.3870000000 1.0165000000
-0.2451000000 6.6079000000 0.4054000000
-0.2453000000 7.6102000000 0.0409000000
-0.2456000000 3.6836000000 1.6151000000
-0.2458000000 3.7440000000 1.6501000000
-0.2461000000 4.6240000000 1.3994000000
-0.2464000000 3.0126000000 1.2744000000
-0.2467000000 1.3073000000 0.4164000000
-0.2473000000 1.5499000000 0.5395000000
-0.2477000000 0.6590000000 0.0888000000
-0.2478000000 1.6214000000 0.5747000000
-0.2481000000 4.7693000000 1.3326000000
-0.2483000000 4.3018000000 1.5641000000
-0.2487000000 3.3288000000 1.4392000000
-0.2490000000 6.9582000000 0.2220000000
-0.2497000000 0.2072000000 0.0038000000
-0.2501000000 4.4530000000 1.4838000000
-0.2503000000 0.2726000000 0.0438000000
-0.2505000000 3.7998000000 1.6748000000
-0.2507000000 4.0402000000 1.6946000000
-0.2509000000 4.2839000000 1.5737000000
-0.2527000000 2.5637000000 1.0493000000
-0.2532000000 2.4197000000 0.9711000000
-0.2543000000 0.8535000000 0.1769000000
-0.4875000000 6.2639000000 0.3565000000
-0.4900000000 6.4709000000 0.2571000000
-0.4910000000 6.6939000000 0.1438000000
-0.4921000000 6.4918000000 0.2435000000
-0.4926000000 2.9459000000 1.0299000000
-0.4931000000 4.4856000000 1.2546000000
-0.4933000000 5.4122000000 0.7915000000
-0.4942000000 6.6318000000 0.1667000000
-0.4945000000 2.0352000000 0.5683000000
-0.4949000000 5.6347000000 0.6740000000
-0.4950000000 5.0702000000 0.9617000000
-0.4953000000 1.2025000000 0.1424000000
-0.4960000000 4.4972000000 1.2491000000
-0.4963000000 2.9083000000 1.0107000000
-0.4965000000 6.8163000000 0.0796000000
-0.4967000000 6.8736000000 0.0447000000
-0.4970000000 4.0134000000 1.4922000000
-0.4972000000 0.9286000000 0.0769000000
-0.4973000000 4.8380000000 1.0742000000
-0.4978000000 6.7382000000 0.1124000000
-0.4982000000 0.9321000000 0.0788000000
-0.4985000000 2.3783000000 0.7375000000
-0.4987000000 3.0749000000 1.0892000000
-0.4992000000 5.4286000000 0.7754000000
-0.4998000000 2.2923000000 0.6927000000
-0.5007000000 0.8162000000 0.0144000000
-0.5021000000 6.1359000000 0.4090000000
-0.5032000000 3.6803000000 1.3902000000
-0.5040000000 0.7929000000 0.0831000000
-0.7376000000 1.3847000000 0.1011000000
-0.7405000000 4.3556000000 1.1078000000
-0.7412000000 4.5066000000 1.0315000000
-0.7416000000 5.4406000000 0.5503000000
-0.7422000000 3.7481000000 1.2160000000
-0.7425000000 5.6056000000 0.4688000000
-0.7433000000 6.2711000000 0.1305000000
-0.7439000000 5.7980000000 0.3735000000
-0.7440000000 6.4816000000 0.1000000000
-0.7445000000 4.2229000000 1.1678000000
-0.7452000000 5.6766000000 0.4347000000
-0.7456000000 5.7761000000 0.3835000000
-0.7460000000 1.2175000000 0.0819000000
-0.7465000000 1.2799000000 0.0420000000
-0.7467000000 4.1545000000 1.1987000000
-0.7471000000 4.5259000000 1.0139000000
-0.7474000000 3.6669000000 1.1661000000
-0.7476000000 6.3771000000 0.0797000000
-0.7478000000 3.4303000000 1.0545000000
-0.7480000000 5.5415000000 0.4972000000
-0.7481000000 4.6148000000 0.9685000000
-0.7486000000 3.4803000000 1.0817000000
-0.7490000000 6.2128000000 0.1626000000
-0.7493000000 2.2452000000 0.4477000000
-0.7502000000 1.9810000000 0.3137000000
-0.7505000000 4.8044000000 0.8681000000
-0.7522000000 1.2372000000 0.0842000000
-0.9897000000 4.4653000000 0.8338000000
-0.9927000000 2.6964000000 0.4644000000
-0.9932000000 4.5648000000 0.7759000000
-0.9936000000 4.8909000000 0.6128000000
-0.9941000000 6.3759000000 0.0083000000
-0.9944000000 4.4772000000 0.8169000000
-0.9948000000 6.1770000000 0.0338000000
-0.9951000000 5.7653000000 0.1686000000
-0.9955000000 3.4868000000 0.8621000000
-0.9959000000 4.7750000000 0.6702000000
-0.9964000000 4.0248000000 1.0464000000
-0.9970000000 6.1520000000 0.0456000000
-0.9972000000 3.1105000000 0.6714000000
-0.9973000000 1.6212000000 0.0672000000
-0.9985000000 3.8989000000 1.0542000000
-0.9987000000 3.6955000000 0.9663000000
-0.9989000000 4.8743000000 0.6112000000
-0.9992000000 2.2350000000 0.2280000000
-0.9998000000 2.5685000000 0.3991000000
-1.0005000000 4.3266000000 0.8898000000
-1.0030000000 4.3896000000 0.8541000000
-1.2402000000 5.2065000000 0.2329000000
-1.2412000000 2.9001000000 0.3478000000
-1.2423000000 1.9578000000 0.0221000000
-1.2429000000 5.6472000000 0.0911000000
-1.2432000000 4.7518000000 0.4617000000
-1.2435000000 4.8684000000 0.4043000000
-1.2440000000 3.6092000000 0.7054000000
-1.2445000000 3.3191000000 0.5597000000
-1.2449000000 3.4161000000 0.6050000000
-1.2454000000 4.5429000000 0.5604000000
-1.2457000000 3.9698000000 0.8386000000
-1.2459000000 2.6130000000 0.1983000000
-1.2463000000 3.6743000000 0.7335000000
-1.2467000000 2.7020000000 0.2469000000
-1.2474000000 2.0092000000 0.0461000000
-1.2479000000 2.2409000000 0.0880000000
-1.2481000000 3.4607000000 0.6275000000
-1.2491000000 4.2047000000 0.7373000000
-1.2498000000 5.7983000000 0.0712000000
-1.2503000000 4.5037000000 0.5815000000
-1.2523000000 2.2013000000 0.0710000000
-1.2531000000 2.6451000000 0.2132000000
-1.2541000000 3.4775000000 0.6286000000
-1.4901000000 4.1660000000 0.5388000000
-1.4916000000 4.3126000000 0.4664000000
-1.4930000000 3.0504000000 0.2050000000
-1.4933000000 3.0380000000 0.1976000000
-1.4943000000 5.2931000000 0.0458000000
-1.4951000000 3.7365000000 0.5470000000
-1.4957000000 3.7997000000 0.5802000000
-1.4962000000 5.3269000000 0.0237000000
-1.4974000000 2.7806000000 0.0669000000
-1.4984000000 4.7427000000 0.2451000000
-1.4991000000 3.6802000000 0.5179000000
-1.4998000000 5.0482000000 0.0918000000
-1.5005000000 4.1756000000 0.5347000000
-1.5040000000 5.3513000000 0.0888000000
-1.7411000000 4.9510000000 0.0769000000
-1.7434000000 4.5543000000 0.1253000000
-1.7443000000 3.6854000000 0.3087000000
-1.7450000000 4.0537000000 0.3754000000
-1.7459000000 4.9356000000 0.0800000000
-1.7464000000 4.9766000000 0.0618000000
-1.7473000000 3.0969000000 0.0834000000
-1.7484000000 2.9927000000 0.0243000000
-1.7492000000 4.2578000000 0.2713000000
-1.7530000000 4.9679000000 0.0531000000
-1.7537000000 4.0383000000 0.3786000000
-1.9922000000 3.8894000000 0.1841000000
-1.9948000000 4.1513000000 0.1126000000
-1.9965000000 3.9372000000 0.1922000000
-1.9980000000 3.6646000000 0.0764000000
-1.9991000000 4.4545000000 0.0332000000
