7.2585000000 4.3404000000 0.0605000000
7.2531000000 4.2382000000 0.0176000000
7.2500000000 4.2582000000 0.0915000000
7.0115000000 4.5487000000 0.0905000000
7.0087000000 3.6855000000 0.0529000000
7.0074000000 4.9486000000 0.0480000000
7.0055000000 3.4715000000 0.0224000000
7.0041000000 4.9113000000 0.0681000000
7.0024000000 5.0413000000 0.0109000000
7.0011000000 4.1480000000 0.2079000000
6.9983000000 4.9714000000 0.0463000000
6.7613000000 5.0450000000 0.0626000000
6.7599000000 5.4672000000 0.0069000000
6.7577000000 5.0170000000 0.0802000000
6.7571000000 4.9028000000 0.1377000000
6.7543000000 5.4789000000 -0.0026000000
6.7540000000 4.4025000000 0.3889000000
6.7532000000 4.3726000000 0.4031000000
6.7518000000 3.2766000000 0.0698000000
6.7505000000 3.4573000000 0.1600000000
6.7493000000 5.3670000000 0.0592000000
6.5110000000 3.9617000000 0.5398000000
6.5095000000 4.7471000000 0.4276000000
6.5075000000 2.9241000000 0.1029000000
6.5067000000 4.6821000000 0.4594000000
6.5054000000 3.7583000000 0.4456000000
6.5047000000 4.4534000000 0.5752000000
6.5041000000 5.6848000000 0.0417000000
6.5035000000 4.3935000000 0.6082000000
6.5034000000 3.9187000000 0.5205000000
6.5028000000 4.3421000000 0.6348000000
6.5020000000 3.2857000000 0.2180000000
6.4963000000 2.6599000000 0.0560000000
6.2630000000 3.5370000000 0.5443000000
6.2613000000 4.9099000000 0.5597000000
6.2595000000 5.9391000000 0.0491000000
6.2590000000 4.8456000000 0.5889000000
6.2580000000 3.8703000000 0.7147000000
6.2575000000 4.4155000000 0.8048000000
6.2570000000 5.3003000000 0.3710000000
6.2563000000 2.5070000000 0.1142000000
6.2553000000 5.8229000000 0.1131000000
6.2550000000 2.3471000000 0.0348000000
6.2546000000 3.3032000000 0.4330000000
6.2544000000 3.9719000000 0.7660000000
6.2539000000 4.8248000000 0.6150000000
6.2526000000 4.0405000000 0.8003000000
6.2523000000 5.6074000000 0.2216000000
6.2513000000 3.4016000000 0.4871000000
6.2510000000 2.3097000000 0.0207000000
6.2494000000 2.7886000000 0.1842000000
6.2470000000 3.2284000000 0.3977000000
6.0140000000 4.8815000000 0.7841000000
6.0127000000 5.2131000000 0.6191000000
6.0107000000 4.3341000000 1.0632000000
6.0097000000 2.3128000000 0.1562000000
6.0084000000 3.8352000000 0.9091000000
6.0081000000 2.0666000000 0.1109000000
6.0078000000 4.3987000000 1.0305000000
6.0070000000 4.8184000000 0.8232000000
6.0067000000 3.3361000000 0.6605000000
6.0065000000 3.4850000000 0.7401000000
6.0063000000 4.4429000000 1.0035000000
6.0060000000 1.9155000000 0.0378000000
6.0057000000 2.1249000000 0.1353000000
6.0055000000 6.7684000000 0.0050000000
6.0053000000 2.7004000000 0.3525000000
6.0048000000 6.3616000000 0.0671000000
6.0045000000 4.2690000000 1.0757000000
6.0039000000 4.4931000000 0.9889000000
6.0035000000 3.4442000000 0.7203000000
6.0032000000 3.7455000000 0.8666000000
6.0030000000 5.4321000000 0.5235000000
6.0028000000 2.1081000000 0.1378000000
6.0024000000 5.4433000000 0.5129000000
6.0021000000 3.8793000000 0.9371000000
6.0018000000 4.5737000000 0.9483000000
6.0013000000 5.4968000000 0.4888000000
6.0005000000 2.7349000000 0.3720000000
5.9998000000 5.1732000000 0.6497000000
5.7650000000 1.5019000000 0.0417000000
5.7623000000 1.5572000000 0.0678000000
5.7610000000 5.4108000000 0.7404000000
5.7606000000 6.7171000000 0.0904000000
5.7604000000 2.7891000000 0.6014000000
5.7598000000 5.6112000000 0.6430000000
5.7588000000 6.5116000000 0.1965000000
5.7583000000 5.8467000000 0.5225000000
5.7578000000 7.1868000000 0.0055000000
5.7570000000 2.1577000000 0.2934000000
5.7565000000 4.0217000000 1.2159000000
5.7559000000 4.4494000000 1.2161000000
5.7552000000 5.7514000000 0.5729000000
5.7547000000 1.9934000000 0.2167000000
5.7542000000 3.1097000000 0.7719000000
5.7539000000 6.0700000000 0.4184000000
5.7535000000 2.1397000000 0.2890000000
5.7531000000 3.5012000000 0.9614000000
5.7525000000 5.4469000000 0.7313000000
5.7524000000 1.5667000000 0.0813000000
5.7518000000 5.4801000000 0.7130000000
5.7515000000 2.4793000000 0.4508000000
5.7511000000 1.5824000000 0.0910000000
5.7496000000 2.9635000000 0.7033000000
5.5124000000 2.1446000000 0.4994000000
5.5109000000 4.3998000000 1.4572000000
5.5100000000 6.7577000000 0.2842000000
5.5096000000 7.5936000000 0.0240000000
5.5089000000 4.6452000000 1.3367000000
5.5086000000 7.3808000000 0.0546000000
5.5080000000 6.3222000000 0.5047000000
5.5077000000 7.0735000000 0.1359000000
5.5075000000 7.4104000000 0.0404000000
5.5068000000 5.0808000000 1.1240000000
5.5064000000 6.1055000000 0.6131000000
5.5060000000 2.8453000000 0.8552000000
5.5058000000 1.3078000000 0.0888000000
5.5053000000 5.2872000000 1.0223000000
5.5051000000 7.2856000000 0.0317000000
5.5048000000 2.6572000000 0.7597000000
5.5046000000 1.3312000000 0.1027000000
5.5042000000 2.0538000000 0.4575000000
5.5039000000 1.3342000000 0.1022000000
5.5035000000 4.2251000000 1.5140000000
5.5033000000 1.8422000000 0.3591000000
5.5029000000 5.5812000000 0.8734000000
5.5028000000 1.5413000000 0.2106000000
5.5025000000 2.1384000000 0.4971000000
5.5018000000 6.0961000000 0.6191000000
5.5010000000 1.1472000000 0.0856000000
5.5007000000 4.4626000000 1.4282000000
5.5004000000 5.8029000000 0.7625000000
5.4996000000 2.7408000000 0.8073000000
5.4993000000 1.3404000000 0.1148000000
5.4982000000 5.5391000000 0.8985000000
5.4968000000 1.1581000000 0.0959000000
5.4943000000 2.8277000000 0.8517000000
5.2623000000 2.7751000000 1.0220000000
5.2620000000 4.6526000000 1.5371000000
5.2609000000 7.2843000000 0.2380000000
5.2605000000 5.4269000000 1.1582000000
5.2602000000 7.7881000000 0.0669000000
5.2598000000 5.0189000000 1.3597000000
5.2589000000 5.7459000000 1.0030000000
5.2585000000 4.6427000000 1.5467000000
5.2583000000 5.3474000000 1.2046000000
5.2581000000 4.6253000000 1.5566000000
5.2579000000 6.3872000000 0.6872000000
5.2577000000 1.8864000000 0.5859000000
5.2572000000 6.3759000000 0.6930000000
5.2567000000 2.6772000000 0.9816000000
5.2561000000 2.0344000000 0.6634000000
5.2558000000 4.8923000000 1.4323000000
5.2555000000 7.4887000000 0.1375000000
5.2550000000 5.1839000000 1.2884000000
5.2548000000 6.0753000000 0.8421000000
5.2547000000 5.6796000000 1.0415000000
5.2543000000 6.5258000000 0.6212000000
5.2541000000 4.2890000000 1.7249000000
5.2538000000 4.0408000000 1.6587000000
5.2535000000 3.5875000000 1.4349000000
5.2533000000 2.2810000000 0.7902000000
5.2531000000 7.6828000000 0.0472000000
5.2528000000 4.6075000000 1.5729000000
5.2523000000 5.9063000000 0.9295000000
5.2521000000 2.3853000000 0.8376000000
5.2516000000 2.7554000000 1.0235000000
5.2515000000 0.5160000000 0.0631000000
5.2507000000 3.3689000000 1.3327000000
5.2504000000 0.3977000000 0.0062000000
5.2491000000 2.8964000000 1.0907000000
5.2473000000 0.8040000000 0.1369000000
5.2444000000 2.6764000000 0.9849000000
5.0143000000 7.6439000000 0.2804000000
5.0124000000 7.2627000000 0.4635000000
5.0115000000 6.9733000000 0.6064000000
5.0108000000 7.4427000000 0.3795000000
5.0100000000 7.9522000000 0.1299000000
5.0094000000 7.8045000000 0.1950000000
5.0086000000 7.0194000000 0.5880000000
5.0083000000 5.7070000000 1.2411000000
5.0078000000 7.3179000000 0.4414000000
5.0076000000 3.4034000000 1.5533000000
5.0075000000 0.2008000000 0.0446000000
5.0073000000 6.4179000000 0.8920000000
5.0071000000 5.6951000000 1.2484000000
5.0070000000 0.8606000000 0.2931000000
5.0068000000 6.1046000000 1.0478000000
5.0065000000 3.6376000000 1.6692000000
5.0064000000 8.1691000000 0.0973000000
5.0060000000 3.4466000000 1.5768000000
5.0058000000 5.1959000000 1.4886000000
5.0056000000 3.2261000000 1.4642000000
5.0054000000 2.4042000000 1.0584000000
5.0052000000 6.0142000000 1.0886000000
5.0049000000 5.0112000000 1.5851000000
5.0048000000 3.4372000000 1.5684000000
5.0046000000 2.5129000000 1.1209000000
5.0045000000 4.2570000000 1.9435000000
5.0043000000 6.0417000000 1.0715000000
5.0042000000 1.9402000000 0.8323000000
5.0039000000 5.7277000000 1.2314000000
5.0037000000 7.0248000000 0.5889000000
5.0033000000 6.8542000000 0.6717000000
5.0030000000 3.1491000000 1.4295000000
5.0027000000 0.9515000000 0.3429000000
5.0024000000 2.1949000000 0.9527000000
5.0023000000 4.6661000000 1.7568000000
5.0018000000 4.4275000000 1.8764000000
5.0015000000 0.2807000000 0.0904000000
5.0009000000 7.7720000000 0.2227000000
5.0004000000 2.7212000000 1.2253000000
4.9999000000 2.7171000000 1.2151000000
4.9994000000 6.9613000000 0.6263000000
4.9983000000 0.3713000000 0.1331000000
4.9972000000 3.5867000000 1.6498000000
4.7660000000 8.4728000000 0.0441000000
4.7624000000 4.7563000000 1.9147000000
4.7615000000 0.4345000000 0.2936000000
4.7599000000 8.3396000000 0.0899000000
4.7598000000 7.8014000000 0.4165000000
4.7594000000 8.1790000000 0.2127000000
4.7590000000 8.0697000000 0.2843000000
4.7588000000 6.7419000000 0.9379000000
4.7585000000 4.9305000000 1.8318000000
4.7579000000 6.5476000000 1.0356000000
4.7575000000 8.1467000000 0.2358000000
4.7572000000 4.5241000000 2.0370000000
4.7569000000 5.5765000000 1.5212000000
4.7567000000 7.5580000000 0.5389000000
4.7563000000 6.2361000000 1.1908000000
4.7560000000 4.0744000000 2.1004000000
4.7558000000 3.4251000000 1.7746000000
4.7555000000 8.2381000000 0.1795000000
4.7552000000 5.9787000000 1.3242000000
4.7550000000 7.7216000000 0.4556000000
4.7547000000 7.7094000000 0.4643000000
4.7545000000 4.2803000000 2.1457000000
4.7542000000 1.9201000000 1.0350000000
4.7540000000 4.0485000000 2.0914000000
4.7538000000 2.6676000000 1.4078000000
4.7536000000 6.1671000000 1.2276000000
4.7533000000 0.4135000000 0.2980000000
4.7530000000 1.0743000000 0.6189000000
4.7528000000 0.3913000000 0.2839000000
4.7525000000 3.2620000000 1.7002000000
4.7522000000 5.5170000000 1.5545000000
4.7517000000 5.4649000000 1.5774000000
4.7514000000 2.3046000000 1.2275000000
4.7511000000 2.0402000000 1.0973000000
4.7508000000 0.8161000000 0.4917000000
4.7506000000 0.7040000000 0.4350000000
4.7501000000 1.3269000000 0.7426000000
4.7495000000 0.4260000000 0.2962000000
4.7487000000 1.5395000000 0.8483000000
4.7483000000 4.5736000000 2.0204000000
4.7475000000 0.0346000000 0.0768000000
4.7446000000 0.7163000000 0.4503000000
4.5149000000 4.7029000000 2.1574000000
4.5123000000 8.3920000000 0.0492000000
4.5115000000 6.2462000000 1.3993000000
4.5107000000 4.7080000000 2.1638000000
4.5101000000 4.7419000000 2.1395000000
4.5096000000 0.1188000000 0.0813000000
4.5091000000 7.9296000000 0.5015000000
4.5088000000 5.7038000000 1.6643000000
4.5083000000 4.6891000000 2.1663000000
4.5081000000 4.2591000000 2.3673000000
4.5078000000 4.8604000000 2.0888000000
4.5075000000 1.0098000000 0.7962000000
4.5074000000 2.8118000000 1.6898000000
4.5071000000 0.8416000000 0.7167000000
4.5069000000 4.9542000000 2.0379000000
4.5067000000 3.6375000000 2.0967000000
4.5065000000 7.8677000000 0.5495000000
4.5061000000 1.9126000000 1.2462000000
4.5058000000 6.6142000000 1.2229000000
4.5055000000 1.7776000000 1.1770000000
4.5054000000 4.9325000000 2.0529000000
4.5048000000 5.8301000000 1.6051000000
4.5047000000 6.7711000000 1.1400000000
4.5042000000 0.9678000000 0.7798000000
4.5040000000 7.4533000000 0.8077000000
4.5037000000 5.0709000000 1.9839000000
4.5035000000 3.0747000000 1.8188000000
4.5032000000 5.0588000000 2.0002000000
4.5030000000 5.0106000000 2.0106000000
4.5024000000 0.4994000000 0.4660000000
4.5022000000 0.2015000000 0.1733000000
4.5019000000 0.0061000000 0.0535000000
4.5017000000 8.0813000000 0.3590000000
4.5013000000 3.9854000000 2.2698000000
4.5006000000 2.0278000000 1.3133000000
4.5000000000 7.6570000000 0.7110000000
4.4997000000 0.7169000000 0.6428000000
4.4994000000 0.6273000000 0.5714000000
4.4993000000 6.9692000000 1.0482000000
4.4986000000 4.3872000000 2.3255000000
4.4981000000 3.6472000000 2.1098000000
4.4973000000 0.0817000000 0.1230000000
4.4939000000 2.5860000000 1.5913000000
4.2621000000 5.7072000000 1.8788000000
4.2602000000 2.5346000000 1.7658000000
4.2593000000 4.9367000000 2.2592000000
4.2590000000 4.9864000000 2.2334000000
4.2580000000 5.9369000000 1.7666000000
4.2576000000 4.9177000000 2.2783000000
4.2573000000 1.7820000000 1.4009000000
4.2571000000 8.0255000000 0.4121000000
4.2565000000 5.3200000000 2.0748000000
4.2560000000 7.8088000000 0.6293000000
4.2556000000 1.6041000000 1.3031000000
4.2554000000 8.2111000000 0.2281000000
4.2553000000 5.9577000000 1.7507000000
4.2550000000 1.6054000000 1.3050000000
4.2548000000 7.8533000000 0.5875000000
4.2546000000 3.3992000000 2.1987000000
4.2545000000 0.0793000000 0.1239000000
4.2543000000 2.2094000000 1.6047000000
4.2542000000 4.1136000000 2.5412000000
4.2539000000 3.5021000000 2.2489000000
4.2537000000 0.9538000000 0.9169000000
4.2533000000 2.6792000000 1.8438000000
4.2531000000 8.0252000000 0.4152000000
4.2528000000 0.6628000000 0.6245000000
4.2525000000 7.3938000000 1.0195000000
4.2523000000 3.4931000000 2.2463000000
4.2518000000 0.8170000000 0.7770000000
4.2517000000 1.3254000000 1.1683000000
4.2515000000 2.6990000000 1.8519000000
4.2513000000 2.6802000000 1.8458000000
4.2511000000 2.8604000000 1.9364000000
4.2507000000 1.7692000000 1.3930000000
4.2503000000 1.3275000000 1.1784000000
4.2498000000 0.5599000000 0.5264000000
4.2480000000 4.9901000000 2.2432000000
4.2472000000 3.2812000000 2.1401000000
4.0153000000 7.6070000000 0.8270000000
4.0126000000 8.3436000000 0.0976000000
4.0122000000 7.3962000000 1.0319000000
4.0112000000 7.5650000000 0.8674000000
4.0104000000 6.0417000000 1.9283000000
4.0097000000 6.2738000000 1.8143000000
4.0093000000 3.4414000000 2.4292000000
4.0089000000 2.6459000000 2.0336000000
4.0078000000 5.0859000000 2.4095000000
4.0075000000 4.7634000000 2.5661000000
4.0072000000 3.5219000000 2.4732000000
4.0064000000 2.1482000000 1.7884000000
4.0063000000 2.0316000000 1.7322000000
4.0060000000 1.9589000000 1.6960000000
4.0057000000 7.2538000000 1.1791000000
4.0055000000 3.9706000000 2.6911000000
4.0053000000 2.1240000000 1.7798000000
4.0050000000 8.4091000000 0.0390000000
4.0048000000 0.8735000000 0.8344000000
4.0045000000 1.3615000000 1.3128000000
4.0042000000 6.2196000000 1.8435000000
4.0039000000 1.4996000000 1.4392000000
4.0037000000 7.4494000000 0.9910000000
4.0034000000 4.3992000000 2.7449000000
4.0028000000 2.8607000000 2.1443000000
4.0025000000 6.0767000000 1.9112000000
4.0025000000 0.5963000000 0.5599000000
4.0023000000 3.4983000000 2.4690000000
4.0019000000 4.0272000000 2.7304000000
4.0015000000 1.8049000000 1.6234000000
4.0011000000 2.8962000000 2.1700000000
4.0008000000 1.8819000000 1.6630000000
4.0003000000 0.7404000000 0.7015000000
3.9995000000 2.0256000000 1.7349000000
3.9982000000 4.9576000000 2.4727000000
3.9970000000 0.3827000000 0.3438000000
3.9957000000 0.9889000000 0.9465000000
3.7625000000 4.7821000000 2.7665000000
3.7610000000 1.5161000000 1.4765000000
3.7608000000 7.0996000000 1.3327000000
3.7601000000 4.8591000000 2.7291000000
3.7594000000 7.0219000000 1.4038000000
3.7592000000 8.2555000000 0.1861000000
3.7588000000 7.4243000000 1.0050000000
3.7585000000 4.8969000000 2.7105000000
3.7582000000 7.7539000000 0.6829000000
3.7575000000 8.2466000000 0.1953000000
3.7572000000 2.1472000000 2.0029000000
3.7570000000 7.2360000000 1.1911000000
3.7566000000 4.2288000000 3.0183000000
3.7565000000 3.7381000000 2.7917000000
3.7563000000 5.4881000000 2.4260000000
3.7561000000 5.5869000000 2.3720000000
3.7559000000 1.3141000000 1.2686000000
3.7558000000 1.6964000000 1.6463000000
3.7554000000 0.8736000000 0.8325000000
3.7552000000 4.0826000000 2.9627000000
3.7550000000 3.0488000000 2.4507000000
3.7548000000 3.5782000000 2.7120000000
3.7545000000 1.0913000000 1.0509000000
3.7542000000 0.8382000000 0.7971000000
3.7539000000 3.6039000000 2.7293000000
3.7533000000 5.2281000000 2.5499000000
3.7532000000 6.5274000000 1.8770000000
3.7529000000 8.3941000000 0.0478000000
3.7527000000 0.2288000000 0.1950000000
3.7524000000 0.8456000000 0.8079000000
3.7519000000 0.7436000000 0.7044000000
3.7515000000 8.3460000000 0.0950000000
3.7510000000 4.5343000000 2.8956000000
3.7506000000 2.9050000000 2.3801000000
3.7503000000 0.3455000000 0.3127000000
3.7490000000 0.7761000000 0.7381000000
3.7483000000 0.7057000000 0.6715000000
3.7473000000 0.3927000000 0.3563000000
3.5130000000 8.4456000000 0.0709000000
3.5108000000 7.6121000000 0.8270000000
3.5098000000 8.4097000000 0.0352000000
3.5093000000 4.8932000000 2.9260000000
3.5090000000 3.1424000000 2.7136000000
3.5089000000 1.9219000000 1.8735000000
3.5085000000 3.3976000000 2.8363000000
3.5082000000 8.3602000000 0.0850000000
3.5079000000 4.0553000000 3.1604000000
3.5077000000 7.4074000000 1.0282000000
3.5075000000 7.2512000000 1.1776000000
3.5073000000 3.6901000000 2.9748000000
3.5070000000 5.3160000000 2.7202000000
3.5069000000 3.5085000000 2.8951000000
3.5068000000 8.0960000000 0.3436000000
3.5065000000 3.5455000000 2.9115000000
3.5064000000 7.3589000000 1.0796000000
3.5062000000 8.4284000000 0.0868000000
3.5059000000 1.5790000000 1.5353000000
3.5056000000 5.5101000000 2.6236000000
3.5053000000 8.0591000000 0.3813000000
3.5051000000 8.1218000000 0.3165000000
3.5048000000 5.7374000000 2.5117000000
3.5046000000 1.9603000000 1.9069000000
3.5043000000 4.9859000000 2.8850000000
3.5042000000 5.7237000000 2.5205000000
3.5040000000 4.3907000000 3.1805000000
3.5038000000 3.9030000000 3.0927000000
3.5035000000 5.8896000000 2.4333000000
3.5031000000 4.5133000000 3.1192000000
3.5030000000 1.3462000000 1.2998000000
3.5027000000 5.1894000000 2.7852000000
3.5025000000 5.0449000000 2.8593000000
3.5022000000 5.8989000000 2.4378000000
3.5019000000 2.9527000000 2.6193000000
3.5015000000 0.3740000000 0.3420000000
3.5013000000 0.5359000000 0.4958000000
3.5007000000 1.5338000000 1.4858000000
3.4999000000 1.6944000000 1.6497000000
3.4995000000 1.9880000000 1.9366000000
3.5037000000 1.7037000000 1.6561000000
3.4987000000 4.1156000000 3.1987000000
3.4972000000 1.3780000000 1.3317000000
3.2676000000 6.8951000000 1.5353000000
3.2612000000 5.9352000000 2.4844000000
3.2608000000 7.1811000000 1.2472000000
3.2604000000 6.6048000000 1.8153000000
3.2596000000 0.5573000000 0.5194000000
3.2593000000 7.9084000000 0.5356000000
3.2588000000 7.0612000000 1.3722000000
3.2585000000 5.9439000000 2.4711000000
3.2582000000 7.5784000000 0.8528000000
3.2580000000 6.2794000000 2.1485000000
3.2578000000 3.5265000000 3.1150000000
3.2575000000 7.1149000000 1.3167000000
3.2574000000 4.3495000000 3.4140000000
3.2571000000 7.0207000000 1.4101000000
3.2568000000 4.3373000000 3.4241000000
3.2564000000 5.8159000000 2.6060000000
3.2562000000 2.6619000000 2.6026000000
3.2560000000 2.6432000000 2.5870000000
3.2556000000 7.6245000000 0.8162000000
3.2554000000 4.1645000000 3.4277000000
3.2552000000 4.4884000000 3.3428000000
3.2548000000 4.2196000000 3.4444000000
3.2546000000 4.1990000000 3.4390000000
3.2544000000 3.8850000000 3.2941000000
3.2542000000 5.2002000000 2.9933000000
3.2539000000 2.9387000000 2.8187000000
3.2536000000 8.3045000000 0.1390000000
3.2535000000 4.4701000000 3.3524000000
3.2531000000 4.2257000000 3.4511000000
3.2528000000 8.1762000000 0.2647000000
3.2528000000 3.9992000000 3.3597000000
3.2526000000 4.1674000000 3.4386000000
3.2524000000 5.7186000000 2.6851000000
3.2517000000 4.2384000000 3.4506000000
3.2515000000 7.4856000000 0.9447000000
3.2512000000 0.3039000000 0.2700000000
3.2509000000 3.4651000000 3.0944000000
3.2502000000 6.9645000000 1.4586000000
3.2497000000 1.1400000000 1.0979000000
3.2492000000 1.5855000000 1.5349000000
3.2485000000 4.0965000000 3.4073000000
3.2468000000 3.3285000000 3.0259000000
3.2448000000 1.5081000000 1.4621000000
3.0119000000 7.0925000000 1.3378000000
3.0107000000 7.8594000000 0.5796000000
3.0093000000 3.5286000000 3.3277000000
3.0090000000 3.3533000000 3.2291000000
3.0088000000 7.3470000000 1.0869000000
3.0083000000 8.4724000000 0.0479000000
3.0078000000 3.2270000000 3.1490000000
3.0075000000 8.0657000000 0.3734000000
3.0073000000 2.6489000000 2.5936000000
3.0067000000 3.4248000000 3.2840000000
3.0064000000 4.8253000000 3.3858000000
3.0061000000 5.4910000000 2.9210000000
3.0058000000 6.6991000000 1.7270000000
3.0056000000 5.0562000000 3.2820000000
3.0054000000 5.0890000000 3.2637000000
3.0050000000 5.9956000000 2.4202000000
3.0048000000 2.9619000000 2.9040000000
3.0042000000 4.7234000000 3.4481000000
3.0040000000 2.9173000000 2.8567000000
3.0037000000 0.2244000000 0.1898000000
3.0035000000 5.9217000000 2.4947000000
3.0031000000 3.3186000000 3.2132000000
3.0029000000 3.0976000000 3.0350000000
3.0027000000 0.5138000000 0.4770000000
3.0025000000 5.1501000000 3.2185000000
3.0023000000 5.1622000000 3.2107000000
3.0019000000 5.7544000000 2.6603000000
3.0016000000 2.0528000000 1.9979000000
3.0015000000 3.3142000000 3.2124000000
3.0012000000 5.4859000000 2.9238000000
3.0010000000 1.1407000000 1.1012000000
3.0006000000 5.4412000000 2.9761000000
3.0001000000 2.6164000000 2.5602000000
2.9995000000 0.4765000000 0.4412000000
2.9991000000 1.8887000000 1.8413000000
2.9983000000 1.5353000000 1.4898000000
2.9960000000 1.2771000000 1.2395000000
2.7642000000 7.2545000000 1.1734000000
2.7612000000 6.8260000000 1.5988000000
2.7596000000 7.9001000000 0.5350000000
2.7592000000 2.4709000000 2.4212000000
2.7588000000 5.5504000000 2.8663000000
2.7585000000 2.7043000000 2.6499000000
2.7580000000 8.4183000000 0.0971000000
2.7577000000 5.6058000000 2.8078000000
2.7575000000 7.3967000000 1.0350000000
2.7570000000 3.8123000000 3.6809000000
2.7569000000 7.6097000000 0.8257000000
2.7566000000 4.6289000000 3.7033000000
2.7563000000 5.7004000000 2.7179000000
2.7560000000 7.3974000000 1.0391000000
2.7558000000 6.5588000000 1.8621000000
2.7556000000 4.4337000000 3.8050000000
2.7553000000 2.1842000000 2.1293000000
2.7551000000 3.0645000000 3.0033000000
2.7549000000 7.9388000000 0.4999000000
2.7547000000 1.3749000000 1.3282000000
2.7545000000 1.4459000000 1.3995000000
2.7543000000 4.0524000000 3.8084000000
2.7540000000 2.7057000000 2.6507000000
2.7538000000 7.6382000000 0.7984000000
2.7537000000 3.8949000000 3.7277000000
2.7534000000 7.6517000000 0.7867000000
2.7531000000 1.7346000000 1.6821000000
2.7529000000 7.7052000000 0.7313000000
2.7526000000 7.8606000000 0.5756000000
2.7521000000 0.9131000000 0.8730000000
2.7520000000 1.8589000000 1.8054000000
2.7517000000 1.5323000000 1.4840000000
2.7515000000 2.3109000000 2.2572000000
2.7512000000 4.7812000000 3.6056000000
2.7509000000 0.7841000000 0.7440000000
2.7503000000 0.4810000000 0.4440000000
2.7499000000 1.5860000000 1.5420000000
2.7494000000 2.5952000000 2.5346000000
2.7488000000 1.6534000000 1.6020000000
2.7483000000 4.0428000000 3.8059000000
2.7460000000 3.5017000000 3.4337000000
2.5128000000 6.0414000000 2.3792000000
2.5118000000 7.8519000000 0.5889000000
2.5105000000 5.5113000000 2.9001000000
2.5097000000 4.7544000000 3.6521000000
2.5093000000 5.3168000000 3.0978000000
2.5090000000 2.7791000000 2.7182000000
2.5084000000 5.3803000000 3.0293000000
2.5081000000 0.9584000000 0.9145000000
2.5079000000 0.7803000000 0.7422000000
2.5077000000 4.2245000000 4.0996000000
2.5073000000 6.9972000000 1.4279000000
2.5071000000 2.2043000000 2.1532000000
2.5070000000 2.7229000000 2.6634000000
2.5068000000 5.4062000000 3.0076000000
2.5065000000 6.9345000000 1.4959000000
2.5062000000 4.0568000000 3.9709000000
2.5060000000 1.7931000000 1.7454000000
2.5058000000 6.1459000000 2.2726000000
2.5055000000 0.3142000000 0.2843000000
2.5050000000 3.3471000000 3.2819000000
2.5049000000 5.5818000000 2.8273000000
2.5047000000 6.6182000000 1.8107000000
2.5043000000 4.9229000000 3.4796000000
2.5039000000 1.2467000000 1.1989000000
2.5037000000 0.4522000000 0.4146000000
2.5035000000 1.3479000000 1.3061000000
2.5034000000 8.0397000000 0.4039000000
2.5031000000 1.7004000000 1.6513000000
2.5028000000 6.4574000000 1.9677000000
2.5026000000 2.4042000000 2.3483000000
2.5024000000 6.4608000000 1.9652000000
2.5022000000 4.9213000000 3.4890000000
2.5020000000 6.3245000000 2.0958000000
2.5015000000 2.2541000000 2.1998000000
2.5013000000 6.2416000000 2.1815000000
2.5007000000 2.0505000000 1.9987000000
2.5005000000 2.5992000000 2.5433000000
2.4995000000 1.0845000000 1.0428000000
2.4992000000 3.4377000000 3.3648000000
2.4985000000 1.1956000000 1.1481000000
2.4972000000 2.4382000000 2.3829000000
2.4952000000 1.2263000000 1.1787000000
2.2622000000 6.3149000000 2.1130000000
2.2610000000 6.6850000000 1.7408000000
2.2607000000 2.6815000000 2.6242000000
2.2599000000 5.3365000000 3.0759000000
2.2593000000 6.4525000000 1.9671000000
2.2588000000 6.5987000000 1.8258000000
2.2583000000 1.2168000000 1.1743000000
2.2580000000 5.6910000000 2.7261000000
2.2577000000 7.7020000000 0.7370000000
2.2575000000 7.0619000000 1.3647000000
2.2570000000 6.3663000000 2.0618000000
2.2566000000 3.9813000000 3.8630000000
2.2561000000 2.4633000000 2.4064000000
2.2559000000 7.4212000000 1.0134000000
2.2555000000 1.8884000000 1.8404000000
2.2551000000 2.2823000000 2.2301000000
2.2547000000 4.9785000000 3.4284000000
2.2545000000 4.3186000000 3.9608000000
2.2543000000 5.2377000000 3.1740000000
2.2539000000 6.4989000000 1.9278000000
2.2537000000 4.7652000000 3.6427000000
2.2534000000 5.7711000000 2.6457000000
2.2531000000 3.7190000000 3.6534000000
2.2528000000 4.2518000000 3.9751000000
2.2527000000 2.3041000000 2.2466000000
2.2525000000 4.4661000000 3.8847000000
2.2520000000 2.3017000000 2.2528000000
2.2515000000 1.9498000000 1.9052000000
2.2513000000 5.5309000000 2.8802000000
2.2509000000 3.7790000000 3.7057000000
2.2503000000 0.9135000000 0.8751000000
2.2499000000 3.0882000000 3.0303000000
2.2493000000 2.8329000000 2.7798000000
2.2478000000 4.3969000000 3.9147000000
2.2443000000 2.7133000000 2.6509000000
2.0125000000 7.0088000000 1.4203000000
2.0108000000 4.3531000000 3.7318000000
2.0098000000 6.7500000000 1.6802000000
2.0092000000 8.3784000000 0.0663000000
2.0085000000 7.3130000000 1.1161000000
2.0079000000 7.1132000000 1.3189000000
2.0078000000 2.9854000000 2.9251000000
2.0073000000 7.8858000000 0.5498000000
2.0071000000 4.7377000000 3.5432000000
2.0069000000 8.1395000000 0.2984000000
2.0068000000 0.1486000000 0.1146000000
2.0064000000 4.7866000000 3.5136000000
2.0060000000 2.5842000000 2.5221000000
2.0057000000 3.5313000000 3.4210000000
2.0055000000 1.2885000000 1.2463000000
2.0052000000 1.7544000000 1.7019000000
2.0051000000 4.6088000000 3.6034000000
2.0049000000 4.2621000000 3.7545000000
2.0046000000 0.4078000000 0.3720000000
2.0042000000 6.5224000000 1.8963000000
2.0040000000 3.1487000000 3.0809000000
2.0038000000 8.4063000000 0.0370000000
2.0036000000 1.1963000000 1.1548000000
2.0035000000 4.4314000000 3.6851000000
2.0030000000 2.5913000000 2.5363000000
2.0028000000 3.1627000000 3.0964000000
2.0024000000 0.2841000000 0.2498000000
2.0020000000 2.5486000000 2.4910000000
2.0016000000 1.8812000000 1.8277000000
2.0014000000 4.5144000000 3.6407000000
2.0012000000 4.6728000000 3.5647000000
2.0008000000 0.3928000000 0.3535000000
1.9999000000 1.5297000000 1.4870000000
1.9993000000 1.3489000000 1.3021000000
1.9986000000 4.2427000000 3.7582000000
1.9981000000 0.9767000000 0.9347000000
1.9978000000 0.1006000000 0.0662000000
1.9971000000 2.3034000000 2.2539000000
1.9968000000 4.8898000000 3.4606000000
1.7623000000 6.9004000000 1.5289000000
1.7615000000 3.3574000000 3.1429000000
1.7610000000 5.4112000000 2.9842000000
1.7605000000 8.5039000000 0.0851000000
1.7599000000 6.6549000000 1.7773000000
1.7592000000 6.7349000000 1.6921000000
1.7588000000 8.1725000000 0.2671000000
1.7585000000 8.2810000000 0.1597000000
1.7581000000 2.1422000000 2.0945000000
1.7579000000 6.2377000000 2.1835000000
1.7576000000 6.3926000000 2.0288000000
1.7572000000 2.4179000000 2.3543000000
1.7570000000 7.7166000000 0.7223000000
1.7568000000 4.4992000000 3.4407000000
1.7567000000 7.7440000000 0.6925000000
1.7563000000 2.2787000000 2.2249000000
1.7561000000 7.9935000000 0.4451000000
1.7559000000 2.2696000000 2.2137000000
1.7556000000 8.3233000000 0.1181000000
1.7555000000 7.3822000000 1.0513000000
1.7552000000 3.7537000000 3.3352000000
1.7548000000 5.3539000000 2.9994000000
1.7545000000 3.8636000000 3.3892000000
1.7543000000 3.7495000000 3.3345000000
1.7541000000 0.1011000000 0.1434000000
1.7539000000 2.9435000000 2.8692000000
1.7538000000 2.8110000000 2.7482000000
1.7534000000 5.8703000000 2.5449000000
1.7532000000 6.7705000000 1.6537000000
1.7530000000 0.5887000000 0.5546000000
1.7527000000 7.9660000000 0.4745000000
1.7525000000 2.5489000000 2.4888000000
1.7522000000 5.4507000000 2.9474000000
1.7519000000 1.3710000000 1.3263000000
1.7515000000 4.0634000000 3.4816000000
1.7513000000 0.2537000000 0.2199000000
1.7510000000 4.1544000000 3.5256000000
1.7508000000 0.9028000000 0.8603000000
1.7503000000 0.4764000000 0.4450000000
1.7500000000 0.3671000000 0.3280000000
1.7496000000 3.3475000000 3.1250000000
1.7494000000 4.9628000000 3.2132000000
1.7490000000 2.4802000000 2.4261000000
1.7487000000 5.4521000000 2.9467000000
1.7475000000 4.0943000000 3.4927000000
1.7470000000 8.2141000000 0.2299000000
1.7458000000 1.6433000000 1.5897000000
1.5147000000 5.6555000000 2.6681000000
1.5122000000 6.8571000000 1.5685000000
1.5100000000 7.0137000000 1.4144000000
1.5097000000 7.1219000000 1.3109000000
1.5094000000 1.5246000000 1.4801000000
1.5087000000 6.8503000000 1.5773000000
1.5084000000 6.2548000000 2.1643000000
1.5080000000 0.7082000000 0.6696000000
1.5076000000 5.5322000000 2.7185000000
1.5074000000 1.2114000000 1.1691000000
1.5070000000 5.4133000000 2.7783000000
1.5065000000 6.0055000000 2.4146000000
1.5063000000 4.3259000000 3.3172000000
1.5060000000 6.8490000000 1.5769000000
1.5058000000 8.4625000000 0.0507000000
1.5056000000 6.2273000000 2.1915000000
1.5055000000 0.9687000000 0.9256000000
1.5050000000 7.4157000000 1.0176000000
1.5047000000 6.5158000000 1.9118000000
1.5046000000 5.2303000000 2.8650000000
1.5044000000 1.0766000000 1.0341000000
1.5042000000 4.7321000000 3.1117000000
1.5040000000 2.0045000000 1.9507000000
1.5037000000 4.6020000000 3.1712000000
1.5035000000 7.1591000000 1.2731000000
1.5032000000 1.8546000000 1.8088000000
1.5029000000 4.6636000000 3.1410000000
1.5025000000 5.0414000000 2.9536000000
1.5022000000 3.6644000000 3.0716000000
1.5020000000 1.0826000000 1.0418000000
1.5015000000 0.2344000000 0.2025000000
1.5012000000 5.5634000000 2.6999000000
1.5008000000 7.8917000000 0.5491000000
1.5007000000 4.8324000000 3.0556000000
1.5010000000 7.1320000000 1.2978000000
1.4995000000 0.4134000000 0.3758000000
1.4988000000 1.1384000000 1.0941000000
1.4978000000 3.9725000000 3.2191000000
1.4960000000 0.3853000000 0.3510000000
1.2614000000 8.3690000000 0.0770000000
1.2598000000 6.0293000000 2.2579000000
1.2593000000 6.1974000000 2.1604000000
1.2583000000 8.0630000000 0.3721000000
1.2580000000 0.7108000000 0.6726000000
1.2573000000 3.1764000000 2.6195000000
1.2571000000 1.7738000000 1.7270000000
1.2570000000 3.3058000000 2.6854000000
1.2565000000 0.2761000000 0.2380000000
1.2564000000 8.4534000000 0.0638000000
1.2562000000 7.3459000000 1.0867000000
1.2559000000 2.4124000000 2.2391000000
1.2558000000 3.2873000000 2.6759000000
1.2555000000 5.7421000000 2.4002000000
1.2549000000 7.3092000000 1.1244000000
1.2548000000 6.2513000000 2.1309000000
1.2546000000 7.3163000000 1.1124000000
1.2545000000 3.4674000000 2.7635000000
1.2543000000 1.4351000000 1.3839000000
1.2540000000 1.6907000000 1.6377000000
1.2538000000 5.6929000000 2.4227000000
1.2537000000 8.3769000000 0.0696000000
1.2535000000 7.6297000000 0.8019000000
1.2530000000 5.7193000000 2.4061000000
1.2528000000 0.4476000000 0.4078000000
1.2525000000 5.5600000000 2.4831000000
1.2520000000 1.4673000000 1.4208000000
1.2517000000 2.2474000000 2.1370000000
1.2515000000 7.7738000000 0.6649000000
1.2513000000 0.1997000000 0.1681000000
1.2512000000 1.3357000000 1.2944000000
1.2503000000 3.8507000000 2.9480000000
1.2496000000 6.8997000000 1.5340000000
1.2494000000 2.7916000000 2.4196000000
1.2483000000 4.8046000000 2.8590000000
1.2466000000 3.8825000000 2.9634000000
1.0143000000 8.0835000000 0.3529000000
1.0130000000 7.1416000000 1.2832000000
1.0125000000 5.7985000000 2.1615000000
1.0101000000 1.6962000000 1.6357000000
1.0096000000 5.4933000000 2.3119000000
1.0092000000 7.7359000000 0.7022000000
1.0086000000 4.6890000000 2.7069000000
1.0083000000 5.1196000000 2.4973000000
1.0073000000 3.9192000000 2.7716000000
1.0069000000 5.2464000000 2.4314000000
1.0067000000 4.9691000000 2.5648000000
1.0064000000 6.1720000000 1.9732000000
1.0060000000 4.5555000000 2.7712000000
1.0059000000 4.0160000000 2.8201000000
1.0056000000 6.1383000000 1.9882000000
1.0055000000 5.8325000000 2.1376000000
1.0053000000 0.0923000000 0.1383000000
1.0050000000 5.5261000000 2.2938000000
1.0048000000 5.2736000000 2.4122000000
1.0045000000 4.5482000000 2.7764000000
1.0043000000 1.7721000000 1.6897000000
1.0041000000 3.4849000000 2.5578000000
1.0040000000 3.1853000000 2.3966000000
1.0036000000 2.2075000000 1.9226000000
1.0035000000 8.2670000000 0.1672000000
1.0032000000 4.3896000000 2.8541000000
1.0029000000 3.1504000000 2.3865000000
1.0028000000 0.1797000000 0.1459000000
1.0023000000 3.5840000000 2.6047000000
1.0021000000 4.5442000000 2.7714000000
1.0018000000 0.8062000000 0.7695000000
1.0017000000 3.1204000000 2.3731000000
1.0014000000 3.5372000000 2.5784000000
1.0012000000 0.4536000000 0.4201000000
1.0009000000 8.0624000000 0.3763000000
1.0004000000 1.7904000000 1.6984000000
1.0001000000 7.3308000000 1.1014000000
0.9995000000 3.0917000000 2.3568000000
0.9989000000 2.4305000000 2.0265000000
0.9984000000 2.7827000000 2.2020000000
0.9973000000 3.6734000000 2.6424000000
0.9945000000 1.0247000000 0.9824000000
0.9910000000 0.9468000000 0.9080000000
0.7599000000 7.4351000000 0.9975000000
0.7594000000 1.6058000000 1.4158000000
0.7588000000 7.5202000000 0.9176000000
0.7584000000 4.6909000000 2.4962000000
0.7581000000 2.9105000000 2.0617000000
0.7575000000 5.4463000000 2.1110000000
0.7574000000 7.6594000000 0.7741000000
0.7572000000 5.8797000000 1.9033000000
0.7569000000 4.2505000000 2.6973000000
0.7565000000 5.5415000000 2.0657000000
0.7563000000 6.7508000000 1.4688000000
0.7561000000 6.3550000000 1.6679000000
0.7558000000 7.5532000000 0.8813000000
0.7555000000 6.1618000000 1.7667000000
0.7553000000 2.9813000000 2.0928000000
0.7550000000 3.7324000000 2.4655000000
0.7548000000 7.7732000000 0.6636000000
0.7546000000 1.6613000000 1.4357000000
0.7545000000 1.5781000000 1.3994000000
0.7543000000 1.2023000000 1.1527000000
0.7541000000 6.9757000000 1.3527000000
0.7538000000 1.0716000000 1.0298000000
0.7536000000 1.1353000000 1.0930000000
0.7534000000 0.9991000000 0.9579000000
0.7530000000 0.6919000000 0.6431000000
0.7528000000 3.6297000000 2.4161000000
0.7524000000 5.9542000000 1.8654000000
0.7521000000 3.1095000000 2.1499000000
0.7519000000 1.0594000000 1.0182000000
0.7516000000 0.0912000000 0.0595000000
0.7515000000 6.9299000000 1.3766000000
0.7511000000 3.7130000000 2.4518000000
0.7507000000 1.4536000000 1.3276000000
0.7502000000 1.7841000000 1.4923000000
0.7500000000 5.5272000000 2.0690000000
0.7494000000 2.8291000000 2.0108000000
0.7488000000 0.1891000000 0.1543000000
0.7481000000 5.1011000000 2.2800000000
0.7475000000 1.4942000000 1.3443000000
0.5118000000 4.6080000000 2.3232000000
0.5109000000 7.1721000000 1.0512000000
0.5105000000 7.7067000000 0.7272000000
0.5092000000 4.6806000000 2.2819000000
0.5088000000 7.6673000000 0.7511000000
0.5085000000 8.3066000000 0.1307000000
0.5080000000 7.8502000000 0.5847000000
0.5076000000 0.8532000000 0.7959000000
0.5071000000 6.0419000000 1.6125000000
0.5068000000 2.3422000000 1.5627000000
0.5065000000 6.2339000000 1.5104000000
0.5063000000 4.5229000000 2.3566000000
0.5062000000 4.5621000000 2.3418000000
0.5060000000 7.8158000000 0.6241000000
0.5057000000 3.2468000000 2.0078000000
0.5053000000 4.1793000000 2.4683000000
0.5050000000 3.1537000000 1.9668000000
0.5045000000 0.6051000000 0.5667000000
0.5043000000 3.2685000000 2.0199000000
0.5041000000 2.9794000000 1.8729000000
0.5038000000 1.8795000000 1.3320000000
0.5036000000 1.7811000000 1.2832000000
0.5034000000 4.8379000000 2.2005000000
0.5032000000 5.9790000000 1.6358000000
0.5030000000 5.2486000000 2.0004000000
0.5029000000 5.8147000000 1.7167000000
0.5026000000 5.6563000000 1.7968000000
0.5024000000 3.7926000000 2.2709000000
0.5023000000 1.5891000000 1.1884000000
0.5021000000 5.2439000000 1.9948000000
0.5020000000 6.5680000000 1.3421000000
0.5017000000 7.2099000000 1.0247000000
0.5015000000 0.7768000000 0.7303000000
0.5013000000 6.8451000000 1.2063000000
0.5008000000 6.5575000000 1.3459000000
0.5003000000 2.2658000000 1.5169000000
0.4998000000 2.0063000000 1.3910000000
0.4995000000 2.8571000000 1.8115000000
0.4992000000 3.9860000000 2.3652000000
0.4986000000 0.9976000000 0.8861000000
0.4982000000 1.4011000000 1.0916000000
0.4963000000 2.7539000000 1.7555000000
0.4928000000 3.3107000000 2.0277000000
0.2612000000 5.8747000000 1.4771000000
0.2598000000 6.9077000000 0.9658000000
0.2592000000 4.9442000000 1.9371000000
0.2583000000 8.0920000000 0.3307000000
0.2580000000 2.8325000000 1.5934000000
0.2578000000 4.9445000000 1.9390000000
0.2575000000 6.8878000000 0.9814000000
0.2574000000 5.5580000000 1.6323000000
0.2570000000 2.2599000000 1.3074000000
0.2568000000 0.4643000000 0.4060000000
0.2566000000 2.5088000000 1.4340000000
0.2564000000 4.6011000000 2.1087000000
0.2563000000 5.5413000000 1.6435000000
0.2558000000 3.4970000000 1.9189000000
0.2555000000 6.2082000000 1.3045000000
0.2553000000 7.3783000000 0.7305000000
0.2551000000 7.3078000000 0.7696000000
0.2551000000 1.6969000000 1.0305000000
0.2548000000 4.0610000000 2.1946000000
0.2545000000 5.8147000000 1.5050000000
0.2543000000 5.4374000000 1.6887000000
0.2541000000 8.3418000000 0.1000000000
0.2538000000 2.8358000000 1.5952000000
0.2536000000 5.1903000000 1.8060000000
0.2533000000 4.0432000000 2.1886000000
0.2531000000 0.5822000000 0.4728000000
0.2528000000 2.0015000000 1.1734000000
0.2525000000 4.9877000000 1.9050000000
0.2524000000 0.5007000000 0.4164000000
0.2522000000 4.5028000000 2.1569000000
0.2520000000 4.6862000000 2.0630000000
0.2518000000 3.5532000000 1.9447000000
0.2515000000 5.2898000000 1.7617000000
0.2513000000 2.3378000000 1.3414000000
0.2510000000 8.2600000000 0.1848000000
0.2505000000 4.2560000000 2.2555000000
0.2501000000 4.1276000000 2.2288000000
0.2498000000 2.3604000000 1.3517000000
0.2498000000 5.2228000000 1.7944000000
0.2493000000 3.9241000000 2.1295000000
0.2479000000 4.5213000000 2.1332000000
0.2468000000 0.7718000000 0.5607000000
0.2458000000 0.9248000000 0.6333000000
0.2443000000 0.2237000000 0.1919000000
0.0103000000 2.4472000000 1.1892000000
0.0099000000 8.0797000000 0.1686000000
0.0093000000 6.4397000000 0.9838000000
0.0088000000 0.9878000000 0.4685000000
0.0085000000 6.5335000000 0.9428000000
0.0080000000 7.8421000000 0.2902000000
0.0077000000 4.7086000000 1.8396000000
0.0075000000 5.5666000000 1.4137000000
0.0070000000 0.4366000000 0.1895000000
0.0068000000 5.1168000000 1.6420000000
0.0063000000 7.7617000000 0.3230000000
0.0058000000 4.1919000000 2.0334000000
0.0056000000 2.4795000000 1.2038000000
0.0055000000 6.0798000000 1.1589000000
0.0052000000 7.1958000000 0.6048000000
0.0050000000 0.6172000000 0.2789000000
0.0047000000 5.3015000000 1.5442000000
0.0045000000 6.2362000000 1.0818000000
0.0044000000 8.1023000000 0.1582000000
0.0042000000 6.6712000000 0.8690000000
0.0040000000 1.6187000000 0.7738000000
0.0039000000 3.7119000000 1.8116000000
0.0037000000 0.5686000000 0.2461000000
0.0035000000 7.9074000000 0.2510000000
0.0032000000 2.7740000000 1.3466000000
0.0030000000 0.1456000000 0.1140000000
0.0024000000 0.9302000000 0.4348000000
0.0023000000 2.6047000000 1.2586000000
0.0020000000 0.3993000000 0.1716000000
0.0019000000 2.6881000000 1.3025000000
0.0017000000 6.0985000000 1.1481000000
0.0015000000 3.4578000000 1.6857000000
0.0013000000 5.7577000000 1.3132000000
0.0010000000 2.7489000000 1.3245000000
0.0008000000 3.5550000000 1.7276000000
0.0005000000 0.5521000000 0.2440000000
0.0002000000 1.5029000000 0.7090000000
-0.0007000000 0.2836000000 0.1091000000
-0.0008000000 0.6372000000 0.2901000000
-0.0011000000 4.2242000000 2.0434000000
-0.0014000000 6.9241000000 0.7337000000
-0.0027000000 1.5164000000 0.7225000000
-0.0031000000 0.3043000000 0.1159000000
-0.2354000000 4.1142000000 1.8032000000
-0.2375000000 5.4939000000 1.2398000000
-0.2391000000 7.6054000000 0.1989000000
-0.2402000000 6.2659000000 0.8593000000
-0.2408000000 7.9930000000 0.0737000000
-0.2412000000 6.9175000000 0.5342000000
-0.2417000000 1.6096000000 0.5562000000
-0.2420000000 7.0298000000 0.4775000000
-0.2423000000 4.5561000000 1.6966000000
-0.2426000000 6.3865000000 0.7950000000
-0.2428000000 1.7788000000 0.6433000000
-0.2430000000 7.1748000000 0.4017000000
-0.2432000000 6.2777000000 0.8465000000
-0.2435000000 0.2576000000 0.0328000000
-0.2439000000 5.0622000000 1.4470000000
-0.2441000000 3.7598000000 1.6224000000
-0.2445000000 1.6774000000 0.5903000000
-0.2448000000 3.5258000000 1.5022000000
-0.2451000000 1.7916000000 0.6448000000
-0.2453000000 7.9131000000 0.0346000000
-0.2455000000 6.1611000000 0.9028000000
-0.2458000000 4.7901000000 1.5807000000
-0.2460000000 2.5459000000 1.0225000000
-0.2461000000 7.4083000000 0.2812000000
-0.2464000000 5.3046000000 1.3277000000
-0.2467000000 7.2415000000 0.3661000000
-0.2469000000 1.7766000000 0.6402000000
-0.2471000000 7.4763000000 0.2482000000
-0.2473000000 2.2359000000 0.8678000000
-0.2477000000 5.9686000000 0.9933000000
-0.2480000000 3.3415000000 1.4079000000
-0.2482000000 4.3872000000 1.7779000000
-0.2483000000 3.4396000000 1.4547000000
-0.2492000000 3.5378000000 1.5101000000
-0.2495000000 0.2133000000 0.0094000000
-0.2499000000 0.7881000000 0.1455000000
-0.2501000000 1.5669000000 0.5284000000
-0.2505000000 8.1631000000 0.0563000000
-0.2510000000 1.7636000000 0.6255000000
-0.2540000000 3.4042000000 1.4360000000
-0.4866000000 7.3824000000 0.0913000000
-0.4900000000 4.5707000000 1.4770000000
-0.4905000000 4.0566000000 1.5550000000
-0.4908000000 4.9902000000 1.2729000000
-0.4912000000 5.8354000000 0.8518000000
-0.4917000000 6.1980000000 0.6733000000
-0.4920000000 6.0244000000 0.7640000000
-0.4926000000 7.1135000000 0.2224000000
-0.4930000000 6.8541000000 0.3473000000
-0.4934000000 5.7039000000 0.9159000000
-0.4938000000 5.7370000000 0.8975000000
-0.4940000000 6.7799000000 0.3860000000
-0.4943000000 7.0451000000 0.2496000000
-0.4945000000 5.7532000000 0.8923000000
-0.4947000000 3.8814000000 1.4682000000
-0.4950000000 4.1655000000 1.6051000000
-0.4954000000 5.9135000000 0.8120000000
-0.4957000000 2.3552000000 0.7114000000
-0.4958000000 7.0536000000 0.2478000000
-0.4963000000 6.6060000000 0.4666000000
-0.4966000000 6.0458000000 0.7473000000
-0.4969000000 3.1305000000 1.0900000000
-0.4973000000 6.2519000000 0.6410000000
-0.4976000000 4.5103000000 1.5070000000
-0.4978000000 2.7493000000 0.9004000000
-0.4980000000 5.8249000000 0.8553000000
-0.4984000000 1.9361000000 0.4993000000
-0.4988000000 3.4757000000 1.2609000000
-0.4990000000 2.4544000000 0.7546000000
-0.4991000000 0.7208000000 0.0476000000
-0.4993000000 3.3250000000 1.1819000000
-0.4995000000 1.9486000000 0.5078000000
-0.5000000000 2.5265000000 0.7909000000
-0.5009000000 5.5065000000 1.0028000000
-0.5016000000 1.2431000000 0.1509000000
-0.5030000000 2.6421000000 0.8491000000
-0.5055000000 1.6763000000 0.3646000000
-0.4955000000 3.2597000000 1.1574000000
-0.7373000000 4.9186000000 1.0994000000
-0.7403000000 3.4218000000 1.0306000000
-0.7414000000 2.1031000000 0.3750000000
-0.7419000000 3.7368000000 1.1857000000
-0.7425000000 2.3188000000 0.4832000000
-0.7428000000 2.7206000000 0.6849000000
-0.7435000000 5.2734000000 0.9172000000
-0.7437000000 7.3824000000 0.0229000000
-0.7438000000 6.7758000000 0.1741000000
-0.7440000000 3.0556000000 0.8406000000
-0.7445000000 5.1702000000 0.9680000000
-0.7448000000 6.8174000000 0.1497000000
-0.7455000000 7.0147000000 0.0549000000
-0.7457000000 2.7831000000 0.7032000000
-0.7462000000 1.2472000000 0.0199000000
-0.7471000000 6.9009000000 0.1083000000
-0.7474000000 4.9168000000 1.0868000000
-0.7478000000 4.1937000000 1.3895000000
-0.7481000000 5.9447000000 0.5787000000
-0.7483000000 4.2201000000 1.3976000000
-0.7488000000 3.7156000000 1.1666000000
-0.7491000000 7.2159000000 0.0313000000
-0.7500000000 1.8903000000 0.2642000000
-0.7510000000 2.1334000000 0.3833000000
-0.7515000000 2.0466000000 0.3371000000
-0.7516000000 3.0901000000 0.8519000000
-0.7521000000 1.8328000000 0.2282000000
-0.7538000000 1.1507000000 0.0467000000
-0.9864000000 1.6202000000 0.0765000000
-0.9903000000 6.9479000000 0.0150000000
-0.9912000000 4.2473000000 1.1945000000
-0.9928000000 5.9208000000 0.3880000000
-0.9939000000 2.7680000000 0.4899000000
-0.9941000000 1.7483000000 0.0601000000
-0.9944000000 6.7995000000 0.0210000000
-0.9948000000 5.6982000000 0.4898000000
-0.9953000000 6.6651000000 0.0826000000
-0.9955000000 2.4482000000 0.3279000000
-0.9958000000 2.2950000000 0.2480000000
-0.9961000000 6.2079000000 0.2363000000
-0.9966000000 3.8070000000 1.0022000000
-0.9970000000 4.7231000000 0.9675000000
-0.9972000000 1.5427000000 0.0275000000
-0.9977000000 6.6079000000 0.0363000000
-0.9986000000 5.2569000000 0.7095000000
-0.9994000000 3.0257000000 0.6072000000
-1.0003000000 1.9033000000 0.1257000000
-1.0010000000 2.6049000000 0.4002000000
-1.0025000000 3.8678000000 1.0244000000
-1.0040000000 2.6667000000 0.4293000000
-1.2343000000 5.8686000000 0.2010000000
-1.2407000000 4.4824000000 0.8837000000
-1.2421000000 6.1990000000 0.1028000000
-1.2427000000 5.4500000000 0.4016000000
-1.2431000000 2.8437000000 0.3137000000
-1.2435000000 3.6144000000 0.6880000000
-1.2442000000 2.5520000000 0.1696000000
-1.2445000000 4.4908000000 0.8718000000
-1.2448000000 3.7200000000 0.7371000000
-1.2453000000 6.0685000000 0.0941000000
-1.2460000000 3.3383000000 0.5551000000
-1.2470000000 6.0910000000 0.0810000000
-1.2473000000 5.1751000000 0.5344000000
-1.2477000000 5.7773000000 0.2318000000
-1.2486000000 4.2189000000 0.9728000000
-1.2488000000 4.9232000000 0.6581000000
-1.2497000000 4.3842000000 0.9213000000
-1.2512000000 4.7095000000 0.7627000000
-1.2520000000 6.4626000000 0.0404000000
-1.4904000000 4.4349000000 0.6954000000
-1.4916000000 6.0699000000 0.0249000000
-1.4919000000 2.7738000000 0.1351000000
-1.4921000000 4.2900000000 0.7570000000
-1.4926000000 4.7415000000 0.5381000000
-1.4929000000 5.4497000000 0.1860000000
-1.4933000000 3.3960000000 0.3676000000
-1.4945000000 5.0488000000 0.3813000000
-1.4947000000 5.1277000000 0.3450000000
-1.4949000000 5.7424000000 0.0387000000
-1.4952000000 5.1980000000 0.3064000000
-1.4958000000 3.7162000000 0.5293000000
-1.4962000000 2.7098000000 0.0970000000
-1.4967000000 4.9238000000 0.4435000000
-1.4974000000 5.4737000000 0.1692000000
-1.4979000000 5.7635000000 0.1018000000
-1.4988000000 5.1285000000 0.3341000000
-1.4992000000 4.8687000000 0.4692000000
-1.4998000000 4.8744000000 0.4649000000
-1.5011000000 2.5946000000 0.0471000000
-1.7410000000 3.5006000000 0.2049000000
-1.7421000000 4.1032000000 0.5069000000
-1.7430000000 4.3456000000 0.5220000000
-1.7436000000 5.6761000000 0.0099000000
-1.7447000000 3.6521000000 0.2798000000
-1.7452000000 4.9130000000 0.2316000000
-1.7464000000 5.4287000000 0.0517000000
-1.7469000000 5.4725000000 0.0332000000
-1.7475000000 3.5784000000 0.2435000000
-1.7477000000 4.2603000000 0.5393000000
-1.7483000000 3.2056000000 0.1346000000
-1.7486000000 3.7285000000 0.3188000000
-1.7499000000 3.5514000000 0.2283000000
-1.7519000000 3.2613000000 0.1545000000
-1.7547000000 3.6445000000 0.2668000000
-1.9902000000 4.1060000000 0.2991000000
-1.9915000000 3.5807000000 0.1114000000
-1.9922000000 5.0456000000 0.0254000000
-1.9937000000 4.3147000000 0.3187000000
-1.9962000000 3.6338000000 0.1347000000
-1.9977000000 3.9921000000 0.2350000000
-1.9992000000 3.6229000000 0.1225000000
-1.9996000000 3.6027000000 0.1120000000
