4.2576000000 2.7229000000 0.1031000000
4.2571000000 3.0330000000 0.0446000000
4.2567000000 2.1174000000 0.0137000000
4.2564000000 2.4710000000 0.1052000000
4.2556000000 2.8487000000 0.1310000000
4.2547000000 2.8455000000 0.1338000000
4.2533000000 2.9729000000 0.0751000000
4.2516000000 1.9843000000 0.0326000000
4.2510000000 2.1610000000 0.0348000000
4.2502000000 3.0265000000 0.0509000000
4.2498000000 1.9537000000 0.0247000000
4.2495000000 2.3269000000 0.1189000000
4.2494000000 2.3499000000 0.1244000000
4.2490000000 1.9832000000 0.0342000000
4.2458000000 1.9971000000 0.0452000000
4.0160000000 3.3350000000 0.0974000000
4.0091000000 1.6950000000 0.0198000000
4.0076000000 2.6629000000 0.3182000000
4.0074000000 3.2586000000 0.1382000000
4.0070000000 2.7082000000 0.3080000000
4.0067000000 2.3085000000 0.2181000000
4.0065000000 3.6822000000 0.0229000000
4.0064000000 2.7792000000 0.2764000000
4.0063000000 3.0610000000 0.1492000000
4.0056000000 2.6948000000 0.3135000000
4.0053000000 3.1708000000 0.1003000000
4.0053000000 3.5176000000 0.0178000000
4.0050000000 3.2868000000 0.1256000000
4.0050000000 3.1004000000 0.1387000000
4.0041000000 1.8360000000 0.0815000000
4.0040000000 3.5592000000 0.0072000000
4.0040000000 2.3283000000 0.2297000000
4.0037000000 3.1957000000 0.0927000000
4.0037000000 3.6485000000 0.0401000000
4.0035000000 2.2391000000 0.1871000000
4.0033000000 2.7129000000 0.3090000000
4.0028000000 3.0708000000 0.1469000000
4.0026000000 3.7328000000 0.0022000000
4.0025000000 2.2519000000 0.1878000000
4.0025000000 3.3197000000 0.1105000000
4.0024000000 3.0950000000 0.1405000000
4.0022000000 1.7891000000 0.0630000000
4.0015000000 2.5848000000 0.4075000000
4.0011000000 3.5382000000 0.0167000000
4.0009000000 1.5969000000 0.0550000000
3.9988000000 3.1050000000 0.1324000000
3.9980000000 1.9761000000 0.0772000000
3.9976000000 2.7587000000 0.2871000000
3.7621000000 2.5124000000 0.4958000000
3.7618000000 1.8073000000 0.1861000000
3.7615000000 2.6133000000 0.5966000000
3.7605000000 2.9054000000 0.4151000000
3.7599000000 3.3817000000 0.2006000000
3.7593000000 3.8184000000 0.0805000000
3.7591000000 3.5880000000 0.1074000000
3.7590000000 3.0681000000 0.3371000000
3.7583000000 1.2453000000 0.0073000000
3.7565000000 3.3265000000 0.2290000000
3.7563000000 1.2165000000 0.0724000000
3.7561000000 3.6302000000 0.0919000000
3.7560000000 1.2683000000 0.0256000000
3.7559000000 3.4947000000 0.1532000000
3.7558000000 2.8377000000 0.4436000000
3.7557000000 3.5112000000 0.1463000000
3.7555000000 1.4903000000 0.1200000000
3.7549000000 4.0114000000 0.0721000000
3.7548000000 2.3932000000 0.4510000000
3.7548000000 2.7123000000 0.5059000000
3.7547000000 2.9411000000 0.3997000000
3.7543000000 4.0873000000 0.0362000000
3.7539000000 3.6159000000 0.0968000000
3.7538000000 3.9199000000 0.0420000000
3.7537000000 1.6486000000 0.1168000000
3.7535000000 3.0828000000 0.3322000000
3.7534000000 3.2089000000 0.2766000000
3.7532000000 2.6759000000 0.5217000000
3.7530000000 3.9386000000 0.0380000000
3.7526000000 1.1490000000 0.0465000000
3.7523000000 2.1959000000 0.3679000000
3.7522000000 2.8005000000 0.4642000000
3.7522000000 2.9423000000 0.3995000000
3.7521000000 1.6639000000 0.1245000000
3.7513000000 2.1512000000 0.3491000000
3.7509000000 1.3151000000 0.0469000000
3.7505000000 1.2377000000 0.0083000000
3.7501000000 1.8693000000 0.2187000000
3.7499000000 3.9094000000 0.0465000000
3.7498000000 1.0566000000 0.0028000000
3.7498000000 2.1107000000 0.3270000000
3.7494000000 1.9521000000 0.2507000000
3.7492000000 3.1833000000 0.2949000000
3.7492000000 3.4694000000 0.1689000000
3.7452000000 1.2884000000 0.0433000000
3.5101000000 4.0911000000 0.0752000000
3.5093000000 2.8964000000 0.6105000000
3.5091000000 1.2438000000 0.1295000000
3.5080000000 2.9083000000 0.6078000000
3.5076000000 4.5965000000 -0.0001000000
3.5070000000 3.5555000000 0.3157000000
3.5068000000 4.2536000000 0.0819000000
3.5065000000 3.3402000000 0.4166000000
3.5064000000 1.6787000000 0.3235000000
3.5059000000 2.0520000000 0.4907000000
3.5055000000 4.2227000000 0.0910000000
3.5054000000 1.6406000000 0.3036000000
3.5052000000 0.6959000000 0.0355000000
3.5052000000 1.7104000000 0.3355000000
3.5050000000 2.7771000000 0.6643000000
3.5049000000 1.0322000000 0.1142000000
3.5044000000 4.3870000000 0.0172000000
3.5039000000 3.8097000000 0.2050000000
3.5038000000 1.8540000000 0.4008000000
3.5037000000 3.7326000000 0.2433000000
3.5033000000 4.5799000000 0.0114000000
3.5032000000 4.1972000000 0.1042000000
3.5029000000 1.4807000000 0.2349000000
3.5030000000 2.3816000000 0.6380000000
3.5028000000 0.6503000000 0.0214000000
3.5028000000 1.4896000000 0.2510000000
3.5028000000 1.4444000000 0.2242000000
3.5027000000 1.5629000000 0.2749000000
3.5027000000 2.2289000000 0.5720000000
3.5024000000 1.9520000000 0.4414000000
3.5021000000 3.3947000000 0.3942000000
3.5019000000 3.9540000000 0.1438000000
3.5017000000 2.4258000000 0.6634000000
3.5016000000 3.5892000000 0.3085000000
3.5013000000 1.5473000000 0.2749000000
3.5011000000 1.8910000000 0.4242000000
3.5011000000 2.2610000000 0.5872000000
3.5007000000 2.1417000000 0.5357000000
3.5005000000 0.9825000000 0.0929000000
3.5003000000 1.2376000000 0.1373000000
3.5003000000 2.4598000000 0.6753000000
3.5000000000 3.3998000000 0.3934000000
3.5000000000 3.1755000000 0.4917000000
3.4998000000 1.6058000000 0.2973000000
3.4998000000 3.9335000000 0.1460000000
3.4993000000 1.2844000000 0.1490000000
3.4984000000 1.1731000000 0.1063000000
3.4982000000 1.8013000000 0.3873000000
3.4973000000 0.6089000000 0.0012000000
3.4970000000 4.5305000000 0.0407000000
3.4969000000 0.6813000000 0.0347000000
3.4967000000 3.5542000000 0.3272000000
3.4962000000 1.4626000000 0.2327000000
3.4953000000 1.0331000000 0.1176000000
3.2611000000 2.7859000000 0.8504000000
3.2606000000 0.5852000000 0.1019000000
3.2601000000 3.6563000000 0.4604000000
3.2598000000 3.5600000000 0.5054000000
3.2594000000 4.5724000000 0.1259000000
3.2586000000 4.8651000000 0.0763000000
3.2585000000 4.1547000000 0.2406000000
3.2584000000 2.9561000000 0.7744000000
3.2579000000 3.1492000000 0.6870000000
3.2578000000 1.5494000000 0.4649000000
3.2576000000 3.0601000000 0.7297000000
3.2575000000 1.9104000000 0.6159000000
3.2575000000 1.9747000000 0.6431000000
3.2573000000 2.0551000000 0.6830000000
3.2570000000 1.2520000000 0.3236000000
3.2569000000 4.4060000000 0.1306000000
3.2568000000 4.1033000000 0.2644000000
3.2567000000 4.9663000000 0.0333000000
3.2561000000 1.7757000000 0.5608000000
3.2560000000 1.3258000000 0.3577000000
3.2560000000 0.5311000000 0.0792000000
3.2556000000 2.2326000000 0.7634000000
3.2556000000 4.4142000000 0.1263000000
3.2555000000 4.8804000000 0.0708000000
3.2555000000 3.9521000000 0.3352000000
3.2550000000 3.0083000000 0.7592000000
3.2550000000 3.1131000000 0.7116000000
3.2550000000 0.1969000000 0.0040000000
3.2549000000 4.2017000000 0.2234000000
3.2548000000 4.7425000000 0.0517000000
3.2545000000 4.2464000000 0.2014000000
3.2545000000 4.9995000000 0.0162000000
3.2544000000 2.6651000000 0.9076000000
3.2543000000 2.6945000000 0.8935000000
3.2543000000 0.8032000000 0.1282000000
3.2543000000 3.5895000000 0.4944000000
3.2541000000 4.3914000000 0.1436000000
3.2540000000 4.5155000000 0.0868000000
3.2537000000 1.4456000000 0.4170000000
3.2534000000 3.5101000000 0.5344000000
3.2533000000 1.5337000000 0.4513000000
3.2532000000 1.4733000000 0.4269000000
3.2531000000 2.4544000000 0.8649000000
3.2531000000 1.5254000000 0.4486000000
3.2530000000 2.6066000000 0.9943000000
3.2528000000 3.8069000000 0.4010000000
3.2527000000 3.5555000000 0.5144000000
3.2527000000 2.2279000000 0.7696000000
3.2524000000 1.5852000000 0.4773000000
3.2524000000 3.9434000000 0.3404000000
3.2523000000 4.2209000000 0.2135000000
3.2521000000 3.2344000000 0.6576000000
3.2518000000 0.3935000000 0.0234000000
3.2517000000 1.8308000000 0.5865000000
3.2514000000 3.1069000000 0.7163000000
3.2512000000 3.3100000000 0.6198000000
3.2510000000 3.7831000000 0.4095000000
3.2510000000 2.0239000000 0.6754000000
3.2508000000 4.6241000000 0.1177000000
3.2508000000 3.4451000000 0.5671000000
3.2507000000 0.3429000000 0.0745000000
3.2505000000 3.3737000000 0.5942000000
3.2503000000 2.8713000000 0.8209000000
3.2502000000 3.5242000000 0.5279000000
3.2502000000 1.4715000000 0.4328000000
3.2498000000 1.7807000000 0.5705000000
3.2497000000 2.2007000000 0.7514000000
3.2496000000 0.9295000000 0.1835000000
3.2495000000 0.4579000000 0.0552000000
3.2495000000 2.7180000000 0.8860000000
3.2494000000 1.6944000000 0.5315000000
3.2493000000 1.8604000000 0.6069000000
3.2492000000 0.4847000000 0.0644000000
3.2485000000 3.8080000000 0.4080000000
3.2477000000 0.6265000000 0.1312000000
3.2471000000 4.1526000000 0.2513000000
3.2458000000 1.4887000000 0.4411000000
3.2455000000 1.5060000000 0.4438000000
3.0118000000 4.6762000000 0.1983000000
3.0107000000 5.0090000000 0.1265000000
3.0105000000 1.3930000000 0.5824000000
3.0100000000 3.9650000000 0.5158000000
3.0093000000 2.5955000000 1.1784000000
3.0088000000 0.4831000000 0.1737000000
3.0087000000 2.3731000000 1.0191000000
3.0084000000 1.4178000000 0.5883000000
3.0083000000 5.1600000000 0.0447000000
3.0082000000 1.1365000000 0.4695000000
3.0079000000 2.9936000000 0.9482000000
3.0078000000 2.1457000000 0.9171000000
3.0075000000 1.6631000000 0.7053000000
3.0070000000 4.5368000000 0.2630000000
3.0069000000 4.3024000000 0.3687000000
3.0068000000 1.5379000000 0.6459000000
3.0067000000 0.7246000000 0.2853000000
3.0065000000 3.6328000000 0.6745000000
3.0063000000 4.8346000000 0.1357000000
3.0061000000 5.0668000000 0.1002000000
3.0059000000 0.2872000000 0.0896000000
3.0058000000 1.9136000000 0.8126000000
3.0057000000 3.6829000000 0.6456000000
3.0056000000 3.6023000000 0.6821000000
3.0056000000 3.7595000000 0.6106000000
3.0055000000 0.0330000000 0.0345000000
3.0055000000 2.6310000000 1.1786000000
3.0052000000 5.1561000000 0.0507000000
3.0049000000 5.1593000000 0.0521000000
3.0047000000 0.9611000000 0.3886000000
3.0047000000 2.8020000000 1.0398000000
3.0046000000 4.1976000000 0.4189000000
3.0045000000 0.3541000000 0.1151000000
3.0045000000 4.6701000000 0.2094000000
3.0044000000 5.2006000000 0.0374000000
3.0044000000 0.0815000000 0.0615000000
3.0043000000 3.2197000000 0.8574000000
3.0042000000 3.0824000000 0.9181000000
3.0041000000 4.5957000000 0.2411000000
3.0040000000 1.3940000000 0.5850000000
3.0038000000 1.6870000000 0.7143000000
3.0034000000 3.8638000000 0.5706000000
3.0030000000 3.0913000000 0.9100000000
3.0028000000 2.7762000000 1.0556000000
3.0026000000 3.7578000000 0.6153000000
3.0024000000 4.2721000000 0.3853000000
3.0023000000 1.8364000000 0.7821000000
3.0021000000 0.5524000000 0.2127000000
3.0019000000 3.3568000000 0.7845000000
3.0018000000 2.1544000000 0.9208000000
3.0017000000 2.7833000000 1.0493000000
3.0016000000 4.6404000000 0.2279000000
3.0015000000 5.1016000000 0.0821000000
3.0015000000 1.8787000000 0.7996000000
3.0014000000 1.4230000000 0.6047000000
3.0010000000 2.0654000000 0.8882000000
3.0009000000 4.2726000000 0.3871000000
3.0008000000 1.1190000000 0.4665000000
3.0005000000 3.1664000000 0.8833000000
3.0003000000 1.6408000000 0.6973000000
3.0003000000 0.8595000000 0.3455000000
3.0002000000 4.1196000000 0.4571000000
3.0000000000 1.0581000000 0.4364000000
2.9994000000 2.7449000000 1.0727000000
2.9993000000 0.2217000000 0.0648000000
2.9990000000 0.1339000000 0.0943000000
2.9984000000 4.0626000000 0.4831000000
2.9983000000 0.7365000000 0.2927000000
2.9980000000 0.9533000000 0.3923000000
2.7602000000 4.1277000000 0.6398000000
2.7596000000 2.3090000000 1.1870000000
2.7593000000 3.6385000000 0.8516000000
2.7592000000 3.6694000000 0.8470000000
2.7589000000 3.1365000000 1.0863000000
2.7582000000 3.8475000000 0.7623000000
2.7580000000 1.2122000000 0.6900000000
2.7575000000 4.8602000000 0.3407000000
2.7574000000 4.6730000000 0.3907000000
2.7573000000 4.1250000000 0.6421000000
2.7573000000 2.1453000000 1.1052000000
2.7566000000 4.5710000000 0.4452000000
2.7564000000 4.5426000000 0.4603000000
2.7560000000 4.2031000000 0.6076000000
2.7559000000 2.3284000000 1.1885000000
2.7555000000 4.7997000000 0.3922000000
2.7555000000 0.3704000000 0.3463000000
2.7554000000 0.3936000000 0.3685000000
2.7553000000 4.4605000000 0.4931000000
2.7551000000 2.7753000000 1.2481000000
2.7547000000 2.3412000000 1.1964000000
2.7542000000 3.8011000000 0.7866000000
2.7541000000 1.8697000000 0.9962000000
2.7538000000 1.6696000000 0.9002000000
2.7538000000 1.7268000000 0.9279000000
2.7537000000 3.5765000000 0.8849000000
2.7536000000 2.2240000000 1.1410000000
2.7535000000 0.3358000000 0.2564000000
2.7535000000 1.4853000000 0.8168000000
2.7534000000 0.5785000000 0.4127000000
2.7532000000 0.5211000000 0.4487000000
2.7531000000 2.3989000000 1.2239000000
2.7530000000 0.4991000000 0.4331000000
2.7529000000 0.4132000000 0.3874000000
2.7529000000 4.1173000000 0.6484000000
2.7528000000 3.5821000000 0.8896000000
2.7528000000 0.8054000000 0.5141000000
2.7526000000 1.6468000000 0.8933000000
2.7527000000 0.2123000000 0.1519000000
2.7526000000 4.9906000000 0.1624000000
2.7525000000 2.7162000000 1.2752000000
2.7524000000 1.6401000000 0.8884000000
2.7522000000 4.5441000000 0.4587000000
2.7521000000 3.5575000000 0.8943000000
2.7518000000 1.2669000000 0.7181000000
2.7518000000 3.1508000000 1.0791000000
2.7517000000 3.8294000000 0.7742000000
2.7517000000 4.9061000000 0.2325000000
2.7516000000 2.5673000000 1.3656000000
2.7514000000 1.9106000000 1.0131000000
2.7513000000 1.4782000000 0.8172000000
2.7512000000 0.3637000000 0.3420000000
2.7510000000 2.3695000000 1.2129000000
2.7509000000 3.8685000000 0.7586000000
2.7510000000 1.8675000000 0.9894000000
2.7509000000 0.1185000000 0.1388000000
2.7507000000 0.7250000000 0.4884000000
2.7505000000 2.0911000000 1.0865000000
2.7500000000 0.7308000000 0.4849000000
2.7506000000 0.2576000000 0.1830000000
2.7498000000 0.7627000000 0.4929000000
2.7498000000 0.3945000000 0.3697000000
2.7499000000 1.0458000000 0.6275000000
2.7498000000 3.3497000000 0.9987000000
2.7493000000 1.3211000000 0.7490000000
2.7492000000 2.7187000000 1.2755000000
2.7493000000 3.5647000000 0.8938000000
2.7489000000 0.0110000000 0.0462000000
2.7488000000 1.0911000000 0.6448000000
2.7486000000 3.1870000000 1.0648000000
2.7483000000 1.4896000000 0.8280000000
2.7482000000 2.7308000000 1.2658000000
2.7479000000 3.0354000000 1.1345000000
2.7478000000 4.5825000000 0.4411000000
2.7467000000 0.4490000000 0.4216000000
2.7457000000 1.6977000000 0.9137000000
2.7450000000 1.1001000000 0.6530000000
2.7432000000 3.2270000000 1.0511000000
2.5136000000 2.9135000000 1.3656000000
2.5125000000 3.0823000000 1.2960000000
2.5123000000 4.5268000000 0.5728000000
2.5105000000 2.0922000000 1.2741000000
2.5103000000 0.3950000000 0.3104000000
2.5099000000 3.2170000000 1.2411000000
2.5097000000 1.7631000000 1.1326000000
2.5088000000 4.0479000000 0.8624000000
2.5086000000 0.8853000000 0.8021000000
2.5084000000 3.2133000000 1.2431000000
2.5084000000 1.3180000000 0.9342000000
2.5083000000 3.6344000000 1.0541000000
2.5072000000 2.6868000000 1.4728000000
2.5069000000 4.3864000000 0.7624000000
2.5070000000 3.7364000000 1.0123000000
2.5069000000 3.8859000000 0.9425000000
2.5067000000 3.9502000000 0.9137000000
2.5064000000 3.8439000000 0.9600000000
2.5063000000 3.3586000000 1.1752000000
2.5061000000 4.9240000000 0.2201000000
2.5060000000 2.1714000000 1.3163000000
2.5058000000 0.0541000000 0.0848000000
2.5053000000 0.3473000000 0.2653000000
2.5053000000 4.6638000000 0.4495000000
2.5048000000 3.5581000000 1.0908000000
2.5048000000 5.0684000000 0.0939000000
2.5047000000 4.2055000000 0.7965000000
2.5045000000 3.5431000000 1.0983000000
2.5043000000 2.9142000000 1.3768000000
2.5044000000 2.8061000000 1.4226000000
2.5043000000 4.8943000000 0.2491000000
2.5042000000 2.7090000000 1.4712000000
2.5041000000 1.2354000000 0.9066000000
2.5040000000 2.1409000000 1.3055000000
2.5040000000 3.1279000000 1.2841000000
2.5038000000 1.3883000000 0.9654000000
2.5038000000 0.2761000000 0.1985000000
2.5037000000 3.9774000000 0.9039000000
2.5035000000 2.1855000000 1.3239000000
2.5034000000 0.9257000000 0.8309000000
2.5030000000 2.9973000000 1.3430000000
2.5029000000 2.6749000000 1.4836000000
2.5028000000 2.1219000000 1.2942000000
2.5028000000 4.1330000000 0.8356000000
2.5026000000 0.1876000000 0.1267000000
2.5022000000 3.3114000000 1.2022000000
2.5022000000 3.8454000000 0.9616000000
2.5020000000 3.2026000000 1.2455000000
2.5019000000 3.6059000000 1.0672000000
2.5018000000 4.9843000000 0.1697000000
2.5015000000 0.0580000000 0.0885000000
2.5016000000 0.3350000000 0.2553000000
2.5015000000 2.6972000000 1.4724000000
2.5015000000 0.5641000000 0.4546000000
2.5013000000 3.2625000000 1.2259000000
2.5010000000 4.3628000000 0.7754000000
2.5007000000 1.7815000000 1.1460000000
2.5005000000 0.3303000000 0.2495000000
2.4995000000 1.7554000000 1.1334000000
2.4992000000 0.2653000000 0.1948000000
2.4992000000 5.0231000000 0.1265000000
2.4983000000 4.5715000000 0.5373000000
2.4975000000 3.6875000000 1.0344000000
2.4967000000 2.4875000000 1.4629000000
2.4930000000 1.5924000000 1.0673000000
2.2613000000 0.4852000000 0.3941000000
2.2612000000 4.5294000000 0.5724000000
2.2598000000 4.0222000000 1.0211000000
2.2595000000 4.8504000000 0.2874000000
2.2593000000 1.6403000000 1.2656000000
2.2586000000 1.7881000000 1.3389000000
2.2584000000 2.7629000000 1.6354000000
2.2584000000 4.2753000000 0.7977000000
2.2579000000 2.6856000000 1.6685000000
2.2574000000 3.8883000000 1.1929000000
2.2573000000 4.3548000000 0.7303000000
2.2572000000 3.8974000000 1.1917000000
2.2567000000 4.4846000000 0.6106000000
2.2565000000 3.1158000000 1.4822000000
2.2561000000 2.3473000000 1.5891000000
2.2555000000 2.7004000000 1.6615000000
2.2553000000 1.2151000000 1.1037000000
2.2551000000 1.7530000000 1.3234000000
2.2551000000 0.4026000000 0.3156000000
2.2550000000 3.4318000000 1.3394000000
2.2550000000 2.4770000000 1.6505000000
2.2549000000 3.9180000000 1.1786000000
2.2546000000 4.7254000000 0.3970000000
2.2545000000 2.3801000000 1.6012000000
2.2545000000 1.2057000000 1.0982000000
2.2544000000 1.4946000000 1.2074000000
2.2541000000 0.5036000000 0.4003000000
2.2540000000 0.3713000000 0.2894000000
2.2539000000 0.3525000000 0.2736000000
2.2538000000 3.9708000000 1.1326000000
2.2537000000 2.9769000000 1.5375000000
2.2536000000 3.7951000000 1.1720000000
2.2536000000 1.5296000000 1.2294000000
2.2534000000 2.4917000000 1.6502000000
2.2533000000 1.3423000000 1.2026000000
2.2533000000 4.1129000000 0.9433000000
2.2531000000 3.2888000000 1.4070000000
2.2530000000 3.9602000000 1.1390000000
2.2529000000 3.9669000000 1.1300000000
2.2527000000 0.0797000000 0.1038000000
2.2526000000 2.9891000000 1.5382000000
2.2524000000 0.7374000000 0.6117000000
2.2524000000 1.6646000000 1.2839000000
2.2523000000 0.8004000000 0.6701000000
2.2523000000 2.2068000000 1.5289000000
2.2522000000 0.8877000000 0.7441000000
2.2520000000 3.5481000000 1.2896000000
2.2521000000 0.2489000000 0.1754000000
2.2518000000 2.7193000000 1.6567000000
2.2517000000 2.6642000000 1.6749000000
2.2511000000 1.4995000000 1.2156000000
2.2509000000 4.5300000000 0.5731000000
2.2508000000 5.0579000000 0.1001000000
2.2508000000 3.1933000000 1.4461000000
2.2508000000 4.3336000000 0.7466000000
2.2505000000 1.7391000000 1.3197000000
2.2505000000 2.2668000000 1.5544000000
2.2501000000 0.3804000000 0.2965000000
2.2496000000 0.3706000000 0.2816000000
2.2495000000 3.0278000000 1.5193000000
2.2493000000 2.0613000000 1.4650000000
2.2493000000 4.9966000000 0.1536000000
2.2492000000 1.3359000000 1.1996000000
2.2487000000 0.1613000000 0.1007000000
2.2483000000 0.0887000000 0.1083000000
2.2481000000 4.3794000000 0.7072000000
2.2473000000 1.2084000000 1.0356000000
2.2372000000 0.5260000000 0.4245000000
2.0120000000 4.4856000000 0.6109000000
2.0116000000 3.7631000000 1.2519000000
2.0107000000 4.5318000000 0.5674000000
2.0081000000 3.3643000000 1.5581000000
2.0078000000 1.8741000000 1.5710000000
2.0078000000 3.8573000000 1.1752000000
2.0077000000 3.6222000000 1.3789000000
2.0077000000 3.7364000000 1.2772000000
2.0076000000 1.3984000000 1.2064000000
2.0072000000 1.9648000000 1.6099000000
2.0067000000 0.5497000000 0.4481000000
2.0065000000 3.2902000000 1.5909000000
2.0064000000 3.1390000000 1.6594000000
2.0063000000 4.4938000000 0.6060000000
2.0062000000 2.4137000000 1.8103000000
2.0061000000 3.0555000000 1.6998000000
2.0060000000 2.4176000000 1.8108000000
2.0058000000 3.6043000000 1.3970000000
2.0056000000 1.1638000000 1.0000000000
2.0053000000 4.9888000000 0.1668000000
2.0053000000 5.2229000000 0.0279000000
2.0052000000 1.2757000000 1.0940000000
2.0051000000 2.0295000000 1.6335000000
2.0048000000 2.5024000000 1.8486000000
2.0046000000 2.4124000000 1.8092000000
2.0046000000 3.1443000000 1.6621000000
2.0045000000 0.2645000000 0.1988000000
2.0044000000 2.2519000000 1.7413000000
2.0042000000 4.8391000000 0.2943000000
2.0042000000 0.2140000000 0.1439000000
2.0038000000 4.6713000000 0.4486000000
2.0037000000 3.5101000000 1.5431000000
2.0036000000 2.4565000000 1.8265000000
2.0036000000 2.3680000000 1.7892000000
2.0035000000 4.1388000000 0.9189000000
2.0034000000 1.7892000000 1.5969000000
2.0030000000 4.2296000000 0.8382000000
2.0027000000 3.1935000000 1.6387000000
2.0027000000 4.2849000000 0.7881000000
2.0026000000 3.2828000000 1.5980000000
2.0025000000 0.3851000000 0.3054000000
2.0023000000 0.8867000000 0.7471000000
2.0023000000 1.6145000000 1.3929000000
2.0022000000 4.0191000000 1.0272000000
2.0021000000 2.0280000000 1.6394000000
2.0020000000 2.8408000000 1.7997000000
2.0017000000 2.8515000000 1.7964000000
2.0015000000 0.5390000000 0.4368000000
2.0014000000 4.1760000000 0.8879000000
2.0013000000 3.8705000000 1.1652000000
2.0010000000 1.5716000000 1.3576000000
2.0031000000 0.1304000000 0.0680000000
2.0006000000 3.4924000000 1.5598000000
2.0007000000 2.1367000000 1.6894000000
2.0003000000 0.6766000000 0.5686000000
2.0002000000 4.5105000000 0.5872000000
2.0002000000 2.3267000000 1.7763000000
2.0001000000 0.0109000000 0.0392000000
2.0001000000 2.5196000000 1.8604000000
1.9999000000 0.7640000000 0.6403000000
1.9999000000 2.2836000000 1.7602000000
1.9998000000 0.9549000000 0.8070000000
1.9997000000 2.9710000000 1.7374000000
1.9991000000 1.2757000000 1.0994000000
1.9990000000 1.4495000000 1.2464000000
1.9988000000 0.3490000000 0.2671000000
1.9986000000 2.8129000000 1.8130000000
1.9979000000 0.3318000000 0.2571000000
1.9971000000 0.1553000000 0.1021000000
1.9961000000 1.7090000000 1.5401000000
1.9955000000 2.8483000000 1.8011000000
1.9947000000 3.2960000000 1.6007000000
1.7620000000 5.0874000000 0.0772000000
1.7615000000 1.4077000000 1.2154000000
1.7600000000 3.5880000000 1.4200000000
1.7593000000 0.7322000000 0.6075000000
1.7588000000 0.7188000000 0.5976000000
1.7583000000 5.0553000000 0.1047000000
1.7581000000 4.8144000000 0.3206000000
1.7576000000 5.0277000000 0.1313000000
1.7575000000 4.7388000000 0.3809000000
1.7574000000 0.4426000000 0.3500000000
1.7572000000 3.5434000000 1.4537000000
1.7567000000 4.7873000000 0.3422000000
1.7566000000 2.1569000000 1.9414000000
1.7567000000 4.2970000000 0.7745000000
1.7565000000 4.0600000000 0.9873000000
1.7565000000 4.0909000000 0.9601000000
1.7562000000 2.8344000000 1.9850000000
1.7561000000 5.1597000000 0.0828000000
1.7561000000 3.6659000000 1.3363000000
1.7559000000 0.8443000000 0.7083000000
1.7558000000 4.8320000000 0.3024000000
1.7557000000 1.0941000000 0.9324000000
1.7555000000 5.1355000000 0.1062000000
1.7555000000 3.9322000000 1.1025000000
1.7554000000 4.5964000000 0.5125000000
1.7552000000 3.1658000000 1.7857000000
1.7551000000 2.7215000000 2.0356000000
1.7550000000 2.7425000000 2.0362000000
1.7549000000 1.6368000000 1.4167000000
1.7548000000 1.9586000000 1.6983000000
1.7547000000 0.4130000000 0.3222000000
1.7545000000 4.8762000000 0.2626000000
1.7544000000 4.9887000000 0.1632000000
1.7543000000 1.5502000000 1.3390000000
1.7539000000 0.7340000000 0.6140000000
1.7536000000 4.1822000000 0.8853000000
1.7536000000 2.6954000000 2.0570000000
1.7535000000 0.9887000000 0.8387000000
1.7535000000 2.5236000000 2.0542000000
1.7531000000 0.5718000000 0.4667000000
1.7531000000 2.9136000000 1.9590000000
1.7530000000 1.9070000000 1.6590000000
1.7530000000 2.9123000000 1.9560000000
1.7529000000 4.5590000000 0.5483000000
1.7528000000 1.8565000000 1.6099000000
1.7528000000 3.3283000000 1.6454000000
1.7526000000 1.7207000000 1.4965000000
1.7524000000 5.2180000000 0.0340000000
1.7525000000 4.0976000000 0.9634000000
1.7522000000 4.4585000000 0.6405000000
1.7521000000 0.1927000000 0.1285000000
1.7520000000 0.3841000000 0.3021000000
1.7518000000 4.0650000000 0.9854000000
1.7517000000 0.3223000000 0.2422000000
1.7515000000 0.5772000000 0.4651000000
1.7514000000 0.5628000000 0.4583000000
1.7513000000 5.1273000000 0.1105000000
1.7514000000 3.4305000000 1.5507000000
1.7512000000 1.4255000000 1.2246000000
1.7512000000 1.0797000000 0.9211000000
1.7511000000 3.7163000000 1.2943000000
1.7508000000 3.7630000000 1.2569000000
1.7508000000 4.7406000000 0.3801000000
1.7507000000 1.8575000000 1.6097000000
1.7506000000 4.3190000000 0.7584000000
1.7505000000 3.6914000000 1.3193000000
1.7504000000 1.2714000000 1.0848000000
1.7503000000 4.5674000000 0.5412000000
1.7502000000 2.6161000000 2.1482000000
1.7499000000 0.1027000000 0.1233000000
1.7499000000 2.3177000000 1.9628000000
1.7497000000 2.7694000000 2.0188000000
1.7494000000 1.3650000000 1.1734000000
1.7491000000 3.5098000000 1.4860000000
1.7490000000 0.6651000000 0.5511000000
1.7487000000 1.8698000000 1.6230000000
1.7481000000 3.0432000000 1.9522000000
1.7479000000 0.0632000000 0.0906000000
1.7478000000 0.3070000000 0.2354000000
1.7475000000 1.6918000000 1.4699000000
1.7469000000 0.4562000000 0.3633000000
1.7458000000 4.4159000000 0.6709000000
1.5131000000 3.7835000000 1.2333000000
1.5112000000 2.1209000000 1.8432000000
1.5105000000 3.3900000000 1.5898000000
1.5097000000 4.9435000000 0.2028000000
1.5094000000 3.4440000000 1.5370000000
1.5093000000 1.6372000000 1.4172000000
1.5090000000 3.7788000000 1.2411000000
1.5089000000 3.3083000000 1.6598000000
1.5083000000 5.0461000000 0.1138000000
1.5081000000 4.6587000000 0.4591000000
1.5081000000 4.7996000000 0.3345000000
1.5078000000 4.6503000000 0.4724000000
1.5075000000 0.7998000000 0.6687000000
1.5074000000 4.8748000000 0.2655000000
1.5073000000 1.2910000000 1.1095000000
1.5072000000 3.6391000000 1.3655000000
1.5070000000 3.5461000000 1.4520000000
1.5070000000 4.7597000000 0.3691000000
1.5068000000 4.1727000000 0.8921000000
1.5067000000 3.1496000000 1.7970000000
1.5066000000 1.8644000000 1.6182000000
1.5065000000 0.1333000000 0.0747000000
1.5063000000 0.5360000000 0.4373000000
1.5062000000 2.0229000000 1.7589000000
1.5062000000 2.4089000000 2.1031000000
1.5060000000 0.9718000000 0.8181000000
1.5060000000 3.4095000000 1.5696000000
1.5061000000 2.3181000000 2.0294000000
1.5058000000 0.8897000000 0.7543000000
1.5057000000 3.8746000000 1.1550000000
1.5056000000 0.7471000000 0.6232000000
1.5054000000 3.8343000000 1.1930000000
1.5053000000 4.4575000000 0.6379000000
1.5053000000 3.7626000000 1.2608000000
1.5052000000 0.6545000000 0.5420000000
1.5052000000 0.8223000000 0.6928000000
1.5047000000 3.6224000000 1.3831000000
1.5046000000 0.5729000000 0.4725000000
1.5043000000 4.1117000000 0.9467000000
1.5043000000 0.2244000000 0.1546000000
1.5042000000 2.4699000000 2.1582000000
1.5041000000 0.8278000000 0.6950000000
1.5040000000 4.2326000000 0.8368000000
1.5040000000 4.3179000000 0.7620000000
1.5038000000 2.9636000000 1.9657000000
1.5037000000 3.6171000000 1.3896000000
1.5036000000 2.8197000000 2.0900000000
1.5035000000 4.2594000000 0.8140000000
1.5034000000 4.4144000000 0.6719000000
1.5031000000 4.6220000000 0.4914000000
1.5030000000 2.9918000000 1.9402000000
1.5030000000 0.7517000000 0.6266000000
1.5029000000 4.6852000000 0.4360000000
1.5028000000 1.2682000000 1.0854000000
1.5027000000 1.5418000000 1.3287000000
1.5026000000 2.8104000000 2.1007000000
1.5021000000 1.7638000000 1.5244000000
1.5020000000 4.0466000000 1.0004000000
1.5020000000 0.6001000000 0.4872000000
1.5019000000 4.2961000000 0.7874000000
1.5018000000 1.2040000000 1.0314000000
1.5018000000 4.4017000000 0.6877000000
1.5017000000 1.8569000000 1.6084000000
1.5016000000 2.6307000000 2.2336000000
1.5014000000 1.8562000000 1.6157000000
1.5013000000 1.3032000000 1.1150000000
1.5013000000 2.8809000000 2.0414000000
1.5013000000 0.0029000000 0.0330000000
1.5010000000 3.5322000000 1.4561000000
1.5009000000 0.4593000000 0.3699000000
1.5007000000 2.0664000000 1.7995000000
1.5005000000 2.5316000000 2.2307000000
1.5001000000 2.8379000000 2.0743000000
1.5001000000 2.4428000000 2.1350000000
1.5000000000 1.8290000000 1.5879000000
1.4999000000 1.6680000000 1.4445000000
1.4999000000 1.2004000000 1.0302000000
1.4995000000 0.7532000000 0.6270000000
1.4994000000 4.4389000000 0.6534000000
1.4991000000 1.0722000000 0.9156000000
1.4990000000 0.1018000000 0.1175000000
1.4984000000 3.2988000000 1.6639000000
1.4983000000 1.5689000000 1.3610000000
1.4980000000 0.6500000000 0.5339000000
1.4968000000 4.1122000000 0.9436000000
1.4945000000 0.5931000000 0.4886000000
1.4944000000 2.7725000000 2.1398000000
1.2600000000 3.7608000000 1.2547000000
1.2588000000 4.0143000000 1.0284000000
1.2583000000 2.0833000000 1.8068000000
1.2583000000 3.6007000000 1.4002000000
1.2578000000 5.0785000000 0.0827000000
1.2576000000 0.8756000000 0.7350000000
1.2575000000 1.7125000000 1.4786000000
1.2575000000 1.8079000000 1.5759000000
1.2573000000 3.3810000000 1.5987000000
1.2570000000 4.1900000000 0.8734000000
1.2570000000 0.3600000000 0.2750000000
1.2569000000 3.5775000000 1.4180000000
1.2568000000 4.8839000000 0.2565000000
1.2567000000 1.4715000000 1.2690000000
1.2565000000 4.5555000000 0.5471000000
1.2563000000 4.8221000000 0.3168000000
1.2564000000 4.1120000000 0.9434000000
1.2559000000 4.8929000000 0.2479000000
1.2558000000 4.6800000000 0.4409000000
1.2558000000 2.4769000000 2.0319000000
1.2557000000 3.1104000000 1.8981000000
1.2556000000 5.1339000000 0.1116000000
1.2554000000 0.5461000000 0.4422000000
1.2552000000 3.9638000000 1.0798000000
1.2552000000 4.8069000000 0.3296000000
1.2551000000 2.2513000000 1.9901000000
1.2550000000 4.9516000000 0.1975000000
1.2549000000 4.1739000000 0.8919000000
1.2547000000 4.8174000000 0.3163000000
1.2543000000 0.9669000000 0.8163000000
1.2542000000 3.4204000000 1.5598000000
1.2540000000 0.8317000000 0.7002000000
1.2538000000 4.2174000000 0.8543000000
1.2538000000 3.5444000000 1.4477000000
1.2537000000 4.8794000000 0.2656000000
1.2536000000 0.6344000000 0.5256000000
1.2535000000 2.0004000000 1.7452000000
1.2535000000 3.9085000000 1.1250000000
1.2535000000 4.8936000000 0.2474000000
1.2534000000 1.2897000000 1.1071000000
1.2534000000 0.4091000000 0.3218000000
1.2532000000 4.0690000000 0.9858000000
1.2528000000 0.4769000000 0.3826000000
1.2528000000 2.7194000000 2.0400000000
1.2527000000 1.5749000000 1.3594000000
1.2522000000 1.4970000000 1.2868000000
1.2522000000 4.1826000000 0.8820000000
1.2519000000 2.8306000000 1.9849000000
1.2517000000 4.7251000000 0.3995000000
1.2515000000 1.0764000000 0.9147000000
1.2514000000 1.1154000000 0.9528000000
1.2513000000 4.7462000000 0.3796000000
1.2512000000 1.0979000000 0.9344000000
1.2512000000 0.4212000000 0.3331000000
1.2511000000 1.9189000000 1.6682000000
1.2509000000 3.9467000000 1.0872000000
1.2506000000 4.8772000000 0.2678000000
1.2505000000 2.0512000000 1.7853000000
1.2500000000 1.2591000000 1.0784000000
1.2495000000 1.5499000000 1.3403000000
1.2491000000 3.7727000000 1.2472000000
1.2490000000 4.2685000000 0.8047000000
1.2488000000 1.5785000000 1.3661000000
1.2472000000 3.7794000000 1.2362000000
1.2472000000 1.1417000000 0.9748000000
1.2471000000 0.0150000000 0.0491000000
1.2443000000 1.3631000000 1.1735000000
1.2437000000 0.0363000000 0.0625000000
1.2435000000 2.8062000000 1.9911000000
1.0130000000 1.2760000000 1.0932000000
1.0119000000 1.3222000000 1.1369000000
1.0115000000 0.4502000000 0.3642000000
1.0105000000 3.9096000000 1.1264000000
1.0099000000 3.7724000000 1.2483000000
1.0097000000 2.1982000000 1.7192000000
1.0096000000 4.8846000000 0.2631000000
1.0091000000 4.7244000000 0.4013000000
1.0090000000 0.3365000000 0.2527000000
1.0088000000 0.5062000000 0.4093000000
1.0080000000 5.1809000000 0.0701000000
1.0079000000 0.4594000000 0.3654000000
1.0077000000 0.2963000000 0.2180000000
1.0076000000 2.4310000000 1.8198000000
1.0072000000 3.7848000000 1.2300000000
1.0070000000 3.2275000000 1.6222000000
1.0065000000 1.6333000000 1.4083000000
1.0064000000 3.5623000000 1.4952000000
1.0064000000 1.3293000000 1.1478000000
1.0063000000 2.9862000000 1.7298000000
1.0059000000 1.4073000000 1.2123000000
1.0058000000 3.7861000000 1.2377000000
1.0057000000 2.8482000000 1.7886000000
1.0057000000 1.7057000000 1.5348000000
1.0055000000 3.5939000000 1.4018000000
1.0055000000 1.4131000000 1.2131000000
1.0050000000 0.4985000000 0.4011000000
1.0048000000 4.6985000000 0.4211000000
1.0046000000 1.4073000000 1.2120000000
1.0043000000 3.9929000000 1.0516000000
1.0042000000 1.0996000000 0.9364000000
1.0040000000 2.3406000000 1.7769000000
1.0038000000 1.7216000000 1.5470000000
1.0037000000 5.1430000000 0.1018000000
1.0038000000 3.5328000000 1.5242000000
1.0037000000 1.0867000000 0.9198000000
1.0034000000 0.5963000000 0.4870000000
1.0032000000 1.5361000000 1.3223000000
1.0031000000 0.1743000000 0.1124000000
1.0031000000 2.8176000000 1.7998000000
1.0029000000 3.3186000000 1.5784000000
1.0028000000 0.1715000000 0.1114000000
1.0027000000 3.5235000000 1.5345000000
1.0027000000 1.0857000000 0.9270000000
1.0024000000 0.9098000000 0.7696000000
1.0023000000 3.0044000000 1.7198000000
1.0021000000 2.8063000000 1.8038000000
1.0021000000 1.7014000000 1.5359000000
1.0020000000 4.8260000000 0.3146000000
1.0020000000 1.3278000000 1.1392000000
1.0019000000 2.0810000000 1.6602000000
1.0018000000 3.2228000000 1.6210000000
1.0017000000 1.0951000000 0.9347000000
1.0013000000 0.5324000000 0.4324000000
1.0010000000 2.0234000000 1.6317000000
1.0009000000 5.0393000000 0.1230000000
1.0007000000 0.9679000000 0.8195000000
1.0005000000 2.5137000000 1.8501000000
1.0004000000 0.0204000000 0.0524000000
1.0003000000 0.3650000000 0.2818000000
1.0003000000 2.9181000000 1.7561000000
1.0000000000 5.1477000000 0.0916000000
0.9998000000 3.1538000000 1.6498000000
0.9995000000 5.0313000000 0.1223000000
0.9994000000 2.2490000000 1.7272000000
0.9992000000 3.2575000000 1.6034000000
0.9991000000 2.7298000000 1.8376000000
0.9991000000 0.0070000000 0.0403000000
0.9990000000 1.9956000000 1.6162000000
0.9989000000 3.6233000000 1.3779000000
0.9988000000 4.6758000000 0.4419000000
0.9988000000 1.5035000000 1.2982000000
0.9988000000 4.8085000000 0.3237000000
0.9978000000 1.9767000000 1.6079000000
0.9975000000 2.6951000000 1.8474000000
0.9975000000 4.2456000000 0.8228000000
0.9974000000 0.0537000000 0.0786000000
0.9973000000 1.2706000000 1.0880000000
0.9967000000 2.3851000000 1.7891000000
0.9961000000 0.4389000000 0.3486000000
0.9958000000 3.6220000000 1.3809000000
0.9943000000 0.7695000000 0.6420000000
0.9938000000 0.6516000000 0.5327000000
0.7639000000 4.8399000000 0.2916000000
0.7617000000 3.6780000000 1.2321000000
0.7614000000 4.0764000000 0.9747000000
0.7601000000 2.3574000000 1.5908000000
0.7600000000 4.8799000000 0.2610000000
0.7597000000 2.3504000000 1.5894000000
0.7588000000 2.3423000000 1.5887000000
0.7584000000 3.1889000000 1.4475000000
0.7583000000 4.4994000000 0.6001000000
0.7583000000 0.7426000000 0.6219000000
0.7581000000 2.9769000000 1.5478000000
0.7580000000 3.9922000000 1.1138000000
0.7578000000 3.2655000000 1.4056000000
0.7577000000 4.6186000000 0.4903000000
0.7575000000 2.9147000000 1.5698000000
0.7571000000 2.9413000000 1.5574000000
0.7570000000 2.2265000000 1.5404000000
0.7567000000 3.7760000000 1.1867000000
0.7565000000 4.6288000000 0.4783000000
0.7566000000 3.5703000000 1.2769000000
0.7566000000 4.3867000000 0.6971000000
0.7564000000 0.6743000000 0.5604000000
0.7562000000 4.8163000000 0.3196000000
0.7561000000 5.1102000000 0.1300000000
0.7560000000 1.4168000000 1.1670000000
0.7559000000 5.1880000000 0.0647000000
0.7556000000 0.5914000000 0.4825000000
0.7555000000 2.9748000000 1.5423000000
0.7555000000 0.0056000000 0.0354000000
0.7552000000 1.9038000000 1.3860000000
0.7551000000 0.8601000000 0.7214000000
0.7550000000 2.1637000000 1.5000000000
0.7549000000 2.3084000000 1.5666000000
0.7548000000 5.0010000000 0.1535000000
0.7547000000 4.3870000000 0.7024000000
0.7545000000 1.3338000000 1.1906000000
0.7543000000 2.1167000000 1.4817000000
0.7542000000 3.7180000000 1.2091000000
0.7541000000 5.1479000000 0.0942000000
0.7540000000 2.2778000000 1.5507000000
0.7535000000 1.0959000000 0.9332000000
0.7534000000 3.9766000000 1.1272000000
0.7533000000 2.8855000000 1.5759000000
0.7533000000 3.6885000000 1.2215000000
0.7531000000 1.0509000000 0.8934000000
0.7531000000 1.3522000000 1.1969000000
0.7529000000 3.2833000000 1.4002000000
0.7528000000 0.3453000000 0.2634000000
0.7527000000 1.5809000000 1.2479000000
0.7527000000 1.5699000000 1.2368000000
0.7525000000 4.3782000000 0.7048000000
0.7524000000 2.5860000000 1.7539000000
0.7522000000 2.1742000000 1.5053000000
0.7520000000 2.0478000000 1.4477000000
0.7519000000 3.2758000000 1.4018000000
0.7519000000 1.5453000000 1.2251000000
0.7518000000 0.0340000000 0.0646000000
0.7516000000 3.8750000000 1.1969000000
0.7516000000 0.5805000000 0.4737000000
0.7515000000 2.8549000000 1.5873000000
0.7515000000 4.6939000000 0.4245000000
0.7514000000 3.4434000000 1.3254000000
0.7513000000 1.7055000000 1.2999000000
0.7510000000 4.7352000000 0.3878000000
0.7508000000 2.6609000000 1.6662000000
0.7507000000 2.6363000000 1.7476000000
0.7505000000 0.1887000000 0.1237000000
0.7503000000 0.0114000000 0.0388000000
0.7503000000 4.2369000000 0.8353000000
0.7503000000 1.4009000000 1.1521000000
0.7499000000 3.3594000000 1.3608000000
0.7498000000 2.0414000000 1.4508000000
0.7498000000 0.3025000000 0.2303000000
0.7497000000 2.0403000000 1.4425000000
0.7496000000 1.2883000000 1.1602000000
0.7495000000 2.1159000000 1.4743000000
0.7495000000 0.9057000000 0.7655000000
0.7494000000 0.1603000000 0.0986000000
0.7493000000 1.6742000000 1.2861000000
0.7490000000 4.0408000000 1.0063000000
0.7486000000 2.0490000000 1.4423000000
0.7479000000 3.1289000000 1.4664000000
0.7478000000 4.4045000000 0.6829000000
0.7477000000 2.9626000000 1.5397000000
0.7476000000 2.7381000000 1.6401000000
0.7457000000 0.0648000000 0.0942000000
0.5099000000 2.8383000000 1.4090000000
0.5098000000 4.0946000000 0.8568000000
0.5095000000 5.0080000000 0.1501000000
0.5088000000 4.2443000000 0.7764000000
0.5085000000 4.6928000000 0.4243000000
0.5082000000 4.3819000000 0.7598000000
0.5083000000 4.8026000000 0.3276000000
0.5080000000 4.9548000000 0.1956000000
0.5078000000 1.3017000000 0.9266000000
0.5072000000 4.3851000000 0.7618000000
0.5070000000 1.0753000000 0.8304000000
0.5068000000 4.6551000000 0.4626000000
0.5068000000 1.6707000000 1.0902000000
0.5068000000 3.0191000000 1.3273000000
0.5064000000 2.0702000000 1.2731000000
0.5062000000 0.9685000000 0.8404000000
0.5062000000 4.6264000000 0.4838000000
0.5061000000 2.7409000000 1.4526000000
0.5059000000 5.2352000000 0.0221000000
0.5058000000 2.0499000000 1.2598000000
0.5056000000 3.7860000000 0.9873000000
0.5055000000 1.0690000000 0.8230000000
0.5054000000 4.3226000000 0.8076000000
0.5053000000 3.3922000000 1.1657000000
0.5053000000 2.1124000000 1.2877000000
0.5052000000 3.1444000000 1.2712000000
0.5050000000 5.0791000000 0.0815000000
0.5050000000 3.3016000000 1.2010000000
0.5044000000 0.3422000000 0.2627000000
0.5044000000 2.8067000000 1.4211000000
0.5042000000 3.9008000000 0.9326000000
0.5041000000 1.1165000000 0.8424000000
0.5036000000 2.3895000000 1.4082000000
0.5036000000 2.1312000000 1.2946000000
0.5034000000 0.0627000000 0.0842000000
0.5033000000 4.4848000000 0.6048000000
0.5032000000 4.6943000000 0.4299000000
0.5029000000 0.4772000000 0.3850000000
0.5026000000 4.9133000000 0.2286000000
0.5028000000 4.0986000000 0.8454000000
0.5023000000 1.4398000000 0.9844000000
0.5023000000 1.3016000000 0.9274000000
0.5022000000 2.5452000000 1.4773000000
0.5021000000 0.7751000000 0.6321000000
0.5019000000 0.7769000000 0.6381000000
0.5018000000 0.7955000000 0.7284000000
0.5018000000 0.9366000000 0.8263000000
0.5015000000 2.4378000000 1.4253000000
0.5015000000 0.5184000000 0.4207000000
0.5014000000 2.1687000000 1.3116000000
0.5012000000 1.9284000000 1.2030000000
0.5009000000 3.0191000000 1.3225000000
0.5008000000 1.4262000000 0.9763000000
0.5007000000 0.0292000000 0.0569000000
0.5008000000 0.0661000000 0.0909000000
0.5006000000 0.7538000000 0.6335000000
0.5005000000 3.9822000000 0.8940000000
0.5005000000 1.0176000000 0.8019000000
0.5003000000 1.0744000000 0.8244000000
0.5002000000 1.1735000000 0.8650000000
0.5000000000 3.4822000000 1.1203000000
0.4996000000 1.9869000000 1.2249000000
0.4995000000 0.4544000000 0.3593000000
0.4994000000 3.4653000000 1.1230000000
0.4993000000 0.2459000000 0.1761000000
0.4985000000 2.3681000000 1.4036000000
0.4980000000 3.2247000000 1.2338000000
0.4978000000 1.6626000000 1.0809000000
0.4976000000 0.7473000000 0.6205000000
0.4974000000 1.4156000000 0.9692000000
0.4973000000 1.7623000000 1.1274000000
0.4970000000 3.9030000000 0.9287000000
0.4963000000 0.3218000000 0.2448000000
0.4960000000 4.2138000000 0.7870000000
0.4957000000 0.3626000000 0.2837000000
0.4953000000 4.2045000000 0.7958000000
0.4953000000 2.0631000000 1.2624000000
0.2613000000 2.6914000000 1.2895000000
0.2594000000 5.1421000000 0.1042000000
0.2592000000 5.0517000000 0.1083000000
0.2586000000 2.4295000000 1.2442000000
0.2582000000 3.2241000000 1.0443000000
0.2579000000 1.1840000000 0.6850000000
0.2577000000 2.8233000000 1.2277000000
0.2576000000 4.3995000000 0.5219000000
0.2569000000 4.4315000000 0.5073000000
0.2566000000 1.3049000000 0.7368000000
0.2563000000 2.0566000000 1.0702000000
0.2562000000 2.5904000000 1.3647000000
0.2562000000 4.4711000000 0.4894000000
0.2560000000 3.5114000000 0.9160000000
0.2559000000 3.1932000000 1.0617000000
0.2558000000 0.0829000000 0.1063000000
0.2558000000 2.5813000000 1.3646000000
0.2556000000 1.9724000000 1.0314000000
0.2555000000 2.4756000000 1.2550000000
0.2552000000 2.2030000000 1.1340000000
0.2552000000 2.6168000000 1.3737000000
0.2550000000 3.7340000000 0.8173000000
0.2550000000 2.6046000000 1.3741000000
0.2549000000 5.0251000000 0.1307000000
0.2548000000 4.9447000000 0.2050000000
0.2548000000 1.3421000000 0.7495000000
0.2547000000 2.4009000000 1.2201000000
0.2546000000 4.3226000000 0.5555000000
0.2545000000 2.2255000000 1.1447000000
0.2545000000 1.4625000000 0.8015000000
0.2545000000 4.4503000000 0.4994000000
0.2543000000 1.9762000000 1.0325000000
0.2542000000 5.2239000000 0.0319000000
0.2540000000 3.6007000000 0.8819000000
0.2540000000 2.8699000000 1.1931000000
0.2539000000 5.0475000000 0.1075000000
0.2538000000 1.1710000000 0.6751000000
0.2537000000 1.1805000000 0.6838000000
0.2536000000 2.8431000000 1.2119000000
0.2536000000 0.5727000000 0.4104000000
0.2535000000 5.0833000000 0.0854000000
0.2534000000 2.8161000000 1.2199000000
0.2533000000 4.7361000000 0.4301000000
0.2532000000 0.6520000000 0.4444000000
0.2530000000 0.8396000000 0.5191000000
0.2529000000 1.7159000000 0.9188000000
0.2528000000 3.5113000000 0.9172000000
0.2527000000 0.0210000000 0.0506000000
0.2528000000 4.2576000000 0.5778000000
0.2527000000 0.4637000000 0.4194000000
0.2523000000 0.9631000000 0.5815000000
0.2523000000 1.5888000000 0.8601000000
0.2522000000 4.8707000000 0.3283000000
0.2518000000 0.2108000000 0.1483000000
0.2518000000 3.4997000000 0.9170000000
0.2516000000 3.1065000000 1.0906000000
0.2515000000 2.8123000000 1.2266000000
0.2514000000 3.3687000000 0.9761000000
0.2515000000 0.1926000000 0.1331000000
0.2513000000 3.9374000000 0.7205000000
0.2510000000 4.6831000000 0.3827000000
0.2510000000 1.2265000000 0.6905000000
0.2509000000 3.5860000000 0.8789000000
0.2508000000 2.9958000000 1.1423000000
0.2505000000 4.2644000000 0.5773000000
0.2504000000 3.9796000000 0.7069000000
0.2503000000 2.2327000000 1.1455000000
0.2502000000 1.9278000000 1.0162000000
0.2502000000 0.2500000000 0.1822000000
0.2501000000 1.9178000000 1.0077000000
0.2499000000 3.6480000000 0.8480000000
0.2497000000 2.6861000000 1.2718000000
0.2496000000 1.3662000000 0.7562000000
0.2493000000 2.6323000000 1.3651000000
0.2490000000 1.4479000000 0.7935000000
0.2483000000 0.0689000000 0.0896000000
0.2478000000 5.0314000000 0.1186000000
0.2477000000 5.2045000000 0.0471000000
0.2470000000 2.8143000000 1.2197000000
0.2470000000 1.7092000000 0.9072000000
0.2464000000 2.6601000000 1.2779000000
0.2459000000 1.9464000000 1.0147000000
0.2458000000 1.2786000000 0.7151000000
0.2452000000 0.4385000000 0.4118000000
0.2450000000 4.9640000000 0.1798000000
0.2448000000 0.5212000000 0.3702000000
0.2445000000 0.0996000000 0.1217000000
0.0106000000 5.0061000000 0.1375000000
0.0080000000 4.9764000000 0.0754000000
0.0073000000 0.6636000000 0.2577000000
0.0071000000 5.0663000000 0.1045000000
0.0065000000 0.6905000000 0.2730000000
0.0062000000 1.3676000000 0.5727000000
0.0059000000 3.0531000000 0.9293000000
0.0058000000 4.7675000000 0.1712000000
0.0056000000 3.4985000000 0.7341000000
0.0055000000 0.4874000000 0.1815000000
0.0054000000 2.4635000000 1.0558000000
0.0053000000 0.3196000000 0.1012000000
0.0049000000 3.9752000000 0.5124000000
0.0048000000 4.0104000000 0.4993000000
0.0048000000 4.7857000000 0.1578000000
0.0047000000 4.1745000000 0.4264000000
0.0046000000 0.9890000000 0.4010000000
0.0045000000 2.1493000000 0.9217000000
0.0045000000 2.7267000000 1.0741000000
0.0044000000 3.7003000000 0.6352000000
0.0043000000 2.5587000000 1.0897000000
0.0041000000 1.0356000000 0.4177000000
0.0040000000 4.7689000000 0.1642000000
0.0040000000 0.9731000000 0.3928000000
0.0040000000 1.6758000000 0.7048000000
0.0038000000 2.8849000000 0.9983000000
0.0037000000 5.1948000000 0.0269000000
0.0036000000 0.2665000000 0.0799000000
0.0035000000 5.2054000000 0.0182000000
0.0032000000 0.3013000000 0.0962000000
0.0030000000 4.6268000000 0.2237000000
0.0029000000 1.6821000000 0.7092000000
0.0027000000 0.3284000000 0.1073000000
0.0025000000 2.7786000000 1.0452000000
0.0026000000 0.2009000000 0.1238000000
0.0023000000 1.4217000000 0.5904000000
0.0022000000 0.4286000000 0.1495000000
0.0021000000 3.1780000000 0.8658000000
0.0020000000 0.1553000000 0.1023000000
0.0019000000 0.7473000000 0.2996000000
0.0017000000 2.5420000000 1.0912000000
0.0017000000 3.7095000000 0.6324000000
0.0018000000 2.6105000000 1.1838000000
0.0015000000 3.3704000000 0.7844000000
0.0015000000 0.0150000000 0.0273000000
0.0014000000 2.2768000000 0.9733000000
0.0013000000 0.5306000000 0.1985000000
0.0011000000 0.3068000000 0.0978000000
0.0009000000 1.1971000000 0.4930000000
0.0007000000 3.6895000000 0.6397000000
0.0006000000 1.4781000000 0.6190000000
0.0005000000 4.0210000000 0.4908000000
0.0004000000 2.6370000000 1.1660000000
0.0001000000 2.1453000000 0.9154000000
0.0000000000 3.2304000000 0.8432000000
-0.0003000000 3.9453000000 0.5234000000
-0.0010000000 3.2396000000 0.8371000000
-0.0014000000 2.3541000000 1.0085000000
-0.0015000000 0.8803000000 0.3494000000
-0.0016000000 2.1670000000 0.9198000000
-0.0017000000 4.6744000000 0.2003000000
-0.0029000000 4.1872000000 0.4178000000
-0.0031000000 0.4691000000 0.1646000000
-0.0032000000 4.8554000000 0.1149000000
-0.0039000000 1.7990000000 0.7524000000
-0.0045000000 3.2421000000 0.8328000000
-0.0092000000 3.6952000000 0.6277000000
-0.2393000000 2.2293000000 0.7614000000
-0.2397000000 4.0319000000 0.3013000000
-0.2414000000 4.0636000000 0.2849000000
-0.2424000000 1.7752000000 0.5598000000
-0.2427000000 3.8322000000 0.3910000000
-0.2428000000 1.9964000000 0.6604000000
-0.2431000000 1.7096000000 0.5329000000
-0.2436000000 3.3445000000 0.6016000000
-0.2436000000 2.9571000000 0.7739000000
-0.2439000000 3.6186000000 0.4847000000
-0.2440000000 0.4749000000 0.0532000000
-0.2442000000 2.6538000000 0.9726000000
-0.2444000000 0.8089000000 0.1304000000
-0.2445000000 2.0149000000 0.6708000000
-0.2446000000 4.3152000000 0.1706000000
