6.5154000000 4.0760000000 0.0814000000
6.5083000000 4.4050000000 0.0237000000
6.5070000000 3.5953000000 0.0479000000
6.5039000000 3.2900000000 0.0076000000
6.5030000000 3.9630000000 0.1340000000
6.5014000000 3.8246000000 0.1444000000
6.2600000000 3.2595000000 0.0891000000
6.2577000000 3.8914000000 0.3228000000
6.2568000000 4.5471000000 0.0645000000
6.2564000000 4.8672000000 0.0167000000
6.2551000000 4.5179000000 0.0812000000
6.2545000000 3.1903000000 0.0661000000
6.2541000000 4.1606000000 0.2304000000
6.2523000000 3.1452000000 0.0529000000
6.2509000000 2.8701000000 0.0117000000
6.2489000000 3.3612000000 0.1405000000
6.0117000000 3.2374000000 0.2607000000
6.0105000000 2.9267000000 0.1242000000
6.0100000000 3.4378000000 0.3329000000
6.0076000000 4.4098000000 0.2997000000
6.0073000000 5.0464000000 0.0438000000
6.0068000000 3.5484000000 0.3886000000
6.0063000000 4.2148000000 0.3786000000
6.0059000000 4.0287000000 0.4539000000
6.0050000000 4.4515000000 0.2836000000
6.0040000000 3.2980000000 0.2824000000
6.0035000000 4.2065000000 0.3835000000
6.0028000000 3.4831000000 0.3559000000
6.0005000000 2.9968000000 0.1639000000
5.9994000000 4.3433000000 0.3349000000
5.7630000000 4.8831000000 0.2808000000
5.7614000000 4.2574000000 0.5329000000
5.7595000000 4.1785000000 0.5708000000
5.7585000000 4.1208000000 0.5876000000
5.7578000000 4.2288000000 0.5511000000
5.7575000000 5.7657000000 -0.0008000000
5.7564000000 5.1886000000 0.1648000000
5.7561000000 2.6317000000 0.1932000000
5.7557000000 2.2527000000 0.0367000000
5.7550000000 3.8833000000 0.6816000000
5.7548000000 4.9656000000 0.2465000000
5.7540000000 3.3923000000 0.4942000000
5.7536000000 3.6208000000 0.5846000000
5.7523000000 4.2235000000 0.5552000000
5.7515000000 2.0491000000 0.0314000000
5.7510000000 3.3739000000 0.4873000000
5.7498000000 2.7710000000 0.2502000000
5.7458000000 4.7193000000 0.3550000000
5.5134000000 6.0629000000 0.0520000000
5.5118000000 3.1761000000 0.5777000000
5.5099000000 5.9895000000 0.0855000000
5.5097000000 2.5421000000 0.3229000000
5.5086000000 3.2318000000 0.6048000000
5.5080000000 6.0677000000 0.0577000000
5.5075000000 2.8539000000 0.4507000000
5.5072000000 3.5187000000 0.7137000000
5.5069000000 3.4504000000 0.6943000000
5.5067000000 5.4214000000 0.2414000000
5.5059000000 2.5590000000 0.3340000000
5.5053000000 5.1424000000 0.3570000000
5.5046000000 3.8853000000 0.8497000000
5.5040000000 4.5219000000 0.6079000000
5.5037000000 3.1619000000 0.5730000000
5.5034000000 4.0335000000 0.7980000000
5.5029000000 2.6516000000 0.3757000000
5.5024000000 5.0158000000 0.4103000000
5.5023000000 5.9486000000 0.0314000000
5.5017000000 2.5142000000 0.3176000000
5.5013000000 1.8679000000 0.0603000000
5.5010000000 1.9576000000 0.0948000000
5.5005000000 4.4115000000 0.6485000000
5.4999000000 6.0741000000 0.0598000000
5.4988000000 5.2578000000 0.3064000000
5.4969000000 2.8079000000 0.4441000000
5.2601000000 5.0490000000 0.5601000000
5.2595000000 5.4861000000 0.3858000000
5.2583000000 3.1878000000 0.7599000000
5.2580000000 2.4065000000 0.4407000000
5.2578000000 4.4134000000 0.8218000000
5.2575000000 2.2195000000 0.3708000000
5.2573000000 4.8129000000 0.6561000000
5.2569000000 3.0684000000 0.7120000000
5.2567000000 2.0127000000 0.2874000000
5.2560000000 1.4582000000 0.0668000000
5.2557000000 2.6515000000 0.5457000000
5.2555000000 6.3780000000 0.0363000000
5.2552000000 3.4374000000 0.8620000000
5.2549000000 5.4671000000 0.3987000000
5.2548000000 5.8473000000 0.2494000000
5.2543000000 4.7293000000 0.6954000000
5.2539000000 3.8930000000 1.0218000000
5.2536000000 3.7409000000 0.9826000000
5.2533000000 5.5371000000 0.3711000000
5.2526000000 4.2178000000 0.9065000000
5.2521000000 2.8087000000 0.6164000000
5.2512000000 3.0763000000 0.7203000000
5.2493000000 1.1971000000 0.0380000000
5.2489000000 1.3605000000 0.0309000000
5.2466000000 3.6442000000 0.9517000000
5.0110000000 5.5722000000 0.5281000000
5.0100000000 2.6411000000 0.7130000000
5.0085000000 4.0606000000 1.1372000000
5.0081000000 2.1821000000 0.5295000000
5.0078000000 5.8173000000 0.4323000000
5.0077000000 4.9756000000 0.7673000000
5.0074000000 6.1736000000 0.2889000000
5.0067000000 6.8416000000 0.0909000000
5.0063000000 4.7394000000 0.8647000000
5.0060000000 6.5556000000 0.1361000000
5.0058000000 3.5843000000 1.0965000000
5.0056000000 6.0130000000 0.3542000000
5.0054000000 3.8354000000 1.1816000000
5.0051000000 5.4701000000 0.5688000000
5.0048000000 1.0734000000 0.0877000000
5.0047000000 6.7093000000 0.0749000000
5.0046000000 1.2045000000 0.1418000000
5.0044000000 5.6837000000 0.4849000000
5.0041000000 3.8946000000 1.1954000000
5.0039000000 1.0367000000 0.0704000000
5.0036000000 2.8618000000 0.8080000000
5.0032000000 2.4382000000 0.6345000000
5.0030000000 0.9404000000 0.0228000000
5.0027000000 4.9106000000 0.7946000000
5.0023000000 2.3223000000 0.5877000000
5.0022000000 2.8803000000 0.8163000000
5.0020000000 3.2563000000 0.9704000000
5.0015000000 2.0206000000 0.4728000000
5.0009000000 2.1806000000 0.5329000000
5.0003000000 2.9773000000 0.8533000000
4.9998000000 3.0845000000 0.8985000000
4.9992000000 5.8561000000 0.4191000000
4.9987000000 6.7869000000 0.0461000000
4.9975000000 2.1419000000 0.5199000000
4.7647000000 5.0464000000 0.9155000000
4.7621000000 3.6894000000 1.3085000000
4.7608000000 3.5764000000 1.2628000000
4.7599000000 6.4838000000 0.3356000000
4.7596000000 5.5842000000 0.6979000000
4.7591000000 6.6587000000 0.2591000000
4.7583000000 6.0190000000 0.5187000000
4.7578000000 6.2435000000 0.4362000000
4.7575000000 5.7451000000 0.6280000000
4.7571000000 5.9273000000 0.5623000000
4.7566000000 6.4357000000 0.3566000000
4.7564000000 5.1200000000 0.8895000000
4.7562000000 1.1271000000 0.2824000000
4.7560000000 1.8048000000 0.5580000000
4.7558000000 1.9134000000 0.5977000000
4.7554000000 5.1815000000 0.8685000000
4.7551000000 3.4207000000 1.2026000000
4.7548000000 0.2486000000 -0.0018000000
4.7545000000 3.1021000000 1.0773000000
4.7543000000 2.6055000000 0.8786000000
4.7540000000 7.4637000000 0.0156000000
4.7537000000 4.3182000000 1.2093000000
4.7531000000 2.0642000000 0.6613000000
4.7528000000 3.9577000000 1.3594000000
4.7526000000 3.9097000000 1.3603000000
4.7524000000 1.4092000000 0.3979000000
4.7521000000 6.9115000000 0.1683000000
4.7519000000 2.1768000000 0.7087000000
4.7518000000 3.0408000000 1.0531000000
4.7513000000 4.3225000000 1.2107000000
4.7508000000 2.6428000000 0.8974000000
4.7493000000 0.3960000000 0.0644000000
4.7481000000 2.4917000000 0.8378000000
4.7463000000 0.3814000000 0.0610000000
4.5111000000 7.1187000000 0.2526000000
4.5108000000 5.2795000000 0.9883000000
4.5095000000 5.3721000000 0.9584000000
4.5093000000 3.8519000000 1.5380000000
4.5083000000 6.5518000000 0.4790000000
4.5080000000 7.2750000000 0.1926000000
4.5077000000 6.6300000000 0.4555000000
4.5074000000 0.0792000000 0.0316000000
4.5070000000 7.4734000000 0.1080000000
4.5068000000 4.4450000000 1.3321000000
4.5063000000 1.6790000000 0.6768000000
4.5060000000 4.9731000000 1.1245000000
4.5057000000 5.2363000000 1.0091000000
4.5055000000 2.5362000000 1.0224000000
4.5052000000 0.8006000000 0.3276000000
4.5049000000 2.9041000000 1.1699000000
4.5046000000 2.5899000000 1.0441000000
4.5044000000 1.7042000000 0.6927000000
4.5043000000 0.6958000000 0.2774000000
4.5041000000 7.1287000000 0.2530000000
4.5036000000 7.2694000000 0.1976000000
4.5034000000 2.0686000000 0.8332000000
4.5031000000 1.5698000000 0.6338000000
4.5029000000 0.4942000000 0.1992000000
4.5024000000 6.4765000000 0.5179000000
4.5023000000 4.9727000000 1.1281000000
4.5020000000 1.7929000000 0.7256000000
4.5016000000 6.6723000000 0.4426000000
4.5015000000 0.7528000000 0.3093000000
4.5012000000 0.8844000000 0.3633000000
4.5008000000 0.3727000000 0.1554000000
4.4998000000 1.2337000000 0.5028000000
4.4995000000 4.4022000000 1.3576000000
4.4987000000 1.0138000000 0.4212000000
4.4984000000 2.2740000000 0.9177000000
4.4964000000 2.2200000000 0.9014000000
4.2638000000 6.3285000000 0.7438000000
4.2608000000 6.4883000000 0.6803000000
4.2594000000 1.7616000000 0.8817000000
4.2586000000 1.8442000000 0.9201000000
4.2584000000 6.5574000000 0.6581000000
4.2580000000 1.9020000000 0.9363000000
4.2576000000 1.5118000000 0.7849000000
4.2570000000 2.7304000000 1.2724000000
4.2568000000 4.1787000000 1.6213000000
4.2565000000 3.0977000000 1.4216000000
4.2563000000 7.7579000000 0.0198000000
4.2561000000 5.9803000000 0.8876000000
4.2559000000 3.1132000000 1.4321000000
4.2556000000 6.9235000000 0.5141000000
4.2554000000 0.0920000000 0.0922000000
4.2552000000 3.0817000000 1.4221000000
4.2548000000 5.6235000000 1.0320000000
4.2546000000 4.1885000000 1.6106000000
4.2544000000 1.3687000000 0.7323000000
4.2543000000 3.0993000000 1.4287000000
4.2541000000 0.8785000000 0.5295000000
4.2535000000 2.7982000000 1.3024000000
4.2532000000 0.0321000000 0.0484000000
4.2527000000 5.7573000000 0.9818000000
4.2523000000 6.2526000000 0.7803000000
4.2521000000 6.5646000000 0.6558000000
4.2518000000 1.3023000000 0.7085000000
4.2516000000 4.3088000000 1.5646000000
4.2515000000 0.3507000000 0.2903000000
4.2513000000 1.8050000000 0.9072000000
4.2510000000 3.1862000000 1.4640000000
4.2504000000 2.4343000000 1.1661000000
4.2499000000 0.2126000000 0.1939000000
4.2495000000 0.5440000000 0.3988000000
4.2480000000 4.8197000000 1.3602000000
4.2467000000 1.9472000000 0.9629000000
4.0120000000 6.1872000000 0.9820000000
4.0105000000 7.6046000000 0.1424000000
4.0102000000 6.2349000000 0.9582000000
4.0097000000 6.5235000000 0.8427000000
4.0092000000 3.8774000000 1.8957000000
4.0085000000 7.3523000000 0.3434000000
4.0082000000 4.5707000000 1.6353000000
4.0078000000 7.3525000000 0.3411000000
4.0075000000 1.2386000000 0.8526000000
4.0073000000 7.7356000000 0.0392000000
4.0070000000 3.9759000000 1.8755000000
4.0067000000 0.3142000000 0.2773000000
4.0063000000 7.0709000000 0.5678000000
4.0062000000 5.9501000000 1.0775000000
4.0059000000 0.7131000000 0.5875000000
4.0056000000 6.2976000000 0.9331000000
4.0054000000 0.7796000000 0.6402000000
4.0050000000 3.6049000000 1.8020000000
4.0048000000 7.0805000000 0.5643000000
4.0045000000 1.0082000000 0.7573000000
4.0043000000 3.8721000000 1.8952000000
4.0041000000 1.7455000000 1.0591000000
4.0036000000 6.3617000000 0.9143000000
4.0035000000 3.1717000000 1.6284000000
4.0031000000 5.3771000000 1.3116000000
4.0029000000 3.9867000000 1.8735000000
4.0027000000 2.8318000000 1.4908000000
4.0025000000 1.5611000000 0.9812000000
4.0023000000 1.1919000000 0.8314000000
4.0020000000 5.5389000000 1.2396000000
4.0016000000 1.5532000000 0.9794000000
4.0014000000 3.5183000000 1.7698000000
4.0007000000 3.4886000000 1.7584000000
4.0004000000 2.9643000000 1.5541000000
4.0000000000 0.2596000000 0.2339000000
3.9997000000 3.1618000000 1.6276000000
3.9979000000 0.8970000000 0.7012000000
3.9958000000 1.3256000000 0.8900000000
3.9924000000 1.1500000000 0.8238000000
3.7627000000 7.6247000000 0.1292000000
3.7604000000 2.0607000000 1.3508000000
3.7599000000 4.8776000000 1.6869000000
3.7588000000 5.8121000000 1.3041000000
3.7583000000 7.4608000000 0.2600000000
3.7580000000 6.0562000000 1.2059000000
3.7577000000 6.4501000000 1.0357000000
3.7572000000 3.5858000000 1.9687000000
3.7568000000 6.1797000000 1.1545000000
3.7563000000 5.1949000000 1.5554000000
3.7562000000 3.4276000000 1.9091000000
3.7559000000 4.9750000000 1.6497000000
3.7556000000 4.6408000000 1.7824000000
3.7552000000 7.5889000000 0.1564000000
3.7545000000 4.0174000000 2.0344000000
3.7543000000 1.8216000000 1.2590000000
3.7540000000 5.0629000000 1.6101000000
3.7539000000 3.3931000000 1.8909000000
3.7534000000 2.7289000000 1.6275000000
3.7531000000 0.8306000000 0.6942000000
3.7528000000 5.9803000000 1.2378000000
3.7525000000 5.4282000000 1.4663000000
3.7523000000 0.0666000000 0.0744000000
3.7521000000 3.0553000000 1.7625000000
3.7514000000 1.7049000000 1.2172000000
3.7513000000 0.2127000000 0.1940000000
3.7508000000 0.0589000000 0.0692000000
3.7507000000 0.1685000000 0.1603000000
3.7505000000 1.7035000000 1.2176000000
3.7502000000 0.3569000000 0.3065000000
3.7495000000 2.9643000000 1.7267000000
3.7483000000 2.0773000000 1.3610000000
3.7467000000 0.9032000000 0.7517000000
3.5160000000 7.4482000000 0.2637000000
3.5121000000 5.5166000000 1.5976000000
3.5110000000 4.9859000000 1.8085000000
3.5099000000 4.2789000000 2.0954000000
3.5090000000 5.2855000000 1.6867000000
3.5084000000 3.8267000000 2.2358000000
3.5079000000 1.6115000000 1.3053000000
3.5076000000 5.5480000000 1.5834000000
3.5072000000 6.8692000000 0.7358000000
3.5070000000 4.1880000000 2.1360000000
3.5069000000 5.9780000000 1.4067000000
3.5066000000 2.7919000000 1.8256000000
3.5063000000 4.0237000000 2.2031000000
3.5059000000 5.5237000000 1.5971000000
3.5058000000 4.3267000000 2.0853000000
3.5054000000 1.3473000000 1.1083000000
3.5053000000 3.9058000000 2.2365000000
3.5051000000 3.1711000000 1.9819000000
3.5050000000 5.0360000000 1.7998000000
3.5048000000 6.1787000000 1.2827000000
3.5045000000 6.3654000000 1.1456000000
3.5043000000 5.6369000000 1.5539000000
3.5041000000 7.3138000000 0.3761000000
3.5040000000 1.9380000000 1.4806000000
3.5037000000 3.9350000000 2.2364000000
3.5033000000 3.2551000000 2.0154000000
3.5028000000 3.4741000000 2.1021000000
3.5025000000 0.3111000000 0.2788000000
3.5024000000 4.5380000000 1.9953000000
3.5021000000 1.4077000000 1.1572000000
3.5017000000 1.6843000000 1.3660000000
3.5015000000 4.4431000000 2.0358000000
3.5013000000 7.1405000000 0.5160000000
3.5012000000 1.1577000000 0.9504000000
3.5003000000 0.9576000000 0.7939000000
3.4999000000 4.6275000000 1.9627000000
3.4993000000 0.7631000000 0.6362000000
3.4986000000 0.5169000000 0.4435000000
3.4980000000 0.8648000000 0.7208000000
3.4959000000 3.2172000000 2.0059000000
3.4915000000 0.5745000000 0.4880000000
3.2612000000 7.4266000000 0.2889000000
3.2603000000 7.7097000000 0.0631000000
3.2597000000 4.2894000000 2.2703000000
3.2585000000 1.4593000000 1.1987000000
3.2583000000 7.2060000000 0.4626000000
3.2577000000 5.9344000000 1.4886000000
3.2570000000 6.8701000000 0.7336000000
3.2568000000 4.0930000000 2.3464000000
3.2565000000 2.2840000000 1.7886000000
3.2561000000 7.7231000000 0.0500000000
3.2559000000 6.0711000000 1.3825000000
3.2555000000 0.7308000000 0.6118000000
3.2550000000 0.0002000000 0.0232000000
3.2546000000 3.9362000000 2.4099000000
3.2543000000 2.8942000000 2.0420000000
3.2540000000 1.8882000000 1.5475000000
3.2538000000 3.3549000000 2.2246000000
3.2537000000 5.6450000000 1.7024000000
3.2533000000 6.1027000000 1.3528000000
3.2529000000 3.6582000000 2.3494000000
3.2526000000 0.0217000000 0.0445000000
3.2525000000 1.8558000000 1.5224000000
3.2518000000 6.0648000000 1.3860000000
3.2514000000 0.3984000000 0.3428000000
3.2511000000 6.3037000000 1.1920000000
3.2508000000 4.2816000000 2.2776000000
3.2505000000 4.5363000000 2.1734000000
3.2492000000 3.9084000000 2.4156000000
3.2487000000 1.9494000000 1.5962000000
3.2481000000 3.5201000000 2.3025000000
3.0141000000 5.7545000000 1.6277000000
3.0112000000 2.0292000000 1.6587000000
3.0103000000 7.0076000000 0.6266000000
3.0094000000 7.5153000000 0.2143000000
3.0092000000 2.1718000000 1.7758000000
3.0082000000 2.3580000000 1.9234000000
3.0077000000 3.9393000000 2.5854000000
3.0075000000 3.6377000000 2.5161000000
3.0072000000 5.2006000000 2.0691000000
3.0067000000 6.6222000000 0.9378000000
3.0062000000 7.7452000000 0.0320000000
3.0058000000 4.2424000000 2.4694000000
3.0057000000 0.7205000000 0.5992000000
3.0055000000 1.1238000000 0.9283000000
3.0050000000 5.9562000000 1.4726000000
3.0048000000 5.7812000000 1.6121000000
3.0045000000 3.6786000000 2.5318000000
3.0043000000 6.8043000000 0.7822000000
3.0040000000 0.2203000000 0.2020000000
3.0039000000 3.6568000000 2.5290000000
3.0035000000 3.5546000000 2.4819000000
3.0034000000 1.4828000000 1.2172000000
3.0033000000 0.2254000000 0.2073000000
3.0030000000 2.7789000000 2.1718000000
3.0028000000 6.9068000000 0.7000000000
3.0023000000 5.9931000000 1.4448000000
3.0021000000 7.3156000000 0.3788000000
3.0016000000 2.3951000000 1.9570000000
3.0010000000 2.5370000000 2.0555000000
3.0007000000 3.6089000000 2.5102000000
3.0002000000 0.2000000000 0.1862000000
2.9998000000 4.1644000000 2.4987000000
2.9991000000 1.6393000000 1.3459000000
2.9980000000 0.1857000000 0.1705000000
2.9965000000 0.6613000000 0.5548000000
2.7607000000 3.4831000000 2.6252000000
2.7600000000 4.9159000000 2.3128000000
2.7596000000 4.5870000000 2.4926000000
2.7592000000 6.4954000000 1.0360000000
2.7585000000 5.1233000000 2.1430000000
2.7582000000 4.1122000000 2.6868000000
2.7578000000 0.7984000000 0.6615000000
2.7576000000 2.9449000000 2.3839000000
2.7574000000 7.2442000000 0.4332000000
2.7570000000 7.1473000000 0.5114000000
2.7568000000 6.3876000000 1.1236000000
2.7563000000 2.8483000000 2.3211000000
2.7560000000 6.0454000000 1.4033000000
2.7555000000 5.3454000000 1.9614000000
2.7553000000 3.4747000000 2.6265000000
2.7550000000 2.8948000000 2.3438000000
2.7549000000 2.3734000000 1.9312000000
2.7546000000 7.6544000000 0.0972000000
2.7544000000 5.2044000000 2.0794000000
2.7543000000 5.7157000000 1.6655000000
2.7540000000 3.2160000000 2.5246000000
2.7538000000 5.3579000000 1.9527000000
2.7535000000 3.0294000000 2.4321000000
2.7531000000 3.9368000000 2.7610000000
2.7530000000 6.1164000000 1.3457000000
2.7528000000 1.4830000000 1.2189000000
2.7525000000 2.6027000000 2.1199000000
2.7522000000 7.0813000000 0.5647000000
2.7519000000 1.0454000000 0.8664000000
2.7517000000 0.4138000000 0.3589000000
2.7513000000 5.2977000000 2.0068000000
2.7509000000 2.1163000000 1.7286000000
2.7507000000 4.7959000000 2.3974000000
2.7504000000 1.2575000000 1.0338000000
2.7498000000 6.2702000000 1.2200000000
2.7489000000 0.2498000000 0.2202000000
2.5125000000 4.3968000000 2.7171000000
2.5106000000 7.0037000000 0.6314000000
2.5094000000 2.7391000000 2.2272000000
2.5092000000 5.0704000000 2.1889000000
2.5088000000 4.9884000000 2.2497000000
2.5084000000 5.4402000000 1.8913000000
2.5080000000 3.1353000000 2.5511000000
2.5073000000 5.2192000000 2.0619000000
2.5070000000 0.3387000000 0.2982000000
2.5067000000 2.5497000000 2.0781000000
2.5063000000 0.0615000000 0.0747000000
2.5060000000 4.7292000000 2.4623000000
2.5057000000 7.6751000000 0.0870000000
2.5053000000 3.0255000000 2.4633000000
2.5051000000 0.8489000000 0.7105000000
2.5048000000 3.3044000000 2.6787000000
2.5046000000 6.6049000000 0.9513000000
2.5043000000 2.3063000000 1.8812000000
2.5042000000 2.4865000000 2.0309000000
2.5040000000 3.6549000000 2.8732000000
2.5038000000 0.4228000000 0.3645000000
2.5036000000 2.8681000000 2.3356000000
2.5034000000 6.9490000000 0.6763000000
2.5033000000 2.7585000000 2.2502000000
2.5030000000 3.0953000000 2.5134000000
2.5025000000 3.7558000000 2.9102000000
2.5020000000 5.0187000000 2.2262000000
2.5018000000 0.4622000000 0.3996000000
2.5015000000 1.8169000000 1.4910000000
2.5012000000 1.7608000000 1.4387000000
2.5010000000 2.5413000000 2.0738000000
2.5004000000 3.0638000000 2.4912000000
2.5001000000 0.6684000000 0.5624000000
2.4993000000 1.5745000000 1.2910000000
2.4984000000 2.8353000000 2.3071000000
2.4970000000 1.2602000000 1.0352000000
2.4943000000 0.5949000000 0.5026000000
2.2610000000 5.4037000000 1.9136000000
2.2601000000 6.9717000000 0.6530000000
2.2597000000 3.5667000000 2.9010000000
2.2590000000 4.7601000000 2.4358000000
2.2586000000 3.5499000000 2.8880000000
2.2581000000 6.1074000000 1.3515000000
2.2580000000 5.0608000000 2.1927000000
2.2578000000 2.4134000000 1.9674000000
2.2572000000 1.3561000000 1.1145000000
2.2565000000 4.4470000000 2.6887000000
2.2561000000 2.9481000000 2.4014000000
2.2559000000 1.1130000000 0.9173000000
2.2556000000 5.4436000000 1.8845000000
2.2553000000 3.1103000000 2.5295000000
2.2550000000 3.7133000000 3.0165000000
2.2548000000 0.8772000000 0.7272000000
2.2543000000 2.7344000000 2.2229000000
2.2540000000 4.2754000000 2.8273000000
2.2538000000 3.6167000000 2.9400000000
2.2537000000 1.2712000000 1.0507000000
2.2534000000 7.5642000000 0.1782000000
2.2532000000 6.9038000000 0.7074000000
2.2529000000 3.0428000000 2.4764000000
2.2528000000 2.6499000000 2.1557000000
2.2523000000 5.6154000000 1.7467000000
2.2522000000 2.9533000000 2.4027000000
2.2518000000 0.4291000000 0.3702000000
2.2512000000 0.6967000000 0.5793000000
2.2509000000 1.2670000000 1.0428000000
2.2507000000 2.1661000000 1.7694000000
2.2500000000 2.0070000000 1.6440000000
2.2494000000 4.1509000000 2.9253000000
2.2485000000 3.1625000000 2.5717000000
2.2478000000 2.6967000000 2.2001000000
2.2470000000 4.9748000000 2.2573000000
2.0124000000 6.9075000000 0.7068000000
2.0107000000 6.4298000000 1.0864000000
2.0096000000 6.2250000000 1.2516000000
2.0091000000 5.7004000000 1.6805000000
2.0085000000 6.0790000000 1.3708000000
2.0080000000 7.5741000000 0.1651000000
2.0078000000 5.1410000000 2.1282000000
2.0075000000 6.8806000000 0.7268000000
2.0072000000 6.1224000000 1.3367000000
2.0068000000 5.7177000000 1.6640000000
2.0065000000 2.4831000000 2.0229000000
2.0063000000 3.4956000000 2.8211000000
2.0060000000 3.7260000000 2.9235000000
2.0057000000 1.2549000000 1.0324000000
2.0054000000 6.6378000000 0.9179000000
2.0052000000 1.8629000000 1.5259000000
2.0049000000 7.6484000000 0.0997000000
2.0046000000 4.4620000000 2.6815000000
2.0042000000 2.6551000000 2.1620000000
2.0040000000 3.8947000000 2.9673000000
2.0037000000 0.6106000000 0.5191000000
2.0033000000 2.8687000000 2.3371000000
2.0030000000 0.7251000000 0.6030000000
2.0029000000 4.6069000000 2.5627000000
2.0026000000 0.6845000000 0.5745000000
2.0024000000 5.0342000000 2.2164000000
2.0021000000 0.1632000000 0.1558000000
2.0019000000 1.4483000000 1.1891000000
2.0017000000 1.8180000000 1.4870000000
2.0015000000 2.4480000000 1.9919000000
2.0013000000 2.3488000000 1.9195000000
2.0010000000 2.4742000000 2.0190000000
2.0007000000 0.6568000000 0.5570000000
2.0000000000 3.1860000000 2.5963000000
1.9998000000 0.6149000000 0.5203000000
1.9995000000 3.2023000000 2.6072000000
1.9977000000 0.4531000000 0.3820000000
1.9969000000 2.9675000000 2.4144000000
1.9958000000 4.4169000000 2.7088000000
1.7614000000 7.5999000000 0.1430000000
1.7604000000 5.0605000000 2.1940000000
1.7595000000 4.6945000000 2.4751000000
1.7591000000 6.8409000000 0.7620000000
1.7583000000 3.2047000000 2.5468000000
1.7579000000 4.1045000000 2.7150000000
1.7575000000 1.4450000000 1.1852000000
1.7571000000 6.1295000000 1.3315000000
1.7569000000 6.3784000000 1.1293000000
1.7568000000 7.7473000000 0.0291000000
1.7565000000 6.0453000000 1.3955000000
1.7562000000 1.0503000000 0.8694000000
1.7558000000 1.7487000000 1.4285000000
1.7554000000 5.8801000000 1.5373000000
1.7551000000 1.4182000000 1.1662000000
1.7549000000 2.7592000000 2.2443000000
1.7546000000 3.7582000000 2.7603000000
1.7544000000 6.7341000000 0.8448000000
1.7542000000 3.5325000000 2.6707000000
1.7539000000 3.4275000000 2.6237000000
1.7538000000 4.7187000000 2.4621000000
1.7536000000 7.0487000000 0.5899000000
1.7532000000 2.1746000000 1.7751000000
1.7530000000 4.1214000000 2.7117000000
1.7529000000 2.8344000000 2.3118000000
1.7525000000 2.0667000000 1.6856000000
1.7520000000 2.4219000000 1.9695000000
1.7515000000 5.5490000000 1.8041000000
1.7513000000 1.4116000000 1.1591000000
1.7510000000 2.2549000000 1.8385000000
1.7505000000 4.4587000000 2.5727000000
1.7499000000 0.8453000000 0.7010000000
1.7496000000 0.3581000000 0.3125000000
1.7481000000 5.8310000000 1.5783000000
1.7453000000 0.5091000000 0.4312000000
1.5107000000 7.3651000000 0.3358000000
1.5095000000 1.6810000000 1.3775000000
1.5088000000 1.5748000000 1.2906000000
1.5078000000 1.3031000000 1.0715000000
1.5077000000 7.2350000000 0.4446000000
1.5074000000 2.0294000000 1.6579000000
1.5071000000 1.9616000000 1.6036000000
1.5068000000 5.5990000000 1.7574000000
1.5061000000 4.5752000000 2.3613000000
1.5059000000 0.6641000000 0.5560000000
1.5056000000 7.1233000000 0.5306000000
1.5053000000 4.5129000000 2.3805000000
1.5049000000 4.7142000000 2.2960000000
1.5047000000 7.0480000000 0.5896000000
1.5045000000 4.1265000000 2.5375000000
1.5042000000 0.8712000000 0.7282000000
1.5040000000 3.7319000000 2.5702000000
1.5035000000 6.7921000000 0.7972000000
1.5031000000 6.2033000000 1.2716000000
1.5028000000 1.6857000000 1.3789000000
1.5025000000 7.2976000000 0.3932000000
1.5023000000 4.3347000000 2.4481000000
1.5019000000 0.4802000000 0.4108000000
1.5016000000 3.8463000000 2.6136000000
1.5014000000 6.1596000000 1.3090000000
1.5010000000 0.6996000000 0.5891000000
1.5006000000 3.3194000000 2.4076000000
1.5003000000 5.3639000000 1.9499000000
1.4996000000 0.3228000000 0.2832000000
1.4990000000 3.0707000000 2.3122000000
1.4960000000 3.0229000000 2.2855000000
1.2626000000 6.9157000000 0.7045000000
1.2609000000 7.0678000000 0.5755000000
1.2600000000 1.9263000000 1.5778000000
1.2595000000 7.6203000000 0.1350000000
1.2592000000 3.0138000000 2.1198000000
1.2584000000 7.3294000000 0.3622000000
1.2583000000 7.0229000000 0.6140000000
1.2580000000 3.8888000000 2.4474000000
1.2577000000 7.4753000000 0.2469000000
1.2573000000 6.4335000000 1.0894000000
1.2570000000 6.7377000000 0.8449000000
1.2568000000 5.3577000000 1.8649000000
1.2565000000 4.0942000000 2.3753000000
1.2563000000 2.7778000000 2.0145000000
1.2561000000 5.7296000000 1.6541000000
1.2558000000 7.0774000000 0.5657000000
1.2557000000 2.5271000000 1.9199000000
1.2555000000 3.6282000000 2.3647000000
1.2552000000 4.6977000000 2.1271000000
1.2549000000 5.4730000000 1.8133000000
1.2548000000 2.0087000000 1.6415000000
1.2545000000 0.9132000000 0.7609000000
1.2542000000 3.1332000000 2.1644000000
1.2539000000 2.2792000000 1.8092000000
1.2537000000 2.9963000000 2.1150000000
1.2535000000 7.4056000000 0.3043000000
1.2531000000 0.5364000000 0.4518000000
1.2530000000 3.8660000000 2.4469000000
1.2527000000 0.3417000000 0.2975000000
1.2525000000 1.8995000000 1.5583000000
1.2523000000 5.4305000000 1.8336000000
1.2520000000 0.2272000000 0.2049000000
1.2518000000 1.5925000000 1.3092000000
1.2513000000 7.4795000000 0.2410000000
1.2511000000 2.3564000000 1.8418000000
1.2509000000 7.1887000000 0.4743000000
1.2501000000 0.5521000000 0.4721000000
1.2491000000 3.4833000000 2.3007000000
1.2488000000 2.2811000000 1.8091000000
1.2483000000 4.8754000000 2.0581000000
1.2475000000 2.5496000000 1.9221000000
1.2452000000 2.4228000000 1.8729000000
1.0143000000 6.7942000000 0.7986000000
1.0105000000 2.2519000000 1.6440000000
1.0096000000 7.3706000000 0.3309000000
1.0090000000 3.2803000000 2.0496000000
1.0087000000 0.1630000000 0.1564000000
1.0080000000 1.5631000000 1.2812000000
1.0076000000 5.8237000000 1.4957000000
1.0070000000 2.9963000000 1.9336000000
1.0068000000 4.7467000000 1.9409000000
1.0066000000 4.6176000000 1.9869000000
1.0063000000 5.4496000000 1.6584000000
1.0062000000 6.2110000000 1.2642000000
1.0057000000 7.5704000000 0.1635000000
1.0056000000 4.4245000000 2.0616000000
1.0051000000 6.7999000000 0.7914000000
1.0048000000 2.6827000000 1.8042000000
1.0045000000 1.5237000000 1.2530000000
1.0043000000 1.3585000000 1.1191000000
1.0042000000 0.6178000000 0.5209000000
1.0040000000 5.1253000000 1.7828000000
1.0038000000 0.6982000000 0.5885000000
1.0036000000 7.5789000000 0.1684000000
1.0035000000 5.3692000000 1.6798000000
1.0033000000 1.8083000000 1.4418000000
1.0030000000 1.3818000000 1.1340000000
1.0028000000 2.9275000000 1.9033000000
1.0026000000 1.4100000000 1.1590000000
1.0024000000 4.7842000000 1.9203000000
1.0021000000 0.4276000000 0.3635000000
1.0019000000 5.4642000000 1.6418000000
1.0017000000 4.2269000000 2.1417000000
1.0013000000 0.5995000000 0.5075000000
1.0010000000 0.7182000000 0.6061000000
1.0000000000 4.3070000000 2.1129000000
0.9990000000 0.9445000000 0.7878000000
0.9981000000 1.5079000000 1.2410000000
0.9974000000 5.0221000000 1.8162000000
0.9950000000 2.8184000000 1.8566000000
0.9915000000 0.2747000000 0.2393000000
0.7626000000 2.3157000000 1.4833000000
0.7614000000 7.6658000000 0.0899000000
0.7596000000 7.4197000000 0.2894000000
0.7585000000 0.5566000000 0.4682000000
0.7582000000 5.9768000000 1.2687000000
0.7576000000 1.6465000000 1.2123000000
0.7568000000 5.7941000000 1.3437000000
0.7566000000 5.7731000000 1.3550000000
0.7563000000 1.8225000000 1.2860000000
0.7562000000 1.4456000000 1.1347000000
0.7553000000 0.5177000000 0.4425000000
0.7550000000 4.9900000000 1.6650000000
0.7549000000 2.4987000000 1.5539000000
0.7547000000 0.4759000000 0.4050000000
0.7545000000 7.7778000000 0.0018000000
0.7542000000 5.6500000000 1.3996000000
0.7538000000 2.8979000000 1.7181000000
0.7535000000 2.9468000000 1.7306000000
0.7531000000 5.4134000000 1.4970000000
0.7529000000 1.6904000000 1.2298000000
0.7528000000 5.3335000000 1.5236000000
0.7526000000 4.7351000000 1.7666000000
0.7524000000 6.5776000000 0.9692000000
0.7519000000 2.5994000000 1.5941000000
0.7517000000 5.7233000000 1.3690000000
0.7514000000 5.5366000000 1.4390000000
0.7511000000 6.1720000000 1.1910000000
0.7510000000 2.3398000000 1.4897000000
0.7506000000 1.6771000000 1.2235000000
0.7505000000 3.0066000000 1.7651000000
0.7498000000 0.9756000000 0.8068000000
0.7496000000 4.2487000000 1.9582000000
0.7492000000 4.9318000000 1.6868000000
0.7485000000 1.1421000000 0.9429000000
0.7463000000 6.0767000000 1.2207000000
0.7452000000 2.1933000000 1.4238000000
0.7435000000 3.5880000000 1.9849000000
0.5120000000 7.5106000000 0.2136000000
0.5110000000 7.4233000000 0.2908000000
0.5097000000 7.6584000000 0.0992000000
0.5089000000 6.2327000000 0.9937000000
0.5083000000 5.3553000000 1.3426000000
0.5077000000 0.1632000000 0.1554000000
0.5075000000 3.4230000000 1.7558000000
0.5073000000 6.5849000000 0.8487000000
0.5070000000 3.3292000000 1.7185000000
0.5068000000 1.0507000000 0.7996000000
0.5066000000 5.3973000000 1.3216000000
0.5062000000 0.6563000000 0.5499000000
0.5056000000 0.5944000000 0.5028000000
0.5051000000 5.0262000000 1.4763000000
0.5048000000 3.5750000000 1.8147000000
0.5043000000 1.8712000000 1.1306000000
0.5040000000 3.5281000000 1.8019000000
0.5036000000 2.7422000000 1.4848000000
0.5035000000 0.7666000000 0.6351000000
0.5033000000 0.2415000000 0.2181000000
0.5032000000 6.9803000000 0.6403000000
0.5030000000 2.5263000000 1.3879000000
0.5028000000 6.5670000000 0.8497000000
0.5025000000 2.2301000000 1.2714000000
0.5022000000 0.0880000000 0.0954000000
0.5020000000 0.9783000000 0.7612000000
0.5016000000 7.4509000000 0.2694000000
0.5014000000 6.8339000000 0.7365000000
0.5011000000 3.0173000000 1.5873000000
0.5009000000 7.2655000000 0.4211000000
0.5000000000 0.9214000000 0.7309000000
0.4996000000 6.3077000000 0.9530000000
0.4993000000 1.7002000000 1.0556000000
0.4986000000 0.5807000000 0.4909000000
0.4970000000 4.4979000000 1.6800000000
0.4967000000 1.9655000000 1.1600000000
0.4935000000 3.7453000000 1.8767000000
0.2625000000 6.6338000000 0.6528000000
0.2605000000 5.6235000000 1.0697000000
0.2599000000 6.8879000000 0.5554000000
0.2595000000 7.1329000000 0.4569000000
0.2589000000 7.2245000000 0.4078000000
0.2587000000 6.0135000000 0.9057000000
0.2583000000 7.6891000000 0.0734000000
0.2578000000 2.0733000000 1.0396000000
0.2575000000 4.9630000000 1.3256000000
0.2572000000 6.8487000000 0.5669000000
0.2570000000 5.8179000000 0.9809000000
0.2565000000 4.5517000000 1.4875000000
0.2564000000 4.0078000000 1.7131000000
0.2560000000 3.1984000000 1.4895000000
0.2559000000 6.3584000000 0.7685000000
0.2557000000 1.7817000000 0.9157000000
0.2554000000 5.8145000000 0.9816000000
0.2553000000 2.1834000000 1.0823000000
0.2551000000 6.4218000000 0.7347000000
0.2549000000 7.7758000000 0.0818000000
0.2545000000 0.7455000000 0.4997000000
0.2543000000 1.3698000000 0.7550000000
0.2540000000 5.2885000000 1.1899000000
0.2536000000 3.5127000000 1.6124000000
0.2534000000 1.8216000000 0.9314000000
0.2533000000 7.4969000000 0.2278000000
0.2531000000 1.9869000000 0.9999000000
0.2528000000 4.2080000000 1.6303000000
0.2526000000 4.5238000000 1.4969000000
0.2525000000 3.8987000000 1.7352000000
0.2522000000 1.9101000000 0.9699000000
0.2523000000 0.4945000000 0.3886000000
0.2518000000 0.1531000000 0.1502000000
0.2515000000 7.5334000000 0.2012000000
0.2512000000 2.1825000000 1.0772000000
0.2510000000 2.4768000000 1.1973000000
0.2509000000 2.8349000000 1.3410000000
0.2501000000 1.4394000000 0.7734000000
0.2495000000 7.6809000000 0.0781000000
0.2485000000 4.7627000000 1.3992000000
0.2463000000 4.5427000000 1.4875000000
0.0144000000 4.7563000000 1.2387000000
0.0125000000 0.2002000000 0.1082000000
0.0103000000 3.7012000000 1.5250000000
0.0095000000 3.4835000000 1.4303000000
0.0089000000 7.3616000000 0.1858000000
0.0080000000 5.3341000000 1.0018000000
0.0075000000 7.1014000000 0.2924000000
0.0073000000 5.5508000000 0.9135000000
0.0070000000 4.0178000000 1.5318000000
0.0068000000 3.8314000000 1.5683000000
0.0064000000 3.2825000000 1.3534000000
0.0058000000 7.1049000000 0.2882000000
0.0055000000 1.7669000000 0.7316000000
0.0052000000 7.1033000000 0.2911000000
0.0048000000 5.1924000000 1.0542000000
0.0045000000 1.2722000000 0.5420000000
0.0043000000 7.3102000000 0.2055000000
0.0041000000 3.9126000000 1.5621000000
0.0038000000 0.7098000000 0.3127000000
0.0036000000 7.7611000000 0.0811000000
0.0034000000 5.5051000000 0.9284000000
0.0031000000 6.3422000000 0.5932000000
0.0029000000 6.6824000000 0.4553000000
0.0027000000 1.3657000000 0.5788000000
0.0025000000 2.9349000000 1.2060000000
0.0023000000 3.6121000000 1.4846000000
0.0022000000 1.0376000000 0.4442000000
0.0019000000 2.7262000000 1.1179000000
0.0015000000 3.2990000000 1.3557000000
0.0010000000 3.7144000000 1.5273000000
0.0006000000 3.5626000000 1.4609000000
-0.0002000000 4.2110000000 1.4513000000
-0.0009000000 2.2412000000 0.9256000000
-0.0012000000 2.1397000000 0.8853000000
-0.0020000000 2.2304000000 0.9199000000
-0.0031000000 4.6050000000 1.2892000000
-0.0051000000 4.6027000000 1.2824000000
-0.2397000000 5.8820000000 0.6107000000
-0.2403000000 6.2652000000 0.4523000000
-0.2415000000 7.3056000000 0.0319000000
-0.2420000000 1.9339000000 0.6395000000
-0.2425000000 5.6397000000 0.7045000000
-0.2428000000 5.6616000000 0.6960000000
-0.2432000000 4.8028000000 1.0407000000
-0.2435000000 2.4447000000 0.8355000000
-0.2437000000 5.2588000000 0.8504000000
-0.2443000000 3.7579000000 1.3664000000
-0.2445000000 4.8753000000 1.0129000000
-0.2447000000 3.7597000000 1.3743000000
-0.2449000000 1.0749000000 0.2880000000
-0.2450000000 6.3416000000 0.4194000000
-0.2453000000 3.4518000000 1.2376000000
-0.2455000000 2.4155000000 0.8272000000
-0.2456000000 2.4738000000 0.8438000000
-0.2461000000 5.0241000000 0.9560000000
-0.2466000000 5.6886000000 0.6868000000
-0.2470000000 3.9148000000 1.3833000000
-0.2473000000 4.4965000000 1.1658000000
-0.2475000000 3.3958000000 1.2132000000
-0.2479000000 2.3592000000 0.7998000000
-0.2486000000 6.3229000000 0.4212000000
-0.2490000000 5.7133000000 0.6717000000
-0.2497000000 0.3967000000 0.0870000000
-0.2500000000 3.6139000000 1.3031000000
-0.2505000000 1.3179000000 0.3768000000
-0.2508000000 4.8784000000 1.0110000000
-0.2514000000 0.3271000000 0.0523000000
-0.2517000000 0.4288000000 0.0932000000
-0.4891000000 5.8335000000 0.4555000000
-0.4902000000 6.2455000000 0.2862000000
-0.4906000000 5.9107000000 0.4157000000
-0.4911000000 4.8282000000 0.8583000000
-0.4914000000 2.3294000000 0.6177000000
-0.4922000000 5.1776000000 0.7192000000
-0.4925000000 1.2725000000 0.1925000000
-0.4927000000 6.6718000000 0.1108000000
-0.4933000000 5.0144000000 0.7781000000
-0.4938000000 1.8774000000 0.4386000000
-0.4942000000 5.2151000000 0.7010000000
-0.4944000000 4.9890000000 0.7887000000
-0.4948000000 1.6140000000 0.3291000000
-0.4951000000 3.7223000000 1.1709000000
-0.4952000000 2.9528000000 0.8689000000
-0.4955000000 1.8799000000 0.4339000000
-0.4957000000 2.0873000000 0.5161000000
-0.4961000000 1.7737000000 0.3866000000
-0.4965000000 4.8766000000 0.8334000000
-0.4969000000 5.9324000000 0.4145000000
-0.4970000000 2.1761000000 0.5516000000
-0.4976000000 0.8264000000 0.0845000000
-0.4978000000 3.4842000000 1.0793000000
-0.4982000000 5.5735000000 0.5519000000
-0.4988000000 1.9123000000 0.4436000000
-0.4993000000 1.5811000000 0.3040000000
-0.4997000000 0.8543000000 0.0901000000
-0.5002000000 1.2017000000 0.1539000000
-0.5006000000 2.9774000000 0.8731000000
-0.5010000000 0.6542000000 0.0088000000
-0.5012000000 3.0038000000 0.8806000000
-0.5017000000 3.0720000000 0.9071000000
-0.7373000000 2.8681000000 0.6595000000
-0.7391000000 3.1869000000 0.7928000000
-0.7399000000 6.0074000000 0.2065000000
-0.7408000000 3.6998000000 0.9973000000
-0.7414000000 2.2990000000 0.4298000000
-0.7429000000 4.0093000000 1.0131000000
-0.7433000000 1.3145000000 0.0369000000
-0.7436000000 4.0862000000 0.9858000000
-0.7439000000 1.8593000000 0.2555000000
-0.7442000000 3.1865000000 0.7858000000
-0.7449000000 2.0066000000 0.3077000000
-0.7451000000 4.5883000000 0.7810000000
-0.7453000000 4.7886000000 0.7019000000
-0.7456000000 3.2646000000 0.8161000000
-0.7458000000 2.7439000000 0.6042000000
-0.7463000000 1.4990000000 0.1061000000
-0.7466000000 4.5944000000 0.7726000000
-0.7468000000 6.5204000000 0.0759000000
-0.7474000000 6.5550000000 0.0554000000
-0.7478000000 1.3910000000 0.0643000000
-0.7491000000 1.3321000000 0.0385000000
-0.7497000000 4.3479000000 0.8701000000
-0.7500000000 2.7926000000 0.6250000000
-0.7509000000 4.0858000000 0.9786000000
-0.7514000000 2.6448000000 0.5633000000
-0.7516000000 5.2616000000 0.5029000000
-0.7528000000 2.5563000000 0.5255000000
-0.9892000000 2.2208000000 0.2221000000
-0.9899000000 2.9232000000 0.5086000000
-0.9920000000 6.0428000000 0.0924000000
-0.9926000000 4.6663000000 0.5707000000
-0.9929000000 2.4895000000 0.3333000000
-0.9937000000 2.2020000000 0.2142000000
-0.9939000000 3.0814000000 0.5701000000
-0.9940000000 5.4926000000 0.2422000000
-0.9949000000 1.5597000000 0.0348000000
-0.9952000000 2.0692000000 0.1616000000
-0.9955000000 3.2001000000 0.6144000000
-0.9957000000 2.5562000000 0.3611000000
-0.9962000000 4.3196000000 0.7156000000
-0.9966000000 4.2491000000 0.7345000000
-0.9970000000 3.9957000000 0.8369000000
-0.9972000000 5.7818000000 0.1212000000
-0.9976000000 2.4974000000 0.3353000000
-0.9979000000 4.3258000000 0.7053000000
-0.9987000000 5.1241000000 0.3851000000
-0.9992000000 1.6298000000 0.0475000000
-0.9996000000 5.1542000000 0.3728000000
-1.0014000000 2.6816000000 0.4048000000
-1.0018000000 2.1831000000 0.1981000000
-1.0054000000 2.8579000000 0.4711000000
-1.2369000000 4.2320000000 0.5730000000
-1.2410000000 4.5248000000 0.4573000000
-1.2413000000 5.4307000000 0.0930000000
-1.2422000000 5.5380000000 0.0432000000
-1.2424000000 2.5084000000 0.1625000000
-1.2429000000 4.6396000000 0.4098000000
-1.2435000000 3.4119000000 0.5290000000
-1.2439000000 5.5842000000 0.0257000000
-1.2449000000 4.4289000000 0.4912000000
-1.2456000000 2.7682000000 0.2792000000
-1.2460000000 2.5710000000 0.1803000000
-1.2463000000 2.4734000000 0.1562000000
-1.2466000000 3.8809000000 0.6999000000
-1.2469000000 5.3943000000 0.0995000000
-1.2472000000 2.7151000000 0.2490000000
-1.2475000000 5.0320000000 0.2497000000
-1.2482000000 2.1705000000 0.0246000000
-1.2490000000 2.4593000000 0.1408000000
-1.2502000000 3.3298000000 0.4918000000
-1.2530000000 3.4949000000 0.5560000000
-1.2544000000 1.9477000000 0.0090000000
-1.4912000000 2.6841000000 0.0643000000
-1.4920000000 5.2877000000 0.0471000000
-1.4926000000 4.2106000000 0.4113000000
-1.4936000000 4.7664000000 0.1832000000
-1.4945000000 2.8047000000 0.1090000000
-1.4952000000 4.5190000000 0.2866000000
-1.4956000000 3.0240000000 0.1970000000
-1.4969000000 2.6196000000 0.0271000000
-1.4979000000 2.3890000000 0.0076000000
-1.4993000000 4.5565000000 0.2660000000
-1.5000000000 4.8442000000 0.1477000000
-1.5013000000 2.4352000000 0.0252000000
-1.5041000000 4.1974000000 0.4090000000
-1.7410000000 3.3979000000 0.1740000000
-1.7435000000 4.4234000000 0.1430000000
-1.7444000000 3.9885000000 0.3185000000
-1.7458000000 3.0868000000 0.0417000000
-1.7471000000 4.3429000000 0.1697000000
-1.7474000000 3.6658000000 0.2757000000
-1.7481000000 3.7730000000 0.3221000000
-1.7496000000 4.3443000000 0.1712000000
-1.7514000000 3.8191000000 0.3328000000
-1.7524000000 3.3656000000 0.1551000000
-1.9927000000 4.4174000000 0.0474000000
-1.9937000000 3.4563000000 0.0179000000
-1.9953000000 4.4050000000 0.0548000000
-1.9956000000 4.5150000000 0.0110000000
-1.9965000000 3.3431000000 0.0521000000
-1.9979000000 3.2489000000 0.0136000000
-1.9989000000 3.8880000000 0.1815000000
