3.0035000000 4.5422000000 0.5007000000
3.0034000000 1.0939000000 0.5546000000
3.0033000000 0.1528000000 0.0874000000
3.0032000000 1.1430000000 0.5739000000
3.0031000000 3.0123000000 1.1599000000
3.0030000000 0.0303000000 0.0520000000
3.0030000000 5.2666000000 0.2210000000
3.0029000000 4.2676000000 0.6189000000
3.0028000000 2.7356000000 1.3215000000
3.0028000000 1.6759000000 0.7994000000
3.0027000000 2.8605000000 1.2245000000
3.0025000000 1.8711000000 0.8947000000
3.0024000000 1.9819000000 0.9401000000
3.0022000000 0.6558000000 0.3656000000
3.0021000000 4.5607000000 0.4924000000
3.0020000000 4.7519000000 0.4095000000
3.0018000000 1.4305000000 0.7008000000
3.0016000000 3.0740000000 1.1323000000
3.0015000000 0.0499000000 0.0673000000
3.0014000000 4.4472000000 0.5426000000
3.0013000000 4.3608000000 0.5827000000
3.0012000000 0.2430000000 0.2248000000
3.0010000000 1.7831000000 0.8546000000
3.0007000000 4.8070000000 0.3876000000
3.0001000000 2.9288000000 1.1999000000
2.9992000000 2.9912000000 1.1709000000
2.9991000000 0.6314000000 0.3596000000
2.9988000000 3.1866000000 1.0933000000
2.9985000000 0.6297000000 0.3625000000
2.9984000000 2.8833000000 1.2189000000
2.9983000000 0.2866000000 0.2625000000
2.9961000000 3.4381000000 0.9809000000
2.9956000000 1.1170000000 0.5705000000
2.9947000000 3.8035000000 0.8257000000
2.7614000000 1.1596000000 0.7672000000
2.7609000000 3.7121000000 1.0360000000
2.7608000000 2.9166000000 1.3855000000
2.7604000000 4.3794000000 0.7441000000
2.7601000000 5.0097000000 0.3865000000
2.7598000000 4.4305000000 0.7322000000
2.7598000000 2.6882000000 1.4249000000
2.7595000000 3.1067000000 1.3003000000
2.7594000000 4.7215000000 0.6647000000
2.7590000000 3.2599000000 1.2368000000
2.7587000000 2.7221000000 1.4989000000
2.7585000000 0.9066000000 0.6571000000
2.7582000000 0.0151000000 0.0444000000
2.7579000000 5.2433000000 0.1778000000
2.7578000000 3.6963000000 1.0491000000
2.7577000000 3.1267000000 1.2938000000
2.7576000000 1.7323000000 1.0084000000
2.7575000000 0.3256000000 0.2299000000
2.7571000000 0.8672000000 0.6421000000
2.7568000000 1.3897000000 0.8637000000
2.7565000000 4.5993000000 0.6607000000
2.7565000000 3.0417000000 1.3319000000
2.7562000000 5.3206000000 0.1203000000
2.7560000000 4.5865000000 0.6632000000
2.7560000000 4.4514000000 0.7262000000
2.7558000000 4.7685000000 0.6494000000
2.7556000000 2.5613000000 1.3703000000
2.7555000000 4.0043000000 0.9181000000
2.7553000000 0.0147000000 0.0364000000
2.7553000000 4.4191000000 0.7404000000
2.7551000000 4.5315000000 0.6876000000
2.7551000000 4.0018000000 0.9194000000
2.7550000000 4.3804000000 0.7607000000
2.7549000000 1.6890000000 0.9984000000
2.7546000000 1.4042000000 0.8703000000
2.7543000000 2.3919000000 1.2982000000
2.7543000000 0.6622000000 0.5841000000
2.7542000000 0.1185000000 0.1266000000
2.7539000000 2.8762000000 1.4028000000
2.7539000000 1.4705000000 0.8984000000
2.7538000000 2.5061000000 1.3485000000
2.7538000000 3.0344000000 1.3445000000
2.7537000000 2.6109000000 1.3920000000
2.7535000000 0.9643000000 0.6832000000
2.7532000000 0.2189000000 0.1464000000
2.7530000000 0.9779000000 0.6961000000
2.7530000000 3.6162000000 1.0798000000
2.7529000000 0.5936000000 0.4639000000
2.7529000000 2.5724000000 1.3802000000
2.7528000000 4.9549000000 0.4252000000
2.7525000000 4.8101000000 0.6154000000
2.7522000000 5.1333000000 0.2742000000
2.7520000000 2.6381000000 1.4046000000
2.7520000000 0.5722000000 0.4403000000
2.7519000000 2.5398000000 1.3638000000
2.7518000000 3.0110000000 1.3492000000
2.7517000000 5.0363000000 0.3607000000
2.7513000000 5.0021000000 0.3862000000
2.7512000000 2.6407000000 1.4080000000
2.7512000000 5.0897000000 0.3078000000
2.7511000000 5.0112000000 0.3835000000
2.7510000000 0.6139000000 0.4851000000
2.7508000000 0.6209000000 0.4875000000
2.7507000000 4.2918000000 0.7964000000
2.7506000000 0.5804000000 0.4506000000
2.7505000000 0.5393000000 0.4208000000
2.7504000000 5.0087000000 0.3862000000
2.7501000000 0.3575000000 0.2690000000
2.7498000000 1.9971000000 1.1324000000
2.7498000000 4.0280000000 0.9139000000
2.7496000000 0.2646000000 0.1805000000
2.7495000000 0.7251000000 0.6352000000
2.7492000000 3.1580000000 1.2837000000
2.7485000000 0.0898000000 0.1083000000
2.7483000000 0.1545000000 0.0875000000
2.7482000000 3.7238000000 1.0430000000
2.7480000000 0.3981000000 0.2970000000
2.7478000000 3.8687000000 0.9768000000
2.7477000000 1.9382000000 1.1130000000
2.7474000000 0.7027000000 0.6195000000
2.7473000000 4.3366000000 0.7759000000
2.7468000000 0.4442000000 0.3391000000
2.5110000000 4.0150000000 1.0968000000
2.5109000000 3.9264000000 1.1337000000
2.5106000000 5.2651000000 0.1637000000
2.5101000000 3.4414000000 1.3446000000
2.5095000000 3.6908000000 1.2368000000
2.5092000000 4.6042000000 0.7328000000
2.5084000000 1.5299000000 1.1096000000
2.5083000000 0.8007000000 0.6449000000
2.5083000000 3.6376000000 1.2578000000
2.5081000000 4.7006000000 0.6567000000
2.5080000000 0.3714000000 0.2692000000
2.5080000000 3.6206000000 1.2690000000
2.5079000000 3.8999000000 1.1513000000
2.5075000000 4.3306000000 1.0215000000
2.5070000000 1.3231000000 1.0259000000
2.5069000000 2.8151000000 1.6122000000
2.5066000000 2.3127000000 1.4490000000
2.5065000000 1.7858000000 1.2259000000
2.5059000000 4.5751000000 0.7627000000
2.5058000000 2.3627000000 1.4775000000
2.5057000000 3.6993000000 1.2367000000
2.5055000000 4.2305000000 1.0742000000
2.5052000000 4.4864000000 0.8293000000
2.5051000000 3.4034000000 1.3595000000
2.5051000000 4.9353000000 0.4481000000
2.5050000000 1.5368000000 1.1175000000
2.5048000000 5.1902000000 0.2232000000
2.5047000000 1.1239000000 0.9812000000
2.5045000000 4.5042000000 0.8231000000
2.5045000000 1.4577000000 1.0851000000
2.5044000000 2.0690000000 1.3440000000
2.5043000000 1.9409000000 1.2950000000
2.5043000000 2.5982000000 1.5751000000
2.5043000000 1.0591000000 0.9281000000
2.5041000000 3.6417000000 1.2595000000
2.5039000000 1.9376000000 1.2907000000
2.5038000000 3.3868000000 1.3657000000
2.5038000000 1.1771000000 1.0207000000
2.5031000000 3.8669000000 1.1591000000
2.5030000000 2.5377000000 1.5483000000
2.5030000000 1.9393000000 1.2968000000
2.5027000000 0.5748000000 0.4527000000
2.5026000000 0.1236000000 0.0608000000
2.5025000000 2.8928000000 1.5808000000
2.5025000000 1.1713000000 1.0232000000
2.5023000000 0.4219000000 0.3198000000
2.5023000000 5.3703000000 0.0711000000
2.5022000000 4.4534000000 0.8607000000
2.5022000000 1.9301000000 1.2886000000
2.5020000000 4.7952000000 0.5686000000
2.5020000000 4.3778000000 0.9840000000
2.5017000000 0.5239000000 0.4045000000
2.5016000000 4.5503000000 0.7800000000
2.5015000000 2.9283000000 1.5707000000
2.5014000000 0.3227000000 0.2321000000
2.5013000000 2.4315000000 1.5041000000
2.5012000000 3.8688000000 1.1671000000
2.5010000000 0.0667000000 0.0892000000
2.5010000000 4.8049000000 0.5587000000
2.5009000000 1.2068000000 1.0434000000
2.5008000000 2.1675000000 1.3995000000
2.5007000000 5.3316000000 0.1081000000
2.5007000000 2.5626000000 1.5627000000
2.5006000000 0.4083000000 0.3070000000
2.5004000000 0.2027000000 0.1256000000
2.5003000000 4.1896000000 1.0301000000
2.5003000000 2.3427000000 1.4720000000
2.5000000000 1.6649000000 1.1766000000
2.4998000000 0.4030000000 0.2957000000
2.4994000000 2.4737000000 1.5318000000
2.4993000000 0.7973000000 0.6418000000
2.4991000000 1.3850000000 1.0570000000
2.4988000000 4.9426000000 0.4393000000
2.4987000000 4.1668000000 1.0387000000
2.4986000000 2.1581000000 1.3871000000
2.4970000000 1.8441000000 1.2583000000
2.4968000000 4.9581000000 0.4265000000
2.4968000000 1.8897000000 1.2760000000
2.4962000000 1.1267000000 0.9831000000
2.4955000000 2.1550000000 1.3937000000
2.4942000000 1.0317000000 0.8427000000
2.2621000000 2.5823000000 1.7507000000
2.2618000000 1.1963000000 0.9785000000
2.2609000000 5.2764000000 0.1540000000
2.2604000000 3.8279000000 1.4246000000
2.2601000000 5.4707000000 0.0631000000
2.2600000000 2.6935000000 1.8001000000
2.2600000000 4.6267000000 0.7137000000
2.2590000000 5.2080000000 0.2140000000
2.2589000000 1.3741000000 1.1353000000
2.2588000000 0.8596000000 0.6930000000
2.2585000000 4.9283000000 0.4522000000
2.2585000000 4.7899000000 0.5740000000
2.2582000000 1.8566000000 1.4437000000
2.2581000000 4.3265000000 0.9728000000
2.2578000000 3.1375000000 1.6649000000
2.2577000000 0.8472000000 0.6809000000
2.2577000000 1.7137000000 1.3811000000
2.2574000000 1.6856000000 1.4344000000
2.2570000000 1.0687000000 0.8722000000
2.2569000000 1.6575000000 1.4178000000
2.2569000000 2.4056000000 1.6773000000
2.2568000000 1.8778000000 1.4518000000
2.2565000000 1.9847000000 1.4991000000
2.2564000000 3.0603000000 1.6927000000
2.2563000000 5.2595000000 0.1632000000
2.2563000000 4.7955000000 0.5671000000
2.2563000000 3.7423000000 1.4063000000
2.2562000000 1.2211000000 1.0102000000
2.2561000000 3.0408000000 1.7031000000
2.2560000000 1.5762000000 1.3757000000
2.2559000000 1.2743000000 1.0452000000
2.2556000000 2.6870000000 1.7970000000
2.2553000000 2.2231000000 1.6010000000
2.2552000000 4.1646000000 1.1107000000
2.2551000000 2.6433000000 1.7809000000
2.2549000000 4.5329000000 0.7991000000
2.2548000000 2.3523000000 1.6572000000
2.2548000000 3.2851000000 1.5982000000
2.2545000000 4.0725000000 1.1910000000
2.2545000000 2.9740000000 1.7376000000
2.2543000000 4.7096000000 0.6467000000
2.2544000000 4.4213000000 0.8894000000
2.2540000000 2.8841000000 1.7752000000
2.2541000000 2.7594000000 1.8869000000
2.2540000000 3.3913000000 1.5541000000
2.2539000000 0.6463000000 0.5088000000
2.2540000000 4.0516000000 1.2090000000
2.2538000000 5.1009000000 0.3070000000
2.2537000000 2.0151000000 1.5108000000
2.2536000000 0.3879000000 0.2871000000
2.2534000000 3.9920000000 1.3210000000
2.2534000000 0.1609000000 0.0892000000
2.2533000000 2.3242000000 1.6485000000
2.2532000000 0.5583000000 0.4324000000
2.2531000000 4.1130000000 1.1604000000
2.2529000000 2.4366000000 1.6874000000
2.2527000000 4.1155000000 1.1530000000
2.2526000000 0.8058000000 0.6444000000
2.2525000000 3.7342000000 1.4015000000
2.2524000000 2.5188000000 1.7238000000
2.2524000000 1.9305000000 1.4770000000
2.2523000000 3.1935000000 1.6399000000
2.2523000000 5.0559000000 0.3426000000
2.2523000000 0.5005000000 0.3795000000
2.2521000000 0.9412000000 0.7645000000
2.2520000000 4.6908000000 0.6604000000
2.2518000000 4.8630000000 0.5152000000
2.2516000000 2.5253000000 1.7293000000
2.2515000000 3.0516000000 1.7030000000
2.2516000000 2.7693000000 1.8879000000
2.2514000000 3.2011000000 1.6424000000
2.2513000000 0.0833000000 0.1039000000
2.2511000000 0.6628000000 0.5213000000
2.2510000000 1.5421000000 1.3456000000
2.2508000000 1.0407000000 0.8483000000
2.2508000000 2.9267000000 1.7554000000
2.2508000000 2.0596000000 1.5332000000
2.2507000000 4.6910000000 0.6564000000
2.2506000000 1.7415000000 1.3997000000
2.2505000000 1.2110000000 0.9942000000
2.2504000000 1.6031000000 1.3936000000
2.2502000000 3.6107000000 1.4648000000
2.2500000000 2.7375000000 1.8853000000
2.2500000000 4.4646000000 0.8577000000
2.2498000000 3.5314000000 1.5007000000
2.2497000000 2.1091000000 1.5597000000
2.2496000000 4.0266000000 1.2287000000
2.2495000000 2.6870000000 1.8035000000
2.2494000000 2.5067000000 1.7288000000
2.2491000000 1.1663000000 0.9617000000
2.2483000000 0.5911000000 0.4619000000
2.2483000000 0.7380000000 0.5917000000
2.2482000000 0.5048000000 0.3949000000
2.2481000000 2.8845000000 1.7731000000
2.2481000000 0.6869000000 0.5441000000
2.2476000000 4.0258000000 1.2343000000
2.2471000000 4.6900000000 0.6582000000
2.2463000000 2.5625000000 1.7519000000
2.2464000000 4.6387000000 0.7055000000
2.2458000000 0.0573000000 0.0766000000
2.0105000000 2.4183000000 1.8651000000
2.0101000000 1.9054000000 1.5926000000
2.0100000000 4.2839000000 1.0085000000
2.0094000000 3.2198000000 1.8149000000
2.0093000000 5.1437000000 0.2709000000
2.0084000000 1.7940000000 1.4991000000
2.0083000000 3.9417000000 1.3085000000
2.0083000000 0.4264000000 0.3252000000
2.0082000000 3.5739000000 1.6836000000
2.0081000000 5.3592000000 0.0780000000
2.0080000000 1.5323000000 1.2724000000
2.0069000000 4.7783000000 0.5870000000
2.0068000000 1.3218000000 1.0831000000
2.0065000000 3.3550000000 1.7546000000
2.0065000000 5.3451000000 0.0942000000
2.0065000000 1.3233000000 1.0957000000
2.0064000000 3.1157000000 1.8588000000
2.0063000000 0.6619000000 0.5207000000
2.0062000000 4.5187000000 0.8047000000
2.0061000000 2.3026000000 1.8176000000
2.0058000000 1.4870000000 1.2367000000
2.0059000000 0.5999000000 0.4716000000
2.0057000000 1.3812000000 1.1404000000
2.0057000000 4.9972000000 0.3931000000
2.0055000000 2.6951000000 1.9921000000
2.0053000000 1.7266000000 1.4331000000
2.0050000000 4.1940000000 1.0859000000
2.0050000000 1.8223000000 1.5220000000
2.0049000000 0.9779000000 0.7979000000
2.0048000000 0.6776000000 0.5422000000
2.0048000000 5.2680000000 0.1670000000
2.0048000000 3.8277000000 1.3967000000
2.0047000000 3.1253000000 1.8525000000
2.0045000000 2.1074000000 1.7933000000
2.0042000000 0.2239000000 0.1424000000
2.0042000000 5.0246000000 0.3706000000
2.0038000000 2.7858000000 2.0657000000
2.0038000000 3.9201000000 1.3254000000
2.0038000000 1.1868000000 0.9754000000
2.0037000000 4.7715000000 0.5885000000
2.0033000000 2.1298000000 1.8109000000
2.0033000000 5.2350000000 0.1943000000
2.0030000000 2.0888000000 1.7929000000
2.0027000000 3.5089000000 1.7409000000
2.0026000000 2.8495000000 1.9790000000
2.0023000000 2.7327000000 2.0695000000
2.0021000000 0.9000000000 0.7296000000
2.0017000000 1.9588000000 1.7054000000
2.0015000000 4.0047000000 1.2449000000
2.0014000000 0.7319000000 0.5802000000
2.0013000000 3.2466000000 1.8082000000
2.0013000000 1.0743000000 0.8761000000
2.0012000000 2.0126000000 1.7454000000
2.0011000000 0.0836000000 0.1060000000
2.0010000000 4.4941000000 0.8286000000
2.0010000000 3.3791000000 1.8119000000
2.0008000000 0.1340000000 0.0758000000
2.0008000000 3.7432000000 1.4806000000
2.0006000000 2.0457000000 1.7704000000
2.0002000000 1.0254000000 0.8331000000
2.0001000000 3.7116000000 1.4996000000
1.9999000000 4.7810000000 0.5853000000
1.9999000000 4.7966000000 0.5674000000
1.9998000000 1.8404000000 1.5376000000
1.9998000000 4.3881000000 0.9199000000
1.9995000000 4.7012000000 0.6505000000
1.9993000000 0.5806000000 0.4550000000
1.9992000000 3.1809000000 1.8339000000
1.9990000000 1.4822000000 1.2275000000
1.9984000000 3.9485000000 1.2867000000
1.9981000000 2.0840000000 1.7911000000
1.9978000000 1.1097000000 0.9130000000
1.9977000000 2.8964000000 1.9606000000
1.9976000000 1.0905000000 0.8988000000
1.9970000000 4.4568000000 0.8595000000
1.7627000000 3.8753000000 1.3609000000
1.7591000000 1.5599000000 1.2940000000
1.7589000000 4.6006000000 0.7380000000
1.7586000000 0.1867000000 0.1149000000
1.7585000000 5.1877000000 0.2313000000
1.7581000000 2.9929000000 2.1583000000
1.7579000000 2.9815000000 2.1617000000
1.7576000000 4.9310000000 0.4495000000
1.7575000000 2.9511000000 2.1812000000
1.7569000000 4.7746000000 0.5858000000
1.7567000000 4.6957000000 0.6522000000
1.7564000000 4.1024000000 1.1667000000
1.7562000000 0.2708000000 0.1862000000
1.7560000000 2.3077000000 1.9409000000
1.7559000000 1.5470000000 1.2870000000
1.7558000000 2.1559000000 1.8078000000
1.7555000000 3.4987000000 1.6785000000
1.7555000000 4.0685000000 1.1921000000
1.7555000000 2.6491000000 2.1524000000
1.7553000000 1.0185000000 0.8277000000
1.7551000000 0.7469000000 0.5913000000
1.7554000000 3.0357000000 2.1423000000
1.7550000000 3.2158000000 1.9272000000
1.7549000000 3.2946000000 1.8561000000
1.7549000000 5.5194000000 0.0177000000
1.7548000000 5.0942000000 0.3049000000
1.7548000000 2.6108000000 2.1444000000
1.7545000000 2.0144000000 1.6852000000
1.7545000000 4.4942000000 0.8287000000
1.7544000000 4.8923000000 0.4843000000
1.7543000000 5.4601000000 0.0715000000
1.7542000000 1.9171000000 1.6078000000
1.7541000000 2.2155000000 1.8556000000
1.7540000000 3.8761000000 1.3591000000
1.7539000000 1.1560000000 0.9504000000
1.7538000000 1.7565000000 1.4661000000
1.7541000000 2.7708000000 2.2594000000
1.7537000000 0.6675000000 0.5243000000
1.7535000000 5.3447000000 0.0968000000
1.7534000000 2.0683000000 1.7294000000
1.7530000000 3.5620000000 1.6265000000
1.7528000000 4.1810000000 1.0927000000
1.7526000000 1.1720000000 0.9621000000
1.7525000000 5.1973000000 0.2211000000
1.7525000000 4.3428000000 0.9586000000
1.7523000000 3.2111000000 1.9302000000
1.7522000000 5.3930000000 0.1306000000
1.7520000000 4.7510000000 0.6064000000
1.7519000000 4.3060000000 0.9895000000
1.7518000000 2.0063000000 1.6781000000
1.7513000000 4.7781000000 0.5821000000
1.7512000000 5.3347000000 0.1051000000
1.7511000000 1.8083000000 1.5142000000
1.7511000000 4.6819000000 0.6676000000
1.7509000000 2.3789000000 2.0651000000
1.7509000000 2.9774000000 2.1626000000
1.7508000000 1.2687000000 1.0390000000
1.7508000000 1.6112000000 1.3407000000
1.7507000000 1.9732000000 1.6502000000
1.7506000000 0.6319000000 0.4946000000
1.7505000000 1.7996000000 1.5061000000
1.7503000000 2.5941000000 2.1334000000
1.7503000000 0.0094000000 0.0349000000
1.7501000000 1.1730000000 0.9567000000
1.7498000000 3.3844000000 1.7772000000
1.7498000000 1.0620000000 0.8654000000
1.7495000000 1.4962000000 1.2462000000
1.7495000000 0.1378000000 0.0723000000
1.7492000000 0.2918000000 0.2059000000
1.7485000000 1.9183000000 1.6092000000
1.7480000000 1.1163000000 0.9153000000
1.7475000000 1.9884000000 1.6718000000
1.7466000000 0.5918000000 0.4601000000
1.7464000000 0.2672000000 0.1822000000
1.7462000000 0.4802000000 0.3646000000
1.5118000000 4.7844000000 0.5831000000
1.5110000000 0.3214000000 0.2266000000
1.5087000000 3.5046000000 1.6768000000
1.5078000000 1.1036000000 0.9031000000
1.5077000000 1.5056000000 1.2489000000
1.5076000000 2.9799000000 2.2008000000
1.5074000000 4.0706000000 1.1968000000
1.5073000000 2.2648000000 1.9030000000
1.5070000000 3.7789000000 1.4403000000
1.5069000000 4.2118000000 1.0656000000
1.5068000000 1.2572000000 1.0415000000
1.5065000000 2.2081000000 1.8573000000
1.5065000000 3.7727000000 1.4503000000
1.5064000000 0.4841000000 0.3763000000
1.5063000000 0.2053000000 0.1277000000
1.5055000000 2.9062000000 2.2599000000
1.5054000000 4.3210000000 0.9806000000
1.5051000000 2.6843000000 2.2823000000
1.5050000000 5.0639000000 0.3351000000
1.5049000000 0.7383000000 0.5951000000
1.5048000000 1.6988000000 1.4200000000
1.5047000000 4.9889000000 0.3998000000
1.5046000000 2.4649000000 2.0770000000
1.5045000000 1.9226000000 1.6109000000
1.5045000000 4.7294000000 0.6215000000
1.5044000000 5.0429000000 0.3584000000
1.5043000000 4.6884000000 0.6554000000
1.5042000000 3.1743000000 1.9660000000
1.5042000000 0.0127000000 0.0359000000
1.5040000000 4.6379000000 0.7029000000
1.5040000000 5.1010000000 0.3078000000
1.5039000000 4.3158000000 0.9771000000
1.5036000000 4.0226000000 1.2405000000
1.5035000000 4.0155000000 1.2403000000
1.5034000000 2.7545000000 2.2665000000
1.5031000000 1.3568000000 1.1182000000
1.5030000000 2.8133000000 2.2818000000
1.5029000000 0.6979000000 0.5544000000
1.5028000000 1.1159000000 0.9160000000
1.5026000000 0.8681000000 0.7040000000
1.5025000000 4.4262000000 0.8866000000
1.5022000000 2.8341000000 2.2787000000
1.5018000000 2.9169000000 2.2438000000
1.5018000000 1.8924000000 1.5850000000
1.5017000000 2.8483000000 2.2698000000
1.5015000000 4.5199000000 0.8079000000
1.5013000000 2.9453000000 2.2221000000
1.5012000000 4.3730000000 0.9335000000
1.5010000000 0.6414000000 0.5022000000
1.5009000000 2.4206000000 2.0385000000
1.5008000000 2.4994000000 2.1743000000
1.5008000000 1.7094000000 1.4263000000
1.5007000000 1.8759000000 1.5654000000
1.5005000000 5.3163000000 0.1145000000
1.5000000000 3.7020000000 1.5161000000
1.5000000000 4.6965000000 0.6527000000
1.4999000000 3.5777000000 1.6203000000
1.4998000000 5.1638000000 0.2473000000
1.4995000000 2.1929000000 1.8407000000
1.4990000000 4.5224000000 0.8017000000
1.4985000000 0.3299000000 0.2396000000
1.4984000000 0.7314000000 0.5837000000
1.4983000000 4.4204000000 0.8890000000
1.4978000000 1.9189000000 1.6089000000
1.4977000000 0.8820000000 0.7121000000
1.4976000000 3.0964000000 2.0333000000
1.4969000000 1.7138000000 1.4345000000
1.4968000000 2.7257000000 2.2697000000
1.4964000000 4.1645000000 1.1125000000
1.4960000000 4.2822000000 1.0103000000
1.4958000000 1.3374000000 1.1111000000
1.4947000000 0.7820000000 0.6281000000
1.2623000000 5.1502000000 0.2657000000
1.2608000000 5.4798000000 0.0515000000
1.2604000000 3.2688000000 1.9234000000
1.2604000000 4.2605000000 1.0262000000
1.2600000000 5.2811000000 0.1521000000
1.2593000000 1.7820000000 1.4881000000
1.2590000000 2.7175000000 2.1211000000
1.2586000000 4.1408000000 1.1289000000
1.2582000000 1.4862000000 1.2357000000
1.2582000000 0.7725000000 0.6158000000
1.2581000000 4.8771000000 0.5017000000
1.2578000000 4.3694000000 0.9350000000
1.2570000000 4.9614000000 0.4266000000
1.2570000000 4.8212000000 0.5485000000
1.2569000000 2.6482000000 2.0336000000
1.2567000000 3.1313000000 1.9125000000
1.2561000000 2.7030000000 2.1215000000
1.2560000000 4.3791000000 0.9227000000
1.2560000000 3.0161000000 1.9665000000
1.2560000000 3.2938000000 1.9106000000
1.2558000000 3.1326000000 1.9145000000
1.2556000000 0.2668000000 0.1890000000
1.2555000000 5.4535000000 0.0785000000
1.2554000000 2.9143000000 2.0043000000
1.2553000000 2.8828000000 2.0199000000
1.2551000000 1.1574000000 0.9516000000
1.2550000000 4.2412000000 1.0426000000
1.2550000000 3.3489000000 1.8690000000
1.2548000000 5.0309000000 0.3653000000
1.2548000000 0.6547000000 0.5129000000
1.2547000000 0.7743000000 0.6163000000
1.2545000000 5.3701000000 0.0716000000
1.2544000000 2.2452000000 1.9181000000
1.2544000000 2.1052000000 1.8308000000
1.2542000000 4.8743000000 0.5030000000
1.2541000000 4.9836000000 0.4068000000
1.2540000000 1.2468000000 1.0313000000
1.2539000000 0.1991000000 0.1242000000
1.2537000000 1.3033000000 1.0767000000
1.2537000000 4.2257000000 1.0602000000
1.2536000000 0.7681000000 0.6107000000
1.2534000000 4.5397000000 0.7858000000
1.2534000000 4.8808000000 0.4891000000
1.2529000000 3.1751000000 1.8894000000
1.2529000000 5.1923000000 0.2234000000
1.2528000000 2.0584000000 1.7245000000
1.2524000000 3.0003000000 1.9688000000
1.2524000000 5.4127000000 0.1113000000
1.2522000000 3.8056000000 1.4191000000
1.2522000000 5.0946000000 0.3134000000
1.2520000000 3.8345000000 1.3955000000
1.2520000000 0.6138000000 0.4820000000
1.2520000000 2.0247000000 1.6936000000
1.2518000000 2.6983000000 2.0521000000
1.2517000000 5.0820000000 0.3255000000
1.2517000000 4.8322000000 0.5383000000
1.2515000000 2.2287000000 1.9018000000
1.2515000000 1.1598000000 0.9542000000
1.2514000000 3.1985000000 1.8842000000
1.2513000000 4.1337000000 1.1359000000
1.2511000000 3.5720000000 1.6243000000
1.2505000000 1.5503000000 1.2850000000
1.2503000000 0.5654000000 0.4433000000
1.2502000000 3.7938000000 1.4390000000
1.2498000000 5.2105000000 0.2162000000
1.2495000000 1.2022000000 0.9901000000
1.2495000000 0.6452000000 0.5069000000
1.2494000000 0.7166000000 0.5716000000
1.2492000000 0.1892000000 0.1166000000
1.2490000000 1.0730000000 0.8743000000
1.2488000000 5.3155000000 0.1144000000
1.2487000000 0.4680000000 0.3552000000
1.2495000000 1.0770000000 0.8796000000
1.2491000000 4.5231000000 0.8027000000
1.2484000000 2.5857000000 2.0011000000
1.2481000000 3.3065000000 1.8934000000
1.2475000000 1.4498000000 1.1984000000
1.2461000000 0.0449000000 0.0587000000
1.2455000000 4.1453000000 1.1299000000
1.0110000000 4.1789000000 1.0968000000
1.0108000000 0.8420000000 0.6782000000
1.0098000000 4.0158000000 1.2412000000
1.0095000000 4.4013000000 0.9032000000
1.0090000000 1.6321000000 1.3607000000
1.0087000000 2.5273000000 1.7970000000
1.0086000000 2.4768000000 1.7730000000
1.0081000000 2.8269000000 1.8546000000
1.0078000000 3.2809000000 1.6628000000
1.0074000000 4.6986000000 0.6548000000
1.0072000000 5.1947000000 0.2219000000
1.0070000000 4.6149000000 0.7264000000
1.0070000000 4.9767000000 0.4097000000
1.0068000000 3.7063000000 1.5415000000
1.0068000000 0.5642000000 0.4388000000
1.0066000000 4.0693000000 1.1950000000
1.0066000000 4.4330000000 0.8816000000
1.0062000000 2.9425000000 1.8061000000
1.0060000000 1.8113000000 1.5460000000
1.0059000000 2.0623000000 1.5936000000
1.0057000000 0.5417000000 0.4160000000
1.0054000000 2.4256000000 1.7453000000
1.0053000000 0.0408000000 0.0611000000
1.0051000000 4.0831000000 1.1824000000
1.0050000000 5.4075000000 0.1178000000
1.0048000000 0.6983000000 0.5592000000
1.0047000000 4.9253000000 0.4539000000
1.0045000000 0.1455000000 0.0760000000
1.0044000000 0.2281000000 0.1515000000
1.0044000000 2.1258000000 1.6163000000
1.0043000000 2.1816000000 1.6407000000
1.0042000000 2.3790000000 1.7272000000
1.0042000000 0.2625000000 0.1768000000
1.0041000000 3.5419000000 1.5473000000
1.0040000000 5.1237000000 0.2816000000
1.0040000000 5.2630000000 0.1695000000
1.0038000000 2.8207000000 1.8631000000
1.0038000000 4.0672000000 1.2004000000
1.0037000000 4.7462000000 0.6120000000
1.0035000000 0.7282000000 0.5750000000
1.0035000000 3.3416000000 1.6401000000
1.0035000000 0.2862000000 0.2035000000
1.0034000000 4.8576000000 0.5167000000
1.0033000000 0.9819000000 0.8021000000
1.0033000000 2.0491000000 1.5854000000
1.0032000000 4.2504000000 1.0374000000
1.0032000000 3.9893000000 1.2637000000
1.0030000000 1.0763000000 0.8853000000
1.0029000000 3.4819000000 1.5748000000
1.0028000000 3.2560000000 1.6726000000
1.0027000000 0.6763000000 0.5340000000
1.0026000000 4.6469000000 0.6948000000
1.0025000000 2.6201000000 1.8301000000
1.0024000000 4.9959000000 0.3912000000
1.0023000000 1.6506000000 1.4392000000
1.0022000000 4.4567000000 0.8564000000
1.0019000000 2.3026000000 1.6957000000
1.0017000000 3.2113000000 1.6903000000
1.0015000000 1.8792000000 1.5123000000
1.0013000000 1.3500000000 1.1140000000
1.0012000000 1.0748000000 0.8804000000
1.0012000000 0.4101000000 0.3084000000
1.0010000000 1.5923000000 1.3275000000
1.0010000000 1.5658000000 1.2989000000
1.0010000000 0.7283000000 0.5834000000
1.0008000000 0.9499000000 0.7710000000
1.0007000000 2.5268000000 1.7908000000
1.0005000000 4.6429000000 0.6965000000
1.0003000000 3.7400000000 1.5195000000
1.0001000000 2.5081000000 1.7741000000
1.0000000000 3.1820000000 1.7060000000
0.9996000000 0.2754000000 0.1961000000
0.9992000000 4.4178000000 0.8932000000
0.9990000000 0.2391000000 0.1632000000
0.9988000000 0.7511000000 0.6031000000
0.9987000000 3.6499000000 1.5008000000
0.9986000000 3.2699000000 1.6631000000
0.9980000000 0.7721000000 0.6171000000
0.9975000000 0.1124000000 0.1233000000
0.9972000000 1.9997000000 1.5523000000
0.9970000000 1.9466000000 1.5342000000
0.9966000000 2.4369000000 1.7465000000
0.9950000000 0.6074000000 0.4768000000
0.9933000000 0.2923000000 0.2065000000
0.9914000000 3.3963000000 1.6077000000
0.7618000000 4.8568000000 0.5175000000
0.7604000000 4.8944000000 0.4845000000
0.7602000000 3.3429000000 1.4538000000
0.7596000000 0.5051000000 0.3884000000
0.7593000000 5.0323000000 0.3669000000
0.7591000000 3.4683000000 1.3996000000
0.7590000000 5.2635000000 0.1631000000
0.7590000000 2.3023000000 1.5090000000
0.7583000000 3.2722000000 1.4790000000
0.7583000000 4.6280000000 0.7136000000
0.7580000000 4.9811000000 0.4084000000
0.7575000000 1.0649000000 0.8749000000
0.7573000000 4.8055000000 0.5573000000
0.7572000000 3.2843000000 1.4775000000
0.7570000000 5.0710000000 0.3327000000
0.7569000000 0.4810000000 0.3694000000
0.7565000000 2.3159000000 1.5168000000
0.7563000000 2.0484000000 1.3970000000
0.7562000000 1.1278000000 0.9250000000
0.7561000000 2.1406000000 1.4399000000
0.7558000000 5.1361000000 0.2740000000
0.7558000000 4.3851000000 0.9216000000
0.7556000000 1.0573000000 0.8619000000
0.7554000000 4.1346000000 1.1713000000
0.7551000000 3.2366000000 1.4949000000
0.7549000000 3.8872000000 1.2201000000
0.7548000000 1.6588000000 1.2333000000
0.7546000000 3.9909000000 1.1646000000
0.7545000000 1.7787000000 1.2845000000
0.7544000000 2.2803000000 1.5000000000
0.7544000000 5.1282000000 0.2834000000
0.7543000000 2.1098000000 1.4242000000
0.7541000000 3.6311000000 1.3257000000
0.7539000000 2.8787000000 1.6524000000
0.7538000000 2.9143000000 1.6341000000
0.7538000000 0.1997000000 0.1246000000
0.7535000000 1.9720000000 1.3688000000
0.7535000000 4.0010000000 1.1654000000
0.7534000000 4.3296000000 0.9690000000
0.7533000000 3.5575000000 1.3641000000
0.7531000000 2.0606000000 1.4024000000
0.7530000000 5.4701000000 0.0589000000
0.7530000000 5.1588000000 0.2527000000
0.7529000000 1.8737000000 1.3231000000
0.7529000000 0.5604000000 0.4428000000
0.7527000000 3.9863000000 1.1681000000
0.7525000000 1.6034000000 1.2069000000
0.7524000000 0.4754000000 0.3592000000
0.7524000000 4.9165000000 0.4632000000
0.7523000000 5.2506000000 0.1764000000
0.7520000000 1.3574000000 1.1580000000
0.7519000000 4.4343000000 0.8802000000
0.7516000000 2.1005000000 1.4153000000
0.7515000000 0.7753000000 0.6244000000
0.7514000000 2.1452000000 1.4410000000
0.7513000000 0.6985000000 0.5506000000
0.7512000000 4.6035000000 0.7343000000
0.7511000000 3.5232000000 1.3742000000
0.7510000000 1.3378000000 1.1492000000
0.7506000000 0.8425000000 0.6807000000
0.7506000000 1.3956000000 1.1770000000
0.7502000000 4.2348000000 1.1073000000
0.7502000000 3.0607000000 1.5655000000
0.7500000000 0.8425000000 0.6829000000
0.7500000000 5.3814000000 0.0624000000
0.7497000000 0.0409000000 0.0677000000
0.7496000000 2.5500000000 1.6127000000
0.7493000000 1.3507000000 1.1545000000
0.7492000000 1.4886000000 1.1532000000
0.7490000000 2.3381000000 1.5203000000
0.7487000000 0.1707000000 0.0965000000
0.7479000000 1.8262000000 1.2967000000
0.7471000000 2.6071000000 1.6357000000
0.7467000000 1.6163000000 1.2027000000
0.7464000000 5.3381000000 0.1017000000
0.7463000000 4.0803000000 1.1274000000
0.7441000000 0.8228000000 0.6635000000
0.5115000000 1.1032000000 0.8106000000
0.5112000000 5.4143000000 0.1048000000
0.5097000000 1.2617000000 0.8766000000
0.5096000000 1.1801000000 0.8406000000
0.5086000000 4.4117000000 0.8056000000
0.5083000000 4.4274000000 0.8005000000
0.5080000000 4.8925000000 0.4868000000
0.5076000000 3.5049000000 1.1938000000
0.5075000000 5.1680000000 0.2426000000
0.5073000000 0.7150000000 0.5740000000
0.5072000000 3.0895000000 1.3733000000
0.5071000000 3.3276000000 1.2734000000
0.5070000000 5.2146000000 0.1998000000
0.5067000000 2.0121000000 1.2063000000
0.5065000000 0.7627000000 0.6122000000
0.5065000000 0.5141000000 0.3959000000
0.5064000000 1.0938000000 0.7974000000
0.5063000000 0.8072000000 0.7128000000
0.5063000000 3.1122000000 1.3588000000
0.5062000000 2.9951000000 1.4109000000
0.5062000000 4.1429000000 0.9233000000
0.5061000000 4.2625000000 0.8743000000
0.5060000000 2.5300000000 1.4180000000
0.5058000000 4.5355000000 0.8152000000
0.5057000000 2.0193000000 1.1991000000
0.5057000000 3.3986000000 1.2372000000
0.5056000000 4.9469000000 0.4368000000
0.5056000000 1.5682000000 1.0124000000
0.5054000000 2.6549000000 1.4742000000
0.5053000000 1.9502000000 1.1706000000
0.5053000000 1.2881000000 0.8857000000
0.5051000000 0.7357000000 0.5879000000
0.5050000000 3.2436000000 1.3026000000
0.5049000000 0.7915000000 0.6972000000
0.5048000000 1.2522000000 0.8720000000
0.5048000000 4.5248000000 0.7499000000
0.5047000000 1.9939000000 1.1919000000
0.5046000000 3.3630000000 1.2549000000
0.5044000000 4.5589000000 0.7959000000
0.5042000000 5.3689000000 0.0746000000
0.5041000000 3.8635000000 1.0394000000
0.5040000000 1.2824000000 0.8799000000
0.5040000000 4.4804000000 0.7738000000
0.5039000000 0.8272000000 0.7225000000
0.5039000000 2.5280000000 1.4132000000
0.5037000000 0.2818000000 0.1946000000
0.5038000000 1.4111000000 0.9405000000
0.5037000000 1.0610000000 0.7814000000
0.5035000000 3.8389000000 1.0468000000
0.5034000000 5.2131000000 0.2096000000
0.5034000000 2.0879000000 1.2297000000
0.5032000000 2.1182000000 1.2405000000
0.5031000000 0.4826000000 0.3646000000
0.5031000000 1.1116000000 0.8065000000
0.5030000000 1.2507000000 0.8708000000
0.5027000000 2.8583000000 1.4664000000
0.5024000000 2.7092000000 1.5612000000
0.5024000000 2.8635000000 1.4621000000
0.5023000000 1.3859000000 0.9282000000
0.5023000000 0.6709000000 0.5292000000
0.5023000000 2.9708000000 1.4202000000
0.5022000000 1.4343000000 0.9492000000
0.5020000000 2.8977000000 1.4569000000
0.5020000000 2.3806000000 1.3513000000
0.5018000000 4.1094000000 0.9266000000
0.5015000000 0.0295000000 0.0522000000
0.5015000000 3.0755000000 1.3799000000
0.5015000000 3.1979000000 1.3193000000
0.5014000000 3.5532000000 1.1673000000
0.5013000000 1.4228000000 0.9434000000
0.5012000000 1.7710000000 1.0875000000
0.5010000000 3.1313000000 1.3548000000
0.5009000000 3.6941000000 1.1119000000
0.5008000000 4.8079000000 0.5528000000
0.5007000000 4.3665000000 0.8219000000
0.5006000000 2.7540000000 1.5798000000
0.5005000000 0.0677000000 0.0886000000
0.5005000000 0.3984000000 0.2964000000
0.5003000000 1.3671000000 0.9133000000
0.5003000000 1.3983000000 0.9262000000
0.5002000000 3.9014000000 1.0190000000
0.5001000000 0.5671000000 0.4442000000
0.4997000000 3.0407000000 1.3891000000
0.4995000000 4.1214000000 0.9177000000
0.4995000000 3.8844000000 1.0203000000
0.4993000000 0.8228000000 0.7193000000
0.4990000000 4.9098000000 0.4718000000
0.4990000000 4.5710000000 0.7913000000
0.4984000000 1.5430000000 0.9924000000
0.4979000000 0.5113000000 0.3919000000
0.4969000000 5.5245000000 0.0129000000
0.4968000000 2.4343000000 1.3706000000
0.4967000000 1.2008000000 0.8435000000
0.4960000000 2.3804000000 1.3515000000
0.4958000000 3.5545000000 1.1645000000
0.4954000000 1.2879000000 0.8760000000
0.2615000000 4.1627000000 0.7316000000
0.2603000000 4.5443000000 0.5620000000
0.2601000000 3.2777000000 1.1070000000
0.2599000000 3.3292000000 1.0839000000
0.2599000000 5.3627000000 0.0801000000
0.2596000000 3.9610000000 0.8129000000
0.2592000000 0.8860000000 0.5296000000
0.2588000000 2.7184000000 1.3763000000
0.2587000000 4.3167000000 0.6626000000
0.2584000000 2.9382000000 1.2491000000
0.2580000000 1.2928000000 0.7069000000
0.2574000000 5.0833000000 0.3794000000
0.2571000000 1.9480000000 0.9881000000
0.2570000000 5.1985000000 0.2180000000
0.2566000000 4.4968000000 0.5845000000
0.2561000000 4.0513000000 0.7728000000
0.2559000000 3.6164000000 0.9580000000
0.2559000000 3.1829000000 1.1465000000
0.2558000000 5.1209000000 0.3498000000
0.2557000000 0.0462000000 0.0645000000
0.2556000000 5.4633000000 0.0638000000
0.2552000000 2.9569000000 1.2438000000
0.2551000000 4.8857000000 0.4140000000
0.2550000000 1.2270000000 0.6758000000
0.2548000000 3.9147000000 0.8275000000
0.2546000000 4.5658000000 0.5513000000
0.2544000000 5.2939000000 0.1420000000
0.2544000000 3.7612000000 0.8953000000
0.2540000000 1.0590000000 0.5976000000
0.2540000000 2.6464000000 1.2818000000
0.2537000000 3.6506000000 0.9441000000
0.2535000000 1.1600000000 0.6463000000
0.2535000000 2.1165000000 1.0588000000
0.2533000000 1.2377000000 0.6782000000
0.2530000000 5.0872000000 0.3782000000
0.2530000000 3.2051000000 1.1382000000
0.2529000000 5.4980000000 0.0333000000
0.2527000000 2.3272000000 1.1420000000
0.2525000000 1.3816000000 0.7392000000
0.2525000000 0.5918000000 0.3951000000
0.2522000000 1.9131000000 0.9630000000
0.2518000000 1.9065000000 0.9679000000
0.2517000000 1.6717000000 0.8590000000
0.2515000000 5.2518000000 0.1793000000
0.2514000000 3.1833000000 1.1403000000
0.2513000000 3.5649000000 0.9830000000
0.2512000000 5.1453000000 0.3215000000
0.2506000000 4.9985000000 0.4246000000
0.2506000000 2.1788000000 1.0793000000
0.2505000000 2.9266000000 1.2502000000
0.2502000000 1.0890000000 0.6106000000
0.2499000000 2.4670000000 1.2035000000
0.2498000000 0.4169000000 0.3757000000
0.2497000000 4.8799000000 0.4090000000
0.2494000000 1.1667000000 0.6385000000
0.2493000000 0.4800000000 0.4062000000
0.2491000000 0.7324000000 0.4507000000
0.2477000000 0.8026000000 0.4821000000
0.2476000000 4.6958000000 0.4887000000
0.2468000000 3.8160000000 0.8679000000
0.2467000000 0.3758000000 0.3342000000
0.2433000000 2.7356000000 1.3739000000
0.2418000000 2.0415000000 1.0128000000
0.0126000000 5.3838000000 0.0868000000
0.0120000000 1.8767000000 0.7651000000
0.0115000000 1.8731000000 0.7701000000
0.0114000000 2.4599000000 1.0193000000
0.0112000000 5.1839000000 0.1046000000
0.0090000000 4.5936000000 0.3563000000
0.0089000000 3.2912000000 0.9171000000
0.0089000000 3.7155000000 0.7317000000
0.0088000000 4.7696000000 0.2782000000
0.0086000000 3.7613000000 0.7123000000
0.0086000000 4.0726000000 0.5761000000
0.0085000000 4.3312000000 0.4679000000
0.0081000000 3.7826000000 0.7053000000
0.0079000000 1.3035000000 0.5200000000
0.0078000000 4.6594000000 0.3265000000
0.0077000000 5.3873000000 0.0787000000
0.0074000000 4.0789000000 0.5777000000
0.0071000000 4.3800000000 0.4476000000
0.0070000000 4.2539000000 0.4964000000
0.0069000000 2.6141000000 1.0832000000
0.0067000000 1.0236000000 0.4006000000
0.0067000000 1.3782000000 0.5528000000
0.0066000000 1.5968000000 0.6429000000
0.0065000000 3.2860000000 0.9178000000
0.0063000000 3.3318000000 0.8977000000
0.0062000000 2.1942000000 0.9012000000
0.0060000000 0.2321000000 0.0600000000
0.0059000000 0.6598000000 0.2441000000
0.0058000000 3.8463000000 0.6736000000
0.0057000000 2.2205000000 0.9102000000
0.0056000000 2.8521000000 1.1027000000
0.0056000000 0.7391000000 0.2749000000
0.0053000000 2.7511000000 1.2070000000
0.0053000000 0.1925000000 0.1131000000
0.0052000000 4.3584000000 0.4562000000
0.0051000000 1.3856000000 0.5585000000
0.0049000000 0.9474000000 0.3679000000
0.0048000000 4.4616000000 0.4082000000
0.0046000000 4.1179000000 0.5494000000
0.0045000000 4.2215000000 0.5085000000
0.0044000000 2.5386000000 1.0484000000
0.0043000000 5.3427000000 0.1014000000
0.0042000000 2.6116000000 1.0867000000
0.0041000000 3.5978000000 0.7835000000
0.0038000000 4.1437000000 0.5467000000
0.0038000000 0.2711000000 0.0739000000
0.0036000000 3.9016000000 0.6473000000
0.0035000000 1.3185000000 0.5256000000
0.0033000000 0.9275000000 0.3606000000
0.0032000000 1.3501000000 0.5355000000
0.0030000000 4.1796000000 0.5280000000
0.0029000000 3.9589000000 0.6277000000
0.0028000000 3.8544000000 0.6708000000
0.0027000000 2.1359000000 0.8776000000
0.0026000000 2.4621000000 1.0195000000
0.0024000000 4.1705000000 0.5336000000
0.0023000000 2.0754000000 0.8486000000
0.0020000000 4.7325000000 0.2881000000
0.0018000000 2.6924000000 1.1170000000
0.0016000000 4.8079000000 0.2558000000
0.0015000000 3.6936000000 0.7409000000
0.0012000000 1.1811000000 0.4607000000
0.0011000000 2.1767000000 0.8902000000
0.0010000000 3.9052000000 0.6485000000
0.0008000000 1.2027000000 0.4705000000
0.0007000000 1.3378000000 0.5351000000
0.0003000000 2.8944000000 1.0802000000
0.0001000000 5.3743000000 0.0853000000
-0.0001000000 2.2756000000 0.9347000000
-0.0002000000 1.9235000000 0.7800000000
-0.0004000000 3.4359000000 0.8494000000
-0.0004000000 1.1824000000 0.4649000000
-0.0005000000 2.6449000000 1.0926000000
-0.0007000000 4.2138000000 0.5061000000
-0.0010000000 5.2976000000 0.1207000000
-0.0011000000 0.8906000000 0.3358000000
-0.0012000000 3.8953000000 0.6442000000
-0.0011000000 1.4977000000 0.5982000000
-0.0012000000 1.2064000000 0.4743000000
-0.0015000000 0.8075000000 0.2976000000
-0.0017000000 3.9671000000 0.6178000000
-0.0018000000 2.1301000000 0.8644000000
-0.0020000000 0.8416000000 0.3138000000
-0.0024000000 1.1350000000 0.4429000000
-0.0039000000 0.0101000000 0.0139000000
-0.2375000000 1.5196000000 0.4287000000
-0.2378000000 2.0602000000 0.6638000000
-0.2388000000 1.1128000000 0.2486000000
-0.2392000000 4.5128000000 0.1998000000
-0.2397000000 5.0176000000 0.0627000000
-0.2406000000 3.8580000000 0.4899000000
-0.2413000000 0.7046000000 0.0759000000
-0.2416000000 4.9926000000 0.0689000000
-0.2421000000 3.5013000000 0.6388000000
-0.2423000000 2.5877000000 0.8890000000
-0.2425000000 1.6126000000 0.4673000000
-0.2429000000 2.5662000000 0.8822000000
-0.2433000000 1.8202000000 0.5591000000
-0.2435000000 1.5402000000 0.4360000000
-0.2437000000 2.6449000000 0.9073000000
-0.2439000000 1.8292000000 0.5601000000
-0.2440000000 3.7743000000 0.5148000000
-0.2443000000 2.7849000000 1.0036000000
-0.2446000000 0.3929000000 0.0120000000
-0.2447000000 0.8069000000 0.1262000000
-0.2449000000 3.2100000000 0.7615000000
-0.2451000000 2.0596000000 0.6565000000
-0.2453000000 4.5007000000 0.2065000000
-0.2454000000 2.6960000000 0.9278000000
-0.2454000000 4.8557000000 0.1298000000
-0.2455000000 4.0593000000 0.3948000000
-0.2455000000 3.4542000000 0.6615000000
-0.2457000000 4.4673000000 0.2191000000
-0.2459000000 2.1686000000 0.7060000000
-0.2461000000 0.6686000000 0.0587000000
-0.2463000000 2.3083000000 0.7611000000
-0.2462000000 4.4488000000 0.2300000000
-0.2465000000 2.0219000000 0.6438000000
-0.2467000000 5.2638000000 0.0260000000
-0.2466000000 2.1150000000 0.6837000000
-0.2467000000 4.8126000000 0.0652000000
-0.2468000000 5.1511000000 0.0685000000
-0.2469000000 2.2054000000 0.7184000000
-0.2470000000 0.8642000000 0.1387000000
-0.2470000000 3.3828000000 0.6871000000
-0.2472000000 4.0747000000 0.3819000000
-0.2476000000 3.9660000000 0.4331000000
-0.2477000000 1.0170000000 0.2082000000
-0.2478000000 1.6539000000 0.4789000000
-0.2478000000 5.1875000000 0.0573000000
-0.2480000000 3.5686000000 0.6023000000
-0.2480000000 0.3475000000 0.0710000000
-0.2489000000 0.4208000000 0.0244000000
-0.2490000000 1.5356000000 0.4276000000
-0.2490000000 0.8511000000 0.1348000000
-0.2491000000 4.6817000000 0.1296000000
-0.2492000000 3.8325000000 0.4890000000
-0.2492000000 3.7442000000 0.5265000000
-0.2496000000 0.8114000000 0.1194000000
-0.2497000000 2.7812000000 0.9994000000
-0.2500000000 1.3693000000 0.3623000000
-0.2501000000 4.1901000000 0.3360000000
-0.2501000000 1.0120000000 0.2025000000
-0.2503000000 5.2030000000 0.0462000000
-0.2505000000 2.8691000000 0.9026000000
-0.2506000000 1.7589000000 0.5233000000
-0.2509000000 0.6994000000 0.0641000000
-0.2510000000 4.5976000000 0.1542000000
-0.2512000000 2.5814000000 0.8798000000
-0.2513000000 2.5457000000 0.8629000000
-0.2515000000 0.6530000000 0.1248000000
-0.2514000000 2.2531000000 0.7359000000
-0.2524000000 4.5806000000 0.1632000000
-0.2527000000 0.5755000000 0.0858000000
-0.2529000000 2.7525000000 1.0071000000
-0.2534000000 4.8178000000 0.0600000000
-0.2535000000 1.4327000000 0.3822000000
-0.4904000000 3.9288000000 0.2642000000
-0.4916000000 1.1182000000 0.0663000000
-0.4917000000 2.9774000000 0.6788000000
-0.4921000000 3.9371000000 0.2638000000
-0.4922000000 4.6799000000 0.0166000000
-0.4927000000 2.9634000000 0.6856000000
-0.4932000000 3.5255000000 0.4416000000
-0.4933000000 3.6128000000 0.4012000000
-0.4939000000 1.3573000000 0.1707000000
-0.4940000000 1.2285000000 0.1138000000
-0.4941000000 4.8431000000 0.0237000000
-0.4942000000 3.6518000000 0.3889000000
-0.4944000000 3.2294000000 0.5671000000
-0.4945000000 4.0949000000 0.1970000000
-0.4947000000 4.0136000000 0.2321000000
-0.4954000000 4.4947000000 0.0931000000
-0.4957000000 4.1286000000 0.1722000000
-0.4957000000 3.5742000000 0.4205000000
-0.4961000000 3.4980000000 0.4461000000
-0.4964000000 1.7652000000 0.3420000000
-0.4966000000 2.4920000000 0.6606000000
-0.4967000000 3.2233000000 0.5689000000
-0.4967000000 2.0671000000 0.4741000000
-0.4969000000 1.7909000000 0.3554000000
-0.4970000000 2.1479000000 0.5117000000
-0.4974000000 2.0196000000 0.4508000000
-0.4975000000 2.2578000000 0.5551000000
-0.4977000000 2.4290000000 0.6278000000
-0.4977000000 0.6345000000 0.0045000000
-0.4979000000 1.6645000000 0.2963000000
-0.4981000000 2.5966000000 0.6942000000
-0.4983000000 0.6891000000 0.0318000000
-0.4984000000 4.4083000000 0.1318000000
-0.4990000000 2.4731000000 0.6444000000
-0.4990000000 1.1125000000 0.0603000000
-0.4991000000 2.1873000000 0.5228000000
-0.4994000000 4.8139000000 0.0293000000
-0.4996000000 3.0723000000 0.6329000000
-0.5005000000 3.4479000000 0.4668000000
-0.5005000000 1.7136000000 0.3188000000
-0.5008000000 4.7689000000 0.0492000000
-0.5010000000 2.2677000000 0.5528000000
-0.5012000000 1.5554000000 0.2410000000
-0.5018000000 3.7058000000 0.3578000000
-0.5019000000 3.2170000000 0.5635000000
-0.5024000000 3.4183000000 0.4790000000
-0.5030000000 3.0727000000 0.6226000000
-0.5031000000 1.2083000000 0.1010000000
-0.5031000000 4.3497000000 0.0740000000
-0.5036000000 2.0771000000 0.4752000000
-0.5041000000 1.2878000000 0.1338000000
-0.5058000000 1.3625000000 0.1630000000
-0.7400000000 4.1684000000 0.0568000000
-0.7406000000 2.4489000000 0.4622000000
-0.7408000000 4.1046000000 0.0802000000
-0.7417000000 2.5919000000 0.5170000000
-0.7419000000 2.5771000000 0.5093000000
-0.7419000000 3.3936000000 0.3131000000
-0.7424000000 4.0253000000 0.1150000000
-0.7429000000 3.8002000000 0.1354000000
-0.7429000000 4.1032000000 0.0781000000
-0.7432000000 2.5381000000 0.4975000000
-0.7433000000 2.0698000000 0.2924000000
-0.7434000000 1.1355000000 0.0356000000
-0.7436000000 1.4472000000 0.0978000000
-0.7439000000 2.2996000000 0.3932000000
-0.7438000000 2.4460000000 0.4507000000
-0.7445000000 3.8176000000 0.1222000000
-0.7452000000 3.2748000000 0.3615000000
-0.7454000000 4.3244000000 0.0522000000
-0.7455000000 3.5045000000 0.2519000000
-0.7460000000 3.8053000000 0.1283000000
-0.7461000000 2.0801000000 0.3002000000
-0.7461000000 3.2948000000 0.3517000000
-0.7462000000 2.1604000000 0.3322000000
-0.7463000000 1.7932000000 0.1689000000
-0.7464000000 3.5035000000 0.2615000000
-0.7465000000 2.0253000000 0.2733000000
-0.7470000000 1.6840000000 0.1204000000
-0.7470000000 2.9290000000 0.5108000000
-0.7471000000 3.4074000000 0.3037000000
-0.7472000000 2.0452000000 0.2830000000
-0.7474000000 2.6810000000 0.5535000000
-0.7482000000 1.7472000000 0.1459000000
-0.7482000000 2.7840000000 0.6287000000
-0.7485000000 3.9830000000 0.1221000000
-0.7485000000 2.5832000000 0.5098000000
-0.7488000000 1.9938000000 0.2590000000
-0.7490000000 2.7686000000 0.6347000000
-0.7491000000 1.4186000000 0.0778000000
-0.7494000000 3.6969000000 0.1771000000
-0.7497000000 2.1611000000 0.3247000000
-0.7499000000 3.6231000000 0.2044000000
-0.7501000000 3.6175000000 0.2092000000
-0.7501000000 3.2662000000 0.3606000000
-0.7502000000 2.6936000000 0.5545000000
-0.7513000000 1.8896000000 0.2050000000
-0.7517000000 2.8937000000 0.5176000000
-0.7519000000 3.6010000000 0.2136000000
-0.7523000000 1.2123000000 0.0626000000
-0.7532000000 1.8706000000 0.1863000000
-0.7533000000 3.6432000000 0.1897000000
-0.7534000000 2.0382000000 0.2657000000
-0.7550000000 1.3710000000 0.0587000000
-0.9849000000 3.4049000000 0.1240000000
-0.9907000000 3.5404000000 0.0663000000
-0.9919000000 3.6843000000 0.0724000000
-0.9920000000 1.7655000000 0.0445000000
-0.9926000000 2.3776000000 0.2425000000
-0.9942000000 3.8924000000 0.0514000000
-0.9945000000 3.1092000000 0.2410000000
-0.9947000000 3.3675000000 0.1326000000
-0.9949000000 2.2136000000 0.1634000000
-0.9950000000 2.0056000000 0.0752000000
-0.9951000000 2.8596000000 0.3510000000
-0.9952000000 1.4875000000 0.0027000000
-0.9953000000 2.7534000000 0.4566000000
-0.9955000000 2.4976000000 0.2912000000
-0.9956000000 2.9105000000 0.3256000000
-0.9959000000 3.9869000000 0.0150000000
-0.9960000000 3.1282000000 0.2365000000
-0.9967000000 3.6039000000 0.1052000000
-0.9973000000 3.3463000000 0.1404000000
-0.9977000000 2.5803000000 0.3197000000
-0.9979000000 1.7898000000 0.0524000000
-0.9983000000 3.6929000000 0.0647000000
-0.9985000000 3.3316000000 0.1456000000
-0.9987000000 2.0706000000 0.1027000000
-0.9993000000 2.2718000000 0.1894000000
-0.9995000000 3.3898000000 0.1144000000
-0.9995000000 2.9885000000 0.2891000000
-1.0003000000 2.5191000000 0.2960000000
-1.0012000000 2.1239000000 0.1213000000
-1.0015000000 1.6765000000 -0.0026000000
-1.0017000000 3.1421000000 0.2254000000
-1.0019000000 3.6182000000 0.0923000000
-1.0025000000 1.6657000000 0.0754000000
-1.0026000000 2.8651000000 0.3471000000
-1.0037000000 3.8017000000 0.0131000000
-1.0059000000 2.9000000000 0.3234000000
-1.2412000000 3.5295000000 0.0260000000
-1.2421000000 2.4767000000 0.0960000000
-1.2436000000 3.1135000000 0.1291000000
-1.2442000000 3.3260000000 0.0408000000
-1.2446000000 2.0946000000 0.0736000000
-1.2450000000 2.5630000000 0.1233000000
-1.2450000000 3.5141000000 0.0339000000
-1.2454000000 2.6159000000 0.1498000000
