6.0112000000 3.3094000000 0.0702000000
6.0067000000 3.5841000000 0.0526000000
6.0034000000 3.2722000000 0.0529000000
6.0024000000 3.3650000000 0.0357000000
6.0014000000 3.7715000000 0.0258000000
5.7610000000 3.2497000000 0.1366000000
5.7598000000 3.9650000000 0.0767000000
5.7585000000 3.9335000000 0.0982000000
5.7564000000 3.6961000000 0.1565000000
5.7561000000 4.1222000000 0.0695000000
5.7553000000 3.0925000000 0.1217000000
5.7545000000 3.0674000000 0.1012000000
5.7540000000 2.8450000000 0.0572000000
5.7530000000 3.2512000000 0.1367000000
5.7522000000 3.4737000000 0.2435000000
5.7514000000 3.6626000000 0.1894000000
5.7505000000 3.3606000000 0.1999000000
5.5140000000 2.7430000000 0.0890000000
5.5079000000 2.7349000000 0.0871000000
5.5073000000 2.6120000000 0.0978000000
5.5071000000 3.1907000000 0.3494000000
5.5070000000 4.6253000000 0.0252000000
5.5067000000 3.1686000000 0.3356000000
5.5061000000 3.1589000000 0.3317000000
5.5055000000 3.2331000000 0.3748000000
5.5050000000 3.6801000000 0.4117000000
5.5046000000 4.2977000000 0.0691000000
5.5036000000 2.6326000000 0.1115000000
5.5029000000 3.3627000000 0.4526000000
5.5028000000 2.9649000000 0.2225000000
5.5021000000 3.7062000000 0.4034000000
5.5014000000 4.2546000000 0.1008000000
5.5007000000 3.5153000000 0.4923000000
5.4981000000 4.0224000000 0.2282000000
5.2594000000 3.4994000000 0.7341000000
5.2593000000 3.6796000000 0.6494000000
5.2588000000 2.5839000000 0.2462000000
5.2585000000 2.2448000000 0.0569000000
5.2575000000 4.9466000000 0.0875000000
5.2571000000 4.4919000000 0.1970000000
5.2563000000 4.6545000000 0.1068000000
5.2561000000 4.4380000000 0.2269000000
5.2556000000 3.6991000000 0.6385000000
5.2554000000 4.7296000000 0.0606000000
5.2549000000 3.8178000000 0.5762000000
5.2547000000 4.4076000000 0.2519000000
5.2544000000 3.7147000000 0.6367000000
5.2540000000 2.2542000000 0.0676000000
5.2532000000 3.5772000000 0.7184000000
5.2519000000 2.9712000000 0.4724000000
5.2513000000 3.8529000000 0.5596000000
5.2510000000 1.9605000000 0.0470000000
5.2506000000 2.8060000000 0.3735000000
5.2502000000 4.7398000000 0.0672000000
5.2498000000 4.5464000000 0.1746000000
5.2492000000 4.2495000000 0.3432000000
5.2486000000 2.6642000000 0.3031000000
5.0124000000 3.9680000000 0.7312000000
5.0113000000 5.3254000000 0.0383000000
5.0100000000 4.9269000000 0.1948000000
5.0099000000 3.9055000000 0.7716000000
5.0097000000 5.3844000000 0.0847000000
5.0095000000 4.0814000000 0.6715000000
5.0089000000 3.4199000000 0.9597000000
5.0082000000 4.9616000000 0.1772000000
5.0075000000 1.4484000000 0.0073000000
5.0071000000 1.4973000000 0.0234000000
5.0068000000 2.4372000000 0.4059000000
5.0065000000 4.0507000000 0.6904000000
5.0065000000 3.1183000000 0.7954000000
5.0059000000 3.6997000000 0.8925000000
5.0054000000 3.8399000000 0.8157000000
5.0053000000 4.3878000000 0.5013000000
5.0050000000 2.2914000000 0.3289000000
5.0048000000 1.9927000000 0.1600000000
5.0047000000 1.7692000000 0.1082000000
5.0045000000 1.6603000000 0.0542000000
5.0040000000 3.8827000000 0.7857000000
5.0028000000 1.8665000000 0.0917000000
5.0025000000 2.0830000000 0.2128000000
5.0022000000 2.7162000000 0.5718000000
5.0008000000 4.3654000000 0.5214000000
5.0007000000 4.4880000000 0.4492000000
4.9998000000 3.0581000000 0.7659000000
4.9995000000 5.4224000000 0.0781000000
4.9990000000 3.6814000000 0.9083000000
4.9976000000 2.7822000000 0.6170000000
4.9970000000 4.0920000000 0.6818000000
4.7617000000 4.1454000000 0.8771000000
4.7601000000 2.1103000000 0.4660000000
4.7596000000 5.3608000000 0.1976000000
4.7593000000 3.8359000000 1.0570000000
4.7583000000 3.9224000000 1.0061000000
4.7583000000 3.0755000000 1.0123000000
4.7577000000 1.6347000000 0.2003000000
4.7575000000 3.9749000000 0.9715000000
4.7574000000 1.3423000000 0.1086000000
4.7572000000 2.2897000000 0.5715000000
4.7571000000 3.9295000000 1.0042000000
4.7565000000 1.4453000000 0.0965000000
4.7560000000 4.4287000000 0.7226000000
4.7559000000 1.4539000000 0.0964000000
4.7557000000 5.9440000000 0.0148000000
4.7555000000 2.0347000000 0.4260000000
4.7554000000 2.1961000000 0.5144000000
4.7552000000 4.8410000000 0.4894000000
4.7551000000 5.8185000000 0.0866000000
4.7550000000 5.2220000000 0.2747000000
4.7549000000 5.5059000000 0.1109000000
4.7548000000 1.0691000000 0.0371000000
4.7546000000 2.2466000000 0.5487000000
4.7545000000 1.3115000000 0.0964000000
4.7543000000 5.3721000000 0.1966000000
4.7541000000 3.6395000000 1.1713000000
4.7539000000 3.0310000000 0.9950000000
4.7533000000 3.5416000000 1.2106000000
4.7532000000 2.1084000000 0.4717000000
4.7530000000 1.3462000000 0.1145000000
4.7520000000 3.5521000000 1.2246000000
4.7519000000 2.9519000000 0.9490000000
4.7515000000 3.6660000000 1.1580000000
4.7514000000 3.2475000000 1.1169000000
4.7507000000 5.6185000000 0.0585000000
4.7500000000 1.9560000000 0.3861000000
4.7490000000 1.8744000000 0.3448000000
4.7488000000 2.4636000000 0.6753000000
4.7453000000 1.0215000000 0.0231000000
4.5165000000 6.0527000000 0.1178000000
4.5120000000 4.0891000000 1.1542000000
4.5112000000 4.1453000000 1.1227000000
4.5105000000 5.3686000000 0.4340000000
4.5100000000 3.3684000000 1.4188000000
4.5093000000 5.6419000000 0.2784000000
4.5090000000 4.4603000000 0.9429000000
4.5082000000 4.2533000000 1.0658000000
4.5078000000 1.3152000000 0.2625000000
4.5073000000 4.9029000000 0.6983000000
4.5069000000 5.0141000000 0.6360000000
4.5065000000 2.0617000000 0.6846000000
4.5063000000 5.0742000000 0.5980000000
4.5060000000 1.8289000000 0.5589000000
4.5056000000 1.6690000000 0.4643000000
4.5053000000 4.4389000000 0.9641000000
4.5050000000 5.1427000000 0.5627000000
4.5048000000 5.5124000000 0.3557000000
4.5045000000 6.1475000000 0.0803000000
4.5043000000 1.8853000000 0.5900000000
4.5042000000 2.3997000000 0.8788000000
4.5036000000 1.6369000000 0.4526000000
4.5032000000 1.7372000000 0.5047000000
4.5029000000 0.5918000000 0.0163000000
4.5022000000 2.8012000000 1.1079000000
4.5021000000 1.4312000000 0.3344000000
4.5019000000 6.3002000000 0.0682000000
4.5012000000 6.0264000000 0.0675000000
4.5008000000 2.1322000000 0.7274000000
4.5003000000 5.7213000000 0.2472000000
4.4998000000 0.8023000000 0.0634000000
4.4994000000 4.3803000000 0.9977000000
4.4989000000 1.2792000000 0.2535000000
4.4978000000 1.2980000000 0.2619000000
4.4974000000 2.4016000000 0.8883000000
4.4968000000 1.6635000000 0.4760000000
4.4960000000 4.1976000000 1.1044000000
4.2638000000 5.0794000000 0.8372000000
4.2622000000 5.9192000000 0.3653000000
4.2613000000 4.6421000000 1.0830000000
4.2597000000 5.9682000000 0.3399000000
4.2591000000 5.7048000000 0.4848000000
4.2588000000 4.9113000000 0.9421000000
4.2585000000 4.6461000000 1.0903000000
4.2583000000 5.1105000000 0.8221000000
4.2578000000 4.7809000000 1.0131000000
4.2575000000 3.3579000000 1.6571000000
4.2571000000 2.5894000000 1.2253000000
4.2568000000 5.3644000000 0.6801000000
4.2564000000 3.2870000000 1.6236000000
4.2563000000 4.3400000000 1.2612000000
4.2561000000 4.0138000000 1.4487000000
4.2559000000 1.5694000000 0.6512000000
4.2557000000 0.7588000000 0.1987000000
4.2555000000 4.4853000000 1.1762000000
4.2553000000 4.8650000000 0.9665000000
4.2553000000 3.7169000000 1.6155000000
4.2551000000 3.5963000000 1.6846000000
4.2550000000 3.7357000000 1.6085000000
4.2547000000 4.3739000000 1.2380000000
4.2544000000 5.5681000000 0.5671000000
4.2541000000 6.5957000000 0.0648000000
4.2539000000 4.6213000000 1.1051000000
4.2537000000 4.6193000000 1.1036000000
4.2536000000 0.9544000000 0.3099000000
4.2535000000 5.8690000000 0.4001000000
4.2531000000 2.6379000000 1.2615000000
4.2530000000 0.7308000000 0.1867000000
4.2529000000 0.9125000000 0.2842000000
4.2527000000 5.6774000000 0.5173000000
4.2525000000 0.9637000000 0.3168000000
4.2524000000 0.6413000000 0.1308000000
4.2523000000 0.9000000000 0.2870000000
4.2522000000 1.4013000000 0.5626000000
4.2521000000 0.5839000000 0.1012000000
4.2520000000 3.9148000000 1.5058000000
4.2519000000 0.1482000000 0.0064000000
4.2517000000 2.0899000000 0.9543000000
4.2514000000 4.3801000000 1.2445000000
4.2513000000 0.8461000000 0.2510000000
4.2508000000 5.4608000000 0.6344000000
4.2506000000 2.7091000000 1.3036000000
4.2502000000 4.3097000000 1.2832000000
4.2498000000 1.4832000000 0.6108000000
4.2495000000 6.2445000000 0.1947000000
4.2490000000 5.4246000000 0.6562000000
4.2488000000 3.9835000000 1.4680000000
4.2469000000 3.0959000000 1.5290000000
4.0143000000 5.7171000000 0.7178000000
4.0108000000 6.5463000000 0.2499000000
4.0104000000 4.0462000000 1.6637000000
4.0098000000 1.3328000000 0.7644000000
4.0098000000 4.4035000000 1.4666000000
4.0094000000 4.2736000000 1.5443000000
4.0088000000 5.4755000000 0.8671000000
4.0081000000 6.1838000000 0.4630000000
4.0080000000 2.9263000000 1.6604000000
4.0078000000 5.4639000000 0.8691000000
4.0076000000 5.1564000000 1.0441000000
4.0073000000 6.3907000000 0.3493000000
4.0072000000 1.6613000000 0.9472000000
4.0069000000 5.7969000000 0.6819000000
4.0066000000 5.4358000000 0.8867000000
4.0064000000 3.0976000000 1.7552000000
4.0062000000 6.0680000000 0.5358000000
4.0060000000 6.1915000000 0.4629000000
4.0058000000 5.0779000000 1.0867000000
4.0056000000 0.2932000000 0.1760000000
4.0051000000 0.7560000000 0.4453000000
4.0049000000 2.4236000000 1.3791000000
4.0045000000 1.7301000000 0.9906000000
4.0045000000 6.5830000000 0.2406000000
4.0040000000 4.4974000000 1.4219000000
4.0037000000 2.4710000000 1.4078000000
4.0035000000 3.4910000000 1.9694000000
4.0034000000 1.0279000000 0.5939000000
4.0033000000 6.7239000000 0.1656000000
4.0028000000 3.7336000000 1.8527000000
4.0028000000 0.4406000000 0.2607000000
4.0026000000 0.5444000000 0.3239000000
4.0022000000 0.2540000000 0.1580000000
4.0020000000 4.0584000000 1.6677000000
4.0018000000 5.4696000000 0.8786000000
4.0015000000 2.3294000000 1.3299000000
4.0014000000 1.9889000000 1.1430000000
4.0010000000 2.7671000000 1.5786000000
4.0009000000 2.3989000000 1.3661000000
4.0007000000 4.0157000000 1.6931000000
4.0004000000 0.3748000000 0.2292000000
4.0002000000 0.8330000000 0.4865000000
3.9997000000 1.2394000000 0.7194000000
3.9986000000 2.3779000000 1.3652000000
3.9979000000 6.3063000000 0.4059000000
3.9971000000 3.2699000000 1.8647000000
3.9962000000 1.4774000000 0.8558000000
3.7618000000 5.8352000000 0.9017000000
3.7607000000 5.4740000000 1.1039000000
3.7601000000 5.2752000000 1.2173000000
3.7595000000 4.5711000000 1.6184000000
3.7592000000 0.8077000000 0.7066000000
3.7591000000 2.9102000000 1.8973000000
3.7587000000 4.5227000000 1.6460000000
3.7583000000 0.9763000000 0.8052000000
3.7581000000 4.2722000000 1.7912000000
3.7576000000 5.1530000000 1.2881000000
3.7571000000 6.2027000000 0.6961000000
3.7570000000 5.5288000000 1.0828000000
3.7569000000 1.9144000000 1.3346000000
3.7567000000 0.8968000000 0.7634000000
3.7565000000 1.6105000000 1.1646000000
3.7564000000 0.5749000000 0.5742000000
3.7563000000 2.1640000000 1.4744000000
3.7561000000 0.0841000000 0.0783000000
3.7559000000 1.0059000000 0.8215000000
3.7557000000 0.3065000000 0.3357000000
3.7552000000 2.9824000000 1.9435000000
3.7550000000 2.7927000000 1.8327000000
3.7549000000 4.1598000000 1.8501000000
3.7546000000 5.6978000000 0.9861000000
3.7544000000 1.1219000000 0.8957000000
3.7543000000 2.9726000000 1.9344000000
3.7540000000 3.5094000000 2.1991000000
3.7539000000 0.2572000000 0.2798000000
3.7538000000 6.7536000000 0.2499000000
3.7535000000 2.3750000000 1.6011000000
3.7533000000 1.8210000000 1.2840000000
3.7532000000 2.4127000000 1.6196000000
3.7531000000 1.2860000000 0.9863000000
3.7528000000 6.4558000000 0.5405000000
3.7524000000 5.0842000000 1.3375000000
3.7521000000 3.3364000000 2.1405000000
3.7518000000 2.1268000000 1.4580000000
3.7515000000 0.1798000000 0.1874000000
3.7512000000 0.5817000000 0.5732000000
3.7510000000 4.5593000000 1.6272000000
3.7509000000 5.5761000000 1.0638000000
3.7507000000 2.4154000000 1.6238000000
3.7503000000 5.1297000000 1.3066000000
3.7501000000 0.9483000000 0.7968000000
3.7497000000 2.8498000000 1.8670000000
3.7491000000 1.6947000000 1.2178000000
3.7481000000 2.8941000000 1.8995000000
3.7473000000 1.9583000000 1.3710000000
3.5117000000 1.8182000000 1.5219000000
3.5108000000 1.5205000000 1.3565000000
3.5095000000 5.3088000000 1.4486000000
3.5088000000 4.2017000000 2.0682000000
3.5085000000 6.6115000000 0.4150000000
3.5084000000 2.6070000000 1.9721000000
3.5079000000 4.0001000000 2.1843000000
3.5077000000 2.0920000000 1.6801000000
3.5074000000 1.6951000000 1.4557000000
3.5073000000 3.8761000000 2.2604000000
3.5068000000 5.7023000000 1.2265000000
3.5064000000 5.4048000000 1.3949000000
3.5062000000 6.9753000000 0.0755000000
3.5060000000 4.9565000000 1.6504000000
3.5059000000 5.5036000000 1.3352000000
3.5055000000 2.1670000000 1.7278000000
3.5054000000 6.0592000000 1.0129000000
3.5053000000 5.4150000000 1.3869000000
3.5051000000 1.4458000000 1.3181000000
3.5050000000 2.7314000000 2.0461000000
3.5047000000 6.1668000000 0.9005000000
3.5045000000 3.6493000000 2.3904000000
3.5044000000 0.3099000000 0.3334000000
3.5043000000 0.9540000000 1.0251000000
3.5042000000 6.4912000000 0.5495000000
3.5038000000 4.0473000000 2.1660000000
3.5036000000 0.5081000000 0.5568000000
3.5035000000 2.2152000000 1.7579000000
3.5033000000 4.6096000000 1.8412000000
3.5031000000 3.3881000000 2.4189000000
3.5030000000 0.7913000000 0.8799000000
3.5028000000 1.0466000000 1.0943000000
3.5025000000 0.7015000000 0.7745000000
3.5025000000 5.0201000000 1.6180000000
3.5023000000 1.7742000000 1.5073000000
3.5022000000 6.3544000000 0.6996000000
3.5020000000 2.3138000000 1.8083000000
3.5015000000 0.6502000000 0.7198000000
3.5013000000 2.4058000000 1.8634000000
3.5005000000 1.8655000000 1.5630000000
3.5003000000 3.1543000000 2.2902000000
3.4999000000 1.9974000000 1.6323000000
3.4993000000 0.8662000000 0.9480000000
3.4981000000 1.1905000000 1.1765000000
3.4978000000 0.8609000000 0.9351000000
3.4954000000 2.3032000000 1.8134000000
3.2607000000 0.9811000000 1.0879000000
3.2601000000 0.8327000000 0.9237000000
3.2588000000 3.6407000000 2.6323000000
3.2583000000 5.7263000000 1.3858000000
3.2580000000 2.0399000000 1.8977000000
3.2578000000 4.6414000000 2.0693000000
3.2573000000 1.1095000000 1.2385000000
3.2571000000 6.8143000000 0.1824000000
3.2568000000 3.0776000000 2.4841000000
3.2565000000 0.4896000000 0.5375000000
3.2563000000 1.5832000000 1.6400000000
3.2560000000 2.9609000000 2.4179000000
3.2559000000 2.7852000000 2.3173000000
3.2558000000 6.6330000000 0.3860000000
3.2557000000 1.2461000000 1.3823000000
3.2555000000 3.7439000000 2.5714000000
3.2553000000 4.8433000000 1.9584000000
3.2550000000 2.8676000000 2.3648000000
3.2550000000 5.5852000000 1.5207000000
3.2547000000 1.0964000000 1.2204000000
3.2545000000 1.7319000000 1.7222000000
3.2542000000 3.5164000000 2.6913000000
3.2540000000 4.0221000000 2.4245000000
3.2539000000 1.6799000000 1.6951000000
3.2538000000 4.9050000000 1.9196000000
3.2534000000 1.0106000000 1.1215000000
3.2531000000 4.3789000000 2.2183000000
3.2530000000 5.1605000000 1.7826000000
3.2527000000 1.8047000000 1.7666000000
3.2525000000 2.1244000000 1.9501000000
3.2523000000 0.6635000000 0.7285000000
3.2521000000 5.4765000000 1.6024000000
3.2520000000 0.2831000000 0.3008000000
3.2519000000 2.1326000000 1.9499000000
3.2518000000 6.8327000000 0.1601000000
3.2516000000 6.5099000000 0.5232000000
3.2512000000 0.0389000000 0.1025000000
3.2510000000 2.8859000000 2.3799000000
3.2503000000 1.0678000000 1.1910000000
3.2500000000 5.3471000000 1.6753000000
3.2503000000 0.5377000000 0.5926000000
3.2495000000 1.3984000000 1.5183000000
3.2493000000 0.5905000000 0.6547000000
3.2491000000 0.3750000000 0.4060000000
3.2490000000 1.2648000000 1.3986000000
3.2482000000 1.8588000000 1.7982000000
3.2473000000 5.5492000000 1.5546000000
3.2468000000 3.8892000000 2.5018000000
3.2433000000 4.1679000000 2.3474000000
3.0118000000 5.3945000000 1.7889000000
3.0107000000 4.1017000000 2.6141000000
3.0092000000 2.8183000000 2.5794000000
3.0089000000 5.4973000000 1.6678000000
3.0086000000 5.1289000000 2.0189000000
3.0082000000 6.0818000000 1.0120000000
3.0081000000 5.0882000000 2.0588000000
3.0079000000 3.8129000000 2.7823000000
3.0076000000 6.5195000000 0.5149000000
3.0073000000 4.0760000000 2.6329000000
3.0070000000 0.8530000000 0.9466000000
3.0068000000 0.7667000000 0.8514000000
3.0065000000 4.3427000000 2.4833000000
3.0064000000 1.0534000000 1.1745000000
3.0063000000 1.1017000000 1.2300000000
3.0062000000 6.0461000000 1.0502000000
3.0061000000 5.0062000000 2.1075000000
3.0060000000 0.2491000000 0.2667000000
3.0056000000 6.0604000000 1.0370000000
3.0055000000 3.0232000000 2.7022000000
3.0053000000 2.3455000000 2.3155000000
3.0051000000 4.7813000000 2.2329000000
3.0049000000 2.0374000000 2.1379000000
3.0048000000 6.7449000000 0.2582000000
3.0045000000 0.2229000000 0.2356000000
3.0040000000 5.4892000000 1.6755000000
3.0035000000 6.4967000000 0.5445000000
3.0034000000 6.8209000000 0.1723000000
3.0033000000 2.7925000000 2.5707000000
3.0031000000 5.3668000000 1.8150000000
3.0028000000 1.9889000000 2.1171000000
3.0027000000 1.5446000000 1.7293000000
3.0025000000 0.6694000000 0.7442000000
3.0023000000 5.0273000000 2.1011000000
3.0021000000 0.6252000000 0.6937000000
3.0019000000 5.7483000000 1.3879000000
3.0016000000 1.6834000000 1.8781000000
3.0012000000 2.8087000000 2.5782000000
3.0014000000 5.8417000000 1.2809000000
3.0008000000 1.5803000000 1.7614000000
3.0003000000 4.1349000000 2.6058000000
3.0002000000 2.3889000000 2.3428000000
2.9997000000 4.7131000000 2.2813000000
2.9993000000 5.5649000000 1.5942000000
2.9990000000 2.1339000000 2.2015000000
2.9984000000 3.0381000000 2.7169000000
2.9980000000 2.0329000000 2.1474000000
2.9969000000 2.8337000000 2.5961000000
2.7634000000 6.4895000000 0.5494000000
2.7612000000 6.9482000000 0.1022000000
2.7605000000 6.1559000000 0.9209000000
2.7603000000 6.8199000000 0.1745000000
2.7599000000 6.2047000000 0.8718000000
2.7594000000 3.7618000000 3.0525000000
2.7592000000 5.1594000000 2.0543000000
2.7584000000 6.9243000000 0.1371000000
2.7578000000 5.3570000000 1.8282000000
2.7572000000 0.8943000000 0.9916000000
2.7570000000 4.4640000000 2.6621000000
2.7569000000 0.4343000000 0.4787000000
2.7567000000 1.7265000000 1.9354000000
2.7567000000 4.9898000000 2.2392000000
2.7564000000 2.6882000000 2.7524000000
2.7562000000 4.0711000000 2.8823000000
2.7561000000 1.3537000000 1.5180000000
2.7559000000 4.2706000000 2.7677000000
2.7556000000 6.8843000000 0.1036000000
2.7553000000 0.5365000000 0.5897000000
2.7551000000 2.0183000000 2.2610000000
2.7550000000 2.5973000000 2.7005000000
2.7545000000 0.1736000000 0.1758000000
2.7545000000 1.3342000000 1.4912000000
2.7543000000 0.6940000000 0.7738000000
2.7541000000 6.3620000000 0.6944000000
2.7540000000 5.8525000000 1.2713000000
2.7536000000 1.5602000000 1.7408000000
2.7534000000 3.0419000000 2.9550000000
2.7533000000 4.8629000000 2.3743000000
2.7530000000 4.8860000000 2.3526000000
2.7528000000 6.9091000000 0.0704000000
2.7526000000 6.5941000000 0.4302000000
2.7525000000 3.9971000000 2.9257000000
2.7519000000 2.4035000000 2.5963000000
2.7517000000 4.6665000000 2.5370000000
2.7513000000 0.3634000000 0.3960000000
2.7512000000 0.3432000000 0.3741000000
2.7511000000 0.7930000000 0.8766000000
2.7510000000 0.2932000000 0.3114000000
2.7509000000 3.4001000000 3.1625000000
2.7507000000 2.7508000000 2.7893000000
2.7504000000 3.5244000000 3.1734000000
2.7500000000 1.9024000000 2.1342000000
2.7491000000 1.2546000000 1.4001000000
2.7490000000 2.5979000000 2.7123000000
2.7488000000 0.2880000000 0.3129000000
2.7484000000 1.9517000000 2.1897000000
2.7478000000 3.6129000000 3.1407000000
2.7467000000 2.1110000000 2.3688000000
2.7460000000 1.3598000000 1.5132000000
2.7444000000 0.3371000000 0.3655000000
2.5150000000 6.1292000000 0.9492000000
2.5125000000 6.9539000000 0.0970000000
2.5120000000 2.3336000000 2.6194000000
2.5114000000 6.9308000000 0.1252000000
2.5103000000 2.8900000000 3.1032000000
2.5092000000 3.1547000000 3.2527000000
2.5086000000 6.6764000000 0.3388000000
2.5082000000 4.5656000000 2.7137000000
2.5080000000 5.6715000000 1.4739000000
2.5079000000 2.8465000000 3.0820000000
2.5077000000 5.1743000000 2.0375000000
2.5075000000 4.2664000000 2.9976000000
2.5071000000 3.5235000000 3.4142000000
2.5070000000 3.4928000000 3.4361000000
2.5064000000 2.1720000000 2.4409000000
2.5061000000 5.2670000000 1.9269000000
2.5059000000 3.3167000000 3.3515000000
2.5057000000 3.6151000000 3.3886000000
2.5055000000 5.2405000000 1.9597000000
2.5053000000 6.4650000000 0.5761000000
2.5050000000 6.7948000000 0.2036000000
2.5049000000 6.3536000000 0.6963000000
2.5048000000 5.6036000000 1.5502000000
2.5046000000 3.7085000000 3.3282000000
2.5045000000 3.6819000000 3.3494000000
2.5044000000 4.4898000000 2.8066000000
2.5043000000 0.8355000000 0.9296000000
2.5042000000 3.9918000000 3.1716000000
2.5041000000 5.9074000000 1.1986000000
2.5038000000 1.0678000000 1.1899000000
2.5038000000 5.1317000000 2.0782000000
2.5036000000 2.6602000000 2.9651000000
2.5035000000 0.4665000000 0.5094000000
2.5031000000 6.9794000000 0.0696000000
2.5029000000 4.7107000000 2.5551000000
2.5027000000 5.8286000000 1.2904000000
2.5024000000 6.7534000000 0.2518000000
2.5022000000 2.8965000000 3.1172000000
2.5021000000 0.8940000000 0.9989000000
2.5014000000 3.6325000000 3.3714000000
2.5013000000 3.7234000000 3.3266000000
2.5010000000 1.8371000000 2.0659000000
2.5006000000 0.7085000000 0.7836000000
2.5003000000 2.1683000000 2.4323000000
2.4990000000 1.5715000000 1.7584000000
2.4986000000 1.2766000000 1.4225000000
2.4977000000 1.4253000000 1.6011000000
2.4956000000 2.8459000000 3.0947000000
2.4915000000 1.0958000000 1.2224000000
2.2628000000 6.7464000000 0.2637000000
2.2608000000 1.2667000000 1.4189000000
2.2599000000 5.6393000000 1.5071000000
2.2592000000 3.9888000000 3.3546000000
2.2588000000 6.9398000000 0.1166000000
2.2586000000 6.2749000000 0.7866000000
2.2579000000 3.4753000000 3.6638000000
2.2575000000 5.3085000000 1.8766000000
2.2573000000 6.8451000000 0.1462000000
2.2572000000 4.7155000000 2.5503000000
2.2566000000 6.3921000000 0.6522000000
2.2563000000 6.2652000000 0.8020000000
2.2561000000 6.5167000000 0.5203000000
2.2558000000 5.2734000000 1.9215000000
2.2557000000 4.5107000000 2.7782000000
2.2555000000 0.5389000000 0.5922000000
2.2553000000 5.1547000000 2.0568000000
2.2552000000 5.5618000000 1.5961000000
2.2550000000 3.4707000000 3.6647000000
2.2548000000 6.4549000000 0.5879000000
2.2545000000 0.4378000000 0.4816000000
2.2544000000 3.0469000000 3.4123000000
2.2542000000 1.6333000000 1.8330000000
2.2540000000 0.6503000000 0.7166000000
2.2538000000 2.4034000000 2.7038000000
2.2536000000 6.1431000000 0.9448000000
2.2535000000 2.7099000000 3.0469000000
2.2534000000 3.1191000000 3.4646000000
2.2533000000 5.2534000000 1.9436000000
2.2532000000 2.3752000000 2.6666000000
2.2529000000 1.0214000000 1.1386000000
2.2528000000 1.3325000000 1.4953000000
2.2526000000 5.5224000000 1.6385000000
2.2524000000 2.5317000000 2.8451000000
2.2521000000 2.0103000000 2.2523000000
2.2518000000 2.3633000000 2.6545000000
2.2518000000 3.3599000000 3.6245000000
2.2514000000 6.4659000000 0.5806000000
2.2513000000 0.9317000000 1.0426000000
2.2511000000 0.3825000000 0.4147000000
2.2510000000 2.5091000000 2.8136000000
2.2509000000 0.7081000000 0.7829000000
2.2505000000 0.0842000000 0.0855000000
2.2501000000 3.2826000000 3.5775000000
2.2497000000 0.3699000000 0.4032000000
2.2494000000 6.5890000000 0.4389000000
2.2486000000 0.1715000000 0.1789000000
2.2482000000 3.0049000000 3.3607000000
2.2480000000 2.3760000000 2.6672000000
2.2475000000 4.7472000000 2.5135000000
2.2461000000 2.7089000000 3.0407000000
2.2457000000 4.2255000000 3.1030000000
2.0129000000 4.6938000000 2.5733000000
2.0118000000 5.8263000000 1.2950000000
2.0105000000 5.8807000000 1.2385000000
2.0100000000 4.8570000000 2.3916000000
2.0098000000 2.0920000000 2.3485000000
2.0092000000 3.8257000000 3.5554000000
2.0083000000 4.2404000000 3.0872000000
2.0078000000 2.7131000000 3.0440000000
2.0073000000 5.7504000000 1.3899000000
2.0065000000 2.9807000000 3.3545000000
2.0062000000 4.6258000000 2.6559000000
2.0059000000 3.4591000000 3.8450000000
2.0058000000 5.5370000000 1.6204000000
2.0056000000 0.7952000000 0.8843000000
2.0056000000 0.3832000000 0.4229000000
2.0051000000 6.9213000000 0.0576000000
2.0050000000 4.3448000000 2.9658000000
2.0049000000 6.8673000000 0.1223000000
2.0048000000 4.1010000000 3.2438000000
2.0045000000 0.6034000000 0.6687000000
2.0044000000 4.8438000000 2.4062000000
2.0043000000 0.2878000000 0.3077000000
2.0041000000 3.5369000000 3.8538000000
2.0039000000 2.5243000000 2.8454000000
2.0038000000 5.9855000000 1.1204000000
2.0038000000 5.9284000000 1.1814000000
2.0037000000 1.3817000000 1.5460000000
2.0036000000 6.2566000000 0.8109000000
2.0034000000 2.2632000000 2.5393000000
2.0033000000 4.3820000000 2.9226000000
2.0032000000 0.9161000000 1.0210000000
2.0031000000 3.8453000000 3.5363000000
2.0028000000 2.4321000000 2.7296000000
2.0026000000 2.2368000000 2.5045000000
2.0021000000 5.1768000000 2.0278000000
2.0021000000 3.5069000000 3.8483000000
2.0018000000 0.8708000000 0.9710000000
2.0017000000 4.7371000000 2.5297000000
2.0010000000 2.3952000000 2.6942000000
2.0010000000 4.2979000000 3.0227000000
2.0008000000 1.8679000000 2.0995000000
2.0005000000 5.5610000000 1.6007000000
2.0003000000 0.3291000000 0.3595000000
2.0002000000 4.0598000000 3.2918000000
2.0000000000 4.6888000000 2.5776000000
1.9997000000 2.7183000000 3.0520000000
1.9993000000 2.1380000000 2.4045000000
1.9990000000 2.3082000000 2.5865000000
1.9983000000 1.6989000000 1.9004000000
1.9978000000 1.2237000000 1.3723000000
1.9966000000 1.0302000000 1.1484000000
1.9960000000 1.4297000000 1.6029000000
1.9937000000 1.0999000000 1.2244000000
1.7632000000 6.8902000000 0.0972000000
1.7599000000 6.3980000000 0.6534000000
1.7588000000 6.9782000000 0.0719000000
1.7585000000 3.9303000000 3.4142000000
1.7576000000 1.1947000000 1.3346000000
1.7575000000 3.2731000000 3.5518000000
1.7572000000 2.3933000000 2.6892000000
1.7570000000 2.2230000000 2.4980000000
1.7565000000 5.4190000000 1.7541000000
1.7564000000 6.5300000000 0.5050000000
1.7559000000 6.3275000000 0.7313000000
1.7558000000 4.0690000000 3.2815000000
1.7556000000 2.2547000000 2.5307000000
1.7555000000 2.4403000000 2.7409000000
1.7553000000 1.1391000000 1.2692000000
1.7549000000 2.0237000000 2.2707000000
1.7548000000 4.0102000000 3.3306000000
1.7547000000 1.7777000000 1.9953000000
1.7545000000 3.6777000000 3.5691000000
1.7543000000 0.1634000000 0.1671000000
1.7542000000 0.6296000000 0.6997000000
1.7541000000 5.5455000000 1.6127000000
1.7539000000 3.7580000000 3.5253000000
1.7537000000 6.3311000000 0.7312000000
1.7535000000 6.1099000000 0.9780000000
1.7534000000 3.8989000000 3.4251000000
1.7532000000 6.1589000000 0.9214000000
1.7531000000 5.2287000000 1.9723000000
1.7528000000 6.5827000000 0.4436000000
1.7525000000 1.2280000000 1.3753000000
1.7523000000 6.8941000000 0.0941000000
1.7520000000 1.1314000000 1.2636000000
1.7516000000 5.6159000000 1.5369000000
1.7513000000 4.8456000000 2.4088000000
1.7511000000 1.0311000000 1.1480000000
1.7510000000 3.3386000000 3.5832000000
1.7509000000 2.0640000000 2.3142000000
1.7504000000 4.5907000000 2.6909000000
1.7501000000 1.7956000000 2.0120000000
1.7500000000 1.2980000000 1.4518000000
1.7499000000 0.9003000000 1.0021000000
1.7492000000 4.9712000000 2.2668000000
1.7490000000 4.6156000000 2.6684000000
1.7489000000 3.8616000000 3.4505000000
1.7476000000 4.3144000000 3.0072000000
1.7465000000 1.7826000000 1.9994000000
1.7424000000 0.3806000000 0.4194000000
1.5110000000 2.3253000000 2.6077000000
1.5106000000 4.0670000000 3.1088000000
1.5104000000 6.4028000000 0.6456000000
1.5099000000 6.2402000000 0.8261000000
1.5095000000 4.9632000000 2.2704000000
1.5088000000 4.4976000000 2.7931000000
1.5085000000 1.1074000000 1.2353000000
1.5083000000 1.5938000000 1.7861000000
1.5074000000 3.9595000000 3.1756000000
1.5072000000 6.6478000000 0.3721000000
1.5064000000 0.8556000000 0.9454000000
1.5055000000 5.2587000000 1.9413000000
1.5050000000 1.5879000000 1.7825000000
1.5048000000 2.5153000000 2.8118000000
1.5046000000 1.0133000000 1.1312000000
1.5044000000 4.0779000000 3.0993000000
1.5043000000 3.3154000000 3.3287000000
1.5041000000 4.6921000000 2.5846000000
1.5040000000 1.9471000000 2.1793000000
1.5038000000 4.8126000000 2.4449000000
1.5036000000 3.2736000000 3.3081000000
1.5034000000 2.8231000000 3.0485000000
1.5031000000 5.6668000000 1.4767000000
1.5030000000 6.7518000000 0.2558000000
1.5029000000 2.4367000000 2.7336000000
1.5028000000 4.6529000000 2.6205000000
1.5025000000 5.4527000000 1.7189000000
1.5023000000 2.0620000000 2.3149000000
1.5020000000 0.6649000000 0.7330000000
1.5017000000 0.4287000000 0.4676000000
1.5015000000 4.0568000000 3.1015000000
1.5011000000 6.7601000000 0.2380000000
1.5009000000 4.6721000000 2.6018000000
1.5007000000 1.2882000000 1.4379000000
1.5005000000 1.5313000000 1.7114000000
1.5004000000 4.4814000000 2.7955000000
1.5000000000 4.7402000000 2.5235000000
1.4997000000 0.7005000000 0.7782000000
1.4988000000 1.3244000000 1.4826000000
1.4980000000 2.4211000000 2.7247000000
1.2682000000 6.6939000000 0.3107000000
1.2606000000 3.2157000000 3.0358000000
1.2602000000 1.0602000000 1.1877000000
1.2599000000 4.5069000000 2.6176000000
1.2593000000 4.8071000000 2.4266000000
1.2587000000 3.5680000000 3.1509000000
1.2586000000 3.8288000000 2.9956000000
1.2584000000 2.2930000000 2.5044000000
1.2582000000 2.7127000000 2.7484000000
1.2579000000 0.0278000000 0.0948000000
1.2576000000 1.4578000000 1.6350000000
1.2573000000 3.2181000000 3.0352000000
1.2563000000 4.4662000000 2.6426000000
1.2562000000 2.1346000000 2.3752000000
1.2560000000 0.0324000000 0.0953000000
1.2558000000 1.7613000000 1.9722000000
1.2556000000 5.2720000000 1.9250000000
1.2554000000 4.2796000000 2.7408000000
1.2550000000 6.8912000000 0.0936000000
1.2548000000 1.7664000000 1.9796000000
1.2546000000 3.9305000000 2.9448000000
1.2545000000 4.0031000000 2.8953000000
1.2544000000 2.2903000000 2.4980000000
1.2543000000 6.3505000000 0.7031000000
1.2542000000 2.4012000000 2.5699000000
1.2540000000 5.6177000000 1.5321000000
1.2539000000 5.8858000000 1.2314000000
1.2536000000 0.5391000000 0.5966000000
1.2532000000 5.4787000000 1.6886000000
1.2530000000 6.7473000000 0.2612000000
1.2529000000 0.3518000000 0.3806000000
1.2526000000 4.1964000000 2.7868000000
1.2522000000 1.1026000000 1.2291000000
1.2520000000 4.0628000000 2.8623000000
1.2518000000 4.5106000000 2.6094000000
1.2510000000 1.5542000000 1.7439000000
1.2508000000 2.3007000000 2.5062000000
1.2506000000 2.1744000000 2.4188000000
1.2504000000 1.9060000000 2.1372000000
1.2503000000 5.6386000000 1.5100000000
1.2502000000 5.7909000000 1.3342000000
1.2500000000 1.5484000000 1.7322000000
1.2498000000 4.7261000000 2.4703000000
1.2493000000 6.0524000000 1.0417000000
1.2490000000 4.1915000000 2.7883000000
1.2482000000 0.7969000000 0.8840000000
1.2479000000 1.3695000000 1.5348000000
1.2477000000 2.2525000000 2.4633000000
1.2475000000 1.9899000000 2.2294000000
1.2449000000 1.1324000000 1.2691000000
1.0160000000 5.5824000000 1.5739000000
1.0128000000 6.3983000000 0.6484000000
1.0110000000 3.7011000000 2.8335000000
1.0095000000 3.6688000000 2.8482000000
1.0085000000 4.1971000000 2.5446000000
1.0083000000 5.9854000000 1.1162000000
1.0080000000 5.3771000000 1.8005000000
1.0077000000 4.9869000000 2.1010000000
1.0073000000 2.4293000000 2.3423000000
1.0071000000 3.8530000000 2.7407000000
1.0068000000 1.7782000000 1.9528000000
1.0065000000 2.4835000000 2.3739000000
1.0064000000 6.1839000000 0.8904000000
1.0060000000 2.3641000000 2.3047000000
1.0056000000 3.2970000000 2.8343000000
1.0054000000 4.7474000000 2.2302000000
1.0053000000 3.8569000000 2.7329000000
1.0052000000 5.1701000000 1.9829000000
1.0049000000 0.4173000000 0.4557000000
1.0048000000 4.1074000000 2.5918000000
1.0045000000 1.5770000000 1.7657000000
1.0043000000 1.1538000000 1.2860000000
1.0041000000 5.6557000000 1.4857000000
1.0037000000 4.6097000000 2.3077000000
1.0035000000 6.9859000000 0.0572000000
1.0031000000 2.4776000000 2.3679000000
1.0030000000 0.2392000000 0.2575000000
1.0029000000 6.8020000000 0.1891000000
1.0027000000 2.3517000000 2.2933000000
1.0025000000 3.8855000000 2.7219000000
1.0018000000 1.5560000000 1.7410000000
1.0017000000 4.3790000000 2.4339000000
1.0013000000 3.0281000000 2.6752000000
1.0013000000 3.4343000000 2.8959000000
1.0010000000 1.4675000000 1.6370000000
1.0008000000 1.9674000000 2.0733000000
1.0005000000 2.0613000000 2.1296000000
1.0003000000 3.5671000000 2.8994000000
1.0000000000 3.5245000000 2.9049000000
0.9995000000 0.8566000000 0.9586000000
0.9989000000 0.3881000000 0.4238000000
0.9983000000 1.0138000000 1.1257000000
0.9980000000 0.0976000000 0.0982000000
0.9957000000 0.0741000000 0.0662000000
0.7610000000 2.7754000000 2.2960000000
0.7598000000 1.5209000000 1.5861000000
0.7595000000 4.7850000000 1.9762000000
0.7589000000 6.3765000000 0.6787000000
0.7580000000 3.6088000000 2.6327000000
0.7574000000 5.3369000000 1.6539000000
0.7565000000 0.8525000000 0.9487000000
0.7565000000 4.5382000000 2.1081000000
0.7563000000 0.6901000000 0.7703000000
0.7561000000 5.0309000000 1.8302000000
0.7558000000 4.1187000000 2.3433000000
0.7555000000 5.6178000000 1.4805000000
0.7553000000 4.0875000000 2.3590000000
0.7554000000 3.6460000000 2.6092000000
0.7552000000 5.8431000000 1.2838000000
0.7548000000 0.4083000000 0.4458000000
0.7545000000 0.6485000000 0.7175000000
0.7544000000 3.8883000000 2.4732000000
0.7543000000 0.2813000000 0.3056000000
0.7540000000 6.4588000000 0.5843000000
0.7540000000 3.0119000000 2.4252000000
0.7537000000 5.0682000000 1.8059000000
0.7535000000 1.2781000000 1.4034000000
0.7532000000 1.1579000000 1.2933000000
0.7530000000 3.9085000000 2.4612000000
0.7528000000 6.3398000000 0.7178000000
0.7526000000 6.1656000000 0.9156000000
0.7524000000 3.3715000000 2.6250000000
0.7523000000 1.1415000000 1.2737000000
0.7522000000 1.7172000000 1.6922000000
0.7521000000 0.5335000000 0.5876000000
0.7520000000 0.0485000000 0.1147000000
0.7519000000 3.3285000000 2.6050000000
0.7516000000 7.0298000000 0.0886000000
0.7511000000 4.3141000000 2.2352000000
0.7507000000 5.6936000000 1.4247000000
0.7506000000 0.3261000000 0.3570000000
0.7505000000 0.5832000000 0.6454000000
0.7502000000 1.9982000000 1.8465000000
0.7499000000 1.4148000000 1.5140000000
0.7493000000 4.0364000000 2.3839000000
0.7489000000 3.8677000000 2.4715000000
0.7485000000 1.8531000000 1.7664000000
0.7484000000 3.8147000000 2.5052000000
0.7479000000 1.3983000000 1.4986000000
0.7475000000 1.7735000000 1.7134000000
0.7467000000 1.1056000000 1.2375000000
0.7458000000 0.6301000000 0.6999000000
0.5127000000 2.1317000000 1.6880000000
0.5094000000 2.8702000000 2.0991000000
0.5089000000 1.8587000000 1.5299000000
0.5085000000 3.2161000000 2.3014000000
0.5083000000 4.0463000000 2.1378000000
0.5080000000 3.8146000000 2.2677000000
0.5077000000 6.0766000000 0.9768000000
0.5075000000 0.3958000000 0.4281000000
0.5074000000 0.8969000000 0.9703000000
0.5072000000 0.1181000000 0.1163000000
0.5069000000 4.8211000000 1.7035000000
0.5066000000 3.7432000000 2.3163000000
0.5064000000 6.6197000000 0.3969000000
0.5062000000 6.7374000000 0.2645000000
0.5060000000 6.7220000000 0.2845000000
0.5056000000 2.7781000000 2.0491000000
0.5054000000 3.8725000000 2.2329000000
0.5051000000 2.1329000000 1.6862000000
0.5050000000 6.3007000000 0.7660000000
0.5046000000 0.8442000000 0.9181000000
0.5043000000 1.6078000000 1.3850000000
0.5042000000 1.2142000000 1.1675000000
0.5040000000 4.5824000000 1.8389000000
0.5039000000 5.7027000000 1.2097000000
0.5038000000 1.3884000000 1.2649000000
0.5037000000 6.9787000000 0.0679000000
0.5035000000 0.1416000000 0.1459000000
0.5034000000 4.5237000000 1.8688000000
0.5033000000 5.2481000000 1.4579000000
0.5030000000 5.6644000000 1.2287000000
0.5027000000 0.5628000000 0.6244000000
0.5025000000 6.1145000000 0.9532000000
0.5022000000 3.7166000000 2.3256000000
0.5020000000 2.4266000000 1.8491000000
0.5019000000 2.7546000000 2.0331000000
0.5013000000 0.9540000000 0.9995000000
0.5011000000 4.0783000000 2.1170000000
0.5008000000 0.3907000000 0.4256000000
0.5007000000 3.5307000000 2.4101000000
0.5004000000 5.5032000000 1.3145000000
0.4998000000 3.3911000000 2.3887000000
0.4997000000 5.6344000000 1.2350000000
0.4992000000 3.1260000000 2.2373000000
0.4983000000 0.8057000000 0.8745000000
0.4976000000 3.1737000000 2.2676000000
0.4963000000 2.0185000000 1.6100000000
0.2645000000 6.9765000000 0.0739000000
0.2629000000 6.7848000000 0.2121000000
0.2614000000 5.0101000000 1.3604000000
0.2606000000 6.8422000000 0.1505000000
0.2600000000 6.9064000000 0.0791000000
0.2598000000 2.2395000000 1.5078000000
0.2595000000 6.2079000000 0.6820000000
0.2593000000 3.6293000000 2.1336000000
0.2590000000 3.9500000000 1.9581000000
0.2584000000 4.8052000000 1.4678000000
0.2579000000 5.3676000000 1.1514000000
0.2573000000 4.5017000000 1.6382000000
0.2571000000 6.9420000000 0.1127000000
0.2568000000 0.2987000000 0.3227000000
0.2563000000 6.3906000000 0.5741000000
0.2563000000 5.3807000000 1.1465000000
0.2562000000 3.7624000000 2.0565000000
0.2559000000 6.6709000000 0.3457000000
0.2556000000 4.7310000000 1.5084000000
0.2555000000 4.3586000000 1.7177000000
0.2553000000 1.4059000000 1.0303000000
0.2551000000 4.4881000000 1.6491000000
0.2549000000 4.7431000000 1.5018000000
0.2548000000 5.2112000000 1.2384000000
0.2548000000 5.6970000000 0.9616000000
0.2546000000 3.4421000000 2.1695000000
0.2545000000 6.5853000000 0.4201000000
0.2543000000 5.1096000000 1.2915000000
0.2542000000 3.3088000000 2.0967000000
0.2540000000 1.9226000000 1.3202000000
0.2538000000 2.9852000000 1.9136000000
0.2537000000 3.6110000000 2.1430000000
0.2533000000 2.6994000000 1.7609000000
0.2530000000 2.2654000000 1.5138000000
0.2529000000 4.0447000000 1.8904000000
0.2528000000 5.1633000000 1.2645000000
0.2527000000 6.8619000000 0.1288000000
0.2525000000 4.0001000000 1.9177000000
0.2524000000 1.6067000000 1.1351000000
0.2523000000 0.8735000000 0.7254000000
0.2518000000 2.9767000000 1.9097000000
0.2516000000 3.5765000000 2.1553000000
0.2515000000 1.7886000000 1.2399000000
0.2510000000 4.8791000000 1.4164000000
0.2508000000 0.4343000000 0.4610000000
0.2505000000 0.7181000000 0.6401000000
0.2502000000 2.2187000000 1.4835000000
0.2500000000 3.4236000000 2.1641000000
0.2499000000 5.7488000000 0.9293000000
0.2498000000 1.3212000000 0.9762000000
0.2492000000 2.3692000000 1.5689000000
0.2488000000 4.3315000000 1.7257000000
0.2483000000 0.7182000000 0.6352000000
0.2478000000 1.5463000000 1.1032000000
0.2475000000 7.0039000000 0.0402000000
0.2473000000 0.4024000000 0.4246000000
0.2470000000 4.9078000000 1.4019000000
0.2459000000 1.0081000000 0.7929000000
0.2449000000 0.1769000000 0.1897000000
0.0112000000 5.5977000000 0.7792000000
0.0100000000 5.0978000000 1.0661000000
0.0097000000 5.7258000000 0.7058000000
0.0093000000 0.8583000000 0.4779000000
0.0092000000 3.4850000000 1.9435000000
0.0090000000 0.7216000000 0.3994000000
0.0082000000 4.1236000000 1.6114000000
0.0078000000 0.0728000000 0.0187000000
0.0076000000 5.7172000000 0.7156000000
0.0071000000 6.5664000000 0.2336000000
0.0067000000 5.8391000000 0.6447000000
0.0066000000 0.4068000000 0.2169000000
0.0063000000 0.4825000000 0.2666000000
0.0061000000 4.3034000000 1.5059000000
0.0058000000 0.5674000000 0.3087000000
0.0056000000 4.4888000000 1.4034000000
0.0055000000 4.4149000000 1.4414000000
0.0052000000 5.2705000000 0.9634000000
0.0048000000 5.4388000000 0.8656000000
0.0046000000 5.6244000000 0.7581000000
0.0044000000 1.7340000000 0.9681000000
0.0043000000 4.3289000000 1.4867000000
0.0042000000 1.6558000000 0.9225000000
0.0040000000 2.6639000000 1.4927000000
0.0039000000 5.4505000000 0.8570000000
0.0034000000 6.4607000000 0.2853000000
0.0029000000 5.7938000000 0.6569000000
0.0028000000 3.1614000000 1.7747000000
0.0028000000 2.2720000000 1.2720000000
0.0026000000 1.9425000000 1.0844000000
0.0025000000 0.5975000000 0.3263000000
0.0024000000 0.9991000000 0.5502000000
0.0023000000 4.9845000000 1.1227000000
0.0022000000 2.0710000000 1.1599000000
0.0019000000 2.7067000000 1.5126000000
0.0019000000 2.8463000000 1.5903000000
0.0017000000 0.7587000000 0.4240000000
0.0014000000 1.4956000000 0.8340000000
0.0013000000 1.3109000000 0.7312000000
0.0010000000 4.3157000000 1.4944000000
0.0008000000 6.7583000000 0.1157000000
0.0008000000 4.3533000000 1.4752000000
0.0005000000 0.0338000000 0.0645000000
0.0004000000 3.1603000000 1.7676000000
0.0002000000 4.1715000000 1.5789000000
-0.0002000000 1.9388000000 1.0775000000
-0.0006000000 3.4665000000 1.9245000000
-0.0017000000 3.7099000000 1.8300000000
-0.0023000000 1.1863000000 0.6481000000
-0.0025000000 1.7164000000 0.9483000000
-0.0057000000 1.2357000000 0.6830000000
-0.2388000000 5.5178000000 0.5751000000
-0.2405000000 4.9377000000 0.9101000000
-0.2409000000 5.5632000000 0.5567000000
-0.2412000000 2.0830000000 0.9258000000
-0.2418000000 5.9991000000 0.3034000000
-0.2421000000 4.4163000000 1.1978000000
-0.2423000000 3.5485000000 1.6849000000
-0.2425000000 6.7806000000 0.0127000000
-0.2432000000 2.6005000000 1.2157000000
-0.2435000000 3.9984000000 1.4358000000
-0.2439000000 1.4909000000 0.5884000000
-0.2442000000 6.3445000000 0.1110000000
-0.2443000000 3.5130000000 1.6900000000
-0.2447000000 2.2166000000 0.9979000000
-0.2448000000 1.4296000000 0.5545000000
-0.2449000000 4.6969000000 1.0415000000
-0.2451000000 3.7725000000 1.5576000000
-0.2452000000 6.6846000000 0.0709000000
-0.2454000000 3.8725000000 1.5095000000
-0.2456000000 6.7015000000 0.0557000000
-0.2457000000 1.6377000000 0.6633000000
-0.2461000000 1.8231000000 0.7742000000
-0.2463000000 2.9646000000 1.4203000000
-0.2467000000 1.3610000000 0.5173000000
-0.2468000000 3.1688000000 1.5314000000
-0.2469000000 3.8232000000 1.5289000000
-0.2472000000 5.6243000000 0.5152000000
-0.2473000000 5.7861000000 0.4222000000
-0.2474000000 4.7665000000 0.9981000000
-0.2475000000 5.8278000000 0.3975000000
-0.2478000000 1.1066000000 0.3703000000
-0.2482000000 0.3319000000 0.0803000000
-0.2482000000 6.1300000000 0.2258000000
-0.2485000000 5.7756000000 0.4300000000
-0.2487000000 5.9640000000 0.3216000000
-0.2491000000 0.5253000000 0.1138000000
-0.2492000000 4.7176000000 1.0198000000
-0.2496000000 2.1450000000 0.9514000000
-0.2498000000 2.8014000000 1.3240000000
-0.2500000000 2.8467000000 1.3468000000
-0.2502000000 2.3700000000 1.0775000000
-0.2506000000 0.3148000000 0.0636000000
-0.2514000000 1.9069000000 0.8198000000
-0.2518000000 1.5464000000 0.6081000000
-0.2522000000 1.2637000000 0.4513000000
-0.2534000000 0.4587000000 0.0760000000
-0.2537000000 4.2844000000 1.2647000000
-0.4894000000 5.8255000000 0.1663000000
-0.4919000000 4.3768000000 0.9777000000
-0.4925000000 5.4549000000 0.3695000000
-0.4926000000 3.9589000000 1.2102000000
-0.4930000000 5.5819000000 0.2953000000
-0.4932000000 3.7882000000 1.3120000000
-0.4935000000 4.8123000000 0.7357000000
-0.4938000000 5.4709000000 0.3651000000
-0.4940000000 2.3261000000 0.8123000000
-0.4942000000 1.9207000000 0.5858000000
-0.4944000000 6.0208000000 0.1221000000
-0.4948000000 4.0891000000 1.1406000000
-0.4950000000 4.0798000000 1.1460000000
-0.4951000000 2.1908000000 0.7369000000
-0.4953000000 5.7095000000 0.2262000000
-0.4958000000 3.6596000000 1.3800000000
-0.4961000000 2.5291000000 0.9278000000
-0.4962000000 1.9401000000 0.5960000000
-0.4965000000 1.3724000000 0.2757000000
-0.4968000000 5.0595000000 0.5834000000
-0.4969000000 4.8981000000 0.6825000000
-0.4970000000 1.5655000000 0.3863000000
-0.4971000000 1.1083000000 0.1280000000
-0.4971000000 3.2149000000 1.3151000000
-0.4975000000 3.2645000000 1.3385000000
-0.4976000000 2.0584000000 0.6570000000
-0.4977000000 2.8001000000 1.0870000000
-0.4980000000 1.8453000000 0.5389000000
-0.4982000000 1.6472000000 0.4274000000
-0.4985000000 3.4208000000 1.4276000000
-0.4987000000 5.7341000000 0.2051000000
-0.4989000000 0.9178000000 0.0956000000
-0.4990000000 3.4043000000 1.4167000000
-0.4995000000 1.5417000000 0.3723000000
-0.5002000000 6.1073000000 0.0701000000
-0.5005000000 2.4507000000 0.8741000000
-0.5016000000 3.5890000000 1.4134000000
-0.5020000000 1.5886000000 0.3927000000
-0.5025000000 1.6605000000 0.4300000000
-0.5033000000 6.1157000000 0.0629000000
-0.5038000000 4.6046000000 0.8427000000
-0.7404000000 5.7876000000 0.0869000000
-0.7407000000 4.0262000000 0.9360000000
-0.7410000000 5.7825000000 0.0899000000
-0.7417000000 2.7913000000 0.8365000000
-0.7427000000 4.8588000000 0.4576000000
-0.7431000000 5.4568000000 0.1243000000
-0.7435000000 1.2421000000 0.0370000000
-0.7437000000 2.0483000000 0.4153000000
-0.7439000000 5.1955000000 0.2728000000
-0.7444000000 4.1484000000 0.8588000000
-0.7448000000 2.3370000000 0.5770000000
-0.7450000000 3.0564000000 0.9821000000
-0.7452000000 5.0944000000 0.3222000000
-0.7458000000 3.1988000000 1.0583000000
-0.7461000000 3.4969000000 1.2130000000
-0.7466000000 5.5402000000 0.0713000000
-0.7468000000 1.6784000000 0.1991000000
-0.7469000000 4.7505000000 0.5165000000
-0.7472000000 4.8872000000 0.4377000000
-0.7475000000 2.1318000000 0.4574000000
-0.7476000000 3.3876000000 1.1693000000
-0.7480000000 2.9026000000 0.8955000000
-0.7481000000 1.4163000000 0.0512000000
-0.7487000000 3.7374000000 1.0921000000
-0.7489000000 4.4545000000 0.6857000000
-0.7492000000 3.0919000000 1.0019000000
-0.7499000000 2.3486000000 0.5785000000
-0.7500000000 2.2528000000 0.5201000000
-0.7502000000 2.3414000000 0.5752000000
-0.7505000000 4.4310000000 0.6943000000
-0.7509000000 1.3895000000 0.1124000000
-0.7512000000 5.0375000000 0.3502000000
-0.7518000000 1.8249000000 0.2777000000
-0.7528000000 2.0651000000 0.4178000000
-0.7541000000 1.0891000000 0.0089000000
-0.7554000000 1.4873000000 0.0855000000
-0.9898000000 3.9842000000 0.7122000000
-0.9917000000 5.3723000000 0.0800000000
-0.9924000000 5.4938000000 0.0046000000
-0.9928000000 4.2053000000 0.5832000000
-0.9931000000 4.1100000000 0.6329000000
-0.9933000000 4.2762000000 0.5472000000
-0.9938000000 4.3250000000 0.5212000000
-0.9940000000 3.6311000000 0.9119000000
-0.9942000000 3.2664000000 0.8581000000
-0.9945000000 3.7321000000 0.8552000000
-0.9953000000 2.0198000000 0.1544000000
-0.9955000000 3.8063000000 0.8114000000
-0.9957000000 4.9220000000 0.1777000000
-0.9960000000 2.6715000000 0.5267000000
-0.9962000000 3.3237000000 0.8858000000
-0.9963000000 2.7540000000 0.5672000000
-0.9967000000 2.1229000000 0.2120000000
-0.9967000000 5.0823000000 0.0843000000
-0.9975000000 2.0442000000 0.1680000000
-0.9976000000 3.2912000000 0.8679000000
-0.9977000000 2.5188000000 0.4293000000
-0.9986000000 2.8611000000 0.6269000000
-0.9988000000 4.9247000000 0.1752000000
-0.9989000000 2.2102000000 0.2582000000
-0.9997000000 5.3431000000 0.0858000000
-1.0001000000 3.4655000000 0.9439000000
-1.0036000000 2.8299000000 0.6020000000
-1.0043000000 2.6879000000 0.5191000000
-1.2397000000 2.6883000000 0.2893000000
-1.2424000000 3.5175000000 0.7176000000
-1.2436000000 4.7578000000 0.1022000000
-1.2438000000 3.1578000000 0.5525000000
-1.2441000000 3.0819000000 0.5024000000
-1.2444000000 2.7978000000 0.3494000000
-1.2449000000 3.4554000000 0.6965000000
-1.2450000000 3.0922000000 0.5048000000
-1.2452000000 4.6407000000 0.0933000000
-1.2456000000 4.4798000000 0.1838000000
-1.2458000000 3.1435000000 0.5445000000
-1.2459000000 4.5377000000 0.1555000000
-1.2463000000 5.0485000000 0.0088000000
-1.2467000000 4.2774000000 0.2968000000
-1.2473000000 4.7995000000 0.0759000000
-1.2479000000 4.3057000000 0.2789000000
-1.2487000000 3.2552000000 0.6000000000
-1.2491000000 3.3469000000 0.6555000000
-1.2495000000 2.6673000000 0.2671000000
-1.2520000000 3.4326000000 0.7012000000
-1.2535000000 2.6060000000 0.2288000000
-1.4862000000 4.6250000000 0.0141000000
-1.4888000000 3.4073000000 0.4567000000
-1.4921000000 3.9741000000 0.2280000000
-1.4935000000 2.3726000000 0.0147000000
-1.4940000000 3.3892000000 0.4376000000
-1.4945000000 3.4831000000 0.4740000000
-1.4951000000 2.4392000000 0.0544000000
-1.4954000000 3.6667000000 0.3990000000
