7.2520000000 4.0812000000 0.0772000000
7.0109000000 3.8245000000 0.0975000000
7.0095000000 4.5647000000 0.0946000000
7.0079000000 4.2209000000 0.1982000000
7.0069000000 3.6932000000 0.0973000000
7.0064000000 4.4302000000 0.1003000000
7.0055000000 4.8434000000 0.0097000000
7.0050000000 4.3153000000 0.1633000000
7.0040000000 4.7911000000 0.0377000000
7.0029000000 4.6566000000 0.0438000000
6.9990000000 3.9830000000 0.1288000000
6.9979000000 3.9704000000 0.1263000000
6.7598000000 5.0108000000 0.0801000000
6.7582000000 3.8911000000 0.3186000000
6.7570000000 5.1863000000 0.0621000000
6.7563000000 4.3764000000 0.3792000000
6.7560000000 3.6654000000 0.1887000000
6.7551000000 3.2028000000 0.0719000000
6.7544000000 5.1294000000 0.0903000000
6.7529000000 3.2909000000 0.0460000000
6.7486000000 4.1426000000 0.4556000000
6.5127000000 3.8993000000 0.5735000000
6.5098000000 3.5815000000 0.3875000000
6.5080000000 4.4172000000 0.6098000000
6.5077000000 3.3527000000 0.2556000000
6.5068000000 5.4428000000 0.0866000000
6.5063000000 5.2872000000 0.1082000000
6.5055000000 2.7911000000 0.0706000000
6.5049000000 5.4049000000 0.1076000000
6.5038000000 3.2613000000 0.2074000000
6.5033000000 3.6127000000 0.4182000000
6.5024000000 3.9673000000 0.6181000000
6.5014000000 3.1821000000 0.1692000000
6.4988000000 4.6906000000 0.4584000000
6.2615000000 4.9881000000 0.5258000000
6.2595000000 3.2661000000 0.4602000000
6.2583000000 4.6066000000 0.7547000000
6.2576000000 3.4031000000 0.5336000000
6.2573000000 5.0333000000 0.5034000000
6.2568000000 4.4386000000 0.8507000000
6.2565000000 2.4189000000 0.0383000000
6.2558000000 3.9739000000 0.8750000000
6.2555000000 5.3401000000 0.3252000000
6.2548000000 4.0506000000 0.9218000000
6.2546000000 4.8320000000 0.6257000000
6.2540000000 5.6484000000 0.1508000000
6.2535000000 6.0996000000 0.0320000000
6.2527000000 2.9171000000 0.2633000000
6.2519000000 4.9858000000 0.5365000000
6.2510000000 3.2783000000 0.4721000000
6.2503000000 5.6023000000 0.1794000000
6.2470000000 2.3529000000 0.0869000000
6.0121000000 6.2809000000 0.0972000000
6.0119000000 5.9138000000 0.2377000000
6.0103000000 4.4466000000 1.1025000000
6.0095000000 5.1190000000 0.7054000000
6.0087000000 5.8659000000 0.2703000000
6.0085000000 4.0438000000 1.1659000000
6.0080000000 6.3958000000 0.0344000000
6.0071000000 6.0241000000 0.1796000000
6.0065000000 4.5304000000 1.0488000000
6.0061000000 1.9506000000 0.0897000000
6.0056000000 3.4787000000 0.8461000000
6.0053000000 2.5275000000 0.2864000000
6.0047000000 2.3080000000 0.1571000000
6.0042000000 1.9102000000 0.0702000000
6.0040000000 5.5508000000 0.4618000000
6.0034000000 2.3158000000 0.1592000000
6.0028000000 4.4538000000 1.0999000000
6.0022000000 5.5566000000 0.4571000000
6.0015000000 5.5427000000 0.4695000000
6.0003000000 1.8207000000 0.0252000000
6.0000000000 5.1308000000 0.7068000000
5.9996000000 2.9073000000 0.5132000000
5.9993000000 4.5831000000 1.0299000000
5.7614000000 2.6283000000 0.5936000000
5.7600000000 4.9476000000 1.0625000000
5.7593000000 3.7190000000 1.2263000000
5.7586000000 4.5430000000 1.2994000000
5.7584000000 3.9908000000 1.3876000000
5.7580000000 5.1319000000 0.9517000000
5.7577000000 6.4578000000 0.1820000000
5.7575000000 3.9331000000 1.3576000000
5.7570000000 5.6311000000 0.6622000000
5.7567000000 1.9198000000 0.1772000000
5.7565000000 4.0302000000 1.4130000000
5.7561000000 1.4246000000 0.0461000000
5.7558000000 2.0205000000 0.2363000000
5.7557000000 4.4963000000 1.3293000000
5.7554000000 2.9533000000 0.7830000000
5.7550000000 3.3997000000 1.0487000000
5.7545000000 6.4811000000 0.1701000000
5.7541000000 2.2474000000 0.3739000000
5.7538000000 5.2406000000 0.8888000000
5.7535000000 2.7229000000 0.6514000000
5.7528000000 6.8949000000 0.0782000000
5.7523000000 4.6723000000 1.2277000000
5.7519000000 3.0018000000 0.8159000000
5.7513000000 1.5002000000 0.0895000000
5.7507000000 4.1925000000 1.4889000000
5.7471000000 3.6514000000 1.2002000000
5.5132000000 7.0852000000 0.1339000000
5.5116000000 6.8547000000 0.1980000000
5.5103000000 3.3963000000 1.2876000000
5.5095000000 3.2231000000 1.1880000000
5.5091000000 5.8023000000 0.8120000000
5.5088000000 4.8510000000 1.3707000000
5.5084000000 3.2433000000 1.2033000000
5.5080000000 5.8730000000 0.7760000000
5.5070000000 7.4081000000 0.0264000000
5.5067000000 3.6368000000 1.4388000000
5.5064000000 1.3410000000 0.0993000000
5.5063000000 2.7285000000 0.9034000000
5.5060000000 5.7717000000 0.8402000000
5.5055000000 6.3135000000 0.5168000000
5.5052000000 2.6604000000 0.8675000000
5.5049000000 6.4307000000 0.4498000000
5.5046000000 5.3934000000 1.0540000000
5.5043000000 4.0841000000 1.7002000000
5.5040000000 3.5007000000 1.3575000000
5.5037000000 6.8651000000 0.1927000000
5.5035000000 2.4351000000 0.7369000000
5.5033000000 4.2085000000 1.7296000000
5.5027000000 3.7411000000 1.4989000000
5.5025000000 3.0660000000 1.1087000000
5.5021000000 4.2273000000 1.7202000000
5.5018000000 2.2031000000 0.6079000000
5.5009000000 3.5548000000 1.3934000000
5.5006000000 3.3012000000 1.2418000000
5.4999000000 7.4266000000 0.0257000000
5.4996000000 1.4364000000 0.1576000000
5.4984000000 4.6682000000 1.4916000000
5.2664000000 6.8442000000 0.4544000000
5.2617000000 6.3678000000 0.7364000000
5.2605000000 6.7020000000 0.5378000000
5.2592000000 5.0549000000 1.5043000000
5.2589000000 6.8794000000 0.4357000000
5.2584000000 6.5491000000 0.6317000000
5.2578000000 7.5758000000 0.1061000000
5.2575000000 6.0895000000 0.8999000000
5.2572000000 7.7659000000 0.0694000000
5.2570000000 5.2421000000 1.3954000000
5.2569000000 2.3498000000 0.9393000000
5.2565000000 3.1671000000 1.4203000000
5.2560000000 2.2087000000 0.8514000000
5.2556000000 3.1995000000 1.4338000000
5.2554000000 7.5813000000 0.1028000000
5.2551000000 4.6827000000 1.7216000000
5.2548000000 6.3018000000 0.7828000000
5.2547000000 1.5735000000 0.4870000000
5.2543000000 3.8632000000 1.8235000000
5.2538000000 5.8277000000 1.0538000000
5.2534000000 5.0186000000 1.5287000000
5.2532000000 7.3419000000 0.1717000000
5.2528000000 5.8827000000 1.0225000000
5.2523000000 3.4068000000 1.5624000000
5.2518000000 6.6939000000 0.5512000000
5.2514000000 0.8003000000 0.1077000000
5.2512000000 0.4951000000 0.0075000000
5.2510000000 2.1967000000 0.8505000000
5.2501000000 1.6796000000 0.5496000000
5.2493000000 1.9835000000 0.7284000000
5.2482000000 3.3650000000 1.5369000000
5.2470000000 5.4486000000 1.2854000000
5.0127000000 1.4268000000 0.6448000000
5.0112000000 3.6817000000 1.9662000000
5.0108000000 5.8144000000 1.3125000000
5.0098000000 6.9427000000 0.6516000000
5.0092000000 4.9382000000 1.8267000000
5.0090000000 6.2302000000 1.0694000000
5.0086000000 6.6636000000 0.8122000000
5.0082000000 4.5025000000 2.0797000000
5.0079000000 7.1327000000 0.5421000000
5.0076000000 8.0596000000 0.0768000000
5.0073000000 7.8918000000 0.1035000000
5.0070000000 8.0477000000 0.0886000000
5.0069000000 4.2576000000 2.2309000000
5.0067000000 0.3051000000 0.0711000000
5.0062000000 4.2294000000 2.2208000000
5.0059000000 2.6279000000 1.3479000000
5.0058000000 1.1849000000 0.5093000000
5.0054000000 4.6337000000 2.0086000000
5.0053000000 6.5019000000 0.9159000000
5.0050000000 6.1846000000 1.0995000000
5.0048000000 6.3704000000 0.9930000000
5.0045000000 1.2020000000 0.5226000000
5.0043000000 4.1080000000 2.2211000000
5.0040000000 1.0561000000 0.4350000000
5.0038000000 1.0945000000 0.4592000000
5.0035000000 2.4638000000 1.2609000000
5.0033000000 3.1243000000 1.6442000000
5.0031000000 7.3294000000 0.4386000000
5.0029000000 1.8920000000 0.9255000000
5.0028000000 2.1662000000 1.0899000000
5.0026000000 6.0076000000 1.2023000000
5.0023000000 2.9550000000 1.5571000000
5.0020000000 1.6116000000 0.7666000000
5.0018000000 6.5044000000 0.9183000000
5.0014000000 1.3162000000 0.5889000000
5.0010000000 1.4811000000 0.6916000000
4.9998000000 4.6918000000 1.9766000000
4.9997000000 1.0975000000 0.4620000000
4.9994000000 0.1485000000 0.0597000000
4.9991000000 1.1263000000 0.4854000000
4.9977000000 4.6219000000 2.0196000000
4.9956000000 1.1279000000 0.4918000000
4.7665000000 6.7714000000 0.9941000000
4.7621000000 4.0046000000 2.4014000000
4.7609000000 7.9218000000 0.3301000000
4.7603000000 7.9582000000 0.3114000000
4.7595000000 7.9539000000 0.3185000000
4.7591000000 5.0259000000 2.0306000000
4.7586000000 5.0598000000 2.0070000000
4.7583000000 3.7982000000 2.2947000000
4.7580000000 0.5394000000 0.3831000000
4.7578000000 1.2450000000 0.7882000000
4.7576000000 8.0562000000 0.2459000000
4.7573000000 5.7117000000 1.6278000000
4.7571000000 6.0085000000 1.4578000000
4.7569000000 8.3450000000 0.0945000000
4.7565000000 2.2878000000 1.4090000000
4.7563000000 0.8138000000 0.5447000000
4.7560000000 8.3989000000 0.0426000000
4.7558000000 7.9691000000 0.3078000000
4.7556000000 4.7200000000 2.2075000000
4.7554000000 5.1268000000 1.9718000000
4.7552000000 6.7961000000 0.9976000000
4.7550000000 7.0381000000 0.8570000000
4.7548000000 0.2267000000 0.1911000000
4.7543000000 1.5551000000 0.9796000000
4.7541000000 0.3163000000 0.2556000000
4.7537000000 3.2719000000 1.9860000000
4.7535000000 6.2252000000 1.3307000000
4.7533000000 5.0780000000 1.9997000000
4.7531000000 3.2944000000 2.0024000000
4.7526000000 5.1071000000 1.9878000000
4.7525000000 0.3865000000 0.3004000000
4.7523000000 0.2988000000 0.2495000000
4.7518000000 7.3878000000 0.6549000000
4.7516000000 0.1535000000 0.1490000000
4.7510000000 0.5087000000 0.3762000000
4.7504000000 5.9853000000 1.4732000000
4.7500000000 3.3519000000 2.0298000000
4.7491000000 0.3231000000 0.2710000000
4.7485000000 2.0216000000 1.2564000000
4.7473000000 0.0565000000 0.1190000000
4.7457000000 1.8441000000 1.1529000000
4.5140000000 6.3369000000 1.5076000000
4.5118000000 5.1731000000 2.1939000000
4.5110000000 6.8384000000 1.2194000000
4.5100000000 2.4371000000 1.7503000000
4.5095000000 7.3709000000 0.9106000000
4.5088000000 1.9007000000 1.4337000000
4.5086000000 6.1787000000 1.6120000000
4.5083000000 8.3758000000 0.0683000000
4.5080000000 7.9606000000 0.4831000000
4.5075000000 4.1437000000 2.7257000000
4.5073000000 1.0208000000 0.9158000000
4.5068000000 2.9522000000 2.0446000000
4.5066000000 5.7274000000 1.8743000000
4.5064000000 4.7188000000 2.4624000000
4.5061000000 1.4262000000 1.1589000000
4.5059000000 8.4345000000 0.0710000000
4.5058000000 5.2458000000 2.1561000000
4.5055000000 4.8219000000 2.4063000000
4.5053000000 4.5337000000 2.5711000000
4.5051000000 5.7991000000 1.8361000000
4.5049000000 4.5792000000 2.5473000000
4.5046000000 7.2857000000 0.9668000000
4.5043000000 7.3048000000 0.9555000000
4.5041000000 1.9194000000 1.4490000000
4.5038000000 0.9425000000 0.8761000000
4.5037000000 5.7721000000 1.8568000000
4.5035000000 5.4277000000 2.0474000000
4.5034000000 0.4326000000 0.4972000000
4.5030000000 7.4715000000 0.8578000000
4.5026000000 4.8592000000 2.3838000000
4.5023000000 3.3092000000 2.2641000000
4.5020000000 2.4543000000 1.7645000000
4.5018000000 5.6052000000 1.9492000000
4.5013000000 4.9693000000 2.3242000000
4.5011000000 3.4505000000 2.3427000000
4.5009000000 0.6543000000 0.6942000000
4.5005000000 7.4256000000 0.8876000000
4.4997000000 0.7764000000 0.7849000000
4.4994000000 0.5944000000 0.6566000000
4.4989000000 2.1142000000 1.5656000000
4.4972000000 1.9658000000 1.4808000000
4.4942000000 6.6018000000 1.3746000000
4.2631000000 4.7276000000 2.7052000000
4.2623000000 5.8902000000 2.0241000000
4.2611000000 3.5563000000 2.6521000000
4.2602000000 7.9414000000 0.4999000000
4.2593000000 6.2240000000 1.8382000000
4.2588000000 7.9242000000 0.5228000000
4.2583000000 6.7927000000 1.4993000000
4.2580000000 1.5719000000 1.4894000000
4.2578000000 4.8622000000 2.6320000000
4.2574000000 7.8095000000 0.6595000000
4.2572000000 8.3228000000 0.1329000000
4.2570000000 5.6882000000 2.1476000000
4.2566000000 1.0152000000 1.1447000000
4.2563000000 5.1895000000 2.4446000000
4.2561000000 0.8162000000 0.9491000000
4.2559000000 0.8668000000 1.0069000000
4.2557000000 3.6980000000 2.7406000000
4.2554000000 1.6636000000 1.5489000000
4.2553000000 4.8843000000 2.6205000000
4.2550000000 4.6887000000 2.7311000000
4.2549000000 6.5449000000 1.6582000000
4.2546000000 6.1744000000 1.8629000000
4.2540000000 0.1510000000 0.1688000000
4.2536000000 4.2302000000 2.9823000000
4.2533000000 0.3828000000 0.4392000000
4.2531000000 0.4838000000 0.5568000000
4.2528000000 3.0934000000 2.3879000000
4.2521000000 0.4594000000 0.5329000000
4.2520000000 1.6826000000 1.5617000000
4.2518000000 6.2966000000 1.8020000000
4.2515000000 2.1580000000 1.8391000000
4.2511000000 6.0882000000 1.9202000000
4.2506000000 3.4445000000 2.5967000000
4.2503000000 5.8540000000 2.0559000000
4.2501000000 2.4523000000 2.0201000000
4.2497000000 2.0469000000 1.7827000000
4.2491000000 5.0580000000 2.5252000000
4.2484000000 1.4478000000 1.4328000000
4.2463000000 3.8762000000 2.8492000000
4.0122000000 3.6928000000 2.9828000000
4.0113000000 5.6661000000 2.4124000000
4.0103000000 4.1765000000 3.2551000000
4.0101000000 3.9294000000 3.1245000000
4.0098000000 7.8507000000 0.6008000000
4.0093000000 6.4015000000 1.9876000000
4.0090000000 2.6009000000 2.3455000000
4.0088000000 6.9555000000 1.6385000000
4.0084000000 7.1340000000 1.4433000000
4.0079000000 7.3017000000 1.2485000000
4.0078000000 4.3440000000 3.1792000000
4.0076000000 6.4428000000 1.9564000000
4.0072000000 3.7966000000 3.0525000000
4.0070000000 4.9583000000 2.8262000000
4.0068000000 5.0494000000 2.7737000000
4.0066000000 7.9581000000 0.4829000000
4.0064000000 6.7749000000 1.7685000000
4.0061000000 4.0718000000 3.2102000000
4.0055000000 3.2293000000 2.7203000000
4.0053000000 4.6665000000 2.9999000000
4.0049000000 3.4280000000 2.8324000000
4.0045000000 5.5409000000 2.4889000000
4.0042000000 4.1452000000 3.2411000000
4.0041000000 1.0786000000 1.2505000000
4.0035000000 5.3507000000 2.6008000000
4.0032000000 5.7938000000 2.3454000000
4.0031000000 4.2013000000 3.2548000000
4.0029000000 4.8364000000 2.9030000000
4.0023000000 5.1394000000 2.7273000000
4.0019000000 0.1701000000 0.1880000000
4.0014000000 0.6335000000 0.7315000000
4.0013000000 5.3180000000 2.6235000000
4.0010000000 6.5090000000 1.9234000000
4.0008000000 1.0432000000 1.2097000000
4.0002000000 3.1985000000 2.7064000000
3.9993000000 1.7209000000 1.8457000000
3.9986000000 5.1320000000 2.7380000000
3.9966000000 0.6728000000 0.7754000000
3.9948000000 0.9360000000 1.0859000000
3.7639000000 7.7347000000 0.7455000000
3.7612000000 7.2671000000 1.2849000000
3.7600000000 0.2149000000 0.2456000000
3.7596000000 7.4369000000 1.0920000000
3.7592000000 6.7991000000 1.8414000000
3.7589000000 6.2149000000 2.3446000000
3.7585000000 6.4515000000 2.1888000000
3.7580000000 8.0398000000 0.3879000000
3.7578000000 8.2004000000 0.1943000000
3.7575000000 8.0038000000 0.4261000000
3.7573000000 4.6815000000 3.2369000000
3.7569000000 2.8372000000 2.7404000000
3.7567000000 6.5164000000 2.1492000000
3.7565000000 2.9677000000 2.8173000000
3.7562000000 3.0640000000 2.8766000000
3.7559000000 5.2240000000 2.9243000000
3.7556000000 0.5488000000 0.6339000000
3.7554000000 6.7426000000 1.8949000000
3.7550000000 5.1694000000 2.9562000000
3.7549000000 8.3877000000 0.0525000000
3.7547000000 1.3692000000 1.5931000000
3.7545000000 7.2577000000 1.3033000000
3.7543000000 7.2092000000 1.3572000000
3.7540000000 6.4146000000 2.2148000000
3.7538000000 4.9096000000 3.1099000000
3.7535000000 6.3541000000 2.2724000000
3.7531000000 1.7500000000 2.0341000000
3.7529000000 5.9922000000 2.4843000000
3.7527000000 0.7383000000 0.8532000000
3.7525000000 0.0285000000 0.0974000000
3.7522000000 1.7072000000 1.9816000000
3.7518000000 0.0807000000 0.0837000000
3.7515000000 0.6016000000 0.6887000000
3.7510000000 4.3732000000 3.4372000000
3.7505000000 5.9934000000 2.4804000000
3.7499000000 1.8518000000 2.1410000000
3.7490000000 1.9093000000 2.1820000000
3.7475000000 0.3678000000 0.4193000000
3.7469000000 1.4208000000 1.6534000000
3.5114000000 1.7929000000 2.0913000000
3.5102000000 4.5494000000 3.5678000000
3.5099000000 8.3630000000 0.0781000000
3.5095000000 5.8191000000 2.8282000000
3.5090000000 3.5855000000 3.4265000000
3.5085000000 7.2510000000 1.3106000000
3.5080000000 5.9972000000 2.7087000000
3.5078000000 7.7197000000 0.7631000000
3.5074000000 4.9045000000 3.3692000000
3.5069000000 7.0348000000 1.5584000000
3.5066000000 4.3098000000 3.7167000000
3.5065000000 5.3867000000 3.0820000000
3.5062000000 2.5029000000 2.8030000000
3.5060000000 5.3006000000 3.1379000000
3.5057000000 5.9541000000 2.7497000000
3.5052000000 1.5112000000 1.7569000000
3.5050000000 0.0559000000 0.1309000000
3.5044000000 7.6222000000 0.8688000000
3.5042000000 5.3151000000 3.1272000000
3.5040000000 7.3110000000 1.2390000000
3.5038000000 2.0639000000 2.4049000000
3.5035000000 2.9300000000 3.0464000000
3.5034000000 3.8539000000 3.5922000000
3.5033000000 6.1185000000 2.6077000000
3.5030000000 1.7305000000 2.0124000000
3.5028000000 0.8099000000 0.9376000000
3.5025000000 1.1955000000 1.3924000000
3.5023000000 3.7351000000 3.5247000000
3.5021000000 7.5270000000 0.9839000000
3.5016000000 2.3290000000 2.6860000000
3.5014000000 2.7706000000 2.9662000000
3.5011000000 2.5701000000 2.8409000000
3.5007000000 5.6436000000 2.9440000000
3.5005000000 8.2089000000 0.1879000000
3.5003000000 4.7520000000 3.4665000000
3.4995000000 1.5954000000 1.8581000000
3.4986000000 0.3736000000 0.4268000000
3.2639000000 0.7875000000 0.9125000000
3.2613000000 8.3278000000 0.1215000000
3.2605000000 2.5825000000 3.0069000000
3.2600000000 6.1329000000 2.6213000000
3.2595000000 5.9072000000 2.8781000000
3.2591000000 3.8049000000 3.8165000000
3.2589000000 6.5971000000 2.0736000000
3.2582000000 8.1520000000 0.2595000000
3.2578000000 4.1259000000 3.9984000000
3.2576000000 3.8378000000 3.8307000000
3.2573000000 5.8676000000 2.9270000000
3.2570000000 0.4276000000 0.4950000000
3.2568000000 7.1074000000 1.4771000000
3.2564000000 5.9836000000 2.7900000000
3.2562000000 1.8109000000 2.1114000000
3.2561000000 4.5163000000 3.8459000000
3.2560000000 7.3265000000 1.2230000000
3.2558000000 8.0360000000 0.3899000000
3.2555000000 6.6397000000 2.0275000000
3.2553000000 2.6770000000 3.0970000000
3.2552000000 6.8202000000 1.8126000000
3.2550000000 2.4540000000 2.8594000000
3.2548000000 3.9420000000 3.8941000000
3.2542000000 4.7115000000 3.7329000000
3.2538000000 5.2202000000 3.4339000000
3.2535000000 4.2532000000 4.0050000000
3.2530000000 3.3256000000 3.5338000000
3.2528000000 0.1219000000 0.1317000000
3.2524000000 1.5798000000 1.8373000000
3.2523000000 1.8268000000 2.1247000000
3.2520000000 1.1435000000 1.3327000000
3.2515000000 0.5584000000 0.6418000000
3.2513000000 0.5216000000 0.6016000000
3.2509000000 0.7904000000 0.9168000000
3.2505000000 3.8590000000 3.8472000000
3.2501000000 1.5848000000 1.8428000000
3.2498000000 4.1539000000 4.0071000000
3.2496000000 1.9381000000 2.2558000000
3.2484000000 1.4416000000 1.6859000000
3.2456000000 0.0022000000 0.0677000000
3.2410000000 0.0623000000 0.0671000000
3.0138000000 0.5625000000 0.6478000000
3.0120000000 4.2362000000 4.2419000000
3.0113000000 4.6085000000 4.0376000000
3.0105000000 8.0295000000 0.3959000000
3.0095000000 4.1075000000 4.2430000000
3.0092000000 6.7015000000 1.9507000000
3.0089000000 8.1632000000 0.2393000000
3.0082000000 6.2294000000 2.5024000000
3.0080000000 3.8456000000 4.0895000000
3.0078000000 3.2398000000 3.7162000000
3.0072000000 7.5352000000 0.9774000000
3.0069000000 3.4634000000 3.8662000000
3.0067000000 3.1780000000 3.6775000000
3.0065000000 4.5334000000 4.0944000000
3.0060000000 4.3584000000 4.1924000000
3.0057000000 5.7494000000 3.0663000000
3.0053000000 1.0782000000 1.2492000000
3.0051000000 3.2357000000 3.7135000000
3.0049000000 3.4166000000 3.8375000000
3.0047000000 4.4209000000 4.1582000000
3.0043000000 7.8784000000 0.5736000000
3.0040000000 0.6044000000 0.6950000000
3.0037000000 6.1733000000 2.5689000000
3.0033000000 7.0394000000 1.5572000000
3.0030000000 3.9738000000 4.1676000000
3.0029000000 5.5915000000 3.2489000000
3.0026000000 0.1775000000 0.2007000000
3.0023000000 3.1416000000 3.6502000000
3.0020000000 0.9631000000 1.1161000000
3.0016000000 5.0164000000 3.8146000000
3.0015000000 2.5269000000 2.9458000000
3.0011000000 0.5848000000 0.6743000000
3.0008000000 2.1766000000 2.5323000000
3.0003000000 4.7899000000 3.9410000000
2.9998000000 7.0378000000 1.5581000000
2.9995000000 4.3022000000 4.2352000000
2.9993000000 1.7498000000 2.0371000000
2.9990000000 0.7378000000 0.8521000000
2.9985000000 0.6402000000 0.7396000000
2.9978000000 2.7825000000 3.2423000000
2.9952000000 0.6225000000 0.7159000000
2.7659000000 3.6547000000 4.1992000000
2.7619000000 7.9936000000 0.4469000000
2.7610000000 5.0457000000 3.8863000000
2.7603000000 4.7164000000 4.2124000000
2.7600000000 4.4343000000 4.4020000000
2.7594000000 2.3119000000 2.6879000000
2.7588000000 6.5416000000 2.1402000000
2.7585000000 2.4810000000 2.8911000000
2.7583000000 5.1899000000 3.7219000000
2.7580000000 5.0628000000 3.8687000000
2.7576000000 7.7607000000 0.7110000000
2.7573000000 3.1872000000 3.7184000000
2.7570000000 3.3285000000 3.8806000000
2.7566000000 6.5906000000 2.0837000000
2.7564000000 6.8477000000 1.7755000000
2.7557000000 6.9251000000 1.6952000000
2.7555000000 2.2730000000 2.6492000000
2.7552000000 1.4312000000 1.6633000000
2.7551000000 2.2321000000 2.5971000000
2.7549000000 1.6835000000 1.9559000000
2.7547000000 3.4351000000 4.0076000000
2.7545000000 1.4451000000 1.6777000000
2.7543000000 6.9088000000 1.7099000000
2.7539000000 2.5001000000 2.9142000000
2.7538000000 8.4060000000 0.1069000000
2.7533000000 0.0819000000 0.0929000000
2.7533000000 5.9463000000 2.8342000000
2.7529000000 4.9784000000 3.9618000000
2.7526000000 2.3964000000 2.7925000000
2.7524000000 6.4635000000 2.2270000000
2.7520000000 2.5881000000 3.0170000000
2.7516000000 6.8175000000 1.8127000000
2.7510000000 6.1330000000 2.6095000000
2.7507000000 4.0455000000 4.4703000000
2.7502000000 4.1439000000 4.5117000000
2.7500000000 0.7354000000 0.8493000000
2.7497000000 1.6101000000 1.8731000000
2.7491000000 0.3791000000 0.4360000000
2.7480000000 3.8718000000 4.3700000000
2.5166000000 6.7766000000 1.8652000000
2.5124000000 3.6322000000 4.2351000000
2.5112000000 2.2993000000 2.6787000000
2.5105000000 8.2689000000 0.1197000000
2.5100000000 3.1745000000 3.7006000000
2.5098000000 5.0916000000 3.8309000000
2.5096000000 8.2874000000 0.0967000000
2.5094000000 4.9200000000 4.0354000000
2.5089000000 5.0154000000 3.9203000000
2.5083000000 6.5732000000 2.1024000000
2.5080000000 7.8346000000 0.6259000000
2.5078000000 3.5797000000 4.1783000000
2.5074000000 7.1308000000 1.4507000000
2.5069000000 6.3383000000 2.3719000000
2.5065000000 3.2034000000 3.7314000000
2.5063000000 4.9417000000 4.0087000000
2.5061000000 4.3316000000 4.6961000000
2.5059000000 2.7558000000 3.2125000000
2.5058000000 5.8745000000 2.9180000000
2.5054000000 7.8456000000 0.6057000000
2.5051000000 5.0409000000 3.8944000000
2.5050000000 3.0172000000 3.5268000000
2.5048000000 2.0656000000 2.4082000000
2.5044000000 4.1928000000 4.7883000000
2.5042000000 6.2949000000 2.4276000000
2.5040000000 5.7692000000 3.0403000000
2.5038000000 4.7884000000 4.1884000000
2.5035000000 3.9667000000 4.6103000000
2.5034000000 5.9527000000 2.8287000000
2.5031000000 4.3253000000 4.7014000000
2.5030000000 6.5153000000 2.1648000000
2.5027000000 1.4410000000 1.6759000000
2.5023000000 2.3834000000 2.7713000000
2.5016000000 8.4405000000 0.0617000000
2.5015000000 5.6092000000 3.2276000000
2.5012000000 0.3580000000 0.4068000000
2.5005000000 2.3622000000 2.7525000000
2.5000000000 1.5722000000 1.8283000000
2.4997000000 2.1942000000 2.5550000000
2.4987000000 5.6698000000 3.1555000000
2.4980000000 4.0257000000 4.6797000000
2.4973000000 1.4973000000 1.7414000000
2.4950000000 0.3458000000 0.3939000000
2.2604000000 1.1523000000 1.3391000000
2.2590000000 6.1335000000 2.6150000000
2.2589000000 4.0241000000 4.6230000000
2.2585000000 5.1401000000 3.7727000000
2.2583000000 1.2825000000 1.4903000000
2.2580000000 3.1253000000 3.6412000000
2.2578000000 5.3365000000 3.5418000000
2.2577000000 8.1815000000 0.2203000000
2.2570000000 6.4883000000 2.2021000000
2.2568000000 7.7151000000 0.7661000000
2.2567000000 6.5281000000 2.1536000000
2.2565000000 4.1990000000 4.6969000000
2.2560000000 7.0558000000 1.5402000000
2.2559000000 2.8888000000 3.3647000000
2.2557000000 8.4342000000 0.0714000000
2.2554000000 3.6474000000 4.2580000000
2.2553000000 7.1982000000 1.3690000000
2.2551000000 6.3766000000 2.3250000000
2.2549000000 7.2293000000 1.3347000000
2.2548000000 0.8574000000 0.9875000000
2.2546000000 2.3761000000 2.7697000000
2.2542000000 1.3297000000 1.5460000000
2.2540000000 8.1207000000 0.2915000000
2.2539000000 3.0351000000 3.5375000000
2.2538000000 2.8463000000 3.3205000000
2.2535000000 3.1908000000 3.7219000000
2.2533000000 0.0880000000 0.1006000000
2.2531000000 0.9093000000 1.0561000000
2.2528000000 2.3210000000 2.7020000000
2.2525000000 3.5443000000 4.1285000000
2.2523000000 3.4931000000 4.0771000000
2.2520000000 1.1334000000 1.3188000000
2.2518000000 0.5570000000 0.6434000000
2.2516000000 2.1128000000 2.4577000000
2.2512000000 3.5587000000 4.1527000000
2.2506000000 6.4763000000 2.2132000000
2.2505000000 3.4897000000 4.0732000000
2.2500000000 1.8313000000 2.1305000000
2.2495000000 3.5164000000 4.1084000000
2.2491000000 0.1363000000 0.1530000000
2.2488000000 0.4957000000 0.5681000000
2.2480000000 5.0838000000 3.8406000000
2.2460000000 4.4955000000 4.5089000000
2.0129000000 7.1620000000 1.4162000000
2.0115000000 8.1133000000 0.2995000000
2.0103000000 8.1536000000 0.2518000000
2.0095000000 5.4901000000 3.3685000000
2.0090000000 2.2982000000 2.6759000000
2.0085000000 6.6660000000 1.9902000000
2.0083000000 2.0952000000 2.4363000000
2.0077000000 6.4365000000 2.2578000000
2.0076000000 5.0599000000 3.8739000000
2.0073000000 1.3144000000 1.5256000000
2.0070000000 4.8296000000 4.0781000000
2.0068000000 4.1093000000 4.4280000000
2.0065000000 1.5707000000 1.8310000000
2.0063000000 2.0380000000 2.3679000000
2.0061000000 3.6532000000 4.1590000000
2.0059000000 2.3559000000 2.7445000000
2.0057000000 7.4942000000 1.0230000000
2.0055000000 2.4450000000 2.8438000000
2.0052000000 2.2702000000 2.6472000000
2.0049000000 3.1648000000 3.6904000000
2.0047000000 2.5514000000 2.9736000000
2.0046000000 2.3689000000 2.7601000000
2.0044000000 6.6390000000 2.0201000000
2.0041000000 1.2079000000 1.4036000000
2.0039000000 5.6993000000 3.1240000000
2.0038000000 3.6649000000 4.1558000000
2.0038000000 5.4992000000 3.3511000000
2.0035000000 1.6429000000 1.9063000000
2.0032000000 8.0851000000 0.3294000000
2.0030000000 4.0808000000 4.3994000000
2.0028000000 2.3670000000 2.7567000000
2.0025000000 4.4095000000 4.3346000000
2.0023000000 4.6248000000 4.2108000000
2.0020000000 4.0625000000 4.3922000000
2.0018000000 5.9051000000 2.8783000000
2.0016000000 1.1864000000 1.3779000000
2.0006000000 1.6259000000 1.8920000000
2.0000000000 1.6980000000 1.9735000000
1.9979000000 1.3974000000 1.6228000000
1.9950000000 0.3885000000 0.4457000000
1.7625000000 2.1952000000 2.5568000000
1.7611000000 8.2496000000 0.1367000000
1.7609000000 6.7033000000 1.9523000000
1.7601000000 5.5715000000 3.2692000000
1.7598000000 4.5455000000 4.0129000000
1.7593000000 5.1168000000 3.6764000000
1.7587000000 7.6574000000 0.8308000000
1.7581000000 6.0403000000 2.7190000000
1.7579000000 4.8116000000 3.8557000000
1.7573000000 8.1083000000 0.3114000000
1.7570000000 6.5467000000 2.1297000000
1.7565000000 3.9845000000 4.0991000000
1.7563000000 7.7213000000 0.7630000000
1.7560000000 1.0623000000 1.2332000000
1.7556000000 7.1807000000 1.3925000000
1.7555000000 7.9394000000 0.4940000000
1.7552000000 3.1715000000 3.6198000000
1.7550000000 3.0904000000 3.5544000000
1.7549000000 6.4591000000 2.2396000000
1.7547000000 1.4389000000 1.6753000000
1.7543000000 5.9778000000 2.7988000000
1.7539000000 7.1361000000 1.4362000000
1.7537000000 1.1897000000 1.3789000000
1.7535000000 8.1360000000 0.2739000000
1.7533000000 2.8301000000 3.3007000000
1.7532000000 1.9782000000 2.2986000000
1.7531000000 6.1958000000 2.5453000000
1.7528000000 7.5762000000 0.9289000000
1.7524000000 2.2200000000 2.5826000000
1.7523000000 1.3862000000 1.6130000000
1.7519000000 5.2633000000 3.5691000000
1.7516000000 1.6262000000 1.8949000000
1.7514000000 2.6389000000 3.0775000000
1.7509000000 4.7777000000 3.8689000000
1.7506000000 2.4234000000 2.8308000000
1.7503000000 4.6315000000 3.9552000000
1.7500000000 3.0184000000 3.5023000000
1.7500000000 4.9738000000 3.7497000000
1.7492000000 0.9214000000 1.0675000000
1.7479000000 3.7272000000 3.9385000000
1.7469000000 0.5688000000 0.6577000000
1.7443000000 0.9052000000 1.0437000000
1.5111000000 7.1438000000 1.4340000000
1.5105000000 6.5427000000 2.1364000000
1.5102000000 7.4006000000 1.1329000000
1.5095000000 4.9333000000 3.5284000000
1.5090000000 8.2845000000 0.0999000000
1.5088000000 6.1954000000 2.5427000000
1.5084000000 6.0414000000 2.7234000000
1.5080000000 6.8678000000 1.7584000000
1.5077000000 3.0601000000 3.3063000000
1.5073000000 3.7365000000 3.7063000000
1.5069000000 7.9869000000 0.4487000000
1.5065000000 6.8688000000 1.7580000000
1.5063000000 0.3461000000 0.3956000000
1.5061000000 6.3152000000 2.4000000000
1.5059000000 6.7092000000 1.9476000000
1.5058000000 2.2818000000 2.6537000000
1.5055000000 0.7739000000 0.8937000000
1.5052000000 3.3475000000 3.4784000000
1.5050000000 4.9741000000 3.5094000000
1.5048000000 7.2159000000 1.3516000000
1.5047000000 5.7554000000 3.0259000000
1.5044000000 0.8726000000 1.0118000000
1.5040000000 5.0195000000 3.4799000000
1.5038000000 3.8190000000 3.7476000000
1.5036000000 8.2283000000 0.1688000000
1.5034000000 0.7023000000 0.8117000000
1.5032000000 1.4969000000 1.7368000000
1.5030000000 7.1987000000 1.3666000000
1.5026000000 4.9758000000 3.5050000000
1.5024000000 1.5529000000 1.8056000000
1.5021000000 2.7026000000 3.0720000000
1.5018000000 2.5971000000 3.0105000000
1.5013000000 1.8110000000 2.1105000000
1.5010000000 5.4254000000 3.2370000000
1.5004000000 1.0553000000 1.2209000000
1.4999000000 0.6965000000 0.8042000000
1.4997000000 1.3803000000 1.6092000000
1.4990000000 4.4250000000 3.8218000000
1.4982000000 2.9691000000 3.2433000000
1.4975000000 2.1860000000 2.5497000000
1.4954000000 1.4765000000 1.7155000000
1.2658000000 5.3026000000 3.0693000000
1.2604000000 5.7932000000 2.7796000000
1.2599000000 7.2731000000 1.2864000000
1.2588000000 3.6683000000 3.4130000000
1.2583000000 7.6230000000 0.8722000000
1.2581000000 7.1422000000 1.4348000000
1.2577000000 2.2827000000 2.5945000000
1.2575000000 5.0999000000 3.1783000000
1.2572000000 7.8516000000 0.6092000000
1.2568000000 8.1898000000 0.2123000000
1.2563000000 5.9124000000 2.7036000000
1.2560000000 5.7893000000 2.7756000000
1.2558000000 2.5448000000 2.7502000000
1.2555000000 5.9689000000 2.6722000000
1.2553000000 2.3443000000 2.6368000000
1.2550000000 1.8154000000 2.1123000000
1.2549000000 3.7752000000 3.4688000000
1.2545000000 2.9635000000 2.9923000000
1.2541000000 1.0091000000 1.1661000000
1.2540000000 6.2072000000 2.5109000000
1.2538000000 1.7523000000 2.0408000000
1.2536000000 2.9304000000 2.9747000000
1.2534000000 8.0713000000 0.3497000000
1.2533000000 8.1157000000 0.3002000000
1.2530000000 1.7996000000 2.0933000000
1.2526000000 8.2173000000 0.1833000000
1.2519000000 4.7774000000 3.3601000000
1.2517000000 6.1025000000 2.5797000000
1.2513000000 3.0653000000 3.0519000000
1.2510000000 3.2693000000 3.1714000000
1.2508000000 1.0942000000 1.2730000000
1.2506000000 4.9678000000 3.2470000000
1.2504000000 6.7241000000 1.9244000000
1.2502000000 2.9453000000 2.9826000000
1.2499000000 3.5384000000 3.3250000000
1.2494000000 2.0680000000 2.3937000000
1.2483000000 6.8039000000 1.8331000000
1.2479000000 1.7966000000 2.0949000000
1.0117000000 8.4045000000 0.1034000000
1.0109000000 6.3491000000 2.1989000000
1.0101000000 5.8707000000 2.4723000000
1.0098000000 6.9451000000 1.6620000000
1.0093000000 6.4863000000 2.1189000000
1.0091000000 5.4593000000 2.7151000000
1.0084000000 5.5825000000 2.6495000000
1.0082000000 7.4754000000 1.0472000000
1.0076000000 0.5575000000 0.6404000000
1.0073000000 6.3717000000 2.1832000000
1.0070000000 8.2652000000 0.1228000000
1.0066000000 6.7459000000 1.8902000000
1.0064000000 4.0358000000 3.3686000000
1.0060000000 5.2533000000 2.8339000000
1.0058000000 3.9365000000 3.3077000000
1.0055000000 8.0480000000 0.3790000000
1.0051000000 5.2482000000 2.8389000000
1.0050000000 2.4644000000 2.4441000000
1.0045000000 7.8508000000 0.6098000000
1.0043000000 1.2906000000 1.4975000000
1.0041000000 5.8434000000 2.4915000000
1.0040000000 8.1576000000 0.2497000000
1.0036000000 3.8988000000 3.2887000000
1.0035000000 4.1892000000 3.4368000000
1.0032000000 8.0648000000 0.3569000000
1.0030000000 0.9333000000 1.0764000000
1.0027000000 1.7953000000 2.0378000000
1.0025000000 2.7528000000 2.6141000000
1.0021000000 0.3507000000 0.4005000000
1.0019000000 1.5623000000 1.8224000000
1.0016000000 4.0221000000 3.3524000000
1.0013000000 0.2117000000 0.2408000000
1.0009000000 5.0835000000 2.9287000000
0.9999000000 1.9908000000 2.1691000000
0.9989000000 0.7043000000 0.8090000000
0.9985000000 7.1980000000 1.3713000000
0.9974000000 4.6371000000 3.1892000000
0.9967000000 2.8213000000 2.6513000000
0.9952000000 1.0402000000 1.2034000000
0.7625000000 7.1491000000 1.4130000000
0.7615000000 8.0908000000 0.3307000000
0.7611000000 8.3530000000 0.0953000000
0.7606000000 7.2845000000 1.2650000000
0.7600000000 7.5922000000 0.9124000000
0.7594000000 6.1830000000 2.0420000000
0.7588000000 7.8392000000 0.6238000000
0.7580000000 8.4199000000 0.0898000000
0.7578000000 8.1752000000 0.2294000000
0.7577000000 8.3014000000 0.0830000000
0.7571000000 0.9746000000 1.1332000000
0.7568000000 4.8497000000 2.8201000000
0.7565000000 7.3642000000 1.1838000000
0.7563000000 3.1770000000 2.6134000000
0.7560000000 3.0559000000 2.5471000000
0.7556000000 8.1795000000 0.2245000000
0.7554000000 5.6829000000 2.3277000000
0.7549000000 7.7265000000 0.7541000000
0.7548000000 3.2059000000 2.6269000000
0.7546000000 5.7651000000 2.2840000000
0.7544000000 0.9629000000 1.1135000000
0.7540000000 6.0145000000 2.1386000000
0.7539000000 5.6114000000 2.3694000000
0.7537000000 2.8488000000 2.4214000000
0.7534000000 5.4217000000 2.4819000000
0.7533000000 5.7911000000 2.2694000000
0.7530000000 6.7027000000 1.7313000000
0.7528000000 1.5530000000 1.6579000000
0.7525000000 3.6211000000 2.8689000000
0.7522000000 2.1886000000 2.0295000000
0.7519000000 5.4505000000 2.4655000000
0.7518000000 5.6831000000 2.3292000000
0.7516000000 5.5353000000 2.4140000000
0.7515000000 7.1937000000 1.3651000000
0.7513000000 0.2615000000 0.2994000000
0.7510000000 0.7029000000 0.8136000000
0.7507000000 1.7479000000 1.7715000000
0.7499000000 1.8457000000 1.8249000000
0.7483000000 1.1755000000 1.3624000000
0.7481000000 2.1556000000 2.0112000000
0.7480000000 5.4792000000 2.4427000000
0.7450000000 1.8254000000 1.8075000000
0.5115000000 4.1882000000 2.9333000000
0.5099000000 0.4327000000 0.4922000000
0.5096000000 2.6085000000 2.0206000000
0.5088000000 6.8909000000 1.3672000000
0.5083000000 7.1241000000 1.2377000000
0.5076000000 3.7516000000 2.6920000000
0.5073000000 0.3871000000 0.4397000000
0.5071000000 5.9546000000 1.9215000000
0.5068000000 7.6494000000 0.8418000000
0.5067000000 4.8572000000 2.5657000000
0.5064000000 8.3213000000 0.1311000000
0.5062000000 3.9646000000 2.8228000000
0.5062000000 6.9265000000 1.3561000000
0.5058000000 3.9326000000 2.7938000000
0.5056000000 2.3866000000 1.8986000000
0.5054000000 2.7148000000 2.0863000000
0.5049000000 5.5604000000 2.1575000000
0.5048000000 6.7039000000 1.4862000000
0.5046000000 3.3694000000 2.4776000000
0.5044000000 4.1238000000 2.9126000000
0.5041000000 4.6786000000 2.6629000000
0.5039000000 6.0693000000 1.8531000000
0.5037000000 3.0784000000 2.3002000000
0.5033000000 4.7267000000 2.6361000000
0.5031000000 6.7893000000 1.4296000000
0.5030000000 5.7712000000 2.0271000000
0.5028000000 7.1354000000 1.2249000000
0.5024000000 2.0575000000 1.6974000000
0.5020000000 2.7758000000 2.1196000000
0.5015000000 6.4201000000 1.6416000000
0.5008000000 7.5383000000 0.9495000000
0.5005000000 6.0828000000 1.8392000000
0.5003000000 0.2167000000 0.2398000000
0.5001000000 1.7769000000 1.5348000000
0.4998000000 4.2028000000 2.9164000000
0.4991000000 0.1571000000 0.1795000000
0.4983000000 4.7673000000 2.6031000000
0.4972000000 1.8410000000 1.5711000000
0.4967000000 1.1898000000 1.1903000000
0.4938000000 3.9291000000 2.7896000000
0.2624000000 7.0127000000 1.0499000000
0.2607000000 3.8325000000 2.4936000000
0.2602000000 6.6747000000 1.2483000000
0.2594000000 7.8014000000 0.5945000000
0.2588000000 7.3163000000 0.8732000000
0.2582000000 5.7014000000 1.8151000000
0.2575000000 4.5130000000 2.5070000000
0.2573000000 7.4691000000 0.7874000000
0.2565000000 0.2825000000 0.3193000000
0.2563000000 8.1372000000 0.2751000000
0.2559000000 6.5219000000 1.3397000000
0.2557000000 0.9956000000 0.8300000000
0.2554000000 1.8680000000 1.3421000000
0.2552000000 2.4813000000 1.6954000000
0.2550000000 1.4627000000 1.1003000000
0.2549000000 4.2506000000 2.6581000000
0.2547000000 6.1960000000 1.5271000000
0.2545000000 8.2792000000 0.1110000000
0.2543000000 2.8958000000 1.9437000000
0.2542000000 8.1576000000 0.2480000000
0.2539000000 2.1191000000 1.4854000000
0.2535000000 6.4005000000 1.4037000000
0.2533000000 4.6237000000 2.4404000000
0.2529000000 4.0036000000 2.5845000000
0.2526000000 4.0513000000 2.6131000000
0.2525000000 4.9866000000 2.2275000000
0.2523000000 0.7492000000 0.6813000000
0.2520000000 5.5709000000 1.8817000000
0.2517000000 1.1389000000 0.9102000000
0.2514000000 8.1326000000 0.2761000000
0.2512000000 5.7809000000 1.7611000000
0.2507000000 0.1601000000 0.1769000000
0.2506000000 6.1480000000 1.5430000000
0.2502000000 4.3027000000 2.6261000000
0.2498000000 3.8760000000 2.5088000000
0.2495000000 2.8261000000 1.9013000000
0.2489000000 8.4264000000 0.0838000000
0.2482000000 5.4368000000 1.9601000000
0.2471000000 1.6786000000 1.2243000000
0.2468000000 6.3417000000 1.4265000000
0.0128000000 5.2371000000 1.8381000000
0.0118000000 7.2433000000 0.6652000000
0.0102000000 8.3822000000 0.0393000000
0.0093000000 5.2473000000 1.8287000000
0.0085000000 1.7913000000 1.0472000000
0.0083000000 3.5143000000 2.0563000000
0.0075000000 8.0164000000 0.2043000000
0.0073000000 7.3263000000 0.6111000000
0.0068000000 3.2571000000 1.9030000000
0.0065000000 6.0426000000 1.3627000000
0.0062000000 7.6571000000 0.4188000000
0.0061000000 3.1572000000 1.8435000000
0.0056000000 4.8191000000 2.0719000000
0.0055000000 2.7093000000 1.5765000000
0.0053000000 7.0653000000 0.7598000000
0.0050000000 5.6204000000 1.6083000000
0.0048000000 5.3855000000 1.7472000000
0.0045000000 7.3175000000 0.6159000000
0.0044000000 7.6434000000 0.4250000000
0.0040000000 6.8975000000 0.8648000000
0.0038000000 6.5808000000 1.0506000000
0.0035000000 0.4256000000 0.2405000000
0.0033000000 7.2247000000 0.6716000000
0.0032000000 5.0096000000 1.9638000000
0.0029000000 2.3010000000 1.3412000000
0.0028000000 4.6695000000 2.1570000000
0.0026000000 1.8350000000 1.0712000000
0.0025000000 5.9266000000 1.4190000000
0.0023000000 3.2732000000 1.9034000000
0.0020000000 5.0736000000 1.9206000000
0.0019000000 2.0488000000 1.1912000000
0.0016000000 3.7666000000 2.1947000000
0.0010000000 1.8049000000 1.0424000000
0.0006000000 5.0741000000 1.9228000000
0.0003000000 6.2830000000 1.2167000000
-0.0002000000 2.5679000000 1.4939000000
-0.0012000000 2.9822000000 1.7299000000
-0.0020000000 4.7884000000 2.0879000000
-0.0029000000 0.8715000000 0.4944000000
-0.0043000000 1.4875000000 0.8557000000
-0.2385000000 0.2403000000 0.0344000000
-0.2392000000 2.4292000000 1.1691000000
-0.2406000000 6.6595000000 0.7519000000
-0.2410000000 2.0311000000 0.9319000000
-0.2417000000 6.4996000000 0.8452000000
-0.2425000000 7.4480000000 0.2901000000
-0.2428000000 4.7237000000 1.8820000000
-0.2435000000 4.1386000000 2.1507000000
-0.2439000000 4.3214000000 2.1152000000
-0.2440000000 4.9649000000 1.7320000000
-0.2444000000 6.2633000000 0.9760000000
-0.2448000000 4.9417000000 1.7471000000
-0.2452000000 7.9917000000 0.0451000000
-0.2452000000 5.5718000000 1.3830000000
-0.2455000000 4.7059000000 1.8846000000
-0.2457000000 7.9183000000 0.0845000000
-0.2460000000 2.1011000000 0.9723000000
-0.2462000000 8.0095000000 0.1099000000
-0.2464000000 3.5552000000 1.8226000000
-0.2466000000 1.3142000000 0.5065000000
-0.2467000000 1.8079000000 0.7945000000
-0.2471000000 3.8495000000 1.9876000000
-0.2474000000 6.0956000000 1.0730000000
-0.2477000000 0.2352000000 0.0267000000
-0.2482000000 4.2809000000 2.1311000000
-0.2486000000 1.3168000000 0.5066000000
-0.2491000000 1.5463000000 0.6413000000
-0.2496000000 5.0781000000 1.6614000000
-0.2499000000 5.1189000000 1.6429000000
-0.2515000000 2.3999000000 1.1363000000
-0.2517000000 0.3607000000 0.0941000000
-0.2523000000 5.4786000000 1.4288000000
-0.2532000000 0.2410000000 0.0245000000
-0.2561000000 1.9035000000 0.8410000000
-0.4897000000 2.8407000000 1.1543000000
-0.4908000000 4.7266000000 1.6300000000
-0.4914000000 6.6115000000 0.5183000000
-0.4922000000 6.4849000000 0.6015000000
-0.4925000000 6.0071000000 0.8776000000
-0.4927000000 2.9372000000 1.2121000000
-0.4931000000 5.6941000000 1.0588000000
-0.4937000000 1.0133000000 0.0901000000
-0.4941000000 4.0826000000 1.8742000000
-0.4943000000 4.7586000000 1.5993000000
-0.4945000000 4.3299000000 1.8564000000
-0.4950000000 6.7539000000 0.4353000000
-0.4951000000 3.8738000000 1.7547000000
-0.4953000000 5.2529000000 1.3178000000
-0.4957000000 6.3268000000 0.6943000000
-0.4958000000 1.0644000000 0.1145000000
-0.4962000000 4.2271000000 1.8938000000
-0.4963000000 2.9388000000 1.2028000000
-0.4967000000 1.8744000000 0.5822000000
-0.4971000000 1.3368000000 0.2654000000
-0.4975000000 6.7755000000 0.4230000000
-0.4977000000 2.4482000000 0.9161000000
-0.4980000000 2.1443000000 0.7395000000
-0.4981000000 7.1309000000 0.2069000000
-0.4984000000 6.2572000000 0.7233000000
-0.4988000000 2.3430000000 0.8593000000
-0.4992000000 2.3082000000 0.8383000000
-0.4997000000 5.0364000000 1.4379000000
-0.5003000000 5.0343000000 1.4355000000
-0.5014000000 2.1239000000 0.7212000000
-0.5030000000 6.4274000000 0.6250000000
-0.5048000000 0.8948000000 0.0805000000
-0.5093000000 1.9755000000 0.6321000000
-0.7382000000 6.1018000000 0.5685000000
-0.7404000000 5.8633000000 0.7086000000
-0.7418000000 6.1951000000 0.5168000000
-0.7424000000 6.7997000000 0.1655000000
-0.7427000000 5.0412000000 1.1884000000
-0.7431000000 3.8182000000 1.4685000000
-0.7438000000 5.8823000000 0.6980000000
-0.7442000000 6.2520000000 0.4764000000
-0.7446000000 7.2804000000 0.0320000000
-0.7450000000 5.0462000000 1.1807000000
-0.7453000000 3.5516000000 1.3086000000
-0.7456000000 3.8868000000 1.5025000000
-0.7459000000 2.4025000000 0.6417000000
-0.7460000000 7.0676000000 0.0823000000
-0.7462000000 3.9529000000 1.5445000000
-0.7467000000 2.8257000000 0.8862000000
-0.7469000000 2.4242000000 0.6552000000
-0.7471000000 1.1141000000 0.0391000000
-0.7474000000 3.6771000000 1.3813000000
-0.7477000000 3.0304000000 1.0054000000
-0.7479000000 5.6085000000 0.8513000000
-0.7483000000 2.2040000000 0.5240000000
-0.7486000000 4.9578000000 1.2333000000
-0.7489000000 5.9896000000 0.6306000000
-0.7493000000 7.2933000000 0.0175000000
-0.7501000000 1.9909000000 0.3902000000
-0.7506000000 6.9261000000 0.0802000000
-0.7513000000 3.8826000000 1.4957000000
-0.7529000000 4.0499000000 1.5979000000
-0.7562000000 2.5247000000 0.6974000000
-0.9887000000 5.8272000000 0.4791000000
-0.9912000000 2.2478000000 0.3008000000
-0.9919000000 6.7577000000 0.0876000000
-0.9928000000 2.1898000000 0.2669000000
-0.9934000000 2.4618000000 0.4235000000
-0.9935000000 5.7248000000 0.5315000000
-0.9937000000 3.6897000000 1.1426000000
-0.9940000000 3.7486000000 1.1705000000
-0.9942000000 3.8682000000 1.2474000000
-0.9945000000 3.2222000000 0.8628000000
-0.9950000000 6.2280000000 0.2396000000
-0.9956000000 4.9826000000 0.9623000000
-0.9965000000 2.7019000000 0.5598000000
-0.9970000000 4.7402000000 1.1103000000
-0.9975000000 1.7700000000 0.0899000000
-0.9976000000 2.1023000000 0.2088000000
-0.9980000000 1.6308000000 0.0837000000
-0.9982000000 3.6800000000 1.1263000000
-0.9984000000 5.1577000000 0.8591000000
-0.9987000000 3.6514000000 1.1157000000
-0.9991000000 4.1714000000 1.3965000000
-0.9993000000 1.7004000000 0.0498000000
-0.9997000000 3.8339000000 1.2223000000
-1.0000000000 5.4946000000 0.6600000000
-1.0003000000 3.3881000000 0.9599000000
-1.0007000000 5.4795000000 0.6691000000
-1.0030000000 2.8915000000 0.6624000000
-1.2400000000 3.0411000000 0.5169000000
-1.2412000000 2.8793000000 0.4161000000
-1.2420000000 4.1618000000 1.1511000000
-1.2426000000 2.7085000000 0.3138000000
-1.2436000000 2.4028000000 0.1379000000
-1.2440000000 4.9816000000 0.7182000000
-1.2444000000 5.7664000000 0.2561000000
-1.2445000000 4.5381000000 0.9743000000
-1.2450000000 5.7552000000 0.2578000000
-1.2452000000 5.1455000000 0.6225000000
-1.2458000000 2.8355000000 0.3833000000
-1.2460000000 4.7015000000 0.8750000000
-1.2463000000 6.0853000000 0.0680000000
-1.2464000000 1.9464000000 0.0136000000
-1.2466000000 2.8231000000 0.3782000000
-1.2471000000 6.3061000000 0.0882000000
-1.2472000000 5.1849000000 0.5922000000
-1.2484000000 2.8797000000 0.4119000000
-1.2492000000 3.7555000000 0.9163000000
-1.2500000000 1.9986000000 0.0394000000
-1.2506000000 4.5829000000 0.9436000000
-1.2527000000 4.5374000000 0.9725000000
-1.4855000000 5.5179000000 0.1563000000
-1.4903000000 5.5366000000 0.1401000000
-1.4915000000 5.1749000000 0.3563000000
-1.4929000000 3.0738000000 0.2784000000
-1.4935000000 3.0288000000 0.2465000000
-1.4944000000 4.8100000000 0.5659000000
-1.4948000000 4.0930000000 0.8701000000
-1.4960000000 5.6125000000 0.0979000000
-1.4961000000 5.6389000000 0.0758000000
-1.4968000000 3.6032000000 0.5773000000
-1.4972000000 4.4421000000 0.7754000000
-1.4982000000 3.4207000000 0.4702000000
-1.4987000000 2.9977000000 0.2298000000
-1.4990000000 3.2490000000 0.3690000000
-1.4998000000 5.4420000000 0.1856000000
-1.5008000000 3.4725000000 0.4970000000
-1.5020000000 5.9976000000 0.0137000000
-1.7397000000 3.5883000000 0.3234000000
-1.7407000000 4.5740000000 0.4496000000
-1.7423000000 2.9965000000 0.0574000000
-1.7426000000 3.2982000000 0.1502000000
-1.7456000000 3.5317000000 0.2861000000
-1.7470000000 2.9071000000 0.0706000000
-1.7476000000 4.3286000000 0.5870000000
-1.7488000000 4.7586000000 0.3398000000
-1.7513000000 5.3806000000 0.0425000000
-1.9882000000 5.1276000000 0.0193000000
-1.9920000000 4.2712000000 0.3760000000
-1.9924000000 3.6863000000 0.1301000000
-1.9940000000 3.4822000000 0.0819000000
-1.9960000000 4.5330000000 0.2170000000
-1.9974000000 4.8889000000 0.0856000000
-1.9980000000 4.6023000000 0.1797000000
-1.9984000000 3.3328000000 0.0642000000
-1.9997000000 4.6211000000 0.1549000000
