6.7575000000 3.6856000000 0.0088000000
6.5099000000 4.3943000000 0.0037000000
6.5078000000 3.9168000000 0.1912000000
6.5068000000 3.8623000000 0.1837000000
6.5055000000 4.2389000000 0.0652000000
6.5039000000 3.2993000000 0.0333000000
6.5020000000 3.8163000000 0.1745000000
6.5008000000 3.8138000000 0.1707000000
6.2617000000 4.2678000000 0.2338000000
6.2596000000 4.3592000000 0.1241000000
6.2583000000 2.8737000000 0.0317000000
6.2566000000 3.8185000000 0.3586000000
6.2555000000 4.8633000000 0.0619000000
6.2547000000 4.7160000000 0.0487000000
6.2544000000 4.9573000000 0.0275000000
6.2532000000 4.1636000000 0.2096000000
6.2526000000 3.1073000000 0.0589000000
6.2519000000 2.8972000000 0.0473000000
6.2483000000 4.1851000000 0.2709000000
6.0101000000 5.0768000000 0.0793000000
6.0096000000 2.3660000000 0.0056000000
6.0082000000 4.8424000000 0.1758000000
6.0072000000 2.7229000000 0.0783000000
6.0067000000 4.4350000000 0.2728000000
6.0062000000 4.2818000000 0.4166000000
6.0058000000 4.4715000000 0.2544000000
6.0046000000 4.3058000000 0.4032000000
6.0041000000 4.9817000000 0.1162000000
6.0038000000 2.9463000000 0.1682000000
6.0035000000 3.5842000000 0.4432000000
6.0030000000 3.0131000000 0.1992000000
6.0026000000 2.3652000000 0.0045000000
6.0011000000 3.2512000000 0.3025000000
6.0004000000 3.2420000000 0.2990000000
6.0000000000 5.4576000000 0.0003000000
5.9970000000 4.7163000000 0.1636000000
5.7609000000 5.8693000000 0.0015000000
5.7595000000 2.9873000000 0.3702000000
5.7585000000 3.1683000000 0.4469000000
5.7580000000 5.2035000000 0.2022000000
5.7572000000 3.3386000000 0.5154000000
5.7565000000 4.7399000000 0.3993000000
5.7563000000 5.7493000000 0.0567000000
5.7554000000 3.0423000000 0.3928000000
5.7552000000 5.7717000000 0.0468000000
5.7540000000 5.2138000000 0.1354000000
5.7538000000 5.2004000000 0.1380000000
5.7535000000 1.9347000000 0.0060000000
5.7527000000 5.4753000000 0.1010000000
5.7521000000 5.2871000000 0.1771000000
5.7510000000 2.6601000000 0.2396000000
5.7492000000 2.2217000000 0.0485000000
5.5147000000 5.2993000000 0.3455000000
5.5094000000 2.6764000000 0.4167000000
5.5085000000 3.0192000000 0.5645000000
5.5081000000 2.4363000000 0.3200000000
5.5076000000 2.5213000000 0.3526000000
5.5070000000 6.0318000000 0.0392000000
5.5068000000 1.9446000000 0.1095000000
5.5065000000 6.1759000000 0.0604000000
5.5061000000 5.8884000000 0.0987000000
5.5057000000 3.1419000000 0.6109000000
5.5055000000 2.2995000000 0.2651000000
5.5050000000 1.7220000000 0.0217000000
5.5050000000 4.9154000000 0.5076000000
5.5045000000 3.9512000000 0.9021000000
5.5040000000 2.8996000000 0.5150000000
5.5033000000 5.2021000000 0.3843000000
5.5027000000 4.6350000000 0.5551000000
5.5022000000 3.5585000000 0.7971000000
5.5020000000 2.8110000000 0.4854000000
5.5013000000 3.4303000000 0.7379000000
5.5010000000 4.8012000000 0.5634000000
5.5005000000 1.5531000000 0.0304000000
5.5000000000 2.1387000000 0.1986000000
5.4986000000 1.9362000000 0.1176000000
5.2643000000 2.1894000000 0.3909000000
5.2600000000 5.9204000000 0.1942000000
5.2591000000 5.2436000000 0.5506000000
5.2587000000 4.4782000000 0.8767000000
5.2580000000 4.4994000000 0.7887000000
5.2574000000 4.2967000000 0.9498000000
5.2568000000 4.2160000000 0.9004000000
5.2565000000 3.8316000000 1.0810000000
5.2558000000 3.3501000000 0.8798000000
5.2556000000 2.9613000000 0.7315000000
5.2551000000 2.5671000000 0.5551000000
5.2548000000 6.2747000000 0.1249000000
5.2545000000 6.5285000000 0.0165000000
5.2543000000 4.2572000000 0.9709000000
5.2540000000 6.1527000000 0.1046000000
5.2538000000 3.2779000000 0.8494000000
5.2534000000 5.6143000000 0.3237000000
5.2531000000 5.0796000000 0.6261000000
5.2525000000 5.9710000000 0.1790000000
5.2517000000 4.2818000000 0.8843000000
5.2505000000 3.6626000000 1.0182000000
5.2498000000 5.0431000000 0.6416000000
5.2490000000 1.9051000000 0.2899000000
5.2462000000 3.2618000000 0.8550000000
5.0115000000 4.4257000000 0.9949000000
5.0106000000 6.6334000000 0.0757000000
5.0101000000 4.7916000000 0.8445000000
5.0098000000 5.9207000000 0.3701000000
5.0090000000 2.4162000000 0.6689000000
5.0082000000 5.7792000000 0.4346000000
5.0079000000 5.1300000000 0.7027000000
5.0074000000 1.3608000000 0.2308000000
5.0070000000 2.8938000000 0.8743000000
5.0068000000 5.8139000000 0.4249000000
5.0060000000 3.7606000000 1.2350000000
5.0058000000 5.7045000000 0.5449000000
5.0055000000 1.9945000000 0.4950000000
5.0050000000 6.4799000000 0.1411000000
5.0045000000 3.4711000000 1.1112000000
5.0038000000 3.8289000000 1.2696000000
5.0035000000 3.7878000000 1.2463000000
5.0032000000 4.6389000000 0.9152000000
5.0028000000 4.1742000000 1.1102000000
5.0026000000 1.2229000000 0.1745000000
5.0022000000 3.9534000000 1.2659000000
5.0018000000 4.4321000000 1.0767000000
5.0017000000 4.7066000000 0.8928000000
5.0015000000 2.0671000000 0.5300000000
5.0011000000 0.9249000000 0.0559000000
5.0008000000 4.0249000000 1.2460000000
4.9999000000 2.6463000000 0.7769000000
4.9993000000 1.7214000000 0.3870000000
4.9980000000 1.9541000000 0.4835000000
4.9975000000 1.2721000000 0.2037000000
4.7621000000 4.3457000000 1.2846000000
4.7604000000 5.4695000000 0.7419000000
4.7600000000 1.9829000000 0.6671000000
4.7593000000 3.6515000000 1.3674000000
4.7585000000 3.6666000000 1.3824000000
4.7575000000 1.0128000000 0.1948000000
4.7569000000 7.4063000000 0.0114000000
4.7566000000 4.0451000000 1.4113000000
4.7561000000 5.4760000000 0.8195000000
4.7554000000 7.1543000000 0.1202000000
4.7553000000 6.2315000000 0.4311000000
4.7549000000 1.0325000000 0.2753000000
4.7544000000 3.3474000000 1.2441000000
4.7541000000 1.0679000000 0.2912000000
4.7540000000 4.7526000000 1.1274000000
4.7538000000 1.4888000000 0.4719000000
4.7536000000 6.0079000000 0.5262000000
4.7529000000 4.2231000000 1.2728000000
4.7526000000 6.3378000000 0.3894000000
4.7524000000 4.6828000000 1.0769000000
4.7521000000 3.0946000000 1.1406000000
4.7520000000 2.4312000000 0.8636000000
4.7517000000 2.2488000000 0.7886000000
4.7512000000 3.1568000000 1.1712000000
4.7508000000 0.2238000000 0.0192000000
4.7502000000 6.2931000000 0.4784000000
4.7496000000 2.4573000000 0.8754000000
4.7489000000 0.4269000000 0.0284000000
4.7473000000 1.0375000000 0.2844000000
4.7459000000 0.9450000000 0.2446000000
4.5134000000 6.6256000000 0.4495000000
4.5115000000 7.3400000000 0.1412000000
4.5092000000 3.8930000000 1.6344000000
4.5087000000 7.6643000000 0.0796000000
4.5080000000 1.6905000000 0.7326000000
4.5078000000 3.3012000000 1.4067000000
4.5073000000 5.2391000000 1.1031000000
4.5071000000 6.3380000000 0.5704000000
4.5066000000 7.1442000000 0.2243000000
4.5064000000 2.0021000000 0.8643000000
4.5063000000 7.4545000000 0.0980000000
4.5060000000 0.2577000000 0.1317000000
4.5057000000 3.9266000000 1.6349000000
4.5055000000 4.5653000000 1.3822000000
4.5054000000 3.9477000000 1.6279000000
4.5051000000 5.1066000000 1.1577000000
4.5050000000 3.1595000000 1.3491000000
4.5046000000 3.2737000000 1.3993000000
4.5044000000 5.7595000000 0.8078000000
4.5043000000 1.3626000000 0.5968000000
4.5040000000 3.4836000000 1.4848000000
4.5038000000 2.1820000000 0.9412000000
4.5032000000 7.3755000000 0.1400000000
4.5030000000 5.1217000000 1.0797000000
4.5025000000 3.1149000000 1.3280000000
4.5018000000 4.5904000000 1.3684000000
4.5015000000 5.9550000000 0.7275000000
4.5013000000 2.9460000000 1.2617000000
4.5010000000 1.5329000000 0.6716000000
4.4999000000 4.8157000000 1.2798000000
4.4997000000 2.6112000000 1.1190000000
4.4985000000 0.2996000000 0.1603000000
4.4977000000 2.1654000000 0.9409000000
4.4965000000 0.1107000000 0.0730000000
4.2653000000 7.3701000000 0.3673000000
4.2614000000 5.9905000000 0.8932000000
4.2604000000 5.8083000000 1.0441000000
4.2600000000 6.7933000000 0.6246000000
4.2592000000 5.1270000000 1.3260000000
4.2588000000 7.2154000000 0.4534000000
4.2583000000 1.7648000000 0.9428000000
4.2581000000 5.3196000000 1.1715000000
4.2575000000 2.6315000000 1.3053000000
4.2572000000 7.8438000000 0.0687000000
4.2566000000 5.4770000000 1.1808000000
4.2564000000 2.4622000000 1.2335000000
4.2562000000 5.7236000000 1.0006000000
4.2560000000 2.5291000000 1.2652000000
4.2558000000 2.4069000000 1.2124000000
4.2557000000 7.0420000000 0.4525000000
4.2554000000 1.4205000000 0.7231000000
4.2556000000 5.7770000000 1.0551000000
4.2547000000 2.9160000000 1.4211000000
4.2542000000 2.0089000000 1.0456000000
4.2538000000 4.8696000000 1.3640000000
4.2535000000 7.0347000000 0.4553000000
4.2531000000 2.9604000000 1.4482000000
4.2530000000 6.6012000000 0.7093000000
4.2529000000 6.5339000000 0.7423000000
4.2526000000 4.3205000000 1.6703000000
4.2523000000 1.1434000000 0.6147000000
4.2518000000 1.7228000000 0.9268000000
4.2516000000 4.0899000000 1.7624000000
4.2512000000 0.3379000000 0.2987000000
4.2505000000 0.8288000000 0.5568000000
4.2500000000 0.5412000000 0.4254000000
4.2496000000 1.8909000000 1.0037000000
4.2484000000 4.5192000000 1.5843000000
4.2469000000 5.3755000000 1.1624000000
4.0131000000 4.1359000000 1.8415000000
4.0108000000 7.1785000000 0.4807000000
4.0098000000 6.2848000000 1.0193000000
4.0097000000 5.0057000000 1.5545000000
4.0094000000 4.7191000000 1.6012000000
4.0092000000 5.5136000000 1.2728000000
4.0089000000 2.3328000000 1.3542000000
4.0083000000 3.8866000000 1.9950000000
4.0077000000 6.1482000000 1.0018000000
4.0075000000 6.9412000000 0.7355000000
4.0069000000 2.2278000000 1.3176000000
4.0066000000 7.8408000000 0.0737000000
4.0066000000 2.4930000000 1.4222000000
4.0065000000 2.8261000000 1.5702000000
4.0063000000 5.0263000000 1.4756000000
4.0062000000 2.6488000000 1.4962000000
4.0059000000 1.7733000000 1.1280000000
4.0057000000 5.9206000000 1.1060000000
4.0055000000 3.1388000000 1.6980000000
4.0053000000 7.0833000000 0.5596000000
4.0051000000 4.1091000000 1.9354000000
4.0049000000 7.6353000000 0.0900000000
4.0048000000 2.9954000000 1.6424000000
4.0046000000 5.5962000000 1.3138000000
4.0042000000 2.8412000000 1.5692000000
4.0038000000 3.1856000000 1.7159000000
4.0036000000 5.6074000000 1.3155000000
4.0034000000 2.1546000000 1.2909000000
4.0032000000 7.3136000000 0.3682000000
4.0027000000 3.4124000000 1.8162000000
4.0025000000 1.6022000000 0.9856000000
4.0021000000 1.8757000000 1.1730000000
4.0020000000 2.1536000000 1.2929000000
4.0017000000 3.5259000000 1.8673000000
4.0013000000 6.0765000000 1.1100000000
4.0011000000 1.0700000000 0.8319000000
4.0005000000 4.5291000000 1.7643000000
3.9999000000 0.4688000000 0.4114000000
3.9995000000 2.6671000000 1.5016000000
3.9990000000 0.8727000000 0.7425000000
3.9977000000 2.9052000000 1.6093000000
3.9936000000 0.0833000000 0.0952000000
3.7629000000 6.9418000000 0.6737000000
3.7615000000 7.3365000000 0.3481000000
3.7600000000 4.3459000000 2.0088000000
3.7594000000 4.0840000000 2.1190000000
3.7589000000 7.1169000000 0.5276000000
3.7587000000 3.4458000000 2.0101000000
3.7583000000 0.7532000000 0.6544000000
3.7579000000 7.7489000000 0.0753000000
3.7575000000 7.2345000000 0.4360000000
3.7567000000 5.6886000000 1.3829000000
3.7563000000 0.1414000000 0.1476000000
3.7563000000 5.5901000000 1.4923000000
3.7558000000 4.9187000000 1.7049000000
3.7555000000 7.0134000000 0.6101000000
3.7553000000 7.3244000000 0.3607000000
3.7551000000 3.1883000000 1.8991000000
3.7549000000 0.8707000000 0.7541000000
3.7547000000 4.9067000000 1.7803000000
3.7545000000 1.9112000000 1.3709000000
3.7540000000 7.8014000000 0.0299000000
3.7537000000 6.5532000000 1.0620000000
3.7534000000 2.2086000000 1.4854000000
3.7531000000 3.3239000000 1.9612000000
3.7528000000 0.8736000000 0.7582000000
3.7526000000 3.6946000000 2.1161000000
3.7523000000 1.6595000000 1.2646000000
3.7519000000 0.0498000000 0.0648000000
3.7515000000 0.5424000000 0.4771000000
3.7509000000 4.4169000000 1.9880000000
3.7507000000 2.2860000000 1.5234000000
3.7505000000 1.4537000000 1.1854000000
3.7501000000 1.9580000000 1.3941000000
3.7495000000 3.3476000000 1.9737000000
3.7487000000 2.2435000000 1.5079000000
3.7473000000 0.6804000000 0.5925000000
3.7469000000 1.1258000000 0.9670000000
3.5129000000 7.7259000000 0.0928000000
3.5117000000 5.1184000000 1.8691000000
3.5101000000 4.7673000000 1.9409000000
3.5093000000 3.9036000000 2.3628000000
3.5087000000 2.3476000000 1.7253000000
3.5077000000 3.7837000000 2.3316000000
3.5075000000 5.6814000000 1.5650000000
3.5073000000 2.1981000000 1.6688000000
3.5071000000 4.6927000000 2.0466000000
3.5069000000 0.6441000000 0.5658000000
3.5068000000 7.7381000000 0.0777000000
3.5065000000 3.5536000000 2.2303000000
3.5063000000 7.3287000000 0.3555000000
3.5060000000 2.1501000000 1.6510000000
3.5057000000 6.7956000000 0.7984000000
3.5054000000 2.7434000000 1.8951000000
3.5052000000 6.3083000000 1.2040000000
3.5051000000 5.6568000000 1.6507000000
3.5049000000 4.0306000000 2.3287000000
3.5048000000 5.8027000000 1.5878000000
3.5046000000 3.9163000000 2.3595000000
3.5044000000 4.7002000000 2.0486000000
3.5038000000 3.8566000000 2.3512000000
3.5033000000 4.9199000000 1.8836000000
3.5031000000 5.3103000000 1.7967000000
3.5029000000 0.4621000000 0.3403000000
3.5024000000 2.3042000000 1.7141000000
3.5022000000 6.5075000000 1.0390000000
3.5021000000 5.8659000000 1.4906000000
3.5018000000 3.7928000000 2.3378000000
3.5017000000 0.7475000000 0.6425000000
3.5016000000 5.8638000000 1.4927000000
3.5013000000 3.3507000000 2.1614000000
3.5008000000 1.3204000000 1.1311000000
3.5002000000 3.0964000000 2.0480000000
3.5000000000 0.0810000000 0.0950000000
3.4997000000 3.9147000000 2.3683000000
3.4991000000 2.2040000000 1.6751000000
3.4977000000 6.4241000000 1.1063000000
3.4968000000 1.4019000000 1.1992000000
3.4955000000 3.8622000000 2.3650000000
3.2617000000 7.8218000000 0.0136000000
3.2614000000 1.9288000000 1.6387000000
3.2597000000 6.0865000000 1.3931000000
3.2589000000 3.4916000000 2.3877000000
3.2582000000 6.3265000000 1.1876000000
3.2574000000 0.1517000000 0.1543000000
3.2572000000 7.2353000000 0.4313000000
3.2568000000 5.2845000000 1.9888000000
3.2567000000 1.5014000000 1.2820000000
3.2565000000 4.5988000000 2.1999000000
3.2564000000 0.6596000000 0.4990000000
3.2558000000 6.2449000000 1.2616000000
3.2555000000 2.1368000000 1.7995000000
3.2554000000 4.1705000000 2.3667000000
3.2551000000 6.1338000000 1.3518000000
3.2549000000 2.1465000000 1.8073000000
3.2546000000 2.4347000000 1.9473000000
3.2544000000 5.6091000000 1.8373000000
3.2542000000 6.9831000000 0.6390000000
3.2538000000 3.4081000000 2.3595000000
3.2536000000 0.2062000000 0.1227000000
3.2532000000 3.8918000000 2.5447000000
3.2530000000 6.6997000000 0.8765000000
3.2529000000 4.6809000000 2.1708000000
3.2528000000 5.4630000000 1.8398000000
3.2525000000 0.3899000000 0.3501000000
3.2524000000 0.7309000000 0.6357000000
3.2521000000 0.6330000000 0.5602000000
3.2516000000 0.3053000000 0.2843000000
3.2508000000 4.0907000000 2.4874000000
3.2506000000 7.3926000000 0.2937000000
3.2495000000 0.2233000000 0.2060000000
3.2485000000 5.5866000000 1.8528000000
3.2477000000 0.7936000000 0.6894000000
3.2462000000 0.9677000000 0.8355000000
3.0127000000 7.7399000000 0.0829000000
3.0117000000 4.1384000000 2.5675000000
3.0109000000 4.0590000000 2.5960000000
3.0105000000 2.0489000000 1.7419000000
3.0098000000 5.3702000000 1.9893000000
3.0092000000 4.3132000000 2.4978000000
3.0087000000 4.3391000000 2.4824000000
3.0084000000 7.6097000000 0.1114000000
3.0078000000 5.1459000000 2.2150000000
3.0075000000 1.5921000000 1.3540000000
3.0073000000 0.9923000000 0.8560000000
3.0072000000 6.9880000000 0.6395000000
3.0069000000 1.3343000000 1.1441000000
3.0068000000 3.8526000000 2.7156000000
3.0066000000 5.5357000000 1.8526000000
3.0064000000 7.8327000000 0.0031000000
3.0061000000 2.5849000000 2.1690000000
3.0059000000 4.9827000000 2.2927000000
3.0058000000 7.6146000000 0.1144000000
3.0055000000 5.0586000000 2.2627000000
3.0051000000 6.2135000000 1.2840000000
3.0050000000 4.9979000000 2.2069000000
3.0048000000 4.8310000000 2.2860000000
3.0045000000 4.3260000000 2.5660000000
3.0043000000 5.9302000000 1.5232000000
3.0040000000 7.1208000000 0.5277000000
3.0037000000 3.3199000000 2.4990000000
3.0033000000 5.7119000000 1.7030000000
3.0032000000 4.1258000000 2.6506000000
3.0029000000 5.0659000000 2.2584000000
3.0027000000 4.6125000000 2.4482000000
3.0026000000 4.6518000000 2.4342000000
3.0020000000 4.9957000000 2.2852000000
3.0018000000 4.6558000000 2.4348000000
3.0015000000 3.6516000000 2.6426000000
3.0011000000 0.1817000000 0.1823000000
3.0005000000 4.5582000000 2.4725000000
3.0002000000 4.7281000000 2.4038000000
2.9995000000 1.3707000000 1.1699000000
2.9975000000 1.3258000000 1.1342000000
2.9943000000 2.7580000000 2.2721000000
2.7615000000 7.1080000000 0.5360000000
2.7606000000 6.9861000000 0.6413000000
2.7605000000 5.8734000000 1.5714000000
2.7595000000 1.8584000000 1.5781000000
2.7594000000 7.1075000000 0.5352000000
2.7585000000 5.2595000000 2.0834000000
2.7580000000 6.9762000000 0.6496000000
2.7578000000 6.8948000000 0.7192000000
2.7575000000 1.2477000000 1.0691000000
2.7573000000 2.0734000000 1.7565000000
2.7571000000 5.7201000000 1.6988000000
2.7569000000 5.3408000000 2.0170000000
2.7566000000 3.1848000000 2.6182000000
2.7561000000 6.6169000000 0.9478000000
2.7560000000 5.7293000000 1.6875000000
2.7558000000 7.3129000000 0.3638000000
2.7553000000 5.4864000000 1.8970000000
2.7550000000 2.2108000000 1.8764000000
2.7548000000 7.8451000000 0.0698000000
2.7545000000 1.6778000000 1.4294000000
2.7543000000 7.4515000000 0.2442000000
2.7542000000 3.0820000000 2.5602000000
2.7539000000 1.6335000000 1.3879000000
2.7536000000 4.6464000000 2.6094000000
2.7534000000 4.4688000000 2.6910000000
2.7530000000 0.0594000000 0.0720000000
2.7529000000 3.1461000000 2.6075000000
2.7522000000 5.2918000000 2.0546000000
2.7519000000 6.5105000000 1.0362000000
2.7515000000 2.9244000000 2.4695000000
2.7513000000 3.7072000000 2.8436000000
2.7511000000 0.4695000000 0.4119000000
2.7508000000 6.6949000000 0.8774000000
2.7503000000 0.9454000000 0.8174000000
2.7498000000 2.8410000000 2.4023000000
2.7488000000 4.1943000000 2.8091000000
2.7480000000 1.3393000000 1.1477000000
2.7412000000 1.8836000000 1.6022000000
2.5120000000 7.0112000000 0.6192000000
2.5104000000 7.1405000000 0.5119000000
2.5098000000 7.7156000000 0.0985000000
2.5091000000 5.9829000000 1.4761000000
2.5082000000 3.8396000000 3.0777000000
2.5077000000 6.8162000000 0.7796000000
2.5074000000 6.1043000000 1.3773000000
2.5073000000 5.9723000000 1.4794000000
2.5071000000 3.1420000000 2.6482000000
2.5068000000 6.8935000000 0.7165000000
2.5065000000 4.6249000000 2.6067000000
2.5061000000 0.0689000000 0.0880000000
2.5059000000 4.0810000000 2.9545000000
2.5057000000 7.7770000000 0.0531000000
2.5055000000 4.3212000000 2.9145000000
2.5054000000 5.8209000000 1.6151000000
2.5052000000 2.9945000000 2.5222000000
2.5050000000 3.6960000000 3.0161000000
2.5049000000 6.9674000000 0.6573000000
2.5045000000 6.0370000000 1.4329000000
2.5043000000 6.3051000000 1.2098000000
2.5041000000 0.6901000000 0.5994000000
2.5038000000 2.9815000000 2.5207000000
2.5036000000 6.4864000000 1.0564000000
2.5034000000 3.7971000000 3.0589000000
2.5032000000 1.6040000000 1.3691000000
2.5030000000 2.6473000000 2.2400000000
2.5026000000 2.1028000000 1.7835000000
2.5018000000 0.6104000000 0.5336000000
2.5016000000 1.7400000000 1.4779000000
2.5014000000 1.3432000000 1.1510000000
2.5012000000 5.5067000000 1.8749000000
2.5007000000 2.4875000000 2.1025000000
2.5004000000 3.3526000000 2.8316000000
2.4999000000 4.8809000000 2.3959000000
2.4994000000 0.9746000000 0.8351000000
2.4986000000 6.1460000000 1.3394000000
2.4967000000 0.4850000000 0.4339000000
2.2633000000 6.3858000000 1.1447000000
2.2606000000 7.3913000000 0.3000000000
2.2596000000 2.8053000000 2.3763000000
2.2593000000 7.6700000000 0.0656000000
2.2590000000 2.9585000000 2.4965000000
2.2588000000 6.6035000000 0.9582000000
2.2581000000 7.0544000000 0.5801000000
2.2577000000 6.7269000000 0.8615000000
2.2574000000 5.3240000000 2.0273000000
2.2570000000 2.0059000000 1.7034000000
2.2568000000 7.2721000000 0.3956000000
2.2565000000 3.9704000000 3.1772000000
2.2560000000 6.5064000000 1.0355000000
2.2558000000 7.4165000000 0.2794000000
2.2556000000 7.1008000000 0.5431000000
2.2554000000 5.1289000000 2.1926000000
2.2549000000 6.1305000000 1.3535000000
2.2545000000 3.5361000000 2.9810000000
2.2543000000 5.7511000000 1.6756000000
2.2542000000 1.3274000000 1.1353000000
2.2539000000 4.8266000000 2.4453000000
2.2536000000 5.5381000000 1.8506000000
2.2535000000 4.1050000000 3.0448000000
2.2533000000 2.5037000000 2.1215000000
2.2531000000 1.1560000000 0.9955000000
2.2528000000 1.4877000000 1.2732000000
2.2522000000 2.2718000000 1.9232000000
2.2519000000 0.9306000000 0.8034000000
2.2514000000 6.4224000000 1.1113000000
2.2512000000 1.2611000000 1.0795000000
2.2506000000 0.2719000000 0.2550000000
2.2503000000 5.6944000000 1.7136000000
2.2500000000 3.3622000000 2.8289000000
2.2495000000 0.4159000000 0.2937000000
2.2492000000 2.1150000000 1.7922000000
2.2484000000 0.5521000000 0.4885000000
2.2478000000 3.5960000000 3.0321000000
2.2475000000 5.2928000000 2.0576000000
2.2463000000 0.7776000000 0.6748000000
2.0118000000 5.0895000000 2.2241000000
2.0105000000 2.9788000000 2.5150000000
2.0101000000 6.2423000000 1.2602000000
2.0084000000 3.8821000000 3.0913000000
2.0080000000 5.7485000000 1.6694000000
2.0077000000 5.9317000000 1.5208000000
2.0073000000 3.3701000000 2.8361000000
2.0070000000 1.1861000000 1.0173000000
2.0068000000 4.9204000000 2.3695000000
2.0065000000 3.8804000000 3.0806000000
2.0058000000 2.7062000000 2.2869000000
2.0055000000 4.8199000000 2.4504000000
2.0053000000 2.8782000000 2.4259000000
2.0052000000 1.1450000000 0.9845000000
2.0048000000 5.3529000000 2.0015000000
2.0047000000 7.7168000000 0.0980000000
2.0043000000 6.6884000000 0.8864000000
2.0040000000 6.9598000000 0.6653000000
2.0037000000 6.8599000000 0.7444000000
2.0035000000 2.9995000000 2.5316000000
2.0033000000 4.6288000000 2.6847000000
2.0030000000 2.2265000000 1.8852000000
2.0027000000 0.6661000000 0.5815000000
2.0025000000 1.7940000000 1.5250000000
2.0021000000 6.4710000000 1.0664000000
2.0019000000 4.1198000000 2.9418000000
2.0017000000 7.3430000000 0.3368000000
2.0014000000 1.8228000000 1.5429000000
2.0011000000 3.2940000000 2.7801000000
2.0005000000 6.2423000000 1.2687000000
1.9996000000 2.4604000000 2.0801000000
1.9994000000 3.9189000000 3.0825000000
1.9991000000 4.0531000000 2.9667000000
1.9987000000 5.8845000000 1.5567000000
1.9978000000 0.1314000000 0.0583000000
1.9970000000 0.4594000000 0.3353000000
1.9894000000 0.1897000000 0.1831000000
1.7610000000 6.4785000000 1.0616000000
1.7601000000 7.5976000000 0.1242000000
1.7599000000 6.7120000000 0.8683000000
1.7592000000 2.7560000000 2.3264000000
1.7591000000 7.0430000000 0.5890000000
1.7587000000 1.4109000000 1.2047000000
1.7579000000 6.7998000000 0.7969000000
1.7575000000 2.8838000000 2.4358000000
1.7572000000 5.8182000000 1.6175000000
1.7569000000 1.9609000000 1.6722000000
1.7566000000 2.6053000000 2.2069000000
1.7565000000 5.0815000000 2.2315000000
1.7561000000 0.5481000000 0.4091000000
1.7558000000 4.1065000000 2.8430000000
1.7558000000 5.7533000000 1.6654000000
1.7555000000 1.4518000000 1.2410000000
1.7553000000 1.1850000000 1.0154000000
1.7551000000 5.6844000000 1.7289000000
1.7550000000 2.1943000000 1.8596000000
1.7548000000 4.2262000000 2.7235000000
1.7545000000 3.9922000000 2.8908000000
1.7542000000 2.2211000000 1.8853000000
1.7537000000 1.0893000000 0.9330000000
1.7535000000 5.6964000000 1.7188000000
1.7532000000 3.3163000000 2.6782000000
1.7528000000 7.5073000000 0.2017000000
1.7525000000 4.7095000000 2.5734000000
1.7524000000 2.8269000000 2.3892000000
1.7522000000 5.5368000000 1.8447000000
1.7520000000 1.9825000000 1.6856000000
1.7518000000 3.8392000000 2.8995000000
1.7515000000 1.3524000000 1.1540000000
1.7513000000 4.1342000000 2.7511000000
1.7510000000 0.3584000000 0.2515000000
1.7509000000 1.2090000000 1.0363000000
1.7503000000 6.9517000000 0.6662000000
1.7500000000 0.2057000000 0.1988000000
1.7489000000 4.2055000000 2.7203000000
1.7487000000 0.4397000000 0.3148000000
1.7483000000 1.6974000000 1.4440000000
1.7477000000 7.1219000000 0.5204000000
1.7452000000 1.9693000000 1.6745000000
1.5129000000 6.3141000000 1.1978000000
1.5119000000 7.6706000000 0.0674000000
1.5103000000 3.6865000000 2.6623000000
1.5097000000 6.0956000000 1.3789000000
1.5093000000 6.0483000000 1.4227000000
1.5090000000 5.4407000000 1.9357000000
1.5083000000 5.2037000000 2.1882000000
1.5078000000 2.9314000000 2.3395000000
1.5075000000 2.6345000000 2.2065000000
1.5071000000 6.0222000000 1.4433000000
1.5069000000 5.5920000000 1.8016000000
1.5068000000 5.5098000000 1.8758000000
1.5064000000 4.2917000000 2.5170000000
1.5063000000 2.3870000000 2.0179000000
1.5062000000 2.1022000000 1.7802000000
1.5060000000 0.3871000000 0.3545000000
1.5059000000 7.3239000000 0.3557000000
1.5057000000 6.5656000000 0.9881000000
1.5055000000 2.1091000000 1.7881000000
1.5048000000 4.4911000000 2.4243000000
1.5047000000 2.9879000000 2.3615000000
1.5045000000 2.0107000000 1.7043000000
1.5042000000 4.0499000000 2.6121000000
1.5037000000 1.8131000000 1.5392000000
1.5035000000 2.2474000000 1.9115000000
1.5034000000 7.1185000000 0.5258000000
1.5032000000 7.2106000000 0.4522000000
1.5030000000 6.5963000000 0.9654000000
1.5027000000 2.4118000000 2.0402000000
1.5025000000 0.3143000000 0.2903000000
1.5023000000 4.7226000000 2.3277000000
1.5017000000 4.0050000000 2.6284000000
1.5011000000 2.8561000000 2.2994000000
1.5008000000 2.4578000000 2.0850000000
1.5004000000 0.1715000000 0.1719000000
1.5002000000 0.4802000000 0.4260000000
1.4995000000 3.9889000000 2.6394000000
1.4987000000 3.1907000000 2.4458000000
1.4978000000 2.0579000000 1.7408000000
1.4967000000 2.3793000000 2.0134000000
1.4948000000 0.1988000000 0.1162000000
1.2629000000 7.2176000000 0.4440000000
1.2608000000 7.5340000000 0.1796000000
1.2602000000 6.3907000000 1.1339000000
1.2598000000 4.1283000000 2.4714000000
1.2593000000 2.1465000000 1.8048000000
1.2584000000 7.2426000000 0.4266000000
1.2581000000 5.2897000000 1.9170000000
1.2576000000 2.2112000000 1.8503000000
1.2573000000 0.0210000000 0.0442000000
1.2566000000 5.7193000000 1.7553000000
1.2565000000 0.3132000000 0.2931000000
1.2562000000 3.2662000000 2.2992000000
1.2561000000 7.3091000000 0.3680000000
1.2557000000 3.0854000000 2.2249000000
1.2555000000 0.8185000000 0.7110000000
1.2550000000 7.5640000000 0.1537000000
1.2548000000 1.4878000000 1.2717000000
1.2544000000 2.9899000000 2.1862000000
1.2541000000 4.3236000000 2.3125000000
1.2538000000 3.8808000000 2.5437000000
1.2536000000 6.9142000000 0.7016000000
1.2532000000 0.2245000000 0.2173000000
1.2529000000 3.6292000000 2.4457000000
1.2528000000 6.3262000000 1.1928000000
1.2524000000 1.3214000000 1.1306000000
1.2522000000 4.1401000000 2.3918000000
1.2519000000 1.9007000000 1.6133000000
1.2515000000 5.8386000000 1.6015000000
1.2513000000 4.1542000000 2.3870000000
1.2508000000 5.1156000000 1.9810000000
1.2505000000 1.5044000000 1.2828000000
1.2502000000 0.9430000000 0.8148000000
1.2494000000 1.4794000000 1.2663000000
1.2472000000 3.0986000000 2.2250000000
1.2468000000 2.2596000000 1.8652000000
1.2421000000 0.3419000000 0.2370000000
1.0108000000 4.9027000000 1.8930000000
1.0100000000 6.6692000000 0.9043000000
1.0083000000 6.4968000000 1.0450000000
1.0078000000 4.9036000000 1.8921000000
1.0074000000 3.9172000000 2.3622000000
1.0068000000 4.6265000000 2.0078000000
1.0065000000 2.6890000000 1.8778000000
1.0063000000 5.8077000000 1.5155000000
1.0060000000 6.5464000000 1.0017000000
1.0058000000 2.6029000000 1.8444000000
1.0055000000 5.2216000000 1.7588000000
1.0053000000 1.4317000000 1.2188000000
1.0050000000 5.2436000000 1.7524000000
1.0048000000 4.1421000000 2.2156000000
1.0046000000 6.8501000000 0.7501000000
1.0040000000 6.4182000000 1.1127000000
1.0038000000 0.0899000000 0.1034000000
1.0036000000 3.3211000000 2.1438000000
1.0035000000 7.2943000000 0.3807000000
1.0033000000 7.2511000000 0.4202000000
1.0030000000 6.5491000000 1.0019000000
1.0030000000 1.3905000000 1.1849000000
1.0028000000 1.8638000000 1.5332000000
1.0024000000 0.2415000000 0.2312000000
1.0022000000 2.8368000000 1.9334000000
1.0020000000 4.6445000000 2.0018000000
1.0018000000 4.3642000000 2.1871000000
1.0015000000 0.3490000000 0.3154000000
1.0011000000 6.7132000000 0.8663000000
1.0009000000 5.8202000000 1.5086000000
1.0005000000 1.3498000000 1.1528000000
1.0003000000 1.1064000000 0.9495000000
1.0000000000 5.1751000000 1.7704000000
0.9997000000 5.3960000000 1.6853000000
0.9993000000 6.2693000000 1.2391000000
0.9982000000 1.5675000000 1.3378000000
0.9971000000 0.7060000000 0.6203000000
0.7619000000 7.6566000000 0.0807000000
0.7602000000 6.3750000000 1.0985000000
0.7595000000 1.7785000000 1.3227000000
0.7591000000 4.3688000000 1.9373000000
0.7587000000 5.6558000000 1.3991000000
0.7580000000 5.2115000000 1.5858000000
0.7578000000 1.7518000000 1.3073000000
0.7574000000 6.7523000000 0.8268000000
0.7572000000 3.9972000000 2.0964000000
0.7569000000 7.2838000000 0.3917000000
0.7567000000 5.6020000000 1.4203000000
0.7563000000 3.7300000000 2.1276000000
0.7558000000 5.4584000000 1.4782000000
0.7555000000 6.9903000000 0.6348000000
0.7552000000 4.9176000000 1.7040000000
0.7550000000 4.8871000000 1.7166000000
0.7544000000 4.3710000000 2.0094000000
0.7541000000 6.5080000000 1.1023000000
0.7538000000 5.7164000000 1.3678000000
0.7535000000 4.2262000000 1.9902000000
0.7533000000 4.2600000000 1.9758000000
0.7528000000 4.3827000000 1.9311000000
0.7524000000 0.1380000000 0.0681000000
0.7521000000 4.2908000000 2.0408000000
0.7518000000 0.6149000000 0.4667000000
0.7516000000 7.1883000000 0.4708000000
0.7512000000 3.7039000000 2.1140000000
0.7508000000 5.9078000000 1.2842000000
0.7506000000 2.0874000000 1.4445000000
0.7505000000 2.8094000000 1.7442000000
0.7498000000 1.2302000000 1.0384000000
0.7493000000 0.0961000000 0.0992000000
0.7485000000 0.6794000000 0.5884000000
0.7480000000 0.0523000000 0.0692000000
0.7475000000 0.9146000000 0.7887000000
0.7472000000 2.5999000000 1.6462000000
0.7468000000 4.9165000000 1.7021000000
0.7443000000 1.4601000000 1.1772000000
0.5105000000 5.2179000000 1.4018000000
0.5099000000 4.7728000000 1.5867000000
0.5095000000 5.6450000000 1.2230000000
0.5092000000 4.0270000000 1.8994000000
0.5088000000 4.2958000000 1.7869000000
0.5083000000 5.0004000000 1.4940000000
0.5081000000 4.2369000000 1.8117000000
0.5073000000 5.9415000000 1.0971000000
0.5070000000 3.1913000000 1.7264000000
0.5066000000 3.3559000000 1.7947000000
0.5065000000 3.8157000000 1.9845000000
0.5063000000 0.3248000000 0.2933000000
0.5060000000 6.9016000000 0.7559000000
0.5055000000 6.4761000000 0.9528000000
0.5054000000 3.6875000000 1.9366000000
0.5049000000 5.5163000000 1.2762000000
0.5046000000 6.2298000000 0.9676000000
0.5043000000 5.1146000000 1.4371000000
0.5038000000 4.0921000000 1.8695000000
0.5035000000 0.4524000000 0.4062000000
0.5033000000 5.7883000000 1.1599000000
0.5030000000 3.0026000000 1.6487000000
0.5026000000 1.1712000000 0.8842000000
0.5025000000 7.5642000000 0.1561000000
0.5023000000 6.5220000000 0.8513000000
0.5021000000 5.4420000000 1.3044000000
0.5020000000 3.0917000000 1.6819000000
0.5016000000 3.8189000000 1.9857000000
0.5012000000 7.1728000000 0.4880000000
0.5008000000 1.0868000000 0.8402000000
0.5005000000 2.2944000000 1.3472000000
0.4999000000 5.5447000000 1.2603000000
0.4993000000 1.5818000000 1.0487000000
0.4992000000 1.6791000000 1.0896000000
0.4986000000 2.5665000000 1.4589000000
0.4977000000 2.5784000000 1.4638000000
0.4969000000 0.3937000000 0.2793000000
0.2640000000 3.6042000000 1.7221000000
0.2612000000 2.4080000000 1.2239000000
0.2600000000 6.8354000000 0.5483000000
0.2591000000 5.7196000000 1.0148000000
0.2587000000 5.8603000000 0.9536000000
0.2577000000 5.5720000000 1.0683000000
0.2573000000 5.2339000000 1.2123000000
0.2570000000 6.0069000000 0.8919000000
0.2567000000 4.2898000000 1.5980000000
0.2565000000 3.2913000000 1.5888000000
0.2563000000 2.6218000000 1.3120000000
0.2559000000 4.6764000000 1.4527000000
0.2558000000 2.3958000000 1.2156000000
0.2554000000 2.6445000000 1.3123000000
0.2552000000 3.2368000000 1.5601000000
0.2549000000 3.1506000000 1.5245000000
0.2544000000 5.1043000000 1.2655000000
0.2542000000 0.4561000000 0.3879000000
0.2539000000 4.0220000000 1.7109000000
0.2535000000 6.5100000000 0.6783000000
0.2534000000 0.4373000000 0.3737000000
0.2531000000 3.7200000000 1.7655000000
0.2528000000 1.4042000000 0.7958000000
0.2526000000 1.8552000000 0.9852000000
0.2524000000 5.0798000000 1.2744000000
0.2522000000 2.7343000000 1.3511000000
0.2518000000 5.2226000000 1.2140000000
0.2515000000 7.0402000000 0.4536000000
0.2514000000 0.5401000000 0.4239000000
0.2510000000 0.8126000000 0.5499000000
0.2505000000 7.6732000000 0.0645000000
0.2500000000 1.9435000000 1.0143000000
0.2494000000 4.9146000000 1.3405000000
0.2485000000 1.3520000000 0.6973000000
0.2480000000 2.2355000000 1.1404000000
0.2476000000 2.5389000000 1.2575000000
0.2463000000 0.2131000000 0.2070000000
0.2460000000 0.2188000000 0.2081000000
0.0115000000 6.3709000000 0.5602000000
0.0101000000 7.2000000000 0.2107000000
0.0085000000 1.3885000000 0.6107000000
0.0084000000 5.9963000000 0.7179000000
0.0078000000 7.1156000000 0.2426000000
0.0075000000 4.8334000000 1.2045000000
0.0070000000 6.7295000000 0.4046000000
0.0064000000 7.1787000000 0.2192000000
0.0062000000 5.2370000000 1.0305000000
0.0059000000 2.3863000000 1.0250000000
0.0057000000 3.7527000000 1.5972000000
0.0055000000 4.0008000000 1.6247000000
0.0054000000 2.6292000000 1.1252000000
0.0052000000 5.8279000000 0.7848000000
0.0050000000 6.2380000000 0.6104000000
0.0050000000 6.0220000000 0.7040000000
0.0047000000 4.7256000000 1.2473000000
0.0044000000 6.6399000000 0.4439000000
0.0041000000 4.0788000000 1.5125000000
0.0040000000 7.4535000000 0.1040000000
0.0037000000 3.1444000000 1.3448000000
0.0036000000 6.2614000000 0.6024000000
0.0034000000 5.8187000000 0.7889000000
0.0033000000 4.2815000000 1.4297000000
0.0028000000 3.7122000000 1.5776000000
0.0027000000 1.2466000000 0.4810000000
0.0024000000 2.5704000000 1.1016000000
0.0021000000 5.3308000000 0.9930000000
0.0020000000 3.2814000000 1.3966000000
0.0018000000 0.6778000000 0.3088000000
0.0016000000 3.5199000000 1.4966000000
0.0013000000 7.7003000000 0.0625000000
0.0010000000 1.0798000000 0.4750000000
0.0005000000 0.2748000000 0.1418000000
-0.0002000000 3.1098000000 1.3276000000
-0.0007000000 0.5253000000 0.1710000000
-0.0011000000 5.8104000000 0.7903000000
-0.0020000000 0.4010000000 0.1896000000
-0.0036000000 0.7582000000 0.3468000000
-0.0064000000 3.3268000000 1.4107000000
-0.2395000000 2.3091000000 0.8152000000
-0.2406000000 6.6927000000 0.2440000000
-0.2412000000 5.9002000000 0.5758000000
-0.2418000000 3.8184000000 1.4477000000
-0.2423000000 4.3438000000 1.2236000000
-0.2426000000 7.3646000000 0.0359000000
-0.2429000000 4.2254000000 1.2733000000
-0.2430000000 1.8318000000 0.6152000000
-0.2433000000 4.0966000000 1.4017000000
-0.2439000000 3.8246000000 1.4406000000
-0.2441000000 5.5561000000 0.7109000000
-0.2444000000 3.2439000000 1.1995000000
-0.2446000000 2.6596000000 0.9604000000
-0.2448000000 3.8697000000 1.4493000000
-0.2452000000 5.4293000000 0.8397000000
-0.2455000000 5.5051000000 0.7375000000
-0.2457000000 1.0132000000 0.2660000000
-0.2458000000 3.5816000000 1.3469000000
-0.2462000000 7.4745000000 0.0640000000
-0.2465000000 4.6267000000 1.1018000000
-0.2468000000 4.8821000000 0.9911000000
-0.2472000000 4.7846000000 1.1066000000
-0.2477000000 6.0939000000 0.4886000000
-0.2479000000 0.7832000000 0.1774000000
-0.2483000000 4.7851000000 1.0341000000
-0.2487000000 4.1987000000 1.3562000000
-0.2489000000 5.3955000000 0.7750000000
-0.2493000000 1.9704000000 0.6686000000
-0.2497000000 3.6325000000 1.3655000000
-0.2504000000 6.2302000000 0.5058000000
-0.2507000000 2.4547000000 0.8656000000
-0.2516000000 3.4412000000 1.2832000000
-0.4873000000 5.7064000000 0.4795000000
-0.4882000000 5.7941000000 0.4378000000
-0.4901000000 7.0201000000 0.0803000000
-0.4912000000 5.6099000000 0.5157000000
-0.4920000000 7.1359000000 0.0261000000
-0.4922000000 3.7321000000 1.2270000000
-0.4931000000 2.6849000000 0.7904000000
-0.4938000000 6.4367000000 0.1658000000
-0.4944000000 5.6822000000 0.4801000000
-0.4946000000 2.8038000000 0.8410000000
-0.4950000000 1.8459000000 0.4378000000
-0.4955000000 6.4815000000 0.1485000000
-0.4957000000 6.3218000000 0.2132000000
-0.4961000000 3.2821000000 1.0351000000
-0.4963000000 3.5740000000 1.1604000000
-0.4971000000 4.7986000000 0.8499000000
-0.4973000000 1.7032000000 0.3752000000
-0.4975000000 3.2590000000 1.0282000000
-0.4978000000 4.3028000000 1.0541000000
-0.4941000000 3.3242000000 1.0569000000
-0.4986000000 6.1738000000 0.2709000000
-0.4992000000 4.5663000000 0.9442000000
-0.4993000000 5.3099000000 0.6326000000
-0.4997000000 1.4208000000 0.2527000000
-0.5000000000 5.1457000000 0.7051000000
-0.5005000000 3.2699000000 1.0294000000
-0.5013000000 3.7177000000 1.2200000000
-0.5036000000 0.9139000000 0.0390000000
-0.7361000000 5.1316000000 0.5313000000
-0.7399000000 6.3309000000 0.1068000000
-0.7407000000 1.8532000000 0.2660000000
-0.7419000000 5.6767000000 0.3005000000
-0.7425000000 5.6993000000 0.2991000000
-0.7432000000 4.8344000000 0.6571000000
-0.7436000000 4.2427000000 0.9024000000
-0.7439000000 5.9150000000 0.2038000000
-0.7446000000 2.8292000000 0.6674000000
-0.7448000000 5.4516000000 0.3968000000
-0.7453000000 3.0749000000 0.7709000000
-0.7457000000 4.8239000000 0.6578000000
-0.7460000000 4.2096000000 0.9869000000
-0.7462000000 5.9684000000 0.1777000000
-0.7467000000 3.7588000000 1.0648000000
-0.7470000000 3.3200000000 0.8736000000
-0.7473000000 5.2441000000 0.4763000000
-0.7482000000 3.0167000000 0.7473000000
-0.7485000000 6.3234000000 0.1050000000
-0.7487000000 6.5727000000 0.0711000000
-0.7490000000 6.6343000000 0.0468000000
-0.7493000000 4.6998000000 0.7039000000
-0.7499000000 4.5946000000 0.7502000000
-0.7504000000 3.0376000000 0.7538000000
-0.7509000000 1.5161000000 0.1108000000
-0.7515000000 5.7782000000 0.2524000000
-0.7567000000 1.9520000000 0.2892000000
-0.9880000000 4.7636000000 0.5067000000
-0.9910000000 5.3598000000 0.2563000000
-0.9922000000 5.6607000000 0.1347000000
-0.9927000000 5.7592000000 0.0908000000
-0.9934000000 6.2685000000 0.0208000000
-0.9940000000 3.5026000000 0.7684000000
-0.9944000000 5.5272000000 0.1833000000
-0.9951000000 2.9497000000 0.5401000000
-0.9955000000 2.4105000000 0.3143000000
-0.9960000000 4.1025000000 0.7803000000
-0.9967000000 4.4948000000 0.6157000000
-0.9973000000 3.6130000000 0.8171000000
-0.9977000000 6.0194000000 0.0501000000
-0.9981000000 4.6697000000 0.5411000000
-0.9983000000 6.2322000000 0.0379000000
-0.9984000000 5.6725000000 0.1214000000
-0.9987000000 4.4194000000 0.6422000000
-0.9987000000 5.7094000000 0.1086000000
-0.9995000000 2.0146000000 0.1450000000
-0.9998000000 3.0170000000 0.5597000000
-1.0003000000 4.9175000000 0.4337000000
-1.0014000000 2.7880000000 0.4620000000
-1.0027000000 3.0919000000 0.5890000000
-1.0050000000 5.7850000000 0.1381000000
-1.2404000000 5.8934000000 -0.0007000000
-1.2417000000 4.9041000000 0.2646000000
-1.2427000000 2.3977000000 0.1342000000
-1.2438000000 4.1368000000 0.5844000000
-1.2442000000 2.7623000000 0.2770000000
-1.2450000000 2.9208000000 0.3490000000
-1.2451000000 3.3267000000 0.5179000000
-1.2457000000 4.3478000000 0.4970000000
-1.2459000000 4.7488000000 0.3289000000
-1.2466000000 2.7720000000 0.2827000000
-1.2472000000 2.1620000000 0.0211000000
-1.2475000000 5.0924000000 0.1804000000
-1.2483000000 3.0373000000 0.3929000000
-1.2497000000 2.2272000000 0.0518000000
-1.2510000000 3.4232000000 0.5508000000
-1.2520000000 3.1065000000 0.4206000000
-1.2541000000 2.0699000000 0.0583000000
-1.4893000000 3.4161000000 0.3697000000
-1.4931000000 5.1648000000 0.0495000000
-1.4937000000 4.1193000000 0.4099000000
-1.4939000000 3.5674000000 0.4348000000
-1.4945000000 4.2007000000 0.3803000000
-1.4947000000 4.0626000000 0.4372000000
-1.4960000000 3.4202000000 0.3718000000
-1.4969000000 5.2202000000 0.0236000000
-1.4983000000 3.2676000000 0.3070000000
-1.4988000000 3.0960000000 0.2359000000
-1.4996000000 2.5600000000 0.0099000000
-1.5007000000 4.0930000000 0.4170000000
-1.5012000000 3.6595000000 0.4704000000
-1.5025000000 2.7338000000 0.0788000000
-1.7412000000 3.4630000000 0.2130000000
-1.7434000000 4.1521000000 0.2187000000
-1.7439000000 3.3310000000 0.1560000000
-1.7444000000 3.9408000000 0.3691000000
-1.7450000000 3.4554000000 0.2027000000
-1.7462000000 3.8100000000 0.3515000000
-1.7469000000 3.0071000000 0.0224000000
-1.7470000000 2.8740000000 0.0352000000
-1.7475000000 3.8514000000 0.3627000000
-1.7479000000 4.8396000000 0.0006000000
-1.7487000000 3.8830000000 0.3687000000
-1.7500000000 3.4872000000 0.2150000000
-1.7535000000 4.4729000000 0.0805000000
-1.9927000000 3.9124000000 0.1988000000
-1.9942000000 3.9303000000 0.1859000000
-1.9947000000 3.4281000000 0.0180000000
-1.9963000000 3.4056000000 0.0053000000
-1.9983000000 4.1092000000 0.1242000000
