5.2504000000 2.8636000000 0.5666000000
5.2488000000 5.0375000000 0.2346000000
5.2478000000 5.4221000000 0.1007000000
5.2464000000 4.7779000000 0.3802000000
5.0105000000 5.3811000000 0.2746000000
5.0103000000 6.0624000000 0.0474000000
5.0088000000 5.7747000000 0.0542000000
5.0080000000 3.4097000000 1.0983000000
5.0072000000 5.7882000000 0.0502000000
5.0068000000 3.1515000000 0.9563000000
5.0067000000 2.1160000000 0.3829000000
5.0063000000 5.0499000000 0.4558000000
5.0057000000 4.0884000000 0.9808000000
5.0054000000 1.2242000000 0.0499000000
5.0054000000 4.2706000000 0.8876000000
5.0050000000 1.9216000000 0.2806000000
5.0046000000 4.1740000000 0.9429000000
5.0041000000 3.1538000000 0.9562000000
5.0039000000 3.1691000000 0.9610000000
5.0038000000 4.3659000000 0.8327000000
5.0037000000 1.6922000000 0.1573000000
5.0034000000 2.3983000000 0.5410000000
5.0030000000 2.5229000000 0.6149000000
5.0029000000 4.1344000000 0.9618000000
5.0027000000 2.1644000000 0.4195000000
5.0026000000 1.3820000000 0.0632000000
5.0012000000 2.4295000000 0.5642000000
5.0010000000 3.7533000000 1.1736000000
5.0008000000 1.7254000000 0.1805000000
5.0003000000 2.8784000000 0.8122000000
4.9993000000 5.5728000000 0.1787000000
4.9979000000 2.0535000000 0.3592000000
4.7653000000 5.7644000000 0.2948000000
4.7615000000 5.1583000000 0.6350000000
4.7608000000 5.5195000000 0.4259000000
4.7601000000 6.4722000000 0.0638000000
4.7593000000 5.8469000000 0.2525000000
4.7585000000 6.3530000000 0.0546000000
4.7578000000 6.1791000000 0.0784000000
4.7576000000 5.2162000000 0.6049000000
4.7574000000 3.5516000000 1.4083000000
4.7570000000 4.6918000000 0.8901000000
4.7568000000 2.1436000000 0.6395000000
4.7562000000 4.3909000000 1.0548000000
4.7561000000 6.0862000000 0.1248000000
4.7558000000 1.9792000000 0.5473000000
4.7557000000 2.9127000000 1.0602000000
4.7555000000 6.1316000000 0.1081000000
4.7552000000 3.4416000000 1.3472000000
4.7549000000 4.1251000000 1.2055000000
4.7548000000 3.3787000000 1.3143000000
4.7546000000 1.3615000000 0.2111000000
4.7544000000 2.1367000000 0.6425000000
4.7543000000 5.6133000000 0.3868000000
4.7540000000 2.9668000000 1.0931000000
4.7539000000 4.0308000000 1.2593000000
4.7538000000 4.7427000000 0.8604000000
4.7535000000 3.3756000000 1.3181000000
4.7534000000 2.5249000000 0.8523000000
4.7533000000 6.2212000000 0.0538000000
4.7528000000 3.0015000000 1.1173000000
4.7525000000 1.8215000000 0.4689000000
4.7525000000 2.5265000000 0.8540000000
4.7521000000 2.2278000000 0.6881000000
4.7520000000 3.1125000000 1.1742000000
4.7519000000 3.3527000000 1.3053000000
4.7516000000 3.6334000000 1.4470000000
4.7515000000 2.9941000000 1.1088000000
4.7512000000 3.9570000000 1.2978000000
4.7508000000 2.6942000000 0.9445000000
4.7499000000 1.4928000000 0.2859000000
4.7483000000 3.0837000000 1.1615000000
4.7480000000 2.7486000000 0.9796000000
4.7473000000 1.2090000000 0.1351000000
4.7465000000 0.8691000000 0.0258000000
4.7452000000 0.7022000000 0.0100000000
4.5114000000 6.7759000000 0.0513000000
4.5113000000 0.6292000000 0.1189000000
4.5107000000 4.2526000000 1.3646000000
4.5099000000 5.2162000000 0.8358000000
4.5097000000 4.5625000000 1.1980000000
4.5088000000 5.9797000000 0.4240000000
4.5084000000 2.9867000000 1.3356000000
4.5082000000 0.8751000000 0.1817000000
4.5076000000 5.8982000000 0.4661000000
4.5075000000 3.3524000000 1.5385000000
4.5073000000 4.3327000000 1.3261000000
4.5070000000 3.8632000000 1.5791000000
4.5068000000 5.7329000000 0.5551000000
4.5066000000 4.3498000000 1.3155000000
4.5063000000 3.7390000000 1.6525000000
4.5062000000 5.0003000000 0.9575000000
4.5060000000 3.8035000000 1.6159000000
4.5060000000 2.9881000000 1.3412000000
4.5058000000 3.0904000000 1.4001000000
4.5057000000 4.4309000000 1.2765000000
4.5055000000 2.0435000000 0.8217000000
4.5053000000 5.0562000000 0.9285000000
4.5053000000 4.1088000000 1.4501000000
4.5051000000 5.3451000000 0.7644000000
4.5048000000 1.8626000000 0.7229000000
4.5048000000 2.2719000000 0.9462000000
4.5045000000 4.8271000000 1.0596000000
4.5043000000 5.2560000000 0.8258000000
4.5042000000 1.6393000000 0.6020000000
4.5040000000 5.5512000000 0.6603000000
4.5039000000 2.0274000000 0.8181000000
4.5037000000 1.7739000000 0.6789000000
4.5036000000 3.1914000000 1.4534000000
4.5033000000 1.5464000000 0.5515000000
4.5032000000 1.9755000000 0.7860000000
4.5030000000 3.7975000000 1.6261000000
4.5029000000 1.4245000000 0.4835000000
4.5023000000 2.3974000000 1.0191000000
4.5018000000 1.6460000000 0.6032000000
4.5016000000 1.2382000000 0.3856000000
4.5014000000 2.4686000000 1.0641000000
4.5013000000 6.0001000000 0.4235000000
4.5010000000 2.8556000000 1.2667000000
4.5008000000 3.8980000000 1.5664000000
4.5007000000 2.4754000000 1.0602000000
4.5002000000 2.5691000000 1.1133000000
4.4996000000 1.4305000000 0.4923000000
4.4989000000 5.9711000000 0.4375000000
4.4987000000 4.2719000000 1.3712000000
4.4972000000 0.6629000000 0.0716000000
4.2629000000 6.9620000000 0.1195000000
4.2616000000 7.2801000000 0.0816000000
4.2603000000 4.0455000000 1.7146000000
4.2591000000 4.9511000000 1.2190000000
4.2585000000 7.1086000000 0.1090000000
4.2581000000 6.0521000000 0.6199000000
4.2576000000 4.6046000000 1.4108000000
4.2574000000 5.8925000000 0.7113000000
4.2572000000 7.1175000000 0.1133000000
4.2566000000 2.9694000000 1.5691000000
4.2565000000 1.3628000000 0.6870000000
4.2562000000 4.3328000000 1.5683000000
4.2560000000 6.3297000000 0.4718000000
4.2559000000 6.0473000000 0.6260000000
4.2554000000 3.1110000000 1.6490000000
4.2553000000 1.4090000000 0.7132000000
4.2552000000 2.6702000000 1.4015000000
4.2558000000 2.8888000000 1.5249000000
4.2548000000 4.5821000000 1.4246000000
4.2547000000 2.6674000000 1.4047000000
4.2544000000 0.2505000000 0.0790000000
4.2543000000 2.7265000000 1.4393000000
4.2541000000 6.4717000000 0.3943000000
4.2538000000 5.7704000000 0.7793000000
4.2538000000 3.9227000000 1.7921000000
4.2536000000 1.8468000000 0.9510000000
4.2535000000 6.2456000000 0.5180000000
4.2532000000 1.1632000000 0.5825000000
4.2528000000 0.4062000000 0.1622000000
4.2527000000 5.3918000000 0.9896000000
4.2522000000 0.6541000000 0.3036000000
4.2520000000 5.7648000000 0.7822000000
4.2516000000 0.9357000000 0.4615000000
4.2503000000 7.2405000000 0.0486000000
4.2500000000 0.9008000000 0.4371000000
4.2499000000 2.1300000000 1.1143000000
4.2496000000 3.2001000000 1.7025000000
4.2488000000 2.8180000000 1.4852000000
4.2481000000 4.0231000000 1.7432000000
4.2469000000 -0.0004000000 0.0041000000
4.0125000000 6.3064000000 0.7145000000
4.0107000000 6.6137000000 0.5439000000
4.0106000000 5.0770000000 1.3917000000
4.0103000000 3.6462000000 2.1543000000
4.0095000000 4.2454000000 1.8460000000
4.0093000000 4.8520000000 1.5065000000
4.0090000000 7.2225000000 0.0627000000
4.0085000000 4.1579000000 1.8919000000
4.0081000000 5.1936000000 1.3265000000
4.0078000000 6.7938000000 0.4522000000
4.0076000000 1.2009000000 0.8306000000
4.0071000000 6.5583000000 0.5854000000
4.0070000000 2.5000000000 1.5478000000
4.0068000000 2.0426000000 1.2929000000
4.0067000000 6.1726000000 0.7958000000
4.0065000000 1.5243000000 1.0149000000
4.0065000000 5.1334000000 1.3681000000
4.0063000000 3.3298000000 2.0001000000
4.0061000000 6.4865000000 0.6200000000
4.0059000000 0.1839000000 0.1804000000
4.0057000000 2.5088000000 1.5507000000
4.0054000000 0.4636000000 0.4294000000
4.0052000000 6.5402000000 0.5910000000
4.0051000000 6.5649000000 0.5772000000
4.0049000000 4.1063000000 1.9269000000
4.0047000000 0.5925000000 0.5046000000
4.0045000000 3.0555000000 1.8551000000
4.0042000000 6.8860000000 0.3875000000
4.0041000000 5.9993000000 0.8869000000
4.0040000000 2.6029000000 1.6029000000
4.0038000000 2.2270000000 1.3956000000
4.0034000000 4.4278000000 1.7513000000
4.0033000000 3.5551000000 2.1257000000
4.0032000000 4.5557000000 1.6877000000
4.0028000000 3.0847000000 1.8728000000
4.0027000000 4.1826000000 1.8907000000
4.0026000000 1.9942000000 1.2701000000
4.0024000000 1.9254000000 1.2363000000
4.0021000000 0.0760000000 0.0620000000
4.0019000000 2.3651000000 1.4773000000
4.0016000000 3.8137000000 2.0901000000
4.0015000000 0.9204000000 0.6878000000
4.0011000000 2.6179000000 1.6181000000
4.0010000000 2.3992000000 1.4999000000
4.0006000000 1.4035000000 0.9533000000
4.0002000000 1.1548000000 0.8177000000
3.9999000000 2.4377000000 1.5170000000
3.9995000000 0.4629000000 0.4311000000
3.9993000000 1.7851000000 1.1559000000
3.9990000000 0.4844000000 0.4400000000
3.9985000000 0.0496000000 0.1129000000
3.9979000000 3.9554000000 2.0176000000
3.9975000000 4.5406000000 1.6961000000
3.9965000000 3.9401000000 2.0262000000
3.9947000000 3.0494000000 1.8567000000
3.9940000000 0.3222000000 0.3206000000
3.7673000000 7.1589000000 0.1305000000
3.7636000000 5.9772000000 1.1341000000
3.7631000000 6.9900000000 0.3180000000
3.7624000000 6.6816000000 0.6550000000
3.7617000000 0.5754000000 0.6139000000
3.7607000000 5.7297000000 1.2707000000
3.7598000000 4.2495000000 2.0813000000
3.7591000000 1.9686000000 1.4885000000
3.7585000000 4.4978000000 1.9460000000
3.7581000000 3.7314000000 2.3706000000
3.7584000000 4.9814000000 1.6836000000
3.7579000000 7.0242000000 0.2812000000
3.7577000000 0.8797000000 0.8854000000
3.7576000000 4.2464000000 2.0801000000
3.7574000000 2.4683000000 1.7676000000
3.7572000000 3.0492000000 2.0835000000
3.7568000000 6.0872000000 1.0770000000
3.7566000000 2.2477000000 1.6448000000
3.7563000000 1.2474000000 1.0962000000
3.7561000000 5.8781000000 1.1902000000
3.7560000000 6.1509000000 1.0359000000
3.7558000000 6.2684000000 0.9760000000
3.7556000000 6.2016000000 1.0109000000
3.7555000000 1.3903000000 1.1761000000
3.7553000000 3.2633000000 2.2052000000
3.7552000000 5.5319000000 1.3822000000
3.7551000000 4.6602000000 1.8615000000
3.7549000000 1.7423000000 1.3654000000
3.7547000000 2.1706000000 1.6069000000
3.7545000000 4.5253000000 1.9348000000
3.7549000000 6.8845000000 0.4318000000
3.7544000000 5.4817000000 1.4096000000
3.7541000000 0.1424000000 0.1402000000
3.7540000000 3.2606000000 2.1995000000
3.7537000000 3.2142000000 2.1789000000
3.7536000000 1.5253000000 1.2464000000
3.7535000000 2.6950000000 1.8953000000
3.7534000000 4.7679000000 1.8035000000
3.7532000000 6.7074000000 0.6316000000
3.7530000000 2.2118000000 1.6304000000
3.7529000000 3.0119000000 2.0635000000
3.7527000000 1.7102000000 1.3509000000
3.7525000000 0.8724000000 0.8754000000
3.7523000000 6.3424000000 0.9450000000
3.7521000000 1.8266000000 1.4166000000
3.7520000000 4.0864000000 2.1792000000
3.7518000000 6.7971000000 0.5298000000
3.7516000000 5.3339000000 1.4945000000
3.7515000000 6.3227000000 0.9519000000
3.7512000000 4.0718000000 2.1894000000
3.7510000000 4.1779000000 2.1296000000
3.7509000000 0.3365000000 0.3469000000
3.7506000000 2.5670000000 1.8216000000
3.7503000000 4.9350000000 1.7094000000
3.7498000000 0.2336000000 0.2401000000
3.7495000000 1.5445000000 1.2670000000
3.7494000000 1.7888000000 1.4001000000
3.7491000000 0.2460000000 0.2554000000
3.7488000000 1.0244000000 0.9827000000
3.7486000000 3.3049000000 2.2340000000
3.7480000000 3.1429000000 2.1459000000
3.7473000000 2.1634000000 1.6085000000
3.5115000000 5.7335000000 1.5020000000
3.5113000000 6.5602000000 0.7918000000
3.5107000000 2.4520000000 1.9945000000
3.5103000000 6.9957000000 0.3142000000
3.5101000000 5.4055000000 1.6810000000
3.5094000000 5.5025000000 1.6310000000
3.5089000000 6.7689000000 0.5638000000
3.5088000000 6.1551000000 1.2162000000
3.5085000000 3.1030000000 2.3516000000
3.5081000000 3.2617000000 2.4356000000
3.5076000000 4.6638000000 2.0952000000
3.5074000000 5.0335000000 1.8933000000
3.5071000000 6.3739000000 0.9935000000
3.5068000000 5.8140000000 1.4608000000
3.5067000000 6.9846000000 0.3234000000
3.5062000000 1.8225000000 1.6534000000
3.5060000000 3.6394000000 2.6272000000
3.5059000000 4.3982000000 2.2368000000
3.5058000000 4.0823000000 2.4106000000
3.5056000000 3.5844000000 2.6171000000
3.5053000000 7.2054000000 0.0820000000
3.5052000000 1.6453000000 1.5579000000
3.5049000000 3.1740000000 2.3914000000
3.5047000000 3.9072000000 2.5101000000
3.5045000000 4.0629000000 2.4199000000
3.5044000000 6.5018000000 0.8518000000
3.5042000000 7.2170000000 0.0682000000
3.5039000000 4.4454000000 2.2212000000
3.5036000000 3.3014000000 2.4581000000
3.5033000000 3.7352000000 2.6081000000
3.5032000000 3.0117000000 2.3050000000
3.5030000000 3.2601000000 2.4409000000
3.5025000000 1.3817000000 1.4135000000
3.5024000000 4.5597000000 2.1544000000
3.5022000000 3.7621000000 2.5929000000
3.5021000000 1.3755000000 1.4085000000
3.5019000000 0.6541000000 0.6988000000
3.5017000000 4.7132000000 2.0730000000
3.5014000000 0.7466000000 0.7981000000
3.5013000000 0.8539000000 0.9197000000
3.5012000000 1.3055000000 1.3528000000
3.5011000000 2.4694000000 2.0102000000
3.5008000000 6.0616000000 1.3158000000
3.5005000000 2.8517000000 2.2207000000
3.5001000000 0.8663000000 0.9290000000
3.5000000000 1.0701000000 1.1555000000
3.4998000000 2.4274000000 1.9947000000
3.4993000000 5.2584000000 1.7812000000
3.4988000000 1.8010000000 1.6455000000
3.4987000000 3.3214000000 2.4785000000
3.4976000000 0.3875000000 0.4078000000
3.4974000000 1.0462000000 1.1315000000
3.4970000000 1.6837000000 1.5834000000
3.4965000000 4.5578000000 2.1612000000
3.4925000000 0.2019000000 0.2052000000
3.2638000000 6.6231000000 0.7222000000
3.2615000000 6.4418000000 0.9185000000
3.2613000000 5.1635000000 2.0556000000
3.2610000000 7.0715000000 0.2316000000
3.2603000000 4.5303000000 2.3998000000
3.2599000000 3.0663000000 2.5651000000
3.2595000000 3.4552000000 2.7775000000
3.2592000000 3.2328000000 2.6552000000
3.2580000000 3.6741000000 2.8610000000
3.2578000000 0.7375000000 0.7865000000
3.2574000000 0.8226000000 0.8850000000
3.2572000000 5.9530000000 1.4547000000
3.2571000000 0.7968000000 0.8582000000
3.2566000000 2.2119000000 2.1026000000
3.2563000000 0.6431000000 0.6875000000
3.2561000000 2.0157000000 1.9936000000
3.2559000000 6.2167000000 1.1681000000
3.2557000000 2.2712000000 2.1361000000
3.2556000000 1.9616000000 1.9656000000
3.2551000000 2.1523000000 2.0682000000
3.2550000000 6.3249000000 1.0464000000
3.2547000000 2.7021000000 2.3750000000
3.2545000000 1.3759000000 1.4851000000
3.2545000000 5.6203000000 1.7920000000
3.2543000000 4.5931000000 2.3731000000
3.2541000000 3.1882000000 2.6409000000
3.2536000000 3.7164000000 2.8590000000
3.2535000000 4.7295000000 2.2981000000
3.2532000000 0.2737000000 0.2788000000
3.2528000000 1.4125000000 1.5258000000
3.2527000000 3.3228000000 2.7189000000
3.2524000000 0.6962000000 0.7473000000
3.2520000000 2.0725000000 2.0280000000
3.2518000000 2.1808000000 2.0888000000
3.2517000000 5.0734000000 2.1081000000
3.2513000000 0.9868000000 1.0646000000
3.2510000000 3.1499000000 2.6202000000
3.2508000000 2.8463000000 2.4524000000
3.2505000000 0.2208000000 0.2267000000
3.2503000000 6.9931000000 0.3164000000
3.2495000000 5.7085000000 1.7033000000
3.2493000000 5.8802000000 1.5327000000
3.2490000000 2.7953000000 2.4317000000
3.2483000000 0.6098000000 0.6543000000
3.2473000000 0.5771000000 0.6111000000
3.2467000000 0.4679000000 0.4929000000
3.0132000000 6.2833000000 1.0965000000
3.0121000000 5.7046000000 1.7289000000
3.0115000000 3.3237000000 2.9431000000
3.0106000000 6.7449000000 0.5848000000
3.0092000000 5.8835000000 1.5273000000
3.0088000000 4.6221000000 2.5947000000
3.0084000000 6.9248000000 0.3895000000
3.0082000000 5.6232000000 1.8199000000
3.0080000000 0.8462000000 0.9111000000
3.0075000000 0.7223000000 0.7715000000
3.0071000000 5.7906000000 1.6341000000
3.0067000000 7.2992000000 0.0527000000
3.0065000000 5.3681000000 2.1030000000
3.0064000000 3.8955000000 2.9892000000
3.0059000000 4.3106000000 2.7626000000
3.0057000000 6.4977000000 0.8576000000
3.0056000000 2.0384000000 2.1999000000
3.0054000000 3.4972000000 3.0510000000
3.0052000000 3.2418000000 2.9069000000
3.0050000000 6.7572000000 0.5704000000
3.0049000000 1.6250000000 1.7614000000
3.0048000000 2.9880000000 2.7651000000
3.0045000000 4.8922000000 2.4485000000
3.0044000000 2.0841000000 2.2471000000
3.0042000000 3.4080000000 2.9975000000
3.0038000000 4.7329000000 2.5344000000
3.0036000000 6.6778000000 0.6606000000
3.0035000000 3.1394000000 2.8493000000
3.0031000000 5.8474000000 1.5728000000
3.0030000000 2.5960000000 2.5509000000
3.0029000000 2.8795000000 2.7121000000
3.0027000000 1.5032000000 1.6306000000
3.0025000000 1.5452000000 1.6795000000
3.0024000000 3.7963000000 3.0449000000
3.0023000000 0.6192000000 0.6623000000
3.0022000000 2.7835000000 2.6561000000
3.0020000000 0.7770000000 0.8330000000
3.0019000000 0.2597000000 0.2690000000
3.0018000000 6.1181000000 1.2744000000
3.0013000000 3.9705000000 2.9561000000
3.0007000000 6.1610000000 1.2289000000
3.0004000000 3.9347000000 2.9753000000
3.0001000000 6.5913000000 0.7565000000
2.9996000000 4.5600000000 2.6397000000
2.9994000000 1.6798000000 1.8247000000
2.9993000000 1.0689000000 1.1515000000
2.9990000000 0.1821000000 0.1811000000
2.9986000000 2.5808000000 2.5470000000
2.9983000000 2.9964000000 2.7784000000
2.9980000000 4.3124000000 2.7717000000
2.9973000000 2.3440000000 2.4204000000
2.9968000000 1.6250000000 1.7618000000
2.7643000000 4.3216000000 2.9929000000
2.7620000000 3.1382000000 3.0832000000
2.7614000000 6.7728000000 0.5588000000
2.7610000000 5.7733000000 1.6467000000
2.7606000000 2.0727000000 2.2505000000
2.7600000000 7.0435000000 0.2579000000
2.7596000000 6.6906000000 0.6503000000
2.7590000000 3.5939000000 3.3204000000
2.7583000000 7.0250000000 0.2776000000
2.7582000000 7.0996000000 0.1990000000
2.7580000000 6.7868000000 0.5397000000
2.7579000000 6.0691000000 1.3238000000
2.7573000000 0.2271000000 0.2336000000
2.7569000000 6.3462000000 1.0252000000
2.7568000000 1.9399000000 2.1115000000
2.7566000000 0.8320000000 0.8940000000
2.7564000000 3.0991000000 3.0680000000
2.7562000000 5.4585000000 1.9998000000
2.7560000000 6.0779000000 1.3202000000
2.7559000000 4.6966000000 2.7693000000
2.7554000000 1.4310000000 1.5515000000
2.7553000000 3.6807000000 3.3285000000
2.7549000000 5.8565000000 1.5611000000
2.7548000000 5.0608000000 2.4355000000
2.7547000000 4.8432000000 2.6554000000
2.7543000000 5.6177000000 1.8164000000
2.7543000000 4.7246000000 2.7554000000
2.7541000000 5.7879000000 1.6402000000
2.7539000000 0.9058000000 0.9708000000
2.7538000000 7.3223000000 0.0307000000
2.7535000000 2.6737000000 2.8285000000
2.7531000000 1.3954000000 1.5043000000
2.7530000000 1.4408000000 1.5646000000
2.7526000000 1.3024000000 1.4071000000
2.7524000000 5.4023000000 2.0631000000
2.7522000000 1.6308000000 1.7734000000
2.7520000000 0.8440000000 0.9110000000
2.7518000000 1.5609000000 1.6911000000
2.7513000000 2.6739000000 2.8321000000
2.7512000000 4.5897000000 2.8592000000
2.7511000000 0.7851000000 0.8428000000
2.7510000000 2.7048000000 2.8498000000
2.7509000000 0.1573000000 0.1535000000
2.7508000000 1.4262000000 1.5468000000
2.7505000000 2.8849000000 2.9503000000
2.7503000000 1.3725000000 1.4899000000
2.7501000000 3.9720000000 3.1931000000
2.7491000000 1.5212000000 1.6503000000
2.7479000000 0.2768000000 0.2844000000
2.7470000000 6.0212000000 1.3750000000
2.5178000000 6.8457000000 0.4753000000
2.5136000000 6.2652000000 1.1135000000
2.5115000000 6.8656000000 0.4518000000
2.5107000000 6.0017000000 1.3998000000
2.5103000000 5.0032000000 2.4942000000
2.5101000000 3.2813000000 3.4023000000
2.5088000000 7.0224000000 0.2786000000
2.5086000000 5.3718000000 2.0940000000
2.5084000000 2.3495000000 2.5613000000
2.5081000000 6.4695000000 0.8872000000
2.5077000000 4.1193000000 3.3454000000
2.5071000000 4.7795000000 2.7460000000
2.5070000000 1.3708000000 1.4795000000
2.5070000000 4.4822000000 3.0680000000
2.5067000000 6.2162000000 1.1623000000
2.5064000000 6.5367000000 0.8159000000
2.5060000000 4.9265000000 2.5828000000
2.5060000000 3.8756000000 3.4783000000
2.5058000000 0.9467000000 1.0231000000
2.5057000000 1.3356000000 1.4502000000
2.5055000000 0.6010000000 0.6426000000
2.5054000000 4.1497000000 3.3319000000
2.5052000000 4.9019000000 2.6020000000
2.5050000000 5.8431000000 1.5745000000
2.5049000000 2.0711000000 2.2519000000
2.5048000000 4.6789000000 2.8492000000
2.5045000000 4.1490000000 3.3272000000
2.5043000000 0.7293000000 0.7842000000
2.5041000000 6.3897000000 0.9708000000
2.5039000000 1.5517000000 1.6812000000
2.5038000000 5.6883000000 1.7492000000
2.5037000000 6.6993000000 0.6390000000
2.5035000000 1.4739000000 1.6017000000
2.5034000000 2.8119000000 3.0638000000
2.5032000000 1.8627000000 2.0239000000
2.5030000000 3.0368000000 3.2611000000
2.5028000000 0.4104000000 0.4312000000
2.5026000000 6.4956000000 0.8634000000
2.5023000000 0.1124000000 0.1066000000
2.5021000000 7.2874000000 0.0615000000
2.5018000000 2.3356000000 2.5452000000
2.5017000000 2.1174000000 2.3062000000
2.5015000000 3.9680000000 3.4305000000
2.5013000000 1.7491000000 1.9006000000
2.5008000000 3.0962000000 3.3049000000
2.5006000000 4.3464000000 3.2004000000
2.5004000000 3.1654000000 3.3478000000
2.5001000000 1.1696000000 1.2623000000
2.4997000000 2.9866000000 3.2254000000
2.4996000000 2.1062000000 2.2923000000
2.4992000000 3.2627000000 3.4020000000
2.4987000000 4.4423000000 3.1105000000
2.4984000000 1.1131000000 1.2018000000
2.4976000000 3.7712000000 3.5405000000
2.4970000000 5.2105000000 2.2684000000
2.4960000000 2.7214000000 2.9666000000
2.4947000000 1.2263000000 1.3205000000
2.2607000000 3.4957000000 3.7522000000
2.2603000000 2.5941000000 2.8271000000
2.2598000000 2.8580000000 3.1155000000
2.2596000000 1.6978000000 1.8492000000
2.2590000000 6.9754000000 0.3368000000
2.2586000000 0.6539000000 0.6923000000
2.2580000000 3.0313000000 3.3111000000
2.2578000000 4.4720000000 3.0828000000
2.2574000000 4.5946000000 2.9483000000
2.2573000000 4.8553000000 2.6605000000
2.2570000000 2.3012000000 2.5093000000
2.2569000000 5.0067000000 2.4933000000
2.2568000000 7.0269000000 0.2795000000
2.2566000000 6.6671000000 0.6700000000
2.2565000000 5.9498000000 1.4638000000
2.2564000000 2.7512000000 2.9991000000
2.2563000000 0.9313000000 1.0038000000
2.2560000000 4.0582000000 3.5362000000
2.2557000000 1.4893000000 1.6102000000
2.2555000000 6.1627000000 1.2197000000
2.2552000000 6.4276000000 0.9379000000
2.2551000000 2.1645000000 2.3556000000
2.2550000000 0.8146000000 0.8729000000
2.2549000000 4.7047000000 2.8265000000
2.2548000000 7.0830000000 0.2147000000
2.2547000000 2.1775000000 2.3723000000
2.2545000000 5.4476000000 2.0196000000
2.2543000000 0.2018000000 0.2072000000
2.2540000000 1.4069000000 1.5209000000
2.2538000000 2.4464000000 2.6710000000
2.2538000000 4.0403000000 3.5499000000
2.2535000000 7.2584000000 0.1010000000
2.2535000000 5.4743000000 1.9798000000
2.2530000000 0.9470000000 1.0268000000
2.2530000000 4.8206000000 2.6957000000
2.2528000000 3.5178000000 3.7737000000
2.2526000000 4.2268000000 3.3487000000
2.2525000000 5.0990000000 2.3899000000
2.2524000000 1.0441000000 1.1274000000
2.2522000000 0.3274000000 0.3439000000
2.2520000000 3.7465000000 3.7930000000
2.2520000000 7.1444000000 0.1474000000
2.2518000000 1.0016000000 1.0834000000
2.2517000000 2.3230000000 2.5297000000
2.2516000000 1.4279000000 1.5473000000
2.2515000000 4.9393000000 2.5645000000
2.2512000000 4.1644000000 3.4168000000
2.2509000000 2.4346000000 2.6506000000
2.2505000000 2.1455000000 2.3326000000
2.2503000000 1.6461000000 1.7845000000
2.2502000000 1.3541000000 1.4636000000
2.2498000000 3.5912000000 3.8106000000
2.2496000000 0.3201000000 0.3319000000
2.2492000000 0.3078000000 0.3208000000
2.2488000000 5.3034000000 2.1706000000
2.2479000000 1.9892000000 2.1661000000
2.2473000000 7.0051000000 0.2967000000
2.2443000000 0.5979000000 0.6385000000
2.0122000000 7.0859000000 0.2117000000
2.0113000000 6.9417000000 0.3726000000
2.0106000000 2.5742000000 2.8020000000
2.0100000000 4.9878000000 2.5168000000
2.0095000000 6.0439000000 1.3540000000
2.0087000000 4.0382000000 3.5548000000
2.0085000000 4.4008000000 3.1613000000
2.0081000000 7.1259000000 0.1736000000
2.0077000000 4.1322000000 3.4562000000
2.0074000000 2.0855000000 2.2710000000
2.0070000000 3.5392000000 3.8113000000
2.0068000000 3.5109000000 3.7995000000
2.0065000000 4.0257000000 3.5663000000
2.0062000000 6.1669000000 1.2213000000
2.0061000000 4.6934000000 2.8348000000
2.0060000000 7.0031000000 0.3043000000
2.0058000000 0.2126000000 0.2131000000
2.0056000000 5.0579000000 2.4366000000
2.0054000000 5.2862000000 2.1887000000
2.0053000000 6.0964000000 1.2979000000
2.0050000000 6.1425000000 1.2484000000
2.0049000000 0.7580000000 0.8176000000
2.0048000000 0.7820000000 0.8370000000
2.0047000000 2.8162000000 3.0677000000
2.0045000000 5.3713000000 2.0961000000
2.0043000000 4.9176000000 2.5973000000
2.0042000000 3.4625000000 3.7651000000
2.0038000000 5.1347000000 2.3535000000
2.0036000000 6.8642000000 0.4599000000
2.0035000000 3.2287000000 3.5239000000
2.0033000000 2.0310000000 2.2103000000
2.0030000000 0.0975000000 0.0857000000
2.0029000000 0.2333000000 0.2367000000
2.0028000000 2.9269000000 3.1873000000
2.0026000000 5.9259000000 1.4856000000
2.0025000000 2.2416000000 2.4399000000
2.0023000000 5.7426000000 1.6846000000
2.0021000000 7.0501000000 0.2524000000
2.0020000000 0.9928000000 1.0676000000
2.0016000000 4.2381000000 3.3384000000
2.0015000000 1.9358000000 2.1034000000
2.0011000000 1.4582000000 1.5848000000
2.0010000000 1.2366000000 1.3397000000
2.0003000000 3.2264000000 3.5175000000
2.0001000000 1.7454000000 1.8926000000
2.0000000000 4.8194000000 2.7014000000
1.9990000000 2.0068000000 2.1871000000
1.9984000000 2.1110000000 2.2965000000
1.9980000000 3.6642000000 3.8340000000
1.9974000000 0.9268000000 1.0004000000
1.7668000000 3.4877000000 3.5741000000
1.7633000000 7.1353000000 0.1597000000
1.7616000000 2.7958000000 3.0455000000
1.7607000000 3.0349000000 3.2943000000
1.7604000000 2.8689000000 3.1299000000
1.7603000000 6.1422000000 1.2469000000
1.7597000000 2.1914000000 2.3908000000
1.7595000000 4.7130000000 2.8137000000
1.7591000000 5.6871000000 1.7467000000
1.7589000000 3.5395000000 3.5921000000
1.7581000000 6.2094000000 1.1798000000
1.7580000000 1.3510000000 1.4671000000
1.7577000000 5.4729000000 1.9794000000
1.7569000000 4.8895000000 2.6202000000
1.7568000000 1.2704000000 1.3751000000
1.7568000000 3.9863000000 3.4731000000
1.7564000000 3.5575000000 3.6057000000
1.7562000000 5.1710000000 2.3137000000
1.7561000000 3.8581000000 3.5343000000
1.7558000000 4.0502000000 3.4284000000
1.7556000000 7.3337000000 0.0868000000
1.7554000000 3.4828000000 3.5616000000
1.7553000000 5.1287000000 2.3587000000
1.7552000000 4.1207000000 3.3915000000
1.7547000000 0.3190000000 0.3335000000
1.7546000000 2.7861000000 3.0396000000
1.7544000000 4.2973000000 3.2499000000
1.7543000000 5.8848000000 1.5315000000
1.7541000000 5.4309000000 2.0284000000
1.7540000000 4.1981000000 3.3276000000
1.7538000000 5.5014000000 1.9512000000
1.7536000000 4.6383000000 2.9026000000
1.7535000000 0.7336000000 0.7843000000
1.7532000000 6.7716000000 0.5527000000
1.7531000000 4.5643000000 2.9774000000
1.7530000000 7.1040000000 0.1918000000
1.7528000000 1.0901000000 1.1817000000
1.7527000000 1.3247000000 1.4349000000
1.7525000000 0.0801000000 0.0693000000
1.7524000000 2.7724000000 3.0242000000
1.7523000000 2.4994000000 2.7223000000
1.7520000000 4.8162000000 2.7000000000
1.7517000000 1.0180000000 1.0983000000
1.7516000000 0.8039000000 0.8628000000
1.7513000000 1.4740000000 1.5977000000
1.7509000000 1.4281000000 1.5509000000
1.7508000000 2.4289000000 2.6437000000
1.7505000000 1.2179000000 1.3148000000
1.7499000000 2.8123000000 3.0668000000
1.7497000000 4.7239000000 2.8046000000
1.7495000000 6.4215000000 0.9449000000
1.7491000000 4.6110000000 2.9262000000
1.7485000000 0.6951000000 0.7447000000
1.7475000000 0.6813000000 0.7279000000
1.7460000000 6.1249000000 1.2706000000
1.5119000000 2.1731000000 2.3608000000
1.5098000000 1.9316000000 2.0985000000
1.5096000000 4.3190000000 3.0479000000
1.5093000000 6.3659000000 1.0055000000
1.5092000000 6.3135000000 1.0608000000
1.5090000000 1.4806000000 1.6062000000
1.5085000000 5.0807000000 2.4087000000
1.5082000000 7.0158000000 0.2861000000
1.5080000000 7.3045000000 0.0500000000
1.5079000000 3.1934000000 3.1629000000
1.5078000000 5.9743000000 1.4335000000
1.5075000000 5.2047000000 2.2737000000
1.5072000000 4.7896000000 2.7274000000
1.5071000000 5.2116000000 2.2727000000
1.5068000000 6.1273000000 1.2677000000
1.5066000000 6.2590000000 1.1180000000
1.5064000000 5.4323000000 2.0306000000
1.5062000000 7.1999000000 0.0872000000
1.5061000000 1.7176000000 1.8667000000
1.5059000000 5.8278000000 1.5927000000
1.5055000000 0.4667000000 0.4905000000
1.5053000000 2.7680000000 2.9252000000
1.5052000000 6.7835000000 0.5441000000
1.5051000000 6.8790000000 0.4382000000
1.5050000000 5.9985000000 1.4035000000
1.5048000000 1.9412000000 2.1043000000
1.5047000000 5.0142000000 2.4833000000
1.5046000000 4.8044000000 2.7113000000
1.5045000000 2.0869000000 2.2714000000
1.5044000000 0.7948000000 0.8512000000
1.5043000000 5.6160000000 1.8209000000
1.5041000000 0.1951000000 0.1966000000
1.5040000000 4.5437000000 2.9234000000
1.5039000000 2.6444000000 2.8399000000
1.5038000000 4.2662000000 3.0729000000
1.5035000000 6.2121000000 1.1737000000
1.5033000000 2.3366000000 2.5421000000
1.5032000000 4.3104000000 3.0480000000
1.5030000000 2.6537000000 2.8487000000
1.5029000000 5.6581000000 1.7774000000
1.5028000000 3.8080000000 3.3251000000
1.5025000000 2.2206000000 2.4172000000
1.5024000000 2.9111000000 3.0062000000
1.5023000000 0.0949000000 0.0819000000
1.5020000000 4.0442000000 3.1921000000
1.5018000000 2.0416000000 2.2211000000
1.5017000000 2.7942000000 2.9475000000
1.5015000000 3.2758000000 3.2036000000
1.5010000000 3.3812000000 3.2605000000
1.5008000000 2.4234000000 2.6400000000
1.5005000000 4.7729000000 2.7361000000
1.5000000000 2.5994000000 2.8112000000
1.4998000000 4.0012000000 3.2132000000
1.4989000000 3.1627000000 3.1398000000
1.4988000000 1.2465000000 1.3505000000
1.4986000000 2.3385000000 2.5508000000
1.4922000000 0.8712000000 0.9343000000
1.2620000000 2.9716000000 2.8154000000
1.2616000000 5.9917000000 1.4132000000
1.2610000000 6.2232000000 1.1618000000
1.2604000000 4.1061000000 2.9231000000
1.2600000000 2.7761000000 2.7020000000
1.2594000000 1.8496000000 2.0114000000
1.2584000000 7.0498000000 0.2548000000
1.2582000000 4.4688000000 2.7293000000
1.2580000000 3.7784000000 3.1039000000
1.2577000000 4.2679000000 2.8424000000
1.2575000000 5.8178000000 1.6022000000
1.2574000000 1.9360000000 2.1099000000
1.2572000000 0.4409000000 0.4629000000
1.2571000000 3.0702000000 2.8549000000
1.2569000000 1.6182000000 1.7552000000
1.2568000000 1.5532000000 1.6889000000
1.2564000000 7.1891000000 0.1008000000
1.2562000000 6.5032000000 0.8532000000
1.2559000000 4.0879000000 2.9333000000
1.2556000000 2.4183000000 2.4957000000
1.2555000000 5.3772000000 2.0859000000
1.2554000000 6.4003000000 0.9571000000
1.2553000000 4.4183000000 2.7518000000
1.2550000000 2.5954000000 2.5946000000
1.2550000000 4.4971000000 2.7090000000
1.2545000000 1.3200000000 1.4287000000
1.2542000000 3.2342000000 2.9444000000
1.2540000000 6.8877000000 0.4269000000
1.2538000000 1.0597000000 1.1480000000
1.2538000000 2.9183000000 2.7759000000
1.2537000000 6.2455000000 1.1326000000
1.2535000000 2.2941000000 2.4341000000
1.2533000000 3.0477000000 2.8443000000
1.2532000000 7.0723000000 0.2259000000
1.2530000000 4.2354000000 2.8598000000
1.2528000000 6.4750000000 0.8776000000
1.2526000000 5.2196000000 2.2452000000
1.2524000000 1.9312000000 2.1001000000
1.2522000000 2.0878000000 2.2591000000
1.2520000000 1.0174000000 1.0963000000
1.2519000000 4.8197000000 2.5290000000
1.2516000000 6.2641000000 1.1159000000
1.2514000000 4.0951000000 2.9327000000
1.2510000000 5.3489000000 2.1154000000
1.2508000000 6.1895000000 1.1950000000
1.2506000000 7.2632000000 0.0934000000
1.2503000000 0.5082000000 0.5371000000
1.2499000000 2.2842000000 2.4178000000
1.2494000000 1.4009000000 1.5181000000
1.2490000000 1.4853000000 1.6133000000
1.2484000000 4.5721000000 2.6669000000
1.2477000000 2.0782000000 2.2382000000
1.2455000000 0.9312000000 1.0009000000
1.0122000000 5.5030000000 1.9096000000
1.0113000000 4.5620000000 2.4428000000
1.0106000000 0.5701000000 0.6064000000
1.0103000000 6.1399000000 1.2444000000
1.0100000000 6.3871000000 0.9775000000
1.0094000000 5.3189000000 2.0287000000
1.0090000000 4.3503000000 2.5564000000
1.0087000000 3.7216000000 2.9001000000
1.0083000000 4.6765000000 2.3739000000
1.0081000000 6.0134000000 1.3909000000
1.0073000000 3.1116000000 2.6480000000
1.0068000000 5.0326000000 2.1807000000
1.0068000000 4.2666000000 2.6062000000
1.0065000000 1.6478000000 1.7793000000
1.0063000000 3.3533000000 2.7797000000
1.0061000000 6.1565000000 1.2356000000
1.0060000000 4.1994000000 2.6335000000
1.0059000000 1.1868000000 1.2869000000
1.0058000000 3.3915000000 2.7955000000
1.0056000000 7.0018000000 0.3032000000
1.0054000000 2.2388000000 2.1668000000
1.0053000000 2.0845000000 2.0832000000
1.0051000000 4.5292000000 2.4493000000
1.0050000000 5.6432000000 1.7781000000
1.0048000000 3.1643000000 2.6691000000
1.0048000000 4.9108000000 2.2426000000
1.0045000000 3.7686000000 2.8702000000
1.0040000000 6.5835000000 0.7646000000
1.0037000000 4.6740000000 2.3735000000
1.0035000000 5.2313000000 2.0701000000
1.0033000000 4.2925000000 2.5825000000
1.0032000000 2.7569000000 2.4476000000
1.0031000000 2.3793000000 2.2500000000
1.0029000000 1.7642000000 1.8880000000
1.0027000000 1.3265000000 1.4337000000
1.0027000000 6.2630000000 1.1136000000
1.0025000000 3.7629000000 2.8746000000
1.0023000000 6.6656000000 0.6762000000
1.0020000000 7.1879000000 0.0992000000
1.0019000000 3.3645000000 2.7753000000
1.0017000000 6.6555000000 0.6859000000
1.0016000000 5.1439000000 2.1190000000
1.0015000000 2.5081000000 2.3083000000
1.0010000000 5.0222000000 2.1816000000
1.0007000000 3.3199000000 2.7579000000
1.0003000000 0.3601000000 0.3727000000
1.0001000000 7.0711000000 0.2293000000
0.9999000000 0.3930000000 0.4056000000
0.9993000000 6.1085000000 1.2793000000
0.9988000000 6.3449000000 1.0276000000
0.9987000000 0.5892000000 0.6228000000
0.9980000000 3.1216000000 2.6434000000
0.9974000000 0.0537000000 0.1157000000
0.9972000000 0.7174000000 0.7696000000
0.9961000000 1.6614000000 1.7823000000
0.9913000000 0.0448000000 0.1026000000
0.7628000000 6.5142000000 0.8434000000
0.7615000000 6.7005000000 0.6253000000
0.7610000000 4.7226000000 2.1166000000
0.7603000000 6.5428000000 0.8148000000
0.7598000000 6.9262000000 0.3926000000
0.7587000000 6.9383000000 0.3719000000
0.7579000000 4.6166000000 2.1719000000
0.7576000000 7.2654000000 0.0926000000
0.7573000000 6.0468000000 1.3350000000
0.7571000000 2.2541000000 1.9369000000
0.7568000000 2.6479000000 2.1575000000
0.7564000000 5.6865000000 1.5840000000
0.7563000000 6.7955000000 0.5298000000
0.7561000000 0.5579000000 0.5969000000
0.7559000000 4.4411000000 2.2650000000
0.7557000000 3.1511000000 2.4316000000
0.7555000000 2.4560000000 2.0479000000
0.7555000000 5.8178000000 1.5093000000
0.7553000000 6.2329000000 1.1461000000
0.7552000000 6.6621000000 0.6791000000
0.7548000000 2.3414000000 1.9901000000
0.7547000000 2.1772000000 1.8975000000
0.7545000000 1.9375000000 1.7632000000
0.7544000000 2.7729000000 2.2185000000
0.7543000000 3.5479000000 2.6487000000
0.7542000000 4.9691000000 1.9773000000
0.7541000000 4.7999000000 2.0688000000
0.7539000000 2.2260000000 1.9238000000
0.7536000000 1.3758000000 1.4315000000
0.7534000000 0.1474000000 0.1464000000
0.7533000000 6.1399000000 1.2495000000
0.7532000000 1.7609000000 1.6676000000
0.7531000000 5.5003000000 1.6850000000
0.7530000000 5.6705000000 1.5903000000
0.7530000000 1.8929000000 1.7389000000
0.7528000000 5.6661000000 1.5920000000
0.7527000000 4.3638000000 2.3096000000
0.7525000000 6.9783000000 0.3310000000
0.7524000000 4.5142000000 2.2216000000
0.7521000000 2.7407000000 2.2002000000
0.7520000000 3.0454000000 2.3666000000
0.7518000000 1.2274000000 1.3093000000
0.7516000000 5.8474000000 1.4892000000
0.7513000000 0.4755000000 0.5024000000
0.7510000000 1.3373000000 1.4093000000
0.7508000000 1.0281000000 1.1087000000
0.7506000000 0.9691000000 1.0399000000
0.7501000000 6.5368000000 0.8085000000
0.7500000000 4.0480000000 2.4783000000
0.7496000000 1.9677000000 1.7735000000
0.7493000000 1.8005000000 1.6819000000
0.7489000000 0.0637000000 0.0548000000
0.7486000000 2.2150000000 1.9083000000
0.7484000000 1.7183000000 1.6357000000
0.7475000000 2.2898000000 1.9509000000
0.7460000000 2.3099000000 1.9606000000
0.7449000000 1.2716000000 1.3561000000
0.5128000000 6.7511000000 0.5750000000
0.5117000000 5.2290000000 1.6029000000
0.5110000000 7.2733000000 0.0848000000
0.5104000000 5.1218000000 1.6609000000
0.5099000000 5.7460000000 1.3138000000
0.5095000000 1.9601000000 1.5429000000
0.5085000000 3.4015000000 2.3277000000
0.5081000000 1.0792000000 1.0569000000
0.5078000000 4.0167000000 2.2652000000
0.5077000000 7.1095000000 0.1831000000
0.5075000000 3.2506000000 2.2511000000
0.5072000000 5.4111000000 1.4987000000
0.5069000000 6.3028000000 1.0030000000
0.5068000000 1.7681000000 1.4377000000
0.5065000000 6.8321000000 0.4944000000
0.5064000000 7.0448000000 0.2541000000
0.5059000000 6.9589000000 0.3509000000
0.5057000000 5.5454000000 1.4222000000
0.5055000000 4.9737000000 1.7309000000
0.5054000000 6.4418000000 0.9059000000
0.5051000000 7.1546000000 0.1351000000
0.5050000000 5.7937000000 1.2860000000
0.5048000000 3.4545000000 2.3600000000
0.5048000000 1.7169000000 1.4014000000
0.5046000000 7.2543000000 0.0965000000
0.5045000000 2.8261000000 2.0068000000
0.5043000000 0.3863000000 0.3987000000
0.5042000000 7.2127000000 0.0698000000
0.5040000000 1.0191000000 1.0221000000
0.5039000000 6.4585000000 0.8841000000
0.5038000000 4.9870000000 1.7294000000
0.5033000000 2.5389000000 1.8523000000
0.5034000000 0.6577000000 0.7035000000
0.5031000000 4.9226000000 1.7596000000
0.5029000000 6.7663000000 0.5597000000
0.5028000000 5.8489000000 1.2501000000
0.5026000000 3.6553000000 2.4393000000
0.5022000000 3.2430000000 2.2334000000
0.5020000000 1.4069000000 1.2309000000
0.5018000000 4.9485000000 1.7504000000
0.5018000000 0.6533000000 0.6961000000
0.5016000000 4.9721000000 1.7299000000
0.5014000000 4.3667000000 2.0644000000
0.5013000000 5.5323000000 1.4237000000
0.5011000000 5.6154000000 1.3818000000
0.5009000000 2.9885000000 2.1027000000
0.5008000000 3.0609000000 2.1371000000
0.5006000000 3.3447000000 2.2873000000
0.4992000000 3.6824000000 2.4260000000
0.4988000000 5.0943000000 1.6636000000
0.4985000000 6.6608000000 0.6793000000
0.4977000000 0.2832000000 0.2901000000
0.4973000000 1.0472000000 1.0331000000
0.2610000000 5.4004000000 1.2696000000
0.2605000000 4.8080000000 1.5951000000
0.2600000000 6.5149000000 0.6610000000
0.2590000000 6.5994000000 0.6119000000
0.2588000000 4.1670000000 1.9400000000
0.2586000000 6.1473000000 0.8552000000
0.2584000000 2.9619000000 1.8471000000
0.2581000000 7.2914000000 0.0603000000
0.2578000000 2.7652000000 1.7479000000
0.2573000000 2.2512000000 1.4606000000
0.2569000000 6.1654000000 0.8436000000
0.2567000000 7.1200000000 0.1714000000
0.2565000000 1.2390000000 0.9082000000
0.2563000000 3.7731000000 2.1553000000
0.2561000000 5.9300000000 0.9755000000
0.2560000000 2.1382000000 1.4024000000
0.2559000000 5.2712000000 1.3369000000
0.2559000000 3.8475000000 2.1122000000
0.2556000000 0.8372000000 0.6820000000
0.2554000000 4.9820000000 1.4915000000
0.2551000000 1.9236000000 1.2783000000
0.2548000000 6.8054000000 0.4733000000
0.2547000000 2.4983000000 1.5945000000
0.2544000000 4.2302000000 1.9047000000
0.2543000000 6.1977000000 0.8229000000
0.2542000000 5.1214000000 1.4192000000
0.2541000000 1.2970000000 0.9325000000
0.2538000000 2.2231000000 1.4434000000
0.2538000000 4.8767000000 1.5529000000
0.2536000000 6.3908000000 0.7240000000
0.2535000000 3.7028000000 2.1882000000
0.2534000000 2.7499000000 1.7316000000
0.2533000000 1.2698000000 0.9201000000
0.2531000000 1.3257000000 0.9512000000
0.2529000000 2.7371000000 1.7269000000
0.2528000000 0.5361000000 0.5052000000
0.2526000000 6.1865000000 0.8301000000
0.2525000000 4.7195000000 1.6328000000
0.2522000000 2.2323000000 1.4479000000
0.2520000000 0.3905000000 0.3878000000
0.2519000000 0.4744000000 0.4661000000
0.2515000000 4.1659000000 1.9374000000
0.2512000000 4.9732000000 1.4947000000
0.2510000000 5.6138000000 1.1369000000
0.2508000000 0.1717000000 0.1688000000
0.2508000000 3.5592000000 2.1734000000
0.2505000000 2.5540000000 1.6210000000
0.2503000000 1.0362000000 0.7881000000
0.2495000000 2.2342000000 1.4448000000
0.2489000000 3.1735000000 1.9604000000
0.2486000000 3.7875000000 2.1422000000
0.2483000000 0.6525000000 0.5797000000
0.2480000000 5.2336000000 1.3473000000
0.2471000000 0.6148000000 0.5496000000
0.2465000000 1.1688000000 0.8523000000
0.2463000000 5.6647000000 1.1085000000
0.0150000000 1.5692000000 0.8514000000
0.0135000000 7.1733000000 0.0473000000
0.0109000000 1.0127000000 0.5490000000
0.0098000000 6.4096000000 0.4762000000
0.0094000000 5.4857000000 0.9820000000
0.0088000000 4.6622000000 1.4346000000
0.0086000000 1.2947000000 0.6986000000
0.0080000000 6.9616000000 0.1743000000
0.0078000000 5.2092000000 1.1370000000
0.0076000000 4.2321000000 1.6701000000
0.0075000000 0.2123000000 0.1100000000
0.0073000000 6.2940000000 0.5342000000
0.0069000000 6.5265000000 0.4068000000
0.0066000000 1.9923000000 1.0799000000
0.0063000000 3.9014000000 1.8564000000
0.0060000000 2.2138000000 1.2008000000
0.0059000000 0.4124000000 0.2175000000
0.0056000000 4.2160000000 1.6774000000
0.0055000000 6.8707000000 0.2178000000
0.0052000000 4.6905000000 1.4120000000
0.0051000000 2.0049000000 1.0845000000
0.0050000000 2.2839000000 1.2322000000
0.0048000000 0.7950000000 0.4202000000
0.0046000000 3.0395000000 1.6535000000
0.0045000000 3.0067000000 1.6366000000
0.0043000000 3.5416000000 1.9261000000
0.0042000000 7.2325000000 0.0764000000
0.0040000000 2.9775000000 1.6201000000
0.0038000000 5.4148000000 1.0244000000
0.0036000000 3.9026000000 1.8455000000
0.0035000000 6.9305000000 0.1813000000
0.0033000000 4.5093000000 1.5099000000
0.0031000000 5.2513000000 1.1088000000
0.0030000000 2.3184000000 1.2598000000
0.0028000000 1.3639000000 0.7344000000
0.0026000000 2.6709000000 1.4507000000
0.0024000000 0.3947000000 0.1958000000
0.0021000000 0.8249000000 0.4378000000
0.0020000000 2.4251000000 1.3182000000
0.0019000000 1.6822000000 0.9091000000
0.0017000000 5.3015000000 1.0782000000
0.0016000000 5.6082000000 0.9067000000
0.0014000000 0.8118000000 0.4295000000
0.0009000000 2.7902000000 1.5096000000
0.0008000000 1.6892000000 0.9093000000
0.0004000000 4.4784000000 1.5295000000
-0.0000000000 2.6059000000 1.4125000000
-0.0003000000 4.5874000000 1.4676000000
-0.0007000000 2.3514000000 1.2707000000
-0.0008000000 0.6422000000 0.3291000000
-0.0010000000 2.2633000000 1.2228000000
-0.0012000000 1.9343000000 1.0399000000
-0.0013000000 4.6709000000 1.4230000000
-0.0017000000 2.6904000000 1.4528000000
-0.0019000000 6.9647000000 0.1583000000
-0.0023000000 6.9654000000 0.1619000000
-0.0025000000 3.3049000000 1.7893000000
-0.0031000000 1.4233000000 0.7616000000
-0.0045000000 3.7741000000 1.9074000000
-0.0075000000 5.1708000000 1.1382000000
-0.2341000000 0.6793000000 0.1349000000
-0.2353000000 6.6698000000 0.1036000000
-0.2388000000 4.3144000000 1.3900000000
-0.2395000000 5.7036000000 0.6247000000
-0.2407000000 6.5319000000 0.1696000000
-0.2412000000 2.5822000000 1.1727000000
-0.2414000000 5.5990000000 0.6832000000
-0.2420000000 6.3936000000 0.2427000000
-0.2422000000 3.3140000000 1.5674000000
-0.2423000000 6.8972000000 0.0466000000
-0.2426000000 6.3913000000 0.2466000000
-0.2428000000 6.7426000000 0.0554000000
-0.2433000000 5.4565000000 0.7515000000
-0.2435000000 2.8808000000 1.3311000000
-0.2438000000 6.5813000000 0.1370000000
-0.2441000000 4.0966000000 1.5071000000
-0.2442000000 4.9618000000 1.0309000000
-0.2446000000 0.7010000000 0.1348000000
-0.2448000000 7.0985000000 0.0026000000
-0.2449000000 0.3943000000 0.0445000000
-0.2452000000 5.8908000000 0.5199000000
-0.2455000000 2.6646000000 1.2063000000
-0.2457000000 2.5586000000 1.1548000000
-0.2459000000 5.2552000000 0.8684000000
-0.2460000000 4.9574000000 1.0336000000
-0.2462000000 6.0365000000 0.4384000000
-0.2463000000 6.3466000000 0.2674000000
-0.2465000000 0.7032000000 0.1323000000
-0.2467000000 2.0086000000 0.8455000000
-0.2468000000 7.0229000000 0.0437000000
-0.2470000000 2.3224000000 1.0222000000
-0.2473000000 4.4242000000 1.3220000000
-0.2475000000 3.8966000000 1.6155000000
-0.2476000000 2.6323000000 1.1936000000
-0.2477000000 6.3608000000 0.2641000000
-0.2480000000 3.5232000000 1.6770000000
-0.2484000000 5.9531000000 0.4793000000
-0.2487000000 4.0436000000 1.5266000000
-0.2492000000 4.8541000000 1.0912000000
-0.2493000000 2.0393000000 0.8641000000
-0.2495000000 6.2395000000 0.3248000000
-0.2498000000 3.9962000000 1.5557000000
-0.2500000000 0.5308000000 0.1094000000
-0.2502000000 3.9800000000 1.5623000000
-0.2505000000 0.3969000000 0.0363000000
-0.2510000000 1.3416000000 0.4758000000
-0.2512000000 1.6352000000 0.6380000000
-0.2513000000 4.7052000000 1.1660000000
-0.2519000000 2.1554000000 0.9218000000
-0.2520000000 1.5272000000 0.5781000000
-0.4878000000 3.8537000000 1.4098000000
-0.4880000000 5.3568000000 0.5763000000
-0.4901000000 2.4981000000 0.8835000000
-0.4911000000 4.6738000000 0.9588000000
-0.4917000000 6.2435000000 0.0924000000
-0.4922000000 6.4731000000 0.0423000000
-0.4925000000 5.9157000000 0.2692000000
-0.4929000000 5.9496000000 0.2506000000
-0.4933000000 5.7730000000 0.3483000000
-0.4937000000 4.5149000000 1.0400000000
-0.4939000000 2.1107000000 0.6791000000
-0.4940000000 6.0111000000 0.2181000000
-0.4943000000 1.6975000000 0.4466000000
-0.4945000000 1.9121000000 0.5596000000
-0.4947000000 6.0938000000 0.1670000000
-0.4951000000 2.7875000000 1.0439000000
-0.4955000000 2.6598000000 0.9689000000
-0.4957000000 5.2484000000 0.6362000000
-0.4958000000 2.8962000000 1.1021000000
-0.4960000000 6.3297000000 0.1179000000
-0.4967000000 4.3958000000 1.1033000000
-0.4969000000 2.6821000000 0.9825000000
-0.4972000000 4.6016000000 0.9897000000
-0.4974000000 2.5989000000 0.9338000000
-0.4974000000 3.3476000000 1.3422000000
-0.4976000000 2.1133000000 0.6688000000
-0.4977000000 6.2328000000 0.0924000000
-0.4977000000 3.3337000000 1.3356000000
-0.4979000000 2.6905000000 0.9864000000
-0.4982000000 1.4957000000 0.3302000000
-0.4985000000 4.0773000000 1.2754000000
-0.4987000000 1.3666000000 0.2627000000
-0.4990000000 4.0312000000 1.2984000000
-0.4991000000 2.3084000000 0.7677000000
-0.4995000000 2.7285000000 1.0023000000
-0.4995000000 1.8803000000 0.5366000000
-0.4997000000 2.6304000000 0.9476000000
-0.4999000000 0.9938000000 0.0562000000
-0.5004000000 2.6770000000 0.9705000000
-0.5014000000 1.5800000000 0.3725000000
-0.5021000000 2.9888000000 1.1451000000
-0.5023000000 1.3151000000 0.2281000000
-0.5040000000 3.0334000000 1.1689000000
-0.7360000000 6.0789000000 0.0995000000
-0.7397000000 2.8544000000 0.8452000000
-0.7405000000 5.6692000000 0.1758000000
-0.7412000000 5.7805000000 0.1104000000
-0.7419000000 1.9738000000 0.3560000000
-0.7426000000 6.2087000000 0.0223000000
-0.7430000000 5.0863000000 0.4842000000
-0.7435000000 2.8837000000 0.8571000000
-0.7438000000 2.4439000000 0.6141000000
-0.7441000000 1.4864000000 0.0903000000
-0.7443000000 3.1677000000 1.0080000000
-0.7448000000 1.2225000000 0.0933000000
-0.7449000000 5.0002000000 0.5366000000
-0.7452000000 4.5595000000 0.7789000000
-0.7453000000 3.9796000000 1.0950000000
-0.7455000000 3.4155000000 1.1442000000
-0.7457000000 3.9127000000 1.1288000000
-0.7457000000 2.4189000000 0.6031000000
-0.7461000000 1.7924000000 0.2550000000
-0.7462000000 4.6933000000 0.6991000000
-0.7464000000 5.4476000000 0.2873000000
-0.7469000000 2.3185000000 0.5403000000
-0.7472000000 1.5060000000 0.0992000000
-0.7477000000 1.1657000000 0.0631000000
-0.7477000000 5.7610000000 0.1122000000
-0.7481000000 5.1080000000 0.4674000000
-0.7485000000 1.8976000000 0.3137000000
-0.7488000000 3.5535000000 1.2151000000
-0.7489000000 2.5631000000 0.6793000000
-0.7492000000 1.1222000000 0.0356000000
-0.7496000000 5.5743000000 0.2111000000
-0.7499000000 2.6365000000 0.7138000000
-0.7502000000 2.7815000000 0.7971000000
-0.7510000000 1.5276000000 0.1033000000
-0.7522000000 3.6125000000 1.2243000000
