6.7574000000 3.6497000000 0.0572000000
6.7555000000 3.7241000000 0.0281000000
6.7535000000 3.7389000000 0.0391000000
6.7498000000 3.9760000000 0.0656000000
6.5082000000 4.1728000000 0.2118000000
6.5061000000 3.1862000000 0.0463000000
6.5040000000 4.5277000000 0.0881000000
6.5030000000 3.9757000000 0.3157000000
6.5022000000 4.5851000000 0.0496000000
6.5014000000 4.2513000000 0.1715000000
6.2648000000 3.6116000000 0.3789000000
6.2591000000 4.9446000000 0.0964000000
6.2586000000 2.7053000000 0.0141000000
6.2573000000 2.8037000000 0.0742000000
6.2570000000 3.9256000000 0.5535000000
6.2568000000 3.7712000000 0.4805000000
6.2555000000 2.8530000000 0.1049000000
6.2542000000 4.0880000000 0.5160000000
6.2525000000 5.1895000000 0.0342000000
6.2506000000 3.1018000000 0.1014000000
6.2494000000 3.7203000000 0.4568000000
6.0118000000 3.6693000000 0.6686000000
6.0095000000 4.1864000000 0.7002000000
6.0076000000 5.4261000000 0.0630000000
6.0069000000 3.2085000000 0.4053000000
6.0063000000 4.0636000000 0.7775000000
6.0060000000 4.1904000000 0.7026000000
6.0057000000 4.1781000000 0.7171000000
6.0053000000 2.9097000000 0.2361000000
6.0046000000 5.4994000000 0.1030000000
6.0033000000 2.3060000000 0.0340000000
6.0030000000 3.3524000000 0.4935000000
6.0024000000 5.3443000000 0.1205000000
6.0018000000 4.0992000000 0.7611000000
6.0011000000 3.0155000000 0.2945000000
5.9996000000 3.3566000000 0.5002000000
5.9980000000 4.2449000000 0.6808000000
5.7624000000 5.5694000000 0.1483000000
5.7610000000 4.1127000000 0.9979000000
5.7588000000 4.1770000000 0.9580000000
5.7582000000 3.6365000000 0.9057000000
5.7577000000 3.0758000000 0.5785000000
5.7570000000 6.0023000000 0.0604000000
5.7563000000 5.4994000000 0.1958000000
5.7559000000 4.3770000000 0.8488000000
5.7556000000 4.0412000000 1.0424000000
5.7552000000 3.5151000000 0.8317000000
5.7550000000 2.2722000000 0.1161000000
5.7546000000 2.3318000000 0.1505000000
5.7541000000 5.9616000000 0.0846000000
5.7537000000 3.9783000000 1.0589000000
5.7535000000 4.6162000000 0.7160000000
5.7533000000 3.7685000000 0.9847000000
5.7530000000 4.4700000000 0.7976000000
5.7522000000 4.3835000000 0.8557000000
5.7508000000 4.3461000000 0.8771000000
5.7502000000 5.4115000000 0.2572000000
5.7480000000 3.8254000000 1.0204000000
5.5148000000 5.0366000000 0.7082000000
5.5118000000 6.2514000000 0.0822000000
5.5098000000 4.8365000000 0.8328000000
5.5086000000 6.2527000000 0.0908000000
5.5083000000 4.6795000000 0.9215000000
5.5080000000 6.2597000000 0.0816000000
5.5073000000 5.7828000000 0.2857000000
5.5070000000 4.7262000000 0.8990000000
5.5068000000 5.5752000000 0.3973000000
5.5065000000 5.3328000000 0.5465000000
5.5063000000 2.5703000000 0.5389000000
5.5058000000 5.5556000000 0.4180000000
5.5053000000 6.0000000000 0.1558000000
5.5048000000 4.3474000000 1.1233000000
5.5047000000 4.8982000000 0.8026000000
5.5042000000 6.0141000000 0.1551000000
5.5041000000 4.8228000000 0.8432000000
5.5038000000 4.6384000000 0.9512000000
5.5035000000 4.7961000000 0.8562000000
5.5027000000 5.7221000000 0.3289000000
5.5025000000 3.8647000000 1.2884000000
5.5010000000 6.3922000000 0.0877000000
5.5006000000 5.5150000000 0.4506000000
5.4999000000 5.1167000000 0.6773000000
5.4990000000 5.7982000000 0.2848000000
5.4965000000 3.5625000000 1.1186000000
5.2633000000 6.8460000000 0.0679000000
5.2610000000 6.2860000000 0.2425000000
5.2600000000 1.9937000000 0.4597000000
5.2587000000 2.8780000000 0.9625000000
5.2583000000 4.4168000000 1.3270000000
5.2575000000 3.3849000000 1.2580000000
5.2574000000 3.1948000000 1.1506000000
5.2571000000 5.6765000000 0.6025000000
5.2565000000 5.0655000000 0.9495000000
5.2562000000 1.9286000000 0.4146000000
5.2558000000 1.0846000000 0.0821000000
5.2555000000 6.4425000000 0.1536000000
5.2554000000 4.8592000000 1.0665000000
5.2552000000 4.2986000000 1.3928000000
5.2545000000 3.8152000000 1.5083000000
5.2542000000 2.0962000000 0.5152000000
5.2539000000 2.1913000000 0.5709000000
5.2535000000 3.2108000000 1.1622000000
5.2533000000 3.5877000000 1.3767000000
5.2528000000 3.0800000000 1.0751000000
5.2517000000 1.4693000000 0.1526000000
5.2513000000 3.6765000000 1.4356000000
5.2510000000 1.4512000000 0.1472000000
5.2497000000 1.7212000000 0.2977000000
5.2486000000 2.0572000000 0.4980000000
5.2476000000 2.8702000000 0.9745000000
5.0136000000 4.6779000000 1.4149000000
5.0119000000 4.1182000000 1.7408000000
5.0115000000 5.7686000000 0.7973000000
5.0105000000 2.9573000000 1.2596000000
5.0099000000 5.7771000000 0.7837000000
5.0090000000 1.2667000000 0.2813000000
5.0088000000 1.2372000000 0.2625000000
5.0078000000 6.3366000000 0.4651000000
5.0071000000 5.8821000000 0.7278000000
5.0068000000 5.6052000000 0.8892000000
5.0066000000 5.4363000000 0.9871000000
5.0063000000 2.4286000000 0.9589000000
5.0060000000 4.4055000000 1.5852000000
5.0057000000 5.7236000000 0.8247000000
5.0054000000 1.8592000000 0.6257000000
5.0051000000 2.9257000000 1.2437000000
5.0050000000 2.4953000000 0.9988000000
5.0045000000 2.9481000000 1.2628000000
5.0044000000 2.2256000000 0.8421000000
5.0040000000 2.5569000000 1.0327000000
5.0038000000 6.9001000000 0.1406000000
5.0035000000 4.0710000000 1.7820000000
5.0030000000 1.7689000000 0.5749000000
5.0028000000 5.5021000000 0.9524000000
5.0019000000 0.6672000000 0.0919000000
5.0017000000 1.4568000000 0.4026000000
5.0012000000 4.7502000000 1.3827000000
5.0005000000 2.4257000000 0.9662000000
4.9995000000 2.1227000000 0.7847000000
4.9991000000 2.1341000000 0.7942000000
4.9983000000 0.5191000000 0.0095000000
4.9963000000 2.6984000000 1.1225000000
4.7617000000 7.2698000000 0.1733000000
4.7608000000 6.2068000000 0.7865000000
4.7603000000 7.2869000000 0.1653000000
4.7599000000 6.3082000000 0.7309000000
4.7595000000 5.6405000000 1.1234000000
4.7591000000 6.0100000000 0.9066000000
4.7589000000 1.8727000000 0.8853000000
4.7585000000 7.4897000000 0.1223000000
4.7582000000 5.2665000000 1.3342000000
4.7578000000 6.4256000000 0.6622000000
4.7576000000 3.5354000000 1.8457000000
4.7574000000 5.5097000000 1.1909000000
4.7571000000 7.0507000000 0.3015000000
4.7570000000 6.5346000000 0.6012000000
4.7565000000 4.1280000000 1.9901000000
4.7562000000 3.1461000000 1.6247000000
4.7560000000 4.4365000000 1.8187000000
4.7558000000 2.8428000000 1.4426000000
4.7553000000 2.1489000000 1.0452000000
4.7551000000 0.9899000000 0.3744000000
4.7549000000 2.5902000000 1.3026000000
4.7545000000 2.5930000000 1.3068000000
4.7541000000 3.7795000000 1.9881000000
4.7538000000 7.4535000000 0.0753000000
4.7532000000 4.0640000000 2.0332000000
4.7530000000 2.4296000000 1.2149000000
4.7528000000 0.1104000000 0.0210000000
4.7526000000 0.3652000000 0.0935000000
4.7524000000 3.5962000000 1.8834000000
4.7521000000 0.6002000000 0.1531000000
4.7518000000 1.7472000000 0.8175000000
4.7513000000 2.0492000000 0.9901000000
4.7510000000 3.5610000000 1.8624000000
4.7507000000 3.5998000000 1.8917000000
4.7501000000 3.6630000000 1.9249000000
4.7491000000 3.4955000000 1.8347000000
4.7479000000 4.4562000000 1.8101000000
4.7472000000 1.1893000000 0.4968000000
4.5174000000 5.9497000000 1.1827000000
4.5129000000 7.4425000000 0.3223000000
4.5121000000 6.1102000000 1.0928000000
4.5105000000 7.5204000000 0.2804000000
4.5100000000 7.6236000000 0.2215000000
4.5098000000 6.2290000000 1.0278000000
4.5091000000 7.6814000000 0.1876000000
4.5083000000 1.6881000000 1.0318000000
4.5076000000 1.0188000000 0.6410000000
4.5073000000 2.1218000000 1.2806000000
4.5070000000 1.8559000000 1.1257000000
4.5067000000 5.4336000000 1.4901000000
4.5065000000 3.1462000000 1.8755000000
4.5063000000 7.3678000000 0.3716000000
4.5061000000 3.7729000000 2.2418000000
4.5058000000 3.1388000000 1.8735000000
4.5056000000 6.1351000000 1.0814000000
4.5055000000 6.2077000000 1.0467000000
4.5052000000 7.7787000000 0.1122000000
4.5048000000 0.7030000000 0.4609000000
4.5043000000 1.7100000000 1.0448000000
4.5042000000 1.2317000000 0.7672000000
4.5040000000 6.8371000000 0.6820000000
4.5038000000 5.9057000000 1.2251000000
4.5035000000 2.6783000000 1.6006000000
4.5033000000 3.0186000000 1.7994000000
4.5031000000 4.6575000000 1.9427000000
4.5030000000 5.5965000000 1.4020000000
4.5028000000 6.3151000000 0.9840000000
4.5022000000 0.1007000000 0.0827000000
4.5020000000 1.9163000000 1.1619000000
4.5018000000 2.8176000000 1.6864000000
4.5016000000 4.9465000000 1.7740000000
4.5013000000 1.8740000000 1.1408000000
4.5007000000 2.5204000000 1.5129000000
4.5003000000 7.5864000000 0.2488000000
4.4997000000 1.3136000000 0.8174000000
4.4990000000 0.0084000000 0.0703000000
4.4987000000 0.1083000000 0.0960000000
4.4978000000 4.1806000000 2.2234000000
4.4963000000 0.5096000000 0.3541000000
4.4941000000 4.3085000000 2.1521000000
4.2630000000 6.6964000000 1.0088000000
4.2607000000 5.0980000000 1.9281000000
4.2598000000 6.0235000000 1.3980000000
4.2595000000 7.8156000000 0.1089000000
4.2594000000 6.7616000000 0.9692000000
4.2591000000 1.7987000000 1.3459000000
4.2585000000 5.9259000000 1.4575000000
4.2583000000 5.0381000000 1.9658000000
4.2580000000 0.9568000000 0.8533000000
4.2577000000 2.1983000000 1.5754000000
4.2574000000 0.4905000000 0.5393000000
4.2570000000 4.4585000000 2.3076000000
4.2568000000 2.7646000000 1.9005000000
4.2564000000 0.2141000000 0.2314000000
4.2561000000 3.5472000000 2.3551000000
4.2559000000 7.8231000000 0.1000000000
4.2557000000 1.7418000000 1.3094000000
4.2555000000 7.6854000000 0.2612000000
4.2553000000 6.1671000000 1.3189000000
4.2550000000 3.1461000000 2.1243000000
4.2547000000 6.2581000000 1.2599000000
4.2542000000 6.0617000000 1.3750000000
4.2542000000 1.2295000000 1.0186000000
4.2538000000 2.2514000000 1.6091000000
4.2534000000 4.6024000000 2.2225000000
4.2530000000 0.0236000000 0.0895000000
4.2529000000 1.5548000000 1.2088000000
4.2526000000 5.6687000000 1.6094000000
4.2524000000 5.7166000000 1.5790000000
4.2522000000 4.1215000000 2.5004000000
4.2520000000 2.2806000000 1.6245000000
4.2518000000 2.5372000000 1.7721000000
4.2515000000 0.4996000000 0.5558000000
4.2512000000 3.3196000000 2.2247000000
4.2508000000 0.1834000000 0.2052000000
4.2501000000 1.9926000000 1.4640000000
4.2488000000 5.3507000000 1.7948000000
4.2482000000 1.2391000000 1.0224000000
4.2468000000 0.2225000000 0.2452000000
4.2455000000 3.6683000000 2.4332000000
4.0129000000 5.6739000000 1.8488000000
4.0110000000 5.3747000000 2.0180000000
4.0102000000 7.3475000000 0.6541000000
4.0095000000 6.8813000000 1.1323000000
4.0091000000 0.9666000000 1.0846000000
4.0088000000 0.0086000000 0.0722000000
4.0084000000 4.0817000000 2.7722000000
4.0081000000 0.6354000000 0.7199000000
4.0077000000 3.4325000000 2.5381000000
4.0073000000 4.3187000000 2.6355000000
4.0069000000 3.4285000000 2.5383000000
4.0068000000 4.3428000000 2.6202000000
4.0066000000 6.9780000000 1.0585000000
4.0063000000 1.1303000000 1.2060000000
4.0061000000 3.2969000000 2.4625000000
4.0060000000 5.6476000000 1.8639000000
4.0057000000 1.2944000000 1.3030000000
4.0052000000 2.1039000000 1.7783000000
4.0049000000 3.9753000000 2.8157000000
4.0047000000 0.9303000000 1.0486000000
4.0043000000 1.6735000000 1.5194000000
4.0041000000 7.4564000000 0.5267000000
4.0040000000 3.0208000000 2.3033000000
4.0036000000 3.5118000000 2.5892000000
4.0035000000 4.2746000000 2.6643000000
4.0033000000 7.1867000000 0.8345000000
4.0031000000 5.6487000000 1.8694000000
4.0029000000 0.5196000000 0.5899000000
4.0027000000 0.7855000000 0.8939000000
4.0024000000 2.7235000000 2.1268000000
4.0023000000 1.2467000000 1.2852000000
4.0020000000 4.3906000000 2.5937000000
4.0018000000 0.1779000000 0.1901000000
4.0014000000 4.0814000000 2.7783000000
4.0011000000 3.8562000000 2.7855000000
4.0005000000 6.8034000000 1.2048000000
4.0003000000 5.1304000000 2.1683000000
3.9999000000 3.6105000000 2.6456000000
3.9995000000 0.1303000000 0.1370000000
3.9993000000 1.7826000000 1.5879000000
3.9990000000 0.6772000000 0.7716000000
3.9971000000 0.7096000000 0.8075000000
3.7634000000 7.7526000000 0.1869000000
3.7608000000 6.5704000000 1.5303000000
3.7598000000 3.4742000000 2.8085000000
3.7595000000 5.4448000000 2.2290000000
3.7588000000 7.6846000000 0.2611000000
3.7584000000 5.3163000000 2.3119000000
3.7582000000 2.3121000000 2.1422000000
3.7579000000 3.8290000000 3.0146000000
3.7575000000 2.4431000000 2.2103000000
3.7572000000 1.7736000000 1.8279000000
3.7568000000 1.6924000000 1.7799000000
3.7566000000 6.7764000000 1.3084000000
3.7563000000 2.9772000000 2.5285000000
3.7561000000 5.3116000000 2.3125000000
3.7558000000 3.4102000000 2.7726000000
3.7557000000 2.2203000000 2.0878000000
3.7553000000 2.0403000000 1.9833000000
3.7549000000 0.1296000000 0.1409000000
3.7546000000 0.7881000000 0.8970000000
3.7543000000 5.1818000000 2.3860000000
3.7541000000 6.7096000000 1.3884000000
3.7539000000 1.4723000000 1.6374000000
3.7537000000 3.2794000000 2.7031000000
3.7535000000 2.9781000000 2.5262000000
3.7534000000 2.3009000000 2.1400000000
3.7531000000 1.4541000000 1.6248000000
3.7529000000 4.7592000000 2.6360000000
3.7525000000 2.5982000000 2.3104000000
3.7523000000 0.5643000000 0.6428000000
3.7520000000 0.5747000000 0.6552000000
3.7516000000 2.3482000000 2.1668000000
3.7510000000 1.9895000000 1.9558000000
3.7505000000 0.0050000000 0.0692000000
3.7503000000 1.0997000000 1.2600000000
3.7494000000 1.4862000000 1.6517000000
3.7490000000 1.3131000000 1.4996000000
3.7481000000 0.4658000000 0.5241000000
3.7470000000 0.5932000000 0.6738000000
3.5128000000 6.9919000000 1.0580000000
3.5116000000 6.3378000000 1.8118000000
3.5103000000 6.2382000000 1.9300000000
3.5096000000 7.7293000000 0.2112000000
3.5092000000 5.2301000000 2.6057000000
3.5085000000 2.4245000000 2.4515000000
3.5078000000 5.7096000000 2.3309000000
3.5074000000 5.2445000000 2.5976000000
3.5071000000 1.1821000000 1.3594000000
3.5066000000 3.2753000000 2.9488000000
3.5061000000 5.4682000000 2.4705000000
3.5058000000 1.1089000000 1.2709000000
3.5055000000 4.1938000000 3.2080000000
3.5053000000 2.6133000000 2.5671000000
3.5049000000 0.0280000000 0.0958000000
3.5047000000 3.5874000000 3.1310000000
3.5046000000 5.3988000000 2.5092000000
3.5043000000 0.7131000000 0.8196000000
3.5041000000 4.3831000000 3.1037000000
3.5039000000 2.5459000000 2.5322000000
3.5038000000 3.6957000000 3.1962000000
3.5034000000 4.1269000000 3.2501000000
3.5031000000 2.0951000000 2.2692000000
3.5027000000 4.3139000000 3.1412000000
3.5025000000 6.7127000000 1.3864000000
3.5023000000 1.9391000000 2.1628000000
3.5020000000 3.7228000000 3.2161000000
3.5017000000 6.8157000000 1.2623000000
3.5015000000 5.1517000000 2.6606000000
3.5013000000 1.5234000000 1.7470000000
3.5006000000 1.4889000000 1.7070000000
3.5001000000 1.0958000000 1.2569000000
3.4999000000 3.5264000000 3.1009000000
3.4995000000 3.1935000000 2.9039000000
3.4983000000 1.4177000000 1.6320000000
3.4974000000 2.2813000000 2.3836000000
3.4965000000 0.3900000000 0.4388000000
3.2630000000 7.6106000000 0.3490000000
3.2619000000 1.0993000000 1.2588000000
3.2608000000 5.2513000000 2.8431000000
3.2595000000 3.0671000000 3.0720000000
3.2587000000 4.1011000000 3.5123000000
3.2585000000 7.9456000000 0.0309000000
3.2580000000 6.9973000000 1.0539000000
3.2578000000 4.9128000000 3.0379000000
3.2571000000 5.9763000000 2.2413000000
3.2570000000 0.3670000000 0.4126000000
3.2567000000 3.5378000000 3.3557000000
3.2564000000 5.2764000000 2.8354000000
3.2562000000 4.7401000000 3.1452000000
3.2560000000 4.3586000000 3.3622000000
3.2558000000 4.9899000000 2.9987000000
3.2557000000 1.7490000000 2.0111000000
3.2555000000 1.3999000000 1.6112000000
3.2554000000 6.2300000000 1.9394000000
3.2552000000 2.1064000000 2.4245000000
3.2549000000 4.0706000000 3.5306000000
3.2546000000 5.9605000000 2.2506000000
3.2545000000 3.4450000000 3.2936000000
3.2541000000 6.3227000000 1.8343000000
3.2539000000 6.3113000000 1.8486000000
3.2537000000 1.2126000000 1.3889000000
3.2532000000 0.6213000000 0.7081000000
3.2527000000 4.1853000000 3.4657000000
3.2526000000 2.9221000000 2.9994000000
3.2525000000 4.9642000000 3.0174000000
3.2523000000 6.6190000000 1.4913000000
3.2518000000 2.7103000000 2.8778000000
3.2517000000 0.0562000000 0.1267000000
3.2515000000 0.8307000000 0.9482000000
3.2511000000 0.8097000000 0.9234000000
3.2504000000 1.9667000000 2.2645000000
3.2503000000 2.1937000000 2.5090000000
3.2497000000 1.2288000000 1.4090000000
3.2493000000 0.5545000000 0.6320000000
3.2490000000 0.1788000000 0.1973000000
3.2485000000 0.1581000000 0.1691000000
3.2478000000 1.8183000000 2.0831000000
3.0141000000 7.7769000000 0.1523000000
3.0127000000 5.9249000000 2.2917000000
3.0103000000 5.0798000000 3.1910000000
3.0096000000 5.8171000000 2.4154000000
3.0091000000 3.2429000000 3.4260000000
3.0088000000 4.9195000000 3.2903000000
3.0083000000 4.4594000000 3.5575000000
3.0082000000 1.6548000000 1.9005000000
3.0074000000 4.1151000000 3.7555000000
3.0073000000 4.2194000000 3.6904000000
3.0069000000 7.3079000000 0.6964000000
3.0066000000 7.3637000000 0.6364000000
3.0064000000 3.5665000000 3.6117000000
3.0063000000 3.4671000000 3.5559000000
3.0056000000 2.0078000000 2.3105000000
3.0053000000 4.2502000000 3.6753000000
3.0050000000 2.9607000000 3.2669000000
3.0048000000 0.3445000000 0.3916000000
3.0045000000 4.3593000000 3.6230000000
3.0044000000 1.5273000000 1.7535000000
3.0041000000 5.1107000000 3.1612000000
3.0038000000 4.5059000000 3.5368000000
3.0035000000 4.6991000000 3.4153000000
3.0033000000 7.3718000000 0.6199000000
3.0030000000 6.7923000000 1.2931000000
3.0028000000 5.7362000000 2.5125000000
3.0025000000 4.2551000000 3.6748000000
3.0020000000 0.2357000000 0.2583000000
3.0018000000 1.0078000000 1.1565000000
3.0015000000 4.1575000000 3.7355000000
3.0013000000 4.7413000000 3.4013000000
3.0005000000 2.0322000000 2.3372000000
3.0003000000 0.0279000000 0.0969000000
3.0000000000 2.5285000000 2.9154000000
2.9993000000 0.9709000000 1.1085000000
2.9984000000 1.6043000000 1.8444000000
2.9980000000 4.8945000000 3.3145000000
2.9960000000 0.3854000000 0.4369000000
2.7620000000 5.6457000000 2.6191000000
2.7598000000 4.5736000000 3.7404000000
2.7593000000 6.6505000000 1.4563000000
2.7589000000 3.7413000000 3.9680000000
2.7581000000 3.8569000000 4.0274000000
2.7580000000 6.2470000000 1.9214000000
2.7572000000 0.0164000000 0.0840000000
2.7570000000 7.5521000000 0.4190000000
2.7567000000 6.1343000000 2.0550000000
2.7565000000 3.3552000000 3.7487000000
2.7562000000 2.8572000000 3.2909000000
2.7559000000 0.8452000000 0.9634000000
2.7556000000 1.3313000000 1.5285000000
2.7554000000 1.8900000000 2.1728000000
2.7551000000 7.1641000000 0.8609000000
2.7550000000 4.6775000000 3.6655000000
2.7548000000 7.5579000000 0.4068000000
2.7543000000 6.9316000000 1.1279000000
2.7541000000 2.1162000000 2.4346000000
2.7539000000 1.7615000000 2.0249000000
2.7536000000 4.7201000000 3.6483000000
2.7534000000 1.7388000000 1.9960000000
2.7531000000 0.8025000000 0.9178000000
2.7528000000 1.8607000000 2.1416000000
2.7527000000 4.2126000000 3.9526000000
2.7522000000 6.2685000000 1.8914000000
2.7519000000 4.4358000000 3.8223000000
2.7514000000 0.0635000000 0.0616000000
2.7512000000 6.6624000000 1.4421000000
2.7509000000 0.6589000000 0.7472000000
2.7507000000 6.5538000000 1.5718000000
2.7503000000 2.5804000000 2.9717000000
2.7501000000 4.1851000000 3.9701000000
2.7497000000 0.2454000000 0.2721000000
2.7490000000 7.0168000000 1.0328000000
2.7465000000 1.6507000000 1.8916000000
2.7438000000 2.4752000000 2.8485000000
2.5155000000 4.7032000000 3.7102000000
2.5137000000 4.5836000000 3.8468000000
2.5108000000 5.3676000000 2.9345000000
2.5100000000 6.6934000000 1.4079000000
2.5097000000 7.9381000000 0.0460000000
2.5089000000 2.6525000000 3.0552000000
2.5086000000 7.1627000000 0.8613000000
2.5080000000 4.7265000000 3.6813000000
2.5076000000 6.9028000000 1.1637000000
2.5075000000 3.5064000000 4.0205000000
2.5072000000 7.0532000000 0.9894000000
2.5069000000 1.5818000000 1.8224000000
2.5066000000 5.2941000000 3.0202000000
2.5064000000 3.0559000000 3.5221000000
2.5062000000 5.9530000000 2.2628000000
2.5060000000 4.6537000000 3.7669000000
2.5059000000 5.9312000000 2.2873000000
2.5057000000 5.9893000000 2.2178000000
2.5055000000 6.5768000000 1.5384000000
2.5053000000 6.5380000000 1.5881000000
2.5050000000 4.5590000000 3.8649000000
2.5049000000 1.0477000000 1.2036000000
2.5046000000 0.0569000000 0.1294000000
2.5044000000 6.4661000000 1.6702000000
2.5043000000 5.7627000000 2.4805000000
2.5039000000 7.2977000000 0.6974000000
2.5037000000 4.4700000000 3.9806000000
2.5033000000 1.8008000000 2.0699000000
2.5031000000 1.4237000000 1.6357000000
2.5028000000 5.0711000000 3.2827000000
2.5026000000 0.0042000000 0.0617000000
2.5020000000 3.8899000000 4.3080000000
2.5020000000 0.2248000000 0.2455000000
2.5015000000 2.7951000000 3.2210000000
2.5007000000 3.8350000000 4.2783000000
2.5002000000 1.2381000000 1.4253000000
2.5000000000 6.4385000000 1.7005000000
2.4995000000 1.5916000000 1.8312000000
2.4984000000 3.1387000000 3.6167000000
2.4974000000 0.3973000000 0.4540000000
2.2640000000 7.6626000000 0.2828000000
2.2627000000 6.8162000000 1.2629000000
2.2605000000 6.6820000000 1.4169000000
2.2597000000 2.9611000000 3.4074000000
2.2595000000 6.6945000000 1.4035000000
2.2585000000 7.4811000000 0.4929000000
2.2583000000 4.2149000000 4.2669000000
2.2579000000 6.6732000000 1.4360000000
2.2575000000 5.1819000000 3.1565000000
2.2573000000 6.1980000000 1.9806000000
2.2571000000 2.3359000000 2.6906000000
2.2567000000 7.6751000000 0.2750000000
2.2562000000 6.4402000000 1.6992000000
2.2560000000 3.4150000000 3.9385000000
2.2558000000 4.2066000000 4.2793000000
2.2552000000 4.1628000000 4.3363000000
2.2549000000 4.3125000000 4.1601000000
2.2546000000 7.8303000000 0.0928000000
2.2543000000 2.8756000000 3.3092000000
2.2542000000 3.4276000000 3.9502000000
2.2538000000 5.7998000000 2.4400000000
2.2537000000 2.1505000000 2.4736000000
2.2533000000 6.1353000000 2.0541000000
2.2531000000 0.8511000000 0.9739000000
2.2529000000 2.1715000000 2.4984000000
2.2526000000 4.1677000000 4.3281000000
2.2524000000 0.1036000000 0.1129000000
2.2522000000 0.0884000000 0.0923000000
2.2519000000 4.9405000000 3.4314000000
2.2516000000 0.2263000000 0.2524000000
2.2513000000 2.9085000000 3.3482000000
2.2511000000 5.4482000000 2.8499000000
2.2505000000 2.9415000000 3.3874000000
2.2501000000 1.6231000000 1.8659000000
2.2500000000 1.8407000000 2.1167000000
2.2487000000 0.5111000000 0.5770000000
2.2477000000 0.0580000000 0.1296000000
2.2472000000 0.8704000000 0.9898000000
2.2448000000 2.9427000000 3.3945000000
2.0167000000 3.8754000000 4.2463000000
2.0111000000 7.4409000000 0.5427000000
2.0096000000 7.8849000000 0.1019000000
2.0093000000 6.6481000000 1.4552000000
2.0085000000 7.8397000000 0.0818000000
2.0082000000 6.0084000000 2.1974000000
2.0073000000 1.4166000000 1.6279000000
2.0067000000 4.4263000000 3.9969000000
2.0064000000 6.2413000000 1.9282000000
2.0060000000 5.9445000000 2.2699000000
2.0058000000 0.9949000000 1.1406000000
2.0055000000 1.0550000000 1.2099000000
2.0053000000 1.3772000000 1.5822000000
2.0051000000 3.9707000000 4.2626000000
2.0049000000 2.2124000000 2.5466000000
2.0047000000 4.9017000000 3.4725000000
2.0043000000 6.7676000000 1.3215000000
2.0042000000 4.4769000000 3.9543000000
2.0040000000 3.3535000000 3.8693000000
2.0038000000 7.8062000000 0.1182000000
2.0036000000 1.5442000000 1.7742000000
2.0034000000 5.3224000000 2.9893000000
2.0032000000 1.2198000000 1.3978000000
2.0030000000 1.8036000000 2.0701000000
2.0026000000 2.2471000000 2.5912000000
2.0025000000 0.2814000000 0.3141000000
2.0023000000 7.7850000000 0.1459000000
2.0021000000 6.8450000000 1.2266000000
2.0020000000 1.6153000000 1.8548000000
2.0018000000 2.6268000000 3.0202000000
2.0011000000 4.9661000000 3.4013000000
2.0006000000 1.6962000000 1.9511000000
2.0001000000 2.9624000000 3.4132000000
1.9993000000 1.2272000000 1.4067000000
1.9984000000 0.7027000000 0.7960000000
1.9980000000 6.2657000000 1.8986000000
1.9970000000 0.1252000000 0.1331000000
1.9960000000 1.0546000000 1.2086000000
1.7640000000 4.6965000000 3.6145000000
1.7625000000 7.3970000000 0.5967000000
1.7617000000 6.2936000000 1.8689000000
1.7594000000 6.1508000000 2.0367000000
1.7590000000 5.9118000000 2.3077000000
1.7584000000 5.6266000000 2.6420000000
1.7580000000 4.8036000000 3.5314000000
1.7577000000 7.5159000000 0.4593000000
1.7574000000 3.7090000000 3.8927000000
1.7571000000 7.2238000000 0.7915000000
1.7569000000 5.0120000000 3.3513000000
1.7567000000 2.8284000000 3.2570000000
1.7565000000 2.3194000000 2.6739000000
1.7563000000 7.5289000000 0.4400000000
1.7558000000 4.0252000000 3.9956000000
1.7557000000 6.2955000000 1.8626000000
1.7555000000 6.4332000000 1.7114000000
1.7553000000 6.4820000000 1.6527000000
1.7551000000 0.8698000000 0.9990000000
1.7549000000 0.7847000000 0.8987000000
1.7548000000 3.1023000000 3.5171000000
1.7545000000 7.3050000000 0.7004000000
1.7543000000 6.2364000000 1.9335000000
1.7542000000 3.8668000000 3.9821000000
1.7540000000 5.0716000000 3.2775000000
1.7539000000 0.6756000000 0.7717000000
1.7536000000 2.6140000000 3.0131000000
1.7535000000 5.6207000000 2.6424000000
1.7533000000 0.3901000000 0.4412000000
1.7532000000 3.4502000000 3.7468000000
1.7531000000 0.4979000000 0.5628000000
1.7528000000 4.4878000000 3.7223000000
1.7525000000 0.0140000000 0.0840000000
1.7519000000 2.8249000000 3.2558000000
1.7516000000 2.6078000000 3.0007000000
1.7513000000 4.4789000000 3.7346000000
1.7512000000 0.4016000000 0.4474000000
1.7508000000 5.3691000000 2.9431000000
1.7504000000 3.7513000000 3.9041000000
1.7499000000 2.5928000000 2.9885000000
1.7494000000 2.3928000000 2.7509000000
1.7489000000 0.3408000000 0.3861000000
1.7485000000 0.1055000000 0.1156000000
1.7478000000 3.4241000000 3.7208000000
1.7455000000 0.8761000000 1.0002000000
1.5127000000 3.7405000000 3.6747000000
1.5110000000 4.0588000000 3.7344000000
1.5099000000 2.8546000000 3.1509000000
1.5093000000 6.9613000000 1.0990000000
1.5088000000 6.4802000000 1.6533000000
1.5087000000 7.9574000000 0.0919000000
1.5084000000 3.3615000000 3.4448000000
1.5078000000 4.6145000000 3.4136000000
1.5074000000 5.8401000000 2.3936000000
1.5071000000 5.6817000000 2.5713000000
1.5070000000 2.0865000000 2.3989000000
1.5066000000 6.8446000000 1.2313000000
1.5060000000 5.2432000000 3.0245000000
1.5057000000 3.9082000000 3.7527000000
1.5051000000 4.0127000000 3.7463000000
1.5048000000 1.0028000000 1.1486000000
1.5045000000 3.3730000000 3.4468000000
1.5043000000 6.8332000000 1.2432000000
1.5039000000 0.8875000000 1.0167000000
1.5038000000 5.0028000000 3.1788000000
1.5035000000 2.8673000000 3.1511000000
1.5031000000 5.2815000000 2.9958000000
1.5030000000 3.7674000000 3.6669000000
1.5028000000 3.0761000000 3.2773000000
1.5026000000 0.3730000000 0.4179000000
1.5023000000 6.2029000000 1.9760000000
1.5016000000 1.6891000000 1.9394000000
1.5012000000 4.3806000000 3.5365000000
1.5003000000 1.4589000000 1.6781000000
1.4998000000 4.2212000000 3.6296000000
1.4996000000 5.1442000000 3.0932000000
1.4990000000 0.6257000000 0.7089000000
1.4982000000 0.8799000000 1.0107000000
1.2620000000 4.7910000000 3.0670000000
1.2605000000 6.6263000000 1.4841000000
1.2602000000 7.4119000000 0.5800000000
1.2599000000 7.3044000000 0.7004000000
1.2593000000 3.1807000000 3.0919000000
1.2589000000 6.5257000000 1.6014000000
1.2584000000 5.9142000000 2.3054000000
1.2581000000 6.4567000000 1.6762000000
1.2576000000 7.6354000000 0.3170000000
1.2572000000 6.9155000000 1.1493000000
1.2570000000 6.5273000000 1.6000000000
1.2568000000 7.4331000000 0.5518000000
1.2563000000 2.7021000000 2.8087000000
1.2562000000 1.7440000000 2.0031000000
1.2559000000 0.6057000000 0.6935000000
1.2556000000 7.6353000000 0.3187000000
1.2555000000 6.9926000000 1.0549000000
1.2552000000 0.9239000000 1.0604000000
1.2548000000 2.0534000000 2.3601000000
1.2545000000 4.8191000000 3.0407000000
1.2543000000 6.7653000000 1.3222000000
1.2541000000 6.6714000000 1.4335000000
1.2538000000 4.1212000000 3.4429000000
1.2535000000 5.8285000000 2.3890000000
1.2530000000 0.6668000000 0.7616000000
1.2528000000 2.9730000000 2.9609000000
1.2526000000 4.5306000000 3.1955000000
1.2521000000 4.5609000000 3.1832000000
1.2517000000 5.9560000000 2.2580000000
1.2512000000 0.1259000000 0.1328000000
1.2510000000 3.7830000000 3.4297000000
1.2508000000 2.3117000000 2.5741000000
1.2505000000 0.5967000000 0.6797000000
1.2498000000 3.5168000000 3.2778000000
1.2495000000 0.1365000000 0.1493000000
1.2489000000 0.2660000000 0.2956000000
1.2479000000 3.3424000000 3.1741000000
1.0148000000 6.9942000000 1.0552000000
1.0098000000 3.9082000000 3.2508000000
1.0088000000 5.3979000000 2.4546000000
1.0084000000 7.2078000000 0.8122000000
1.0082000000 6.1196000000 2.0207000000
1.0074000000 4.0553000000 3.2274000000
1.0072000000 7.3176000000 0.6866000000
1.0069000000 4.6465000000 2.8917000000
1.0067000000 3.0480000000 2.7619000000
1.0065000000 4.8863000000 2.7504000000
1.0062000000 7.2445000000 0.7694000000
1.0060000000 7.3034000000 0.7014000000
1.0058000000 1.9358000000 2.1179000000
1.0054000000 0.4256000000 0.4855000000
1.0049000000 7.9351000000 0.0447000000
1.0048000000 0.9281000000 1.0632000000
1.0045000000 3.0017000000 2.7300000000
1.0043000000 3.8920000000 3.2481000000
1.0040000000 6.4865000000 1.6446000000
1.0038000000 4.9288000000 2.7222000000
1.0036000000 0.2362000000 0.2605000000
1.0034000000 3.3947000000 2.9566000000
1.0031000000 5.3492000000 2.4820000000
1.0028000000 0.1594000000 0.1723000000
1.0026000000 0.1431000000 0.1586000000
1.0023000000 2.9044000000 2.6753000000
1.0020000000 5.0943000000 2.6207000000
1.0016000000 5.7401000000 2.2477000000
1.0013000000 1.8218000000 2.0247000000
1.0010000000 1.2186000000 1.4014000000
1.0008000000 2.2467000000 2.2873000000
1.0003000000 3.9182000000 3.2418000000
0.9998000000 6.3254000000 1.8332000000
0.9993000000 1.9345000000 2.1096000000
0.9990000000 1.6433000000 1.8704000000
0.9987000000 4.0110000000 3.2413000000
0.9973000000 3.0560000000 2.7453000000
0.7630000000 7.7609000000 0.1751000000
0.7619000000 5.2576000000 2.2888000000
0.7605000000 7.6223000000 0.3315000000
0.7599000000 3.3842000000 2.7036000000
0.7589000000 5.7764000000 1.9858000000
0.7585000000 3.3474000000 2.6845000000
0.7579000000 4.5742000000 2.6795000000
0.7574000000 2.8925000000 2.4185000000
0.7572000000 4.8722000000 2.5098000000
0.7569000000 5.6475000000 2.0641000000
0.7568000000 3.2590000000 2.6336000000
0.7565000000 4.7665000000 2.5630000000
0.7563000000 7.0954000000 0.9388000000
0.7561000000 4.8713000000 2.5066000000
0.7559000000 2.6826000000 2.3033000000
0.7556000000 2.0214000000 1.9130000000
0.7554000000 2.5257000000 2.2083000000
0.7551000000 5.0211000000 2.4218000000
0.7549000000 2.3734000000 2.1161000000
0.7547000000 5.7953000000 1.9741000000
0.7545000000 0.4658000000 0.5291000000
0.7543000000 0.8689000000 0.9896000000
0.7541000000 6.1493000000 1.7721000000
0.7539000000 7.1064000000 0.9319000000
0.7537000000 0.8236000000 0.9390000000
0.7534000000 6.2760000000 1.6942000000
0.7533000000 2.8008000000 2.3625000000
0.7530000000 2.3559000000 2.1008000000
0.7528000000 3.3853000000 2.7014000000
0.7525000000 3.8304000000 2.9577000000
0.7524000000 1.1034000000 1.2644000000
0.7521000000 6.1232000000 1.7782000000
0.7516000000 5.6806000000 2.0353000000
0.7515000000 2.7547000000 2.3351000000
0.7513000000 1.0544000000 1.2072000000
0.7510000000 1.9937000000 1.8932000000
0.7508000000 7.4176000000 0.5671000000
0.7505000000 2.3748000000 2.1149000000
0.7501000000 0.0020000000 0.0636000000
0.7497000000 3.9717000000 3.0030000000
0.7485000000 0.8002000000 0.9099000000
0.7469000000 3.0594000000 2.5040000000
0.5124000000 6.4613000000 1.3436000000
0.5116000000 6.5080000000 1.3111000000
0.5105000000 7.6853000000 0.2624000000
0.5085000000 5.3077000000 2.0101000000
0.5079000000 6.1933000000 1.5040000000
0.5075000000 0.1192000000 0.1267000000
0.5073000000 6.3513000000 1.4067000000
0.5068000000 6.4419000000 1.3496000000
0.5067000000 5.6389000000 1.8110000000
0.5062000000 4.1068000000 2.7069000000
0.5059000000 6.9563000000 1.0366000000
0.5057000000 5.3800000000 1.9659000000
0.5053000000 6.9037000000 1.0768000000
0.5048000000 2.3688000000 1.8672000000
0.5047000000 2.4276000000 1.8980000000
0.5045000000 5.4853000000 1.9015000000
0.5042000000 4.8404000000 2.2741000000
0.5040000000 4.8775000000 2.2556000000
0.5037000000 4.7673000000 2.3174000000
0.5035000000 5.2807000000 2.0205000000
0.5033000000 4.4613000000 2.4908000000
0.5032000000 0.9246000000 1.0137000000
0.5029000000 5.4892000000 1.8975000000
0.5027000000 0.3144000000 0.3595000000
0.5025000000 7.9475000000 0.1034000000
0.5024000000 2.6537000000 2.0244000000
0.5020000000 0.9301000000 1.0072000000
0.5015000000 1.1010000000 1.1302000000
0.5011000000 2.4072000000 1.8853000000
0.5009000000 5.8032000000 1.7086000000
0.5007000000 5.6188000000 1.8158000000
0.5005000000 4.5787000000 2.4227000000
0.5000000000 3.4385000000 2.4822000000
0.4996000000 3.1682000000 2.3230000000
0.4991000000 0.6152000000 0.6977000000
0.4988000000 0.1099000000 0.1197000000
0.4985000000 0.7973000000 0.8921000000
0.4978000000 1.5397000000 1.3765000000
0.4973000000 6.1130000000 1.5260000000
0.4967000000 3.7254000000 2.6425000000
0.4945000000 1.3254000000 1.2466000000
0.2618000000 4.9197000000 1.9866000000
0.2605000000 2.6516000000 1.7860000000
0.2596000000 3.9777000000 2.5126000000
0.2590000000 7.5217000000 0.4290000000
0.2582000000 2.4434000000 1.6585000000
0.2580000000 3.2730000000 2.1360000000
0.2579000000 3.2770000000 2.1414000000
0.2574000000 0.2977000000 0.3350000000
0.2572000000 6.8730000000 0.8559000000
0.2567000000 5.4053000000 1.6978000000
0.2562000000 5.6430000000 1.5588000000
0.2558000000 4.9799000000 1.9446000000
0.2555000000 7.1936000000 0.6615000000
0.2552000000 6.1031000000 1.2948000000
0.2549000000 1.6292000000 1.1882000000
0.2546000000 2.4828000000 1.6797000000
0.2543000000 7.3362000000 0.5781000000
0.2541000000 5.5897000000 1.5934000000
0.2540000000 5.1055000000 1.8713000000
0.2538000000 2.4058000000 1.6333000000
0.2535000000 5.6266000000 1.5658000000
0.2531000000 4.2864000000 2.3437000000
0.2525000000 2.5339000000 1.7076000000
0.2524000000 6.7429000000 0.9200000000
0.2522000000 0.0986000000 0.1041000000
0.2520000000 2.8167000000 1.8692000000
0.2517000000 4.8866000000 1.9944000000
0.2515000000 7.2353000000 0.6388000000
0.2510000000 2.8126000000 1.8680000000
0.2508000000 4.5782000000 2.1764000000
0.2505000000 6.4076000000 1.1166000000
0.2501000000 2.3681000000 1.6072000000
0.2495000000 3.0769000000 2.0172000000
0.2492000000 0.6556000000 0.6217000000
0.2486000000 1.5268000000 1.1179000000
0.2479000000 1.1951000000 0.9321000000
0.2475000000 1.1820000000 0.9246000000
0.2470000000 2.4893000000 1.6841000000
0.2455000000 3.1929000000 2.0823000000
0.0142000000 2.7522000000 1.5926000000
0.0104000000 5.1696000000 1.5895000000
0.0098000000 6.3235000000 0.9207000000
0.0085000000 7.3001000000 0.3536000000
0.0082000000 6.2685000000 0.9561000000
0.0078000000 2.8965000000 1.6722000000
0.0073000000 7.9653000000 0.0694000000
0.0070000000 7.1562000000 0.4342000000
0.0066000000 1.4778000000 0.8482000000
0.0064000000 3.3488000000 1.9279000000
0.0058000000 6.3917000000 0.8820000000
0.0057000000 5.9844000000 1.1162000000
0.0055000000 6.7519000000 0.6691000000
0.0052000000 7.4760000000 0.2551000000
0.0048000000 4.9314000000 1.7191000000
0.0047000000 2.3758000000 1.3678000000
0.0045000000 3.5195000000 2.0284000000
0.0044000000 7.8053000000 0.0509000000
0.0039000000 3.4744000000 2.0025000000
0.0037000000 6.8915000000 0.5901000000
0.0035000000 2.5776000000 1.4814000000
0.0030000000 0.6100000000 0.3433000000
0.0029000000 5.2770000000 1.5175000000
0.0026000000 2.4839000000 1.4283000000
0.0024000000 3.3278000000 1.9164000000
0.0022000000 5.4798000000 1.3995000000
0.0018000000 3.3422000000 1.9241000000
0.0015000000 1.0991000000 0.6261000000
0.0011000000 2.1746000000 1.2466000000
0.0008000000 5.9408000000 1.1362000000
0.0000000000 1.2531000000 0.7096000000
-0.0011000000 2.9702000000 1.7021000000
-0.0017000000 7.9611000000 0.0660000000
-0.0033000000 2.9042000000 1.6655000000
-0.0088000000 1.9798000000 1.1222000000
-0.2379000000 6.1517000000 0.7735000000
-0.2397000000 6.3764000000 0.6364000000
-0.2400000000 5.2563000000 1.2919000000
-0.2413000000 1.3464000000 0.5295000000
-0.2418000000 7.2095000000 0.1546000000
-0.2422000000 5.4911000000 1.1483000000
-0.2427000000 2.9454000000 1.4436000000
-0.2430000000 7.3835000000 0.1340000000
-0.2432000000 4.8688000000 1.5143000000
-0.2435000000 5.3490000000 1.2303000000
-0.2437000000 6.6424000000 0.4823000000
-0.2439000000 2.3850000000 1.1246000000
-0.2442000000 0.2416000000 0.0279000000
-0.2443000000 5.9164000000 0.9016000000
-0.2447000000 0.2126000000 0.0197000000
-0.2449000000 4.8667000000 1.5088000000
-0.2453000000 2.6429000000 1.2711000000
-0.2456000000 5.6055000000 1.0782000000
-0.2459000000 4.9379000000 1.4640000000
-0.2461000000 3.1692000000 1.5764000000
-0.2464000000 2.6379000000 1.2672000000
-0.2469000000 4.4160000000 1.7691000000
-0.2470000000 3.6043000000 1.8250000000
-0.2472000000 6.9704000000 0.2852000000
-0.2474000000 0.2548000000 0.0310000000
-0.2477000000 3.4684000000 1.7499000000
-0.2478000000 1.3862000000 0.5427000000
-0.2482000000 1.6345000000 0.6893000000
-0.2485000000 2.3829000000 1.1181000000
-0.2486000000 1.0976000000 0.3726000000
-0.2488000000 3.3828000000 1.6940000000
-0.2495000000 4.1095000000 1.9417000000
-0.2500000000 4.0348000000 1.9853000000
-0.2502000000 5.8972000000 0.9086000000
-0.2504000000 0.4184000000 0.0507000000
-0.2512000000 0.6560000000 0.1168000000
-0.2516000000 4.9725000000 1.4350000000
-0.2528000000 4.7155000000 1.5891000000
-0.2538000000 1.7654000000 0.7561000000
-0.4877000000 6.2509000000 0.4656000000
-0.4910000000 3.5948000000 1.5766000000
-0.4914000000 4.6897000000 1.3726000000
-0.4917000000 6.0993000000 0.5527000000
-0.4920000000 4.2393000000 1.6262000000
-0.4927000000 1.3659000000 0.2866000000
-0.4931000000 6.4867000000 0.3220000000
-0.4934000000 6.0931000000 0.5499000000
-0.4936000000 6.8514000000 0.1179000000
-0.4942000000 1.3085000000 0.2511000000
-0.4945000000 3.2420000000 1.3692000000
-0.4950000000 3.8345000000 1.7076000000
-0.4954000000 6.0347000000 0.5798000000
-0.4957000000 6.8497000000 0.1142000000
-0.4959000000 6.6512000000 0.2217000000
-0.4967000000 4.3398000000 1.5621000000
-0.4969000000 3.9205000000 1.7422000000
-0.4972000000 5.6444000000 0.8088000000
-0.4974000000 4.7145000000 1.3469000000
-0.4976000000 0.6226000000 0.0004000000
-0.4981000000 2.6816000000 1.0399000000
-0.4984000000 2.6232000000 1.0048000000
-0.4986000000 4.7042000000 1.3567000000
-0.4989000000 1.9069000000 0.5944000000
-0.4992000000 5.0453000000 1.1501000000
-0.4994000000 4.6473000000 1.3869000000
-0.4997000000 2.3497000000 0.8480000000
-0.5001000000 3.3871000000 1.4459000000
-0.5004000000 5.9234000000 0.6437000000
-0.5015000000 0.8130000000 0.0301000000
-0.5022000000 3.9212000000 1.7318000000
-0.5038000000 2.9819000000 1.2059000000
-0.7395000000 4.9504000000 0.9657000000
-0.7407000000 5.4572000000 0.6729000000
-0.7415000000 5.8960000000 0.4151000000
-0.7424000000 5.8104000000 0.4616000000
-0.7432000000 6.1261000000 0.2773000000
-0.7435000000 6.0366000000 0.3348000000
-0.7440000000 5.9264000000 0.3967000000
-0.7443000000 5.9246000000 0.3981000000
-0.7446000000 6.6911000000 0.1064000000
-0.7453000000 5.5206000000 0.6306000000
-0.7458000000 5.1051000000 0.8702000000
-0.7462000000 6.3988000000 0.1243000000
-0.7466000000 2.8385000000 0.8847000000
-0.7471000000 2.8629000000 0.8939000000
-0.7475000000 4.7999000000 1.0381000000
-0.7479000000 2.3408000000 0.5896000000
-0.7482000000 3.5362000000 1.2773000000
-0.7487000000 2.6060000000 0.7399000000
-0.7489000000 2.3146000000 0.5762000000
-0.7492000000 6.4101000000 0.1130000000
-0.7495000000 1.2815000000 0.0548000000
-0.7499000000 2.0735000000 0.4390000000
-0.7502000000 4.4724000000 1.2293000000
-0.7504000000 1.4439000000 0.0758000000
-0.7512000000 1.4277000000 0.0620000000
-0.7525000000 1.2352000000 0.1012000000
-0.7552000000 1.8011000000 0.2802000000
-0.9893000000 5.2467000000 0.5455000000
-0.9906000000 6.3714000000 0.0372000000
-0.9910000000 6.0054000000 0.1036000000
-0.9918000000 5.4120000000 0.4483000000
-0.9930000000 3.7738000000 1.1782000000
-0.9936000000 6.3591000000 0.0381000000
-0.9940000000 6.2099000000 0.0534000000
-0.9947000000 4.1420000000 1.1755000000
-0.9960000000 3.1809000000 0.8325000000
-0.9964000000 5.0311000000 0.6618000000
-0.9969000000 5.4461000000 0.4187000000
-0.9972000000 3.0249000000 0.7350000000
-0.9980000000 2.1548000000 0.2314000000
-0.9989000000 4.7819000000 0.8010000000
-0.9993000000 3.9663000000 1.2597000000
-1.0001000000 4.5495000000 0.9311000000
-1.0011000000 2.0675000000 0.1765000000
-1.0018000000 3.0407000000 0.7452000000
-1.0032000000 4.0586000000 1.2160000000
-1.2398000000 4.2592000000 0.8604000000
-1.2412000000 5.7203000000 0.0928000000
-1.2429000000 2.1677000000 0.0722000000
-1.2432000000 5.1028000000 0.3752000000
-1.2441000000 3.2369000000 0.6102000000
-1.2442000000 2.4722000000 0.1698000000
-1.2449000000 4.8240000000 0.5306000000
-1.2452000000 4.9960000000 0.4328000000
-1.2462000000 1.9697000000 0.0223000000
-1.2464000000 3.7826000000 0.9286000000
-1.2469000000 3.9207000000 0.9864000000
-1.2477000000 1.9294000000 0.0022000000
-1.2481000000 2.7751000000 0.3452000000
-1.2485000000 2.9413000000 0.4369000000
-1.2494000000 2.4274000000 0.1428000000
-1.2503000000 2.7772000000 0.3452000000
-1.2516000000 3.7337000000 0.8887000000
-1.2531000000 2.8040000000 0.3525000000
-1.4895000000 3.0869000000 0.2814000000
-1.4908000000 2.6200000000 0.0874000000
-1.4919000000 3.5358000000 0.5393000000
-1.4930000000 2.9341000000 0.1885000000
-1.4936000000 4.8236000000 0.2806000000
-1.4947000000 4.4085000000 0.5209000000
-1.4962000000 3.8990000000 0.7439000000
-1.4965000000 2.6623000000 0.1035000000
-1.4972000000 5.0009000000 0.1737000000
-1.4976000000 4.4431000000 0.5007000000
-1.4980000000 4.4584000000 0.4918000000
-1.4991000000 5.4927000000 0.0360000000
-1.4998000000 3.2544000000 0.3701000000
-1.5006000000 2.6193000000 0.0740000000
-1.5020000000 4.2180000000 0.6283000000
-1.7407000000 4.2943000000 0.3377000000
-1.7419000000 3.0694000000 0.0971000000
-1.7425000000 4.6500000000 0.1387000000
-1.7443000000 3.3789000000 0.1942000000
-1.7451000000 4.8522000000 0.0878000000
-1.7456000000 4.0719000000 0.4640000000
-1.7464000000 3.6018000000 0.3242000000
-1.7475000000 4.0413000000 0.4864000000
-1.7485000000 2.8437000000 0.0338000000
-1.7490000000 3.5624000000 0.3002000000
-1.7495000000 2.8046000000 0.0108000000
-1.7500000000 3.3246000000 0.1606000000
-1.7531000000 4.0022000000 0.4788000000
-1.9917000000 4.2829000000 0.0940000000
-1.9945000000 3.6301000000 0.0945000000
-1.9965000000 4.0312000000 0.2385000000
-1.9980000000 3.7441000000 0.1509000000
