6.7599000000 3.8455000000 0.0206000000
6.5126000000 3.3780000000 0.0775000000
6.5108000000 4.2459000000 0.0974000000
6.5092000000 4.0813000000 0.1103000000
6.5084000000 4.2918000000 0.0785000000
6.5073000000 3.5520000000 0.0998000000
6.5060000000 3.8363000000 0.1671000000
6.5045000000 4.3091000000 0.0737000000
6.5026000000 3.4839000000 0.0680000000
6.4993000000 4.0820000000 0.1170000000
6.2613000000 3.4085000000 0.1619000000
6.2600000000 3.6694000000 0.2991000000
6.2587000000 2.9970000000 0.0318000000
6.2578000000 4.9630000000 0.0312000000
6.2566000000 4.5408000000 0.1049000000
6.2558000000 5.0016000000 0.0177000000
6.2546000000 3.7209000000 0.3283000000
6.2543000000 4.8248000000 0.0333000000
6.2507000000 2.7951000000 0.0071000000
6.2496000000 4.7817000000 0.0567000000
6.0120000000 2.8762000000 0.1138000000
6.0109000000 3.9310000000 0.6139000000
6.0093000000 4.3302000000 0.4226000000
6.0084000000 4.3271000000 0.4266000000
6.0079000000 3.7344000000 0.5552000000
6.0075000000 5.2405000000 0.0431000000
6.0070000000 2.7349000000 0.0454000000
6.0065000000 4.7076000000 0.2375000000
6.0061000000 3.6299000000 0.5079000000
6.0048000000 4.7814000000 0.2034000000
6.0044000000 4.2376000000 0.4803000000
6.0028000000 2.6115000000 0.0592000000
6.0023000000 4.6564000000 0.2662000000
6.0016000000 4.9226000000 0.1374000000
5.9997000000 4.6986000000 0.2489000000
5.9977000000 4.6424000000 0.2788000000
5.7607000000 4.9873000000 0.3090000000
5.7589000000 4.7342000000 0.4362000000
5.7583000000 5.0254000000 0.2891000000
5.7577000000 4.8746000000 0.3702000000
5.7567000000 3.5006000000 0.6597000000
5.7563000000 2.6786000000 0.2392000000
5.7560000000 2.1208000000 0.0288000000
5.7558000000 3.3372000000 0.5747000000
5.7555000000 4.5466000000 0.5372000000
5.7551000000 4.0083000000 0.8155000000
5.7543000000 3.3796000000 0.6017000000
5.7543000000 4.5370000000 0.5463000000
5.7537000000 4.6557000000 0.4855000000
5.7529000000 2.7376000000 0.2657000000
5.7525000000 3.7886000000 0.8102000000
5.7516000000 5.1265000000 0.2470000000
5.7513000000 5.1504000000 0.2364000000
5.7506000000 2.9002000000 0.3565000000
5.7490000000 3.1880000000 0.5035000000
5.7483000000 2.0380000000 0.0728000000
5.7471000000 3.6197000000 0.7297000000
5.5117000000 2.9522000000 0.5936000000
5.5102000000 5.1404000000 0.4517000000
5.5095000000 5.6158000000 0.2128000000
5.5086000000 2.3502000000 0.2837000000
5.5080000000 2.0499000000 0.1359000000
5.5073000000 1.6489000000 0.0803000000
5.5069000000 1.9795000000 0.1051000000
5.5065000000 6.1000000000 0.0427000000
5.5058000000 6.2684000000 0.0293000000
5.5055000000 3.4573000000 0.8561000000
5.5054000000 6.0457000000 0.0684000000
5.5053000000 2.6854000000 0.4656000000
5.5051000000 5.1551000000 0.4512000000
5.5050000000 5.2497000000 0.4025000000
5.5048000000 1.6435000000 0.0810000000
5.5045000000 2.3964000000 0.3191000000
5.5039000000 4.7876000000 0.6421000000
5.5035000000 5.8603000000 0.0968000000
5.5033000000 5.5715000000 0.2418000000
5.5029000000 4.0410000000 1.0262000000
5.5026000000 3.6080000000 0.9373000000
5.5016000000 6.0472000000 0.0684000000
5.5011000000 1.8960000000 0.0619000000
5.5002000000 4.9449000000 0.5625000000
5.4997000000 2.4845000000 0.3699000000
5.4980000000 2.2825000000 0.2635000000
5.2652000000 3.7441000000 1.2162000000
5.2615000000 5.8509000000 0.3131000000
5.2607000000 3.9268000000 1.2805000000
5.2598000000 2.9593000000 0.8224000000
5.2588000000 2.0642000000 0.3657000000
5.2580000000 3.4854000000 1.0889000000
5.2576000000 3.5683000000 1.1350000000
5.2573000000 5.6457000000 0.4222000000
5.2568000000 4.6655000000 0.9257000000
5.2564000000 5.5614000000 0.4695000000
5.2562000000 2.9791000000 0.8344000000
5.2558000000 2.2662000000 0.4755000000
5.2556000000 5.2268000000 0.6369000000
5.2555000000 5.8923000000 0.2925000000
5.2552000000 1.7644000000 0.2158000000
5.2548000000 4.3132000000 1.1013000000
5.2545000000 5.1253000000 0.6896000000
5.2543000000 6.5126000000 0.0542000000
5.2541000000 3.6586000000 1.1827000000
5.2537000000 6.5614000000 0.0345000000
5.2530000000 3.4211000000 1.0631000000
5.2524000000 3.3256000000 1.0126000000
5.2521000000 4.7824000000 0.8658000000
5.2517000000 4.1764000000 1.1739000000
5.2510000000 4.6750000000 0.9217000000
5.2505000000 1.6183000000 0.1429000000
5.2482000000 3.5726000000 1.1477000000
5.2463000000 1.3411000000 0.0828000000
5.0125000000 4.7892000000 1.0766000000
5.0115000000 4.7720000000 1.0866000000
5.0108000000 5.8774000000 0.5202000000
5.0103000000 6.9706000000 0.0378000000
5.0101000000 5.4761000000 0.7215000000
5.0094000000 3.7878000000 1.4657000000
5.0091000000 2.9340000000 1.0338000000
5.0083000000 6.5530000000 0.1772000000
5.0081000000 2.8943000000 1.0091000000
5.0076000000 1.3227000000 0.2087000000
5.0073000000 5.9997000000 0.4619000000
5.0067000000 2.7238000000 0.9260000000
5.0063000000 1.2071000000 0.1514000000
5.0060000000 6.1192000000 0.3971000000
5.0057000000 6.5113000000 0.2067000000
5.0055000000 4.8222000000 1.0705000000
5.0053000000 3.1583000000 1.1492000000
5.0048000000 1.6263000000 0.3711000000
5.0047000000 3.6258000000 1.3886000000
5.0044000000 3.2860000000 1.2156000000
5.0038000000 7.0415000000 0.0791000000
5.0031000000 5.6962000000 0.6132000000
5.0028000000 5.8996000000 0.5182000000
5.0024000000 2.1432000000 0.6344000000
5.0020000000 2.3010000000 0.7145000000
5.0019000000 3.9721000000 1.5042000000
5.0015000000 2.8281000000 0.9879000000
5.0007000000 1.9804000000 0.5505000000
5.0002000000 4.1435000000 1.4217000000
4.9998000000 1.6031000000 0.3618000000
4.9989000000 2.4458000000 0.7903000000
4.9979000000 1.4401000000 0.2808000000
4.9962000000 1.0853000000 0.0959000000
4.7619000000 4.0623000000 1.6705000000
4.7607000000 4.6361000000 1.3768000000
4.7601000000 2.8736000000 1.2209000000
4.7598000000 3.9067000000 1.7293000000
4.7592000000 0.6826000000 0.1042000000
4.7588000000 3.2181000000 1.3977000000
4.7581000000 7.1954000000 0.0729000000
4.7576000000 5.3015000000 1.0420000000
4.7573000000 6.7941000000 0.2800000000
4.7570000000 3.7212000000 1.6542000000
4.7568000000 7.2508000000 0.0402000000
4.7563000000 3.2808000000 1.4352000000
4.7560000000 4.2416000000 1.5821000000
4.7558000000 2.6232000000 1.0915000000
4.7553000000 4.2238000000 1.5951000000
4.7548000000 1.0204000000 0.2786000000
4.7541000000 5.7442000000 0.8148000000
4.7538000000 0.5473000000 0.0377000000
4.7533000000 2.6919000000 1.1329000000
4.7530000000 4.6910000000 1.3578000000
4.7527000000 5.9661000000 0.7093000000
4.7524000000 1.5825000000 0.5674000000
4.7521000000 6.4937000000 0.4367000000
4.7520000000 3.1800000000 1.3862000000
4.7516000000 4.7748000000 1.3164000000
4.7511000000 1.2860000000 0.4168000000
4.7507000000 3.7700000000 1.6922000000
4.7505000000 1.2719000000 0.4060000000
4.7503000000 0.3611000000 0.0147000000
4.7498000000 3.9077000000 1.7436000000
4.7491000000 3.1445000000 1.3697000000
4.7485000000 1.4816000000 0.5182000000
4.7480000000 0.3952000000 0.0388000000
4.7473000000 0.4976000000 0.0875000000
4.5123000000 6.6176000000 0.5844000000
4.5112000000 5.5083000000 1.1521000000
4.5102000000 7.7503000000 0.0682000000
4.5098000000 6.5075000000 0.6379000000
4.5095000000 7.1801000000 0.3005000000
4.5089000000 6.6911000000 0.5516000000
4.5085000000 1.5356000000 0.7586000000
4.5080000000 5.8071000000 1.0043000000
4.5077000000 0.5092000000 0.2402000000
4.5073000000 5.3791000000 1.2170000000
4.5070000000 6.3992000000 0.7011000000
4.5065000000 6.0440000000 0.8826000000
4.5064000000 5.2007000000 1.3167000000
4.5061000000 7.1989000000 0.2918000000
4.5060000000 1.0029000000 0.4883000000
4.5053000000 2.8935000000 1.4567000000
4.5049000000 3.8406000000 1.9397000000
4.5048000000 2.9180000000 1.4642000000
4.5045000000 5.4450000000 1.1908000000
4.5044000000 7.1959000000 0.2986000000
4.5040000000 0.9068000000 0.4428000000
4.5038000000 1.7166000000 0.8578000000
4.5036000000 7.2411000000 0.2680000000
4.5033000000 1.1600000000 0.5775000000
4.5032000000 5.1130000000 1.3655000000
4.5029000000 5.1005000000 1.3687000000
4.5027000000 2.2794000000 1.1488000000
4.5024000000 2.7939000000 1.4073000000
4.5021000000 1.8607000000 0.9330000000
4.5018000000 5.9696000000 0.9230000000
4.5015000000 7.2561000000 0.2620000000
4.5011000000 1.2391000000 0.6090000000
4.5007000000 4.7916000000 1.5340000000
4.5003000000 0.2056000000 0.0889000000
4.5000000000 0.7266000000 0.3541000000
4.4995000000 3.2924000000 1.6653000000
4.4986000000 1.8106000000 0.9141000000
4.4973000000 2.2685000000 1.1416000000
4.4948000000 1.8121000000 0.9130000000
4.2614000000 5.4494000000 1.4024000000
4.2600000000 7.6340000000 0.1655000000
4.2595000000 2.9896000000 1.7233000000
4.2592000000 0.6418000000 0.5188000000
4.2587000000 1.8333000000 1.1357000000
4.2583000000 5.0559000000 1.6057000000
4.2580000000 7.1576000000 0.5339000000
4.2576000000 6.3581000000 0.9422000000
4.2573000000 6.0628000000 1.0903000000
4.2569000000 4.2492000000 2.0243000000
4.2562000000 7.4571000000 0.3234000000
4.2560000000 1.6720000000 1.0461000000
4.2556000000 2.6755000000 1.5705000000
4.2553000000 2.6825000000 1.5735000000
4.2551000000 6.5427000000 0.8488000000
4.2549000000 0.3494000000 0.3146000000
4.2547000000 2.5067000000 1.4813000000
4.2545000000 4.0226000000 2.1361000000
4.2542000000 6.3435000000 0.9542000000
4.2537000000 7.1184000000 0.5596000000
4.2535000000 4.5267000000 1.8835000000
4.2532000000 6.6346000000 0.8097000000
4.2529000000 1.5652000000 1.0024000000
4.2527000000 6.3263000000 0.9669000000
4.2526000000 6.6203000000 0.8121000000
4.2522000000 1.1613000000 0.7913000000
4.2520000000 4.7643000000 1.7627000000
4.2517000000 7.4353000000 0.3464000000
4.2508000000 7.5088000000 0.2876000000
4.2505000000 2.5661000000 1.5176000000
4.2500000000 5.0541000000 1.6144000000
4.2498000000 4.4305000000 1.9333000000
4.2487000000 5.7436000000 1.2650000000
4.2484000000 0.0392000000 0.0906000000
4.2457000000 1.4851000000 0.9665000000
4.0109000000 2.7285000000 1.8132000000
4.0102000000 7.2351000000 0.5656000000
4.0092000000 6.4663000000 1.1131000000
4.0088000000 3.2592000000 2.0808000000
4.0085000000 7.0204000000 0.7619000000
4.0082000000 7.6335000000 0.1628000000
4.0075000000 6.0108000000 1.3411000000
4.0067000000 3.2869000000 2.0956000000
4.0064000000 7.0034000000 0.7843000000
4.0062000000 4.2023000000 2.2655000000
4.0059000000 6.7798000000 0.9523000000
4.0055000000 3.8046000000 2.3652000000
4.0052000000 3.3961000000 2.1608000000
4.0048000000 0.5031000000 0.4809000000
4.0046000000 1.2258000000 1.0563000000
4.0045000000 4.6440000000 2.0395000000
4.0043000000 1.9926000000 1.4347000000
4.0043000000 3.6741000000 2.3053000000
4.0040000000 5.0136000000 1.8549000000
4.0038000000 5.5003000000 1.6052000000
4.0036000000 4.3583000000 2.1887000000
4.0033000000 2.3669000000 1.6325000000
4.0032000000 1.6004000000 1.2438000000
4.0029000000 3.0633000000 1.9844000000
4.0026000000 2.6191000000 1.7588000000
4.0024000000 4.8885000000 1.9210000000
4.0020000000 4.0255000000 2.3609000000
4.0018000000 0.3018000000 0.2822000000
4.0015000000 2.1731000000 1.5357000000
4.0013000000 0.0274000000 0.0699000000
4.0007000000 6.3135000000 1.1901000000
4.0003000000 3.2258000000 2.0765000000
3.9995000000 4.1684000000 2.2941000000
3.9990000000 3.9921000000 2.3786000000
3.9985000000 1.0874000000 0.9802000000
3.9975000000 3.4328000000 2.1785000000
3.9973000000 1.9372000000 1.4141000000
3.9960000000 4.6612000000 2.0436000000
3.7629000000 6.2830000000 1.4177000000
3.7611000000 1.1255000000 1.1292000000
3.7602000000 3.7394000000 2.5437000000
3.7593000000 4.6484000000 2.2571000000
3.7586000000 7.3278000000 0.4751000000
3.7584000000 0.3582000000 0.3403000000
3.7579000000 4.0622000000 2.5652000000
3.7575000000 7.0476000000 0.7605000000
3.7572000000 6.0521000000 1.5433000000
3.7566000000 3.4001000000 2.3740000000
3.7563000000 6.8130000000 0.9986000000
3.7560000000 6.0245000000 1.5600000000
3.7556000000 3.7054000000 2.5272000000
3.7554000000 1.0559000000 1.0542000000
3.7552000000 1.4726000000 1.3903000000
3.7546000000 6.9222000000 0.8826000000
3.7543000000 6.9285000000 0.8817000000
3.7541000000 1.5458000000 1.4309000000
3.7536000000 4.1265000000 2.5340000000
3.7533000000 1.6608000000 1.4926000000
3.7531000000 6.8395000000 0.9696000000
3.7529000000 6.1383000000 1.4996000000
3.7525000000 4.0448000000 2.5655000000
3.7524000000 1.3114000000 1.3030000000
3.7520000000 0.4421000000 0.4217000000
3.7519000000 2.1820000000 1.7600000000
3.7515000000 3.6718000000 2.5187000000
3.7514000000 7.6454000000 0.1490000000
3.7509000000 7.0810000000 0.7242000000
3.7507000000 1.7163000000 1.5240000000
3.7500000000 2.0757000000 1.7074000000
3.7493000000 0.5122000000 0.4962000000
3.7479000000 2.2769000000 1.8145000000
3.7436000000 2.8391000000 2.1065000000
3.5125000000 7.0728000000 0.7339000000
3.5108000000 7.7299000000 0.0620000000
3.5100000000 6.0748000000 1.7293000000
3.5091000000 4.9664000000 2.3099000000
3.5080000000 3.1962000000 2.4875000000
3.5073000000 6.3867000000 1.4315000000
3.5069000000 1.6596000000 1.6526000000
3.5065000000 6.0193000000 1.7686000000
3.5064000000 7.6094000000 0.1833000000
3.5062000000 6.1037000000 1.7044000000
3.5058000000 2.5497000000 2.1708000000
3.5055000000 2.5255000000 2.1552000000
3.5053000000 6.2399000000 1.5870000000
3.5050000000 5.8334000000 1.8747000000
3.5048000000 6.4298000000 1.3881000000
3.5045000000 0.5703000000 0.5581000000
3.5043000000 2.6366000000 2.2073000000
3.5040000000 5.7188000000 1.9372000000
3.5038000000 0.7553000000 0.7434000000
3.5036000000 6.4130000000 1.4080000000
3.5032000000 3.7447000000 2.7752000000
3.5030000000 0.2034000000 0.1805000000
3.5027000000 6.9663000000 0.8427000000
3.5025000000 1.8658000000 1.8152000000
3.5021000000 4.3966000000 2.6154000000
3.5018000000 0.4646000000 0.4449000000
3.5016000000 0.1872000000 0.1630000000
3.5015000000 6.2729000000 1.5518000000
3.5013000000 0.4520000000 0.4318000000
3.5006000000 5.6538000000 1.9699000000
3.4995000000 2.3248000000 2.0554000000
3.4990000000 3.7989000000 2.8083000000
3.4978000000 4.1988000000 2.7234000000
3.4972000000 2.0231000000 1.9005000000
3.2638000000 6.5606000000 1.2593000000
3.2612000000 5.9932000000 1.8394000000
3.2603000000 4.9828000000 2.5244000000
3.2599000000 4.9022000000 2.5698000000
3.2595000000 7.4503000000 0.3445000000
3.2590000000 3.1227000000 2.6755000000
3.2588000000 4.9719000000 2.5391000000
3.2585000000 6.5742000000 1.2437000000
3.2580000000 4.7592000000 2.6406000000
3.2578000000 5.3631000000 2.3405000000
3.2572000000 1.6250000000 1.6316000000
3.2566000000 0.6983000000 0.6884000000
3.2564000000 3.2036000000 2.7261000000
3.2561000000 6.8067000000 1.0013000000
3.2557000000 6.4731000000 1.3469000000
3.2553000000 0.0298000000 0.0817000000
3.2551000000 1.4814000000 1.4869000000
3.2549000000 6.8544000000 0.9560000000
3.2547000000 5.0513000000 2.5008000000
3.2545000000 1.5740000000 1.5823000000
3.2542000000 3.9641000000 3.0475000000
3.2539000000 6.2961000000 1.5320000000
3.2537000000 4.2483000000 2.9120000000
3.2535000000 6.7098000000 1.1023000000
3.2533000000 3.7642000000 3.0129000000
3.2530000000 0.6060000000 0.5863000000
3.2526000000 1.6414000000 1.6497000000
3.2522000000 3.8315000000 3.0463000000
3.2520000000 1.5844000000 1.5944000000
3.2518000000 5.7241000000 2.1020000000
3.2513000000 1.6909000000 1.7019000000
3.2510000000 0.6186000000 0.6015000000
3.2504000000 1.1188000000 1.1135000000
3.2500000000 2.6915000000 2.4640000000
3.2495000000 5.1571000000 2.4514000000
3.2492000000 4.7620000000 2.6525000000
3.2488000000 1.1677000000 1.1670000000
3.2485000000 2.1417000000 2.1515000000
3.2480000000 2.4359000000 2.3353000000
3.2455000000 2.4078000000 2.3240000000
3.0125000000 6.2555000000 1.5625000000
3.0108000000 4.2675000000 3.1117000000
3.0104000000 5.8370000000 2.0008000000
3.0100000000 4.8376000000 2.8227000000
3.0093000000 5.3454000000 2.5034000000
3.0086000000 6.1961000000 1.6262000000
3.0081000000 5.5729000000 2.2645000000
3.0077000000 4.7141000000 2.8945000000
3.0073000000 6.8882000000 0.9188000000
3.0065000000 5.3494000000 2.4940000000
3.0061000000 0.4612000000 0.4465000000
3.0058000000 0.0198000000 0.0713000000
3.0056000000 6.2070000000 1.6166000000
3.0052000000 6.8825000000 0.9228000000
3.0046000000 1.0477000000 1.0478000000
3.0044000000 1.5147000000 1.5210000000
3.0044000000 2.1976000000 2.2203000000
3.0039000000 4.3135000000 3.1033000000
3.0035000000 3.1954000000 2.9409000000
3.0031000000 6.4760000000 1.3409000000
3.0029000000 3.2344000000 2.9648000000
3.0025000000 5.6965000000 2.1460000000
3.0022000000 3.3015000000 2.9930000000
3.0021000000 3.2428000000 2.9646000000
3.0019000000 1.9335000000 1.9478000000
3.0018000000 3.4556000000 3.0766000000
3.0011000000 6.4101000000 1.4060000000
3.0005000000 2.2344000000 2.2593000000
3.0000000000 0.8743000000 0.8655000000
2.9998000000 2.2876000000 2.3079000000
2.9996000000 3.2537000000 2.9724000000
2.9984000000 2.0417000000 2.0578000000
2.9981000000 4.0815000000 3.2195000000
2.9966000000 6.1328000000 1.6916000000
2.7653000000 6.3078000000 1.5115000000
2.7628000000 7.6866000000 0.1069000000
2.7623000000 0.3209000000 0.3048000000
2.7607000000 6.9571000000 0.8498000000
2.7600000000 6.9762000000 0.8298000000
2.7590000000 0.6082000000 0.5922000000
2.7588000000 5.0058000000 2.8438000000
2.7585000000 3.3360000000 3.2279000000
2.7583000000 5.7311000000 2.1081000000
2.7580000000 2.4300000000 2.4520000000
2.7575000000 7.3278000000 0.4735000000
2.7573000000 7.2120000000 0.5950000000
2.7569000000 1.6782000000 1.6941000000
2.7566000000 5.5542000000 2.2787000000
2.7560000000 5.3886000000 2.4514000000
2.7559000000 5.4626000000 2.3757000000
2.7554000000 3.7531000000 3.4451000000
2.7551000000 5.6080000000 2.2257000000
2.7548000000 4.2796000000 3.3350000000
2.7545000000 2.8991000000 2.9383000000
2.7543000000 5.4052000000 2.4415000000
2.7541000000 1.2420000000 1.2451000000
2.7539000000 5.0306000000 2.8214000000
2.7537000000 7.0099000000 0.7936000000
2.7535000000 3.1490000000 3.1321000000
2.7533000000 4.1362000000 3.4120000000
2.7532000000 7.0457000000 0.7620000000
2.7530000000 1.4580000000 1.4628000000
2.7525000000 1.1604000000 1.1560000000
2.7523000000 7.5360000000 0.2589000000
2.7520000000 2.1533000000 2.1766000000
2.7515000000 1.0193000000 1.0136000000
2.7513000000 3.5584000000 3.3486000000
2.7511000000 0.6613000000 0.6484000000
2.7505000000 4.8252000000 3.0096000000
2.7501000000 6.3556000000 1.4678000000
2.7499000000 0.4304000000 0.4100000000
2.7493000000 4.8041000000 3.0394000000
2.7483000000 0.9840000000 0.9823000000
2.7478000000 2.8082000000 2.8452000000
2.7444000000 2.7345000000 2.7642000000
2.5109000000 7.3055000000 0.4937000000
2.5102000000 6.2104000000 1.6091000000
2.5091000000 5.3097000000 2.5339000000
2.5084000000 5.7707000000 2.0627000000
2.5080000000 5.4576000000 2.3859000000
2.5078000000 5.0309000000 2.8186000000
2.5074000000 5.4022000000 2.4416000000
2.5073000000 3.9682000000 3.7167000000
2.5070000000 1.0806000000 1.0787000000
2.5066000000 4.4612000000 3.3973000000
2.5063000000 7.8413000000 0.0250000000
2.5061000000 3.0391000000 3.0793000000
2.5058000000 3.9462000000 3.7071000000
2.5053000000 0.3532000000 0.3348000000
2.5051000000 5.2305000000 2.6217000000
2.5048000000 4.8866000000 2.9629000000
2.5043000000 6.1119000000 1.7133000000
2.5036000000 5.9529000000 1.8764000000
2.5035000000 2.7223000000 2.7564000000
2.5032000000 1.8455000000 1.8590000000
2.5029000000 3.6034000000 3.5912000000
2.5025000000 3.1555000000 3.1997000000
2.5019000000 6.8092000000 0.9997000000
2.5015000000 2.9074000000 2.9515000000
2.5013000000 0.2472000000 0.2294000000
2.5009000000 4.4798000000 3.3846000000
2.5006000000 5.6909000000 2.1510000000
2.5000000000 5.2409000000 2.6037000000
2.4993000000 5.5564000000 2.2836000000
2.4975000000 1.0765000000 1.0713000000
2.2651000000 6.5741000000 1.2452000000
2.2619000000 5.8655000000 1.9710000000
2.2594000000 0.8800000000 0.8703000000
2.2588000000 7.1557000000 0.6482000000
2.2584000000 0.7135000000 0.6982000000
2.2580000000 6.2833000000 1.5399000000
2.2577000000 5.1386000000 2.7144000000
2.2571000000 3.9403000000 3.8922000000
2.2568000000 0.4852000000 0.4683000000
2.2566000000 4.7928000000 3.0639000000
2.2563000000 5.8102000000 2.0253000000
2.2558000000 3.6060000000 3.6621000000
2.2557000000 7.2521000000 0.5501000000
2.2555000000 3.6535000000 3.7079000000
2.2551000000 2.5473000000 2.5794000000
2.2549000000 5.1211000000 2.7241000000
2.2548000000 4.8012000000 3.0525000000
2.2544000000 3.1517000000 3.1949000000
2.2541000000 2.5302000000 2.5592000000
2.2539000000 4.5911000000 3.2706000000
2.2537000000 0.1291000000 0.1047000000
2.2533000000 7.1185000000 0.6835000000
2.2530000000 7.6972000000 0.0970000000
2.2529000000 2.7304000000 2.7653000000
2.2527000000 0.0615000000 0.0383000000
2.2525000000 2.4065000000 2.4318000000
2.2523000000 2.3027000000 2.3235000000
2.2518000000 5.8952000000 1.9419000000
2.2516000000 5.7376000000 2.0981000000
2.2512000000 4.1774000000 3.6908000000
2.2506000000 2.2241000000 2.2390000000
2.2500000000 6.2836000000 1.5403000000
2.2491000000 1.7056000000 1.7158000000
2.2485000000 0.1637000000 0.1440000000
2.2480000000 3.6430000000 3.6975000000
2.2460000000 1.6238000000 1.6312000000
2.2433000000 0.6300000000 0.6204000000
2.0115000000 7.6916000000 0.1015000000
2.0106000000 7.1024000000 0.7057000000
2.0098000000 7.2264000000 0.5747000000
2.0089000000 7.8446000000 0.0889000000
2.0088000000 2.8163000000 2.8533000000
2.0085000000 0.0395000000 0.0912000000
2.0083000000 1.4944000000 1.5046000000
2.0078000000 7.4350000000 0.3608000000
2.0076000000 5.0023000000 2.8446000000
2.0070000000 7.5059000000 0.2921000000
2.0068000000 2.5770000000 2.6062000000
2.0062000000 6.9549000000 0.8522000000
2.0060000000 2.2491000000 2.2688000000
2.0057000000 2.0314000000 2.0493000000
2.0055000000 5.8505000000 1.9835000000
2.0054000000 3.8074000000 3.6964000000
2.0052000000 5.5256000000 2.3180000000
2.0050000000 1.6511000000 1.6627000000
2.0046000000 2.9665000000 3.0033000000
2.0043000000 5.8372000000 1.9991000000
2.0037000000 4.3523000000 3.4964000000
2.0035000000 5.8650000000 1.9723000000
2.0033000000 5.9372000000 1.8947000000
2.0029000000 6.8046000000 1.0083000000
2.0022000000 0.2152000000 0.1922000000
2.0020000000 7.2336000000 0.5655000000
2.0018000000 2.4446000000 2.4676000000
2.0016000000 4.2204000000 3.5800000000
2.0013000000 2.5624000000 2.5877000000
2.0010000000 0.9268000000 0.9173000000
2.0009000000 2.4776000000 2.5041000000
2.0006000000 2.0673000000 2.0835000000
2.0005000000 5.0808000000 2.7687000000
2.0000000000 1.1925000000 1.1944000000
1.9995000000 1.0980000000 1.0960000000
1.9988000000 2.6543000000 2.6796000000
1.9984000000 3.5514000000 3.5416000000
1.9978000000 0.3183000000 0.2970000000
1.9966000000 7.6027000000 0.1903000000
1.9946000000 1.0027000000 0.9947000000
1.7629000000 2.7478000000 2.7793000000
1.7615000000 7.2913000000 0.5064000000
1.7600000000 3.4519000000 3.2968000000
1.7595000000 2.6021000000 2.6338000000
1.7593000000 7.8566000000 0.0813000000
1.7587000000 3.6170000000 3.3802000000
1.7584000000 6.4050000000 1.4144000000
1.7583000000 4.2177000000 3.3704000000
1.7577000000 3.2096000000 3.1731000000
1.7576000000 4.5372000000 3.2049000000
1.7570000000 6.0448000000 1.7801000000
1.7568000000 3.9658000000 3.4905000000
1.7564000000 7.4799000000 0.3140000000
1.7560000000 1.9333000000 1.9493000000
1.7557000000 4.2455000000 3.3554000000
1.7554000000 6.4438000000 1.3733000000
1.7552000000 5.7366000000 2.1019000000
1.7550000000 0.7589000000 0.7478000000
1.7548000000 7.2340000000 0.5707000000
1.7546000000 6.0398000000 1.7924000000
1.7543000000 5.8532000000 1.9832000000
1.7541000000 6.8823000000 0.9252000000
1.7538000000 3.5738000000 3.3518000000
1.7536000000 3.1104000000 3.0975000000
1.7534000000 6.3812000000 1.4383000000
1.7530000000 6.4957000000 1.3189000000
1.7528000000 3.2182000000 3.1738000000
1.7523000000 3.4651000000 3.2968000000
1.7522000000 0.3848000000 0.3700000000
1.7519000000 5.3211000000 2.5266000000
1.7515000000 6.3463000000 1.4703000000
1.7511000000 0.3275000000 0.3083000000
1.7510000000 2.9741000000 3.0026000000
1.7506000000 5.1539000000 2.6994000000
1.7504000000 7.4861000000 0.3121000000
1.7500000000 4.5480000000 3.1901000000
1.7495000000 5.3046000000 2.5386000000
1.7488000000 2.0431000000 2.0612000000
1.7481000000 0.5757000000 0.5597000000
1.7438000000 0.6829000000 0.6673000000
1.5109000000 4.9338000000 2.7806000000
1.5099000000 4.4234000000 3.0433000000
1.5079000000 6.6023000000 1.2135000000
1.5074000000 4.0105000000 3.2541000000
1.5072000000 1.9548000000 1.9671000000
1.5069000000 6.8778000000 0.9349000000
1.5065000000 5.0049000000 2.7402000000
1.5058000000 2.5827000000 2.5905000000
1.5054000000 7.4421000000 0.3539000000
1.5051000000 3.0819000000 2.8839000000
1.5049000000 3.6834000000 3.1868000000
1.5047000000 0.9802000000 0.9749000000
1.5045000000 3.5742000000 3.1318000000
1.5043000000 6.1106000000 1.7158000000
1.5041000000 6.2644000000 1.5608000000
1.5035000000 5.2479000000 2.5780000000
1.5031000000 0.7158000000 0.6970000000
1.5029000000 4.9189000000 2.7834000000
1.5028000000 3.4499000000 3.0649000000
1.5026000000 4.7918000000 2.8475000000
1.5023000000 3.3382000000 3.0071000000
1.5020000000 3.6389000000 3.1673000000
1.5018000000 0.6539000000 0.6464000000
1.5016000000 5.0176000000 2.7352000000
1.5010000000 4.3564000000 3.0692000000
1.5009000000 4.1788000000 3.1610000000
1.5005000000 1.1925000000 1.1879000000
1.5003000000 0.9096000000 0.9048000000
1.5000000000 6.2237000000 1.5989000000
1.4995000000 1.1736000000 1.1751000000
1.4990000000 3.2259000000 2.9528000000
1.4983000000 0.5277000000 0.5075000000
1.4979000000 2.9387000000 2.8073000000
1.4963000000 0.2038000000 0.1761000000
1.4943000000 2.6016000000 2.6088000000
1.2646000000 4.2106000000 2.9332000000
1.2620000000 5.2914000000 2.3814000000
1.2605000000 4.8741000000 2.5949000000
1.2599000000 3.6197000000 2.9389000000
1.2595000000 4.8905000000 2.5878000000
1.2590000000 1.2169000000 1.2148000000
1.2588000000 7.6740000000 0.1169000000
1.2586000000 7.7576000000 0.1053000000
1.2584000000 4.6052000000 2.7288000000
1.2581000000 4.2550000000 2.9027000000
1.2578000000 6.5967000000 1.2143000000
1.2573000000 5.5398000000 2.2370000000
1.2570000000 5.8183000000 2.0188000000
1.2568000000 1.9512000000 1.9680000000
1.2566000000 4.8873000000 2.5866000000
1.2562000000 3.5647000000 2.9069000000
1.2560000000 1.2981000000 1.2999000000
1.2555000000 1.3605000000 1.3689000000
1.2553000000 5.0211000000 2.5131000000
1.2550000000 4.4578000000 2.8008000000
1.2548000000 4.0894000000 2.9918000000
1.2545000000 4.7303000000 2.6607000000
1.2543000000 6.5664000000 1.2545000000
1.2541000000 0.4640000000 0.4446000000
1.2539000000 2.8077000000 2.5216000000
1.2538000000 7.0391000000 0.7629000000
1.2536000000 5.5838000000 2.2052000000
1.2533000000 7.8325000000 0.0292000000
1.2531000000 1.7624000000 1.7762000000
1.2529000000 6.4777000000 1.3378000000
1.2525000000 3.4600000000 2.8512000000
1.2523000000 1.9056000000 1.9218000000
1.2520000000 1.6759000000 1.6891000000
1.2517000000 1.0606000000 1.0552000000
1.2516000000 7.6822000000 0.1142000000
1.2513000000 0.5222000000 0.5041000000
1.2510000000 7.7969000000 0.0675000000
1.2508000000 1.7899000000 1.8026000000
1.2507000000 4.2553000000 2.8982000000
1.2504000000 4.5906000000 2.7301000000
1.2497000000 2.1462000000 2.1463000000
1.2494000000 1.0687000000 1.0676000000
1.2491000000 4.1483000000 2.9531000000
1.2487000000 3.7031000000 2.9698000000
1.2474000000 0.9132000000 0.9027000000
1.2468000000 7.8303000000 0.0285000000
1.2455000000 0.1706000000 0.1490000000
1.0120000000 0.0640000000 0.0349000000
1.0103000000 7.5258000000 0.2620000000
1.0097000000 0.6353000000 0.6257000000
1.0092000000 5.9934000000 1.7810000000
1.0088000000 3.7437000000 2.7768000000
1.0083000000 4.8421000000 2.3902000000
1.0077000000 0.8381000000 0.8320000000
1.0074000000 5.8049000000 1.8950000000
1.0071000000 2.3350000000 2.0604000000
1.0070000000 1.4726000000 1.4787000000
1.0065000000 5.6201000000 1.9932000000
1.0064000000 0.0055000000 0.0516000000
1.0062000000 4.8750000000 2.3675000000
1.0056000000 7.8625000000 0.0730000000
1.0054000000 1.1496000000 1.1495000000
1.0052000000 5.1316000000 2.2341000000
1.0050000000 2.1525000000 1.9626000000
1.0048000000 3.3616000000 2.5790000000
1.0046000000 6.4777000000 1.3399000000
1.0045000000 1.4473000000 1.4500000000
1.0043000000 5.5496000000 2.0209000000
1.0040000000 4.2066000000 2.7089000000
1.0035000000 4.9383000000 2.3314000000
1.0034000000 5.2156000000 2.1886000000
1.0030000000 1.8409000000 1.7930000000
1.0025000000 6.3817000000 1.4436000000
1.0023000000 6.2448000000 1.5796000000
1.0022000000 5.8587000000 1.8664000000
1.0019000000 0.7565000000 0.7468000000
1.0017000000 5.1376000000 2.2313000000
1.0015000000 2.5774000000 2.1742000000
1.0012000000 4.2463000000 2.6798000000
1.0008000000 3.3330000000 2.5665000000
1.0002000000 1.2732000000 1.2736000000
0.9996000000 1.5382000000 1.5470000000
0.9990000000 1.6611000000 1.6530000000
0.9975000000 6.6664000000 1.1483000000
0.7637000000 6.5304000000 1.2725000000
0.7607000000 1.2169000000 1.2085000000
0.7592000000 1.3216000000 1.3039000000
0.7588000000 3.0192000000 2.1880000000
0.7583000000 4.8677000000 2.1571000000
0.7579000000 6.2840000000 1.4242000000
0.7576000000 5.9269000000 1.6087000000
0.7571000000 4.3322000000 2.4271000000
0.7566000000 5.6891000000 1.7263000000
0.7563000000 0.0885000000 0.0614000000
0.7561000000 6.7930000000 1.0159000000
0.7556000000 6.5065000000 1.2928000000
0.7553000000 5.1733000000 1.9920000000
0.7551000000 3.6391000000 2.5021000000
0.7548000000 4.2542000000 2.4611000000
0.7547000000 7.3078000000 0.4931000000
0.7542000000 3.7199000000 2.5419000000
0.7538000000 3.7648000000 2.5672000000
0.7536000000 4.0748000000 2.5512000000
0.7534000000 4.1850000000 2.4878000000
0.7529000000 3.6468000000 2.5087000000
0.7524000000 5.4972000000 1.8244000000
0.7521000000 2.0655000000 1.6927000000
0.7518000000 3.1257000000 2.2371000000
0.7517000000 7.1583000000 0.6501000000
0.7515000000 3.7062000000 2.5349000000
0.7506000000 1.5122000000 1.4119000000
0.7500000000 7.2400000000 0.5603000000
0.7496000000 2.8055000000 2.0682000000
0.7490000000 2.4895000000 1.9072000000
0.7483000000 7.7951000000 0.0741000000
0.7471000000 4.8801000000 2.1367000000
0.7440000000 0.0524000000 0.1035000000
0.5103000000 5.3224000000 1.6966000000
0.5094000000 4.3773000000 2.1822000000
0.5086000000 7.4040000000 0.3953000000
0.5083000000 6.8650000000 0.8882000000
0.5075000000 5.9845000000 1.3527000000
0.5071000000 2.6048000000 1.7524000000
0.5068000000 4.6088000000 2.0632000000
0.5065000000 5.2686000000 1.7218000000
0.5062000000 7.1624000000 0.6436000000
0.5060000000 6.1369000000 1.2769000000
0.5058000000 2.9753000000 1.9441000000
0.5054000000 7.3640000000 0.4326000000
0.5051000000 6.8250000000 0.9284000000
0.5050000000 4.8561000000 1.9291000000
0.5047000000 0.4299000000 0.4140000000
0.5045000000 4.6083000000 2.0595000000
0.5044000000 7.2509000000 0.5525000000
0.5040000000 4.3355000000 2.1986000000
0.5034000000 1.3673000000 1.1175000000
0.5033000000 7.1813000000 0.6225000000
0.5030000000 3.9027000000 2.3948000000
0.5027000000 7.1787000000 0.6262000000
0.5025000000 4.3344000000 2.1976000000
0.5023000000 1.9182000000 1.3975000000
0.5020000000 7.2550000000 0.5405000000
0.5017000000 3.5605000000 2.2354000000
0.5010000000 0.1771000000 0.1539000000
0.5007000000 2.1949000000 1.5345000000
0.5004000000 5.4970000000 1.6023000000
0.5001000000 2.8525000000 1.8741000000
0.4996000000 3.7278000000 2.3223000000
0.4992000000 4.4215000000 2.1510000000
0.4980000000 1.2006000000 1.0270000000
0.4970000000 3.9864000000 2.3724000000
0.4943000000 0.0972000000 0.0702000000
0.2629000000 5.8643000000 1.2032000000
0.2612000000 6.3880000000 0.9351000000
0.2603000000 3.2962000000 1.8860000000
0.2601000000 5.9918000000 1.1368000000
0.2592000000 5.0567000000 1.6130000000
0.2588000000 2.5118000000 1.4831000000
0.2583000000 7.1791000000 0.5298000000
0.2582000000 7.1314000000 0.5547000000
0.2577000000 2.3810000000 1.4199000000
0.2574000000 4.5203000000 1.8831000000
0.2573000000 2.5019000000 1.4735000000
0.2570000000 5.8170000000 1.2224000000
0.2566000000 5.3493000000 1.4620000000
0.2564000000 1.2573000000 0.8378000000
0.2558000000 7.5142000000 0.2833000000
0.2553000000 6.1837000000 1.0297000000
0.2552000000 6.4253000000 0.9101000000
0.2550000000 5.5828000000 1.3384000000
0.2546000000 5.3411000000 1.4667000000
0.2543000000 7.0881000000 0.5659000000
0.2540000000 3.6667000000 2.0642000000
0.2538000000 0.7217000000 0.5671000000
0.2535000000 4.2656000000 2.0152000000
0.2531000000 3.4257000000 1.9429000000
0.2528000000 0.5750000000 0.4920000000
0.2524000000 0.0340000000 0.0813000000
0.2522000000 4.2422000000 2.0214000000
0.2515000000 5.3465000000 1.4571000000
0.2513000000 1.7897000000 1.1077000000
0.2511000000 1.8957000000 1.1645000000
0.2507000000 1.9972000000 1.2157000000
0.2503000000 6.5348000000 0.8535000000
0.2500000000 7.2005000000 0.5180000000
0.2493000000 5.5126000000 1.3693000000
0.2486000000 2.0978000000 1.2630000000
0.2473000000 3.0964000000 1.7753000000
0.2428000000 0.1537000000 0.1334000000
0.0136000000 1.2552000000 0.6254000000
0.0107000000 3.6912000000 1.8732000000
0.0090000000 4.4447000000 1.7027000000
0.0084000000 6.5387000000 0.6310000000
0.0080000000 2.5911000000 1.3094000000
0.0075000000 3.0766000000 1.5503000000
0.0070000000 6.3735000000 0.7175000000
0.0067000000 1.3166000000 0.6514000000
0.0063000000 1.8262000000 0.9145000000
0.0059000000 1.6092000000 0.8017000000
0.0058000000 3.3569000000 1.6921000000
0.0056000000 3.9693000000 1.9418000000
0.0050000000 2.8962000000 1.4643000000
0.0049000000 4.7908000000 1.5256000000
0.0043000000 5.3284000000 1.2522000000
0.0041000000 7.0608000000 0.3636000000
0.0039000000 7.3497000000 0.2136000000
0.0037000000 5.1976000000 1.3172000000
0.0035000000 4.3016000000 1.7720000000
0.0030000000 6.3116000000 0.7449000000
0.0024000000 3.4703000000 1.7459000000
0.0021000000 3.7828000000 1.9040000000
0.0018000000 4.8735000000 1.4775000000
0.0016000000 6.7537000000 0.5127000000
0.0012000000 3.0164000000 1.5176000000
0.0010000000 6.2891000000 0.7503000000
0.0007000000 0.0507000000 0.0545000000
0.0004000000 1.0356000000 0.5053000000
0.0002000000 1.4590000000 0.7182000000
0.0001000000 7.4704000000 0.1509000000
-0.0005000000 7.1637000000 0.3075000000
-0.0013000000 7.5619000000 0.1025000000
-0.0027000000 2.2675000000 1.1307000000
-0.0039000000 4.7483000000 1.5368000000
-0.2358000000 6.1835000000 0.5970000000
-0.2397000000 7.0325000000 0.1639000000
-0.2411000000 2.2672000000 0.9229000000
-0.2419000000 4.7236000000 1.3376000000
-0.2426000000 6.8656000000 0.2425000000
-0.2428000000 4.2190000000 1.5932000000
-0.2433000000 2.2543000000 0.9102000000
-0.2436000000 6.1868000000 0.5954000000
-0.2442000000 5.2450000000 1.0731000000
-0.2446000000 5.9877000000 0.6942000000
-0.2447000000 7.4760000000 0.0765000000
-0.2451000000 4.4135000000 1.4900000000
-0.2452000000 2.2509000000 0.9048000000
-0.2455000000 7.2358000000 0.0587000000
-0.2457000000 4.7819000000 1.3039000000
-0.2461000000 2.3124000000 0.9401000000
-0.2465000000 0.2300000000 0.0208000000
-0.2466000000 4.9294000000 1.2249000000
-0.2467000000 1.5362000000 0.5391000000
-0.2471000000 6.3313000000 0.5167000000
-0.2477000000 6.3728000000 0.4892000000
-0.2481000000 5.9116000000 0.7284000000
-0.2485000000 5.2216000000 1.0832000000
-0.2486000000 2.6501000000 1.1074000000
-0.2490000000 5.2083000000 1.0878000000
-0.2493000000 2.4138000000 0.9909000000
-0.2496000000 2.8321000000 1.2013000000
-0.2503000000 2.0415000000 0.7943000000
-0.2509000000 1.8361000000 0.6893000000
-0.2512000000 5.7879000000 0.7916000000
-0.2525000000 5.3092000000 1.0298000000
-0.2538000000 0.9347000000 0.2263000000
-0.2547000000 4.0396000000 1.6778000000
-0.4899000000 3.3168000000 1.2317000000
-0.4905000000 3.5495000000 1.3545000000
-0.4913000000 7.1395000000 0.0347000000
-0.4919000000 6.1282000000 0.3963000000
-0.4927000000 4.4154000000 1.2713000000
-0.4935000000 1.4625000000 0.2753000000
-0.4938000000 2.4770000000 0.8041000000
-0.4943000000 6.9446000000 0.0543000000
-0.4945000000 3.1481000000 1.1441000000
-0.4947000000 3.1206000000 1.1302000000
-0.4951000000 1.5792000000 0.3404000000
-0.4952000000 4.0329000000 1.4659000000
-0.4955000000 4.1061000000 1.4273000000
-0.4957000000 2.7355000000 0.9295000000
-0.4960000000 2.1118000000 0.6034000000
-0.4962000000 2.1866000000 0.6551000000
-0.4965000000 5.4035000000 0.7728000000
-0.4968000000 7.0206000000 0.0847000000
-0.4970000000 5.4240000000 0.7585000000
-0.4978000000 0.6457000000 0.0163000000
-0.4983000000 2.4750000000 0.7899000000
-0.4985000000 5.8508000000 0.5380000000
-0.4987000000 1.3693000000 0.2278000000
-0.4991000000 6.2852000000 0.3154000000
-0.4994000000 6.9917000000 0.0260000000
-0.4998000000 0.6602000000 0.0202000000
-0.5004000000 0.9111000000 0.0742000000
-0.5009000000 3.8748000000 1.4973000000
-0.5014000000 1.0092000000 0.0443000000
-0.5018000000 0.9340000000 0.0817000000
-0.5033000000 3.9756000000 1.4890000000
-0.5082000000 1.9030000000 0.4950000000
-0.7370000000 6.1127000000 0.1880000000
-0.7391000000 6.3468000000 0.0725000000
-0.7398000000 1.8293000000 0.2525000000
-0.7403000000 6.7452000000 0.0114000000
-0.7410000000 4.4838000000 1.0184000000
-0.7422000000 4.7857000000 0.8655000000
-0.7427000000 5.5053000000 0.4968000000
-0.7430000000 5.8834000000 0.2989000000
-0.7434000000 2.2967000000 0.4874000000
-0.7437000000 5.2214000000 0.6397000000
-0.7440000000 4.0480000000 1.2430000000
-0.7442000000 5.0884000000 0.7110000000
-0.7446000000 1.2592000000 0.0379000000
-0.7450000000 3.4492000000 1.0745000000
-0.7454000000 4.4106000000 1.0577000000
-0.7455000000 1.3148000000 0.0555000000
-0.7457000000 6.2621000000 0.1064000000
-0.7461000000 2.0753000000 0.3713000000
-0.7464000000 3.0794000000 0.8846000000
-0.7469000000 3.7297000000 1.2149000000
-0.7476000000 1.0568000000 -0.0017000000
-0.7480000000 1.4081000000 0.1058000000
-0.7482000000 6.6339000000 0.0678000000
-0.7483000000 6.1082000000 0.1806000000
-0.7486000000 6.6645000000 0.0480000000
-0.7490000000 5.3379000000 0.5748000000
-0.7495000000 1.1254000000 0.0340000000
-0.7503000000 1.4382000000 0.0412000000
-0.7514000000 1.1413000000 0.0483000000
-0.7537000000 2.7025000000 0.6942000000
-0.7572000000 2.0736000000 0.3681000000
-0.9895000000 3.6091000000 0.9420000000
-0.9907000000 6.2881000000 0.0233000000
-0.9909000000 5.8456000000 0.1050000000
-0.9926000000 6.0391000000 0.0757000000
-0.9932000000 4.8674000000 0.6047000000
-0.9937000000 3.9474000000 1.0539000000
-0.9940000000 5.3676000000 0.3432000000
-0.9948000000 2.2897000000 0.2614000000
-0.9950000000 5.3032000000 0.3761000000
-0.9952000000 3.5436000000 0.9016000000
-0.9956000000 4.7512000000 0.6604000000
-0.9960000000 2.6619000000 0.4573000000
-0.9964000000 4.7245000000 0.6699000000
-0.9967000000 3.5229000000 0.8950000000
-0.9970000000 5.1677000000 0.4440000000
-0.9978000000 2.3880000000 0.3086000000
-0.9983000000 3.3215000000 0.7816000000
-0.9993000000 5.3558000000 0.3399000000
-0.9997000000 3.3190000000 0.7821000000
-1.0004000000 1.7481000000 0.0553000000
-1.0011000000 3.9262000000 1.0611000000
-1.0017000000 3.3963000000 0.8235000000
-1.0025000000 2.6892000000 0.4560000000
-1.0039000000 2.5903000000 0.4074000000
-1.2399000000 5.6996000000 0.0296000000
-1.2409000000 5.2951000000 0.1615000000
-1.2418000000 3.8228000000 0.8271000000
-1.2426000000 5.8805000000 0.0090000000
-1.2434000000 5.7119000000 0.0221000000
-1.2444000000 3.5426000000 0.6797000000
-1.2447000000 4.1943000000 0.7242000000
-1.2449000000 5.0933000000 0.2582000000
-1.2452000000 4.0107000000 0.8187000000
-1.2453000000 5.6190000000 0.0632000000
-1.2455000000 4.3484000000 0.6423000000
-1.2459000000 4.5678000000 0.5243000000
-1.2465000000 3.6215000000 0.7141000000
-1.2467000000 4.6162000000 0.5023000000
-1.2470000000 3.5455000000 0.6766000000
-1.2474000000 4.7295000000 0.4485000000
-1.2483000000 5.2158000000 0.2021000000
-1.2491000000 3.9457000000 0.8306000000
-1.2493000000 3.2769000000 0.5471000000
-1.2497000000 4.7665000000 0.4236000000
-1.2502000000 3.8226000000 0.8159000000
-1.2512000000 2.4039000000 0.0951000000
-1.2518000000 5.1357000000 0.2301000000
-1.2523000000 3.7104000000 0.7667000000
-1.4897000000 3.5393000000 0.4603000000
-1.4905000000 3.2870000000 0.3372000000
-1.4921000000 2.3880000000 0.0209000000
-1.4926000000 3.7762000000 0.5847000000
-1.4942000000 4.4545000000 0.3619000000
-1.4949000000 3.8264000000 0.5984000000
-1.4960000000 4.8866000000 0.1467000000
-1.4969000000 3.7485000000 0.5621000000
-1.4976000000 2.4098000000 0.0242000000
-1.4979000000 3.5026000000 0.4376000000
-1.4989000000 2.5504000000 0.0244000000
-1.4995000000 4.0092000000 0.5902000000
-1.5007000000 2.9395000000 0.1457000000
-1.7406000000 3.0572000000 0.0681000000
-1.7432000000 5.0052000000 0.0089000000
-1.7439000000 4.4463000000 0.1478000000
-1.7453000000 3.7773000000 0.3592000000
-1.7460000000 4.7072000000 0.0887000000
-1.7469000000 2.9660000000 0.0136000000
-1.7483000000 3.4554000000 0.1883000000
-1.7493000000 3.4140000000 0.1673000000
-1.7509000000 3.8248000000 0.3794000000
-1.7532000000 4.7527000000 0.0632000000
-1.9910000000 3.2623000000 0.0275000000
-1.9939000000 3.5098000000 0.0766000000
-1.9949000000 3.6908000000 0.0889000000
-1.9958000000 4.2632000000 0.0996000000
-1.9972000000 4.2940000000 0.0819000000
