3.2563000000 4.2811000000 1.3594000000
3.2562000000 4.3621000000 1.3153000000
3.2561000000 1.9003000000 1.3431000000
3.2560000000 2.6378000000 1.7519000000
3.2559000000 2.0836000000 1.4510000000
3.2559000000 3.0089000000 1.9590000000
3.2557000000 1.0186000000 0.8583000000
3.2556000000 0.6777000000 0.6663000000
3.2555000000 2.6504000000 1.7576000000
3.2555000000 0.8686000000 0.7782000000
3.2552000000 6.2406000000 0.0970000000
3.2551000000 4.2849000000 1.3605000000
3.2550000000 2.2005000000 1.5103000000
3.2549000000 2.8798000000 1.8889000000
3.2548000000 1.2521000000 0.9928000000
3.2548000000 5.1892000000 0.8585000000
3.2546000000 2.4234000000 1.6406000000
3.2545000000 0.6910000000 0.6805000000
3.2545000000 1.9114000000 1.3502000000
3.2545000000 3.6604000000 1.7052000000
3.2543000000 4.6960000000 1.1290000000
3.2543000000 0.2594000000 0.2705000000
3.2543000000 1.3767000000 1.0600000000
3.2542000000 4.6933000000 1.1366000000
3.2541000000 4.8128000000 1.0670000000
3.2538000000 4.4138000000 1.2912000000
3.2537000000 0.1282000000 0.1270000000
3.2535000000 4.4728000000 1.2558000000
3.2534000000 2.4250000000 1.6334000000
3.2532000000 0.8222000000 0.7497000000
3.2530000000 1.4204000000 1.0842000000
3.2529000000 0.4042000000 0.4320000000
3.2528000000 2.2071000000 1.5194000000
3.2528000000 3.7093000000 1.6794000000
3.2527000000 5.4451000000 0.7211000000
3.2527000000 1.8296000000 1.3008000000
3.2525000000 0.8624000000 0.7715000000
3.2524000000 1.4750000000 1.1158000000
3.2524000000 0.1640000000 0.1661000000
3.2523000000 1.5989000000 1.1847000000
3.2522000000 3.0174000000 1.9644000000
3.2520000000 4.7552000000 1.1034000000
3.2518000000 1.0007000000 0.8544000000
3.2519000000 0.7929000000 0.7429000000
3.2518000000 2.5686000000 1.7225000000
3.2517000000 0.9384000000 0.8187000000
3.2516000000 3.4753000000 1.8079000000
3.2515000000 2.3303000000 1.5893000000
3.2508000000 4.3979000000 1.3024000000
3.2507000000 5.7537000000 0.4873000000
3.2506000000 5.0023000000 0.9697000000
3.2505000000 0.3733000000 0.3988000000
3.2500000000 0.7266000000 0.7009000000
3.2497000000 5.0106000000 0.9605000000
3.2496000000 4.4230000000 1.2866000000
3.2495000000 5.1657000000 0.8735000000
3.2494000000 3.1581000000 1.9851000000
3.2492000000 4.5890000000 1.1951000000
3.2488000000 3.0245000000 1.9715000000
3.2487000000 2.9700000000 1.9464000000
3.2486000000 4.2205000000 1.4000000000
3.2483000000 0.5472000000 0.5676000000
3.2481000000 3.9371000000 1.5586000000
3.2479000000 0.5560000000 0.5757000000
3.2454000000 0.0651000000 0.0519000000
3.2453000000 3.2862000000 1.9170000000
3.0162000000 5.7643000000 0.4765000000
3.0137000000 2.0258000000 1.6447000000
3.0129000000 3.9476000000 1.7751000000
3.0116000000 3.6756000000 1.9251000000
3.0107000000 0.5437000000 0.5843000000
3.0104000000 4.9251000000 1.2384000000
3.0098000000 5.5521000000 0.7086000000
3.0096000000 2.8364000000 2.0985000000
3.0093000000 4.7881000000 1.3237000000
3.0091000000 0.9332000000 0.9976000000
3.0089000000 0.6623000000 0.7132000000
3.0088000000 3.7694000000 1.8819000000
3.0088000000 3.6485000000 1.9447000000
3.0079000000 2.1024000000 1.6926000000
3.0077000000 3.4200000000 2.0814000000
3.0074000000 0.6498000000 0.7008000000
3.0074000000 3.1792000000 2.2071000000
3.0072000000 6.0498000000 0.1616000000
3.0071000000 3.7300000000 1.9039000000
3.0068000000 3.1908000000 2.2037000000
3.0067000000 0.4361000000 0.4646000000
3.0066000000 2.9598000000 2.1714000000
3.0065000000 3.3634000000 2.1033000000
3.0065000000 0.9691000000 1.0345000000
3.0064000000 0.0372000000 0.0973000000
3.0063000000 4.5114000000 1.4734000000
3.0061000000 5.1277000000 1.1154000000
3.0060000000 3.3836000000 2.0985000000
3.0058000000 4.7729000000 1.3266000000
3.0057000000 0.6711000000 0.7240000000
3.0055000000 5.8548000000 0.3744000000
3.0051000000 5.3004000000 0.9700000000
3.0050000000 4.4768000000 1.4966000000
3.0048000000 2.1832000000 1.7390000000
3.0048000000 2.7080000000 2.0362000000
3.0047000000 3.3336000000 2.1227000000
3.0045000000 1.5683000000 1.4007000000
3.0044000000 4.4337000000 1.5200000000
3.0045000000 1.7306000000 1.4918000000
3.0043000000 0.4781000000 0.5138000000
3.0043000000 4.7167000000 1.3617000000
3.0043000000 2.4607000000 1.8943000000
3.0041000000 3.6959000000 1.9253000000
3.0042000000 2.0336000000 1.6590000000
3.0041000000 2.8239000000 2.0982000000
3.0040000000 4.1000000000 1.7008000000
3.0039000000 2.1362000000 1.7158000000
3.0039000000 0.5746000000 0.6200000000
3.0038000000 5.6824000000 0.5661000000
3.0036000000 5.2274000000 1.0458000000
3.0035000000 2.4811000000 1.9062000000
3.0035000000 0.7102000000 0.7665000000
3.0034000000 3.2290000000 2.1845000000
3.0033000000 0.8573000000 0.9313000000
3.0031000000 4.8811000000 1.2714000000
3.0030000000 5.9363000000 0.2879000000
3.0027000000 2.2058000000 1.7578000000
3.0025000000 5.1418000000 1.1127000000
3.0029000000 0.5820000000 0.6214000000
3.0022000000 1.7744000000 1.5166000000
3.0021000000 0.5324000000 0.5776000000
3.0021000000 1.0991000000 1.1347000000
3.0018000000 1.4055000000 1.3220000000
3.0016000000 3.9843000000 1.7658000000
3.0015000000 0.4711000000 0.5066000000
3.0014000000 0.4717000000 0.5056000000
3.0014000000 2.3077000000 1.8127000000
3.0012000000 1.6903000000 1.4711000000
3.0009000000 2.9453000000 2.1689000000
3.0005000000 0.9722000000 1.0396000000
3.0005000000 5.8120000000 0.4236000000
3.0000000000 4.5394000000 1.4663000000
2.9999000000 0.6767000000 0.7317000000
2.9999000000 5.5269000000 0.7406000000
2.9998000000 4.6022000000 1.4308000000
2.9996000000 1.9694000000 1.6287000000
2.9990000000 3.3457000000 2.1283000000
2.9990000000 4.3726000000 1.5564000000
2.9989000000 1.7877000000 1.5310000000
2.9988000000 0.0933000000 0.0878000000
2.9987000000 2.2138000000 1.7587000000
2.9978000000 0.3468000000 0.3663000000
2.9975000000 0.4717000000 0.5056000000
2.9973000000 2.7493000000 2.0621000000
2.9973000000 2.6171000000 1.9896000000
2.9962000000 2.8287000000 2.1073000000
2.9944000000 3.0516000000 2.2222000000
2.7625000000 5.2127000000 1.0793000000
2.7619000000 0.7564000000 0.8154000000
2.7612000000 5.4595000000 0.8125000000
2.7608000000 2.8997000000 2.3740000000
2.7599000000 3.1524000000 2.4465000000
2.7595000000 4.1767000000 1.8975000000
2.7594000000 4.8523000000 1.4624000000
2.7593000000 5.5418000000 0.7236000000
2.7592000000 5.2027000000 1.0944000000
2.7592000000 0.0467000000 0.1067000000
2.7591000000 0.7567000000 0.8211000000
2.7588000000 0.8286000000 0.9014000000
2.7583000000 3.0679000000 2.4558000000
2.7583000000 4.6547000000 1.6263000000
2.7582000000 3.4130000000 2.3157000000
2.7582000000 3.8892000000 2.0552000000
2.7580000000 1.9348000000 1.8426000000
2.7580000000 5.7355000000 0.5050000000
2.7580000000 4.5013000000 1.7154000000
2.7575000000 5.8958000000 0.3267000000
2.7575000000 0.2806000000 0.2921000000
2.7575000000 3.1759000000 2.4490000000
2.7570000000 0.1816000000 0.1808000000
2.7568000000 3.8656000000 2.0725000000
2.7568000000 2.2435000000 2.0124000000
2.7567000000 4.2830000000 1.8372000000
2.7567000000 6.1122000000 0.0915000000
2.7566000000 4.0468000000 1.9681000000
2.7563000000 3.7554000000 2.1293000000
2.7563000000 1.4393000000 1.5502000000
2.7562000000 2.8375000000 2.3373000000
2.7561000000 1.5222000000 1.5959000000
2.7558000000 3.0339000000 2.4457000000
2.7554000000 5.0241000000 1.2919000000
2.7553000000 1.1905000000 1.2912000000
2.7553000000 2.7305000000 2.2845000000
2.7551000000 3.8844000000 2.0593000000
2.7551000000 3.3043000000 2.3865000000
2.7550000000 4.1433000000 1.9145000000
2.7549000000 1.7481000000 1.7397000000
2.7548000000 6.2230000000 0.0415000000
2.7548000000 2.8704000000 2.3548000000
2.7547000000 3.5656000000 2.2310000000
2.7546000000 5.9238000000 0.2970000000
2.7545000000 6.1695000000 0.0992000000
2.7545000000 1.6957000000 1.7134000000
2.7543000000 3.5911000000 2.2201000000
2.7542000000 1.8771000000 1.8097000000
2.7541000000 3.2356000000 2.4201000000
2.7540000000 3.7073000000 2.1554000000
2.7539000000 0.9283000000 1.0094000000
2.7538000000 2.0722000000 1.9194000000
2.7537000000 4.1151000000 1.9328000000
2.7536000000 5.0543000000 1.2571000000
2.7536000000 0.5078000000 0.5405000000
2.7535000000 5.5263000000 0.7391000000
2.7534000000 0.6453000000 0.6967000000
2.7535000000 0.9445000000 1.0290000000
2.7534000000 0.9734000000 1.0549000000
2.7533000000 3.3990000000 2.3280000000
2.7532000000 4.1407000000 1.9215000000
2.7531000000 5.3870000000 0.8896000000
2.7529000000 4.7843000000 1.5393000000
2.7528000000 1.8474000000 1.7975000000
2.7526000000 1.7868000000 1.7654000000
2.7525000000 0.3221000000 0.3374000000
2.7524000000 0.4333000000 0.4630000000
2.7524000000 2.0491000000 1.9132000000
2.7523000000 0.1026000000 0.0964000000
2.7522000000 3.1605000000 2.4668000000
2.7522000000 5.2243000000 1.0691000000
2.7521000000 0.5295000000 0.5677000000
2.7520000000 0.3771000000 0.4037000000
2.7519000000 3.2318000000 2.4246000000
2.7514000000 1.6897000000 1.7088000000
2.7512000000 0.4212000000 0.4494000000
2.7512000000 2.6913000000 2.2710000000
2.7509000000 0.4285000000 0.4575000000
2.7508000000 2.8815000000 2.3716000000
2.7508000000 4.8800000000 1.4542000000
2.7507000000 1.7277000000 1.7289000000
2.7506000000 1.7833000000 1.7634000000
2.7504000000 2.4636000000 2.1479000000
2.7503000000 0.2775000000 0.2892000000
2.7502000000 2.4485000000 2.1337000000
2.7501000000 3.2878000000 2.3886000000
2.7501000000 0.3055000000 0.3196000000
2.7500000000 5.2450000000 1.0502000000
2.7491000000 2.1168000000 1.9497000000
2.7490000000 0.0474000000 0.1088000000
2.7485000000 0.3890000000 0.4120000000
2.7484000000 2.5999000000 2.2169000000
2.7481000000 1.1223000000 1.2220000000
2.7480000000 0.5965000000 0.6444000000
2.7463000000 0.6500000000 0.7036000000
2.7461000000 1.2921000000 1.4127000000
2.7457000000 0.7045000000 0.7572000000
2.5114000000 6.0634000000 0.1530000000
2.5110000000 2.6942000000 2.4935000000
2.5109000000 2.5049000000 2.3957000000
2.5104000000 4.4225000000 1.9327000000
2.5104000000 4.5761000000 1.7912000000
2.5102000000 3.9573000000 2.2543000000
2.5099000000 3.1952000000 2.6723000000
2.5098000000 4.6331000000 1.7250000000
2.5095000000 1.0714000000 1.1695000000
2.5094000000 5.7113000000 0.5359000000
2.5093000000 4.8918000000 1.4364000000
2.5092000000 2.1542000000 2.2028000000
2.5089000000 2.3187000000 2.2889000000
2.5080000000 2.3715000000 2.3275000000
2.5079000000 2.1845000000 2.2217000000
2.5078000000 6.0946000000 0.1121000000
2.5078000000 5.1542000000 1.1478000000
2.5076000000 2.2981000000 2.2863000000
2.5074000000 2.5434000000 2.4173000000
2.5073000000 6.2158000000 0.0508000000
2.5071000000 4.9142000000 1.4116000000
2.5070000000 5.6084000000 0.6440000000
2.5070000000 1.1095000000 1.2089000000
2.5067000000 3.1580000000 2.6934000000
2.5065000000 4.2343000000 2.0944000000
2.5066000000 1.2926000000 1.4101000000
2.5065000000 0.8801000000 0.9603000000
2.5065000000 2.1965000000 2.2234000000
2.5064000000 1.0812000000 1.1777000000
2.5063000000 5.1797000000 1.1210000000
2.5062000000 0.9467000000 1.0267000000
2.5061000000 5.8103000000 0.4246000000
2.5060000000 0.7636000000 0.8244000000
2.5060000000 2.0226000000 2.1275000000
2.5058000000 1.3814000000 1.5102000000
2.5058000000 5.5491000000 0.7147000000
2.5057000000 3.2991000000 2.6241000000
2.5054000000 0.9043000000 0.9787000000
2.5053000000 5.1310000000 1.1691000000
2.5052000000 5.1157000000 1.1907000000
2.5051000000 1.7999000000 1.9549000000
2.5048000000 4.2134000000 2.1120000000
2.5047000000 0.0713000000 0.0611000000
2.5046000000 4.2554000000 2.0736000000
2.5046000000 4.1073000000 2.1684000000
2.5045000000 0.8740000000 0.9553000000
2.5045000000 4.9890000000 1.3298000000
2.5044000000 1.0639000000 1.1608000000
2.5043000000 1.3577000000 1.4835000000
2.5043000000 2.4370000000 2.3646000000
2.5042000000 0.8877000000 0.9657000000
2.5041000000 5.0833000000 1.2249000000
2.5041000000 4.8469000000 1.4906000000
2.5040000000 0.5202000000 0.5568000000
2.5038000000 2.0030000000 2.1194000000
2.5037000000 0.5390000000 0.5792000000
2.5035000000 0.6576000000 0.7107000000
2.5035000000 2.1227000000 2.1909000000
2.5033000000 0.4068000000 0.4359000000
2.5032000000 2.6976000000 2.5068000000
2.5032000000 3.4180000000 2.5542000000
2.5031000000 0.1427000000 0.1382000000
2.5030000000 4.1371000000 2.1597000000
2.5030000000 3.6382000000 2.4364000000
2.5029000000 1.8406000000 2.0008000000
2.5028000000 3.5174000000 2.5045000000
2.5028000000 1.4549000000 1.5892000000
2.5027000000 0.1189000000 0.1153000000
2.5025000000 2.2437000000 2.2560000000
2.5025000000 0.5661000000 0.6014000000
2.5025000000 2.9356000000 2.6379000000
2.5024000000 5.5134000000 0.7505000000
2.5023000000 5.4685000000 0.7998000000
2.5022000000 4.5313000000 1.8356000000
2.5021000000 2.3036000000 2.2911000000
2.5020000000 0.1137000000 0.1063000000
2.5019000000 0.1571000000 0.1577000000
2.5018000000 0.0396000000 0.1027000000
2.5018000000 0.8749000000 0.9512000000
2.5017000000 4.3587000000 2.0068000000
2.5017000000 4.8064000000 1.5339000000
2.5016000000 6.0615000000 0.1454000000
2.5016000000 2.2766000000 2.2757000000
2.5013000000 0.9496000000 1.0332000000
2.5012000000 1.1576000000 1.2595000000
2.5010000000 1.8203000000 1.9767000000
2.5007000000 3.9243000000 2.2832000000
2.5006000000 2.7510000000 2.5360000000
2.4999000000 0.7239000000 0.7817000000
2.4998000000 5.3973000000 0.8800000000
2.4997000000 1.9101000000 2.0556000000
2.4998000000 3.6954000000 2.4095000000
2.4994000000 1.3527000000 1.4767000000
2.4994000000 1.5540000000 1.6974000000
2.4993000000 5.4568000000 0.8099000000
2.4993000000 4.0302000000 2.2210000000
2.4993000000 0.5401000000 0.5843000000
2.4991000000 0.0464000000 0.1122000000
2.4990000000 1.6676000000 1.8206000000
2.4988000000 2.5339000000 2.4187000000
2.4986000000 1.6436000000 1.8032000000
2.4985000000 4.1349000000 2.1702000000
2.4981000000 1.6127000000 1.7640000000
2.4975000000 3.1945000000 2.6861000000
2.4973000000 2.1161000000 2.1915000000
2.4974000000 3.5947000000 2.4667000000
2.4970000000 4.2491000000 2.0888000000
2.4968000000 4.2284000000 2.1017000000
2.4966000000 0.1042000000 0.0890000000
2.4954000000 3.2104000000 2.6826000000
2.2630000000 5.5448000000 0.7107000000
2.2613000000 0.6232000000 0.6734000000
2.2610000000 3.4384000000 2.7815000000
2.2605000000 3.4637000000 2.7684000000
2.2598000000 4.7005000000 1.6478000000
2.2593000000 5.2127000000 1.0877000000
2.2590000000 4.8459000000 1.4880000000
2.2590000000 3.5452000000 2.7237000000
2.2589000000 6.1285000000 0.0710000000
2.2588000000 3.7970000000 2.5802000000
2.2588000000 1.7841000000 1.9555000000
2.2587000000 2.2432000000 2.4411000000
2.2585000000 4.8704000000 1.4641000000
2.2581000000 5.1070000000 1.1990000000
2.2580000000 5.1551000000 1.1496000000
2.2581000000 2.7400000000 2.7627000000
2.2579000000 5.5893000000 0.6659000000
2.2577000000 0.9135000000 0.9924000000
2.2576000000 4.1128000000 2.2990000000
2.2576000000 5.0721000000 1.2392000000
2.2573000000 3.9028000000 2.5094000000
2.2572000000 2.6808000000 2.7354000000
2.2571000000 5.8286000000 0.4036000000
2.2570000000 4.4435000000 1.9430000000
2.2571000000 2.2332000000 2.4270000000
2.2568000000 2.7128000000 2.7500000000
2.2565000000 4.9086000000 1.4200000000
2.2562000000 1.6676000000 1.8218000000
2.2561000000 5.5816000000 0.6803000000
2.2560000000 6.0391000000 0.1731000000
2.2558000000 5.9996000000 0.2156000000
2.2556000000 2.8835000000 2.8497000000
2.2552000000 0.8413000000 0.9173000000
2.2553000000 1.7842000000 1.9574000000
2.2555000000 3.8945000000 2.5142000000
2.2551000000 5.2978000000 0.9829000000
2.2551000000 3.8113000000 2.5634000000
2.2550000000 4.9287000000 1.3968000000
2.2550000000 4.2635000000 2.1331000000
2.2549000000 6.1672000000 0.1076000000
2.2548000000 5.0082000000 1.3028000000
2.2546000000 2.5567000000 2.6668000000
2.2545000000 2.8791000000 2.8466000000
2.2544000000 3.6159000000 2.6921000000
2.2543000000 5.1795000000 1.1221000000
2.2540000000 4.6976000000 1.6554000000
2.2540000000 4.2284000000 2.1702000000
2.2539000000 3.9864000000 2.4205000000
2.2536000000 0.1448000000 0.1394000000
2.2535000000 5.9908000000 0.2224000000
2.2534000000 1.7263000000 1.8890000000
2.2533000000 1.8139000000 1.9861000000
2.2533000000 0.3270000000 0.3469000000
2.2532000000 4.5888000000 1.7688000000
2.2531000000 5.9025000000 0.3243000000
2.2530000000 0.0398000000 0.1026000000
2.2529000000 4.0025000000 2.4056000000
2.2529000000 1.0229000000 1.1110000000
2.2528000000 2.4410000000 2.5992000000
2.2528000000 5.4978000000 0.7712000000
2.2525000000 2.9373000000 2.8780000000
2.2524000000 3.6863000000 2.6487000000
2.2522000000 2.7052000000 2.7488000000
2.2520000000 0.9511000000 1.0321000000
2.2520000000 4.9847000000 1.3357000000
2.2518000000 5.6785000000 0.5709000000
2.2515000000 5.1518000000 1.1563000000
2.2515000000 5.6356000000 0.6155000000
2.2514000000 1.0729000000 1.1648000000
2.2512000000 0.7674000000 0.8256000000
2.2511000000 3.8742000000 2.5256000000
2.2511000000 1.4554000000 1.5865000000
2.2508000000 0.5911000000 0.6367000000
2.2506000000 3.3403000000 2.8484000000
2.2506000000 0.4439000000 0.4769000000
2.2505000000 2.2184000000 2.4165000000
2.2504000000 4.6493000000 1.7064000000
2.2502000000 1.4864000000 1.6217000000
2.2499000000 5.3617000000 0.9191000000
2.2499000000 3.8019000000 2.5772000000
2.2498000000 0.0835000000 0.0769000000
2.2497000000 2.3627000000 2.5436000000
2.2496000000 0.7122000000 0.7693000000
2.2493000000 1.6467000000 1.7983000000
2.2490000000 2.2476000000 2.4412000000
2.2489000000 2.7572000000 2.7879000000
2.2488000000 4.4609000000 1.9101000000
2.2486000000 4.9905000000 1.3285000000
2.2486000000 2.5633000000 2.6736000000
2.2485000000 5.6737000000 0.5744000000
2.2484000000 1.8555000000 2.0296000000
2.2483000000 2.4666000000 2.6218000000
2.2481000000 5.2405000000 1.0542000000
2.2480000000 2.0379000000 2.2339000000
2.2476000000 3.2961000000 2.8727000000
2.2474000000 1.0457000000 1.1340000000
2.2474000000 5.3483000000 0.9344000000
2.2470000000 5.6440000000 0.6057000000
2.2468000000 0.9186000000 0.9968000000
2.0120000000 5.3363000000 0.9501000000
2.0110000000 4.8599000000 1.4742000000
2.0108000000 3.2133000000 3.1395000000
2.0103000000 4.2902000000 2.1026000000
2.0100000000 2.6247000000 2.8695000000
2.0091000000 2.7203000000 2.9672000000
2.0083000000 4.7722000000 1.5743000000
2.0083000000 2.4161000000 2.6489000000
2.0081000000 4.0200000000 2.4009000000
2.0080000000 6.0068000000 0.2054000000
2.0079000000 5.9018000000 0.3230000000
2.0073000000 3.9930000000 2.4293000000
2.0068000000 0.6957000000 0.7533000000
2.0068000000 5.1072000000 1.1987000000
2.0064000000 5.9269000000 0.2912000000
2.0061000000 0.8680000000 0.9415000000
2.0060000000 2.7336000000 2.9834000000
2.0058000000 2.3417000000 2.5636000000
2.0057000000 5.0464000000 1.2698000000
2.0055000000 4.8028000000 1.5317000000
2.0052000000 2.8064000000 3.0251000000
2.0048000000 6.0103000000 0.1997000000
2.0044000000 1.3498000000 1.4700000000
2.0042000000 4.3577000000 2.0293000000
2.0040000000 3.1231000000 3.1809000000
2.0040000000 1.7763000000 1.9427000000
2.0039000000 2.0295000000 2.2261000000
2.0039000000 1.9237000000 2.1085000000
2.0037000000 2.6179000000 2.8771000000
2.0036000000 5.3620000000 0.9238000000
2.0035000000 4.5545000000 1.8168000000
2.0034000000 0.9500000000 1.0286000000
2.0033000000 0.7136000000 0.7726000000
2.0032000000 0.1416000000 0.1359000000
2.0032000000 5.6763000000 0.5729000000
2.0031000000 2.8477000000 3.0648000000
2.0030000000 3.3487000000 3.0774000000
2.0028000000 0.2952000000 0.3044000000
2.0027000000 0.2193000000 0.2261000000
2.0025000000 2.1620000000 2.3692000000
2.0024000000 3.3126000000 3.0952000000
2.0023000000 3.4779000000 2.9864000000
2.0023000000 4.6613000000 1.6932000000
2.0020000000 0.8618000000 0.9331000000
2.0015000000 3.8307000000 2.6096000000
2.0012000000 5.7570000000 0.4838000000
2.0012000000 2.1596000000 2.3614000000
2.0008000000 6.0367000000 0.1727000000
2.0007000000 0.0374000000 0.1036000000
2.0005000000 5.9008000000 0.3258000000
2.0003000000 2.4723000000 2.7105000000
2.0000000000 1.2526000000 1.3647000000
2.0000000000 4.0642000000 2.3554000000
1.9996000000 0.4142000000 0.4403000000
1.9993000000 2.9030000000 3.1012000000
1.9989000000 0.5306000000 0.5648000000
1.9986000000 5.5882000000 0.6709000000
1.9979000000 3.1521000000 3.1729000000
1.9977000000 3.9861000000 2.4363000000
1.9975000000 5.3133000000 0.9685000000
1.9973000000 2.2157000000 2.4256000000
1.9971000000 0.2072000000 0.2107000000
1.9968000000 0.8192000000 0.8891000000
1.9945000000 1.9587000000 2.1419000000
1.7652000000 6.0215000000 0.1910000000
1.7621000000 5.7995000000 0.4308000000
1.7616000000 3.9590000000 2.4727000000
1.7615000000 1.8267000000 1.9990000000
1.7614000000 3.5943000000 2.8686000000
1.7608000000 5.5253000000 0.7486000000
1.7608000000 3.4623000000 3.0163000000
1.7603000000 5.2523000000 1.0396000000
1.7598000000 3.9811000000 2.4434000000
1.7595000000 4.7477000000 1.5989000000
1.7593000000 0.5756000000 0.6174000000
1.7593000000 3.6477000000 2.8158000000
1.7591000000 1.6519000000 1.8116000000
1.7590000000 1.0228000000 1.1094000000
1.7589000000 3.5703000000 2.8930000000
1.7585000000 2.2083000000 2.4225000000
1.7583000000 5.1468000000 1.1531000000
1.7583000000 0.9765000000 1.0653000000
1.7581000000 5.9840000000 0.2300000000
1.7580000000 1.4901000000 1.6288000000
1.7580000000 0.7670000000 0.8302000000
1.7579000000 3.5608000000 2.9055000000
1.7578000000 1.0370000000 1.1302000000
1.7577000000 4.0578000000 2.3587000000
1.7577000000 2.6678000000 2.9248000000
1.7576000000 5.6348000000 0.6165000000
1.7575000000 6.0011000000 0.2158000000
1.7574000000 5.8830000000 0.3422000000
1.7571000000 0.9502000000 1.0319000000
1.7570000000 3.8252000000 2.6172000000
1.7568000000 0.1494000000 0.1536000000
1.7567000000 5.3750000000 0.9057000000
1.7567000000 2.2537000000 2.4696000000
1.7566000000 5.6350000000 0.6178000000
1.7566000000 3.3040000000 3.1873000000
1.7565000000 3.8077000000 2.6344000000
1.7564000000 1.8731000000 2.0471000000
1.7561000000 3.0045000000 3.3359000000
1.7560000000 3.5260000000 2.9459000000
1.7559000000 4.2247000000 2.1710000000
1.7558000000 3.4289000000 3.0525000000
1.7558000000 1.6160000000 1.7639000000
1.7557000000 5.6630000000 0.5875000000
1.7554000000 6.1156000000 0.0893000000
1.7552000000 0.4124000000 0.4355000000
1.7551000000 2.2089000000 2.4210000000
1.7550000000 2.1520000000 2.3575000000
1.7549000000 3.8233000000 2.6152000000
1.7546000000 5.4081000000 0.8682000000
1.7546000000 6.0805000000 0.1239000000
1.7545000000 0.6657000000 0.7176000000
1.7545000000 3.6588000000 2.7992000000
1.7542000000 2.8004000000 3.0756000000
1.7541000000 4.0419000000 2.3775000000
1.7540000000 5.4186000000 0.8573000000
1.7539000000 3.7399000000 2.7138000000
1.7538000000 4.5319000000 1.8361000000
1.7537000000 4.9099000000 1.4167000000
1.7535000000 0.1781000000 0.1784000000
1.7534000000 3.3182000000 3.1709000000
1.7534000000 5.9309000000 0.2854000000
1.7533000000 2.9931000000 3.2520000000
1.7532000000 1.4603000000 1.5977000000
1.7531000000 5.7517000000 0.4925000000
1.7529000000 0.6461000000 0.6999000000
1.7529000000 3.8956000000 2.5428000000
1.7526000000 1.8162000000 1.9891000000
1.7526000000 2.8798000000 3.1585000000
1.7525000000 4.2352000000 2.1653000000
1.7525000000 1.5654000000 1.7145000000
1.7523000000 5.4720000000 0.7988000000
1.7520000000 0.4401000000 0.4702000000
1.7520000000 1.3852000000 1.5098000000
1.7517000000 4.2965000000 2.0947000000
1.7515000000 4.3905000000 1.9903000000
1.7514000000 2.3836000000 2.6144000000
1.7513000000 5.2288000000 1.0658000000
1.7511000000 2.5226000000 2.7677000000
1.7511000000 1.2954000000 1.4137000000
1.7510000000 0.3719000000 0.3923000000
1.7510000000 0.4170000000 0.4502000000
1.7510000000 2.9608000000 3.2380000000
1.7509000000 1.5127000000 1.6597000000
1.7505000000 0.0453000000 0.1044000000
1.7503000000 4.7657000000 1.5797000000
1.7505000000 2.1832000000 2.3924000000
1.7500000000 3.1760000000 3.3180000000
1.7499000000 1.9527000000 2.1444000000
1.7497000000 1.8483000000 2.0182000000
1.7495000000 0.5094000000 0.5418000000
1.7486000000 1.0316000000 1.1230000000
1.7485000000 2.5565000000 2.8050000000
1.7484000000 3.3048000000 3.1932000000
1.7483000000 0.5893000000 0.6360000000
1.7481000000 2.4908000000 2.7412000000
1.7471000000 2.6460000000 2.9105000000
1.7464000000 1.1424000000 1.2454000000
1.7458000000 0.0782000000 0.0664000000
1.7426000000 1.1393000000 1.2434000000
1.5139000000 4.5858000000 1.7738000000
1.5138000000 3.2517000000 3.0633000000
1.5119000000 1.7724000000 1.9405000000
1.5118000000 5.8772000000 0.3501000000
1.5110000000 3.4692000000 2.9429000000
1.5108000000 0.1624000000 0.1623000000
1.5107000000 4.6993000000 1.6538000000
1.5103000000 0.2726000000 0.2834000000
1.5100000000 6.0206000000 0.1895000000
1.5098000000 4.6787000000 1.6741000000
1.5098000000 2.7973000000 2.9703000000
1.5093000000 3.3818000000 2.9930000000
1.5087000000 3.1473000000 3.1001000000
1.5086000000 5.0215000000 1.2981000000
1.5084000000 5.5474000000 0.7162000000
1.5082000000 0.6480000000 0.6998000000
1.5079000000 3.8761000000 2.5626000000
1.5078000000 2.9009000000 3.0257000000
1.5076000000 5.4643000000 0.8086000000
1.5073000000 6.2074000000 0.0621000000
1.5073000000 3.6811000000 2.7596000000
1.5071000000 3.6479000000 2.7964000000
1.5070000000 4.7234000000 1.6243000000
1.5071000000 2.5639000000 2.7985000000
1.5068000000 1.4191000000 1.5521000000
1.5068000000 4.8789000000 1.4515000000
1.5066000000 3.8837000000 2.5483000000
1.5065000000 4.3712000000 2.0126000000
1.5065000000 2.3474000000 2.5686000000
1.5064000000 2.6431000000 2.8670000000
1.5064000000 5.7386000000 0.4958000000
1.5063000000 6.0463000000 0.1657000000
1.5062000000 3.3570000000 3.0030000000
1.5060000000 4.4472000000 1.9287000000
1.5060000000 1.8208000000 1.9911000000
1.5058000000 3.5733000000 2.8664000000
1.5058000000 1.7622000000 1.9293000000
1.5056000000 4.9230000000 1.4050000000
1.5055000000 5.6131000000 0.6400000000
1.5051000000 6.1193000000 0.0849000000
1.5050000000 5.3912000000 0.8868000000
1.5049000000 5.9863000000 0.2339000000
1.5048000000 5.3977000000 0.8850000000
1.5047000000 5.5852000000 0.6721000000
1.5046000000 2.2616000000 2.4787000000
1.5046000000 0.8722000000 0.9496000000
1.5044000000 3.4493000000 2.9428000000
1.5043000000 0.6208000000 0.6752000000
1.5042000000 0.5206000000 0.5597000000
1.5041000000 4.1813000000 2.2226000000
1.5040000000 2.2000000000 2.4099000000
1.5040000000 1.2326000000 1.3437000000
1.5038000000 1.3986000000 1.5283000000
1.5037000000 5.9026000000 0.3172000000
1.5037000000 3.7918000000 2.6527000000
1.5036000000 0.9262000000 1.0040000000
1.5036000000 0.9215000000 0.9967000000
1.5035000000 1.6768000000 1.8370000000
1.5034000000 3.4279000000 2.9620000000
1.5033000000 4.1677000000 2.2406000000
1.5033000000 5.0015000000 1.3242000000
1.5033000000 1.9632000000 2.1528000000
1.5031000000 0.8170000000 0.8898000000
1.5030000000 5.2232000000 1.0716000000
1.5028000000 2.0437000000 2.2456000000
1.5026000000 4.4574000000 1.9209000000
1.5025000000 3.6059000000 2.8437000000
1.5023000000 4.7789000000 1.5626000000
1.5022000000 2.9594000000 3.0545000000
1.5022000000 2.8184000000 2.9743000000
1.5021000000 0.6977000000 0.7509000000
1.5021000000 1.6897000000 1.8498000000
1.5020000000 0.7966000000 0.8629000000
1.5019000000 0.7540000000 0.8151000000
1.5018000000 1.8065000000 1.9840000000
1.5018000000 1.6387000000 1.7963000000
1.5017000000 3.0682000000 3.0919000000
1.5015000000 2.8083000000 2.9708000000
1.5015000000 0.3429000000 0.3576000000
1.5010000000 1.8549000000 2.0247000000
1.5008000000 1.9551000000 2.1451000000
1.5008000000 0.3043000000 0.3189000000
1.5008000000 0.9964000000 1.0877000000
1.5007000000 0.4511000000 0.4802000000
1.5006000000 2.1046000000 2.3039000000
1.5006000000 6.1292000000 0.0759000000
1.5003000000 1.1522000000 1.2588000000
1.4999000000 1.2347000000 1.3388000000
1.4996000000 4.4736000000 1.8999000000
1.4995000000 0.7945000000 0.8603000000
1.4993000000 3.4154000000 2.9589000000
1.4993000000 0.3167000000 0.3283000000
1.4991000000 4.4193000000 1.9609000000
1.4986000000 1.1237000000 1.2275000000
1.4985000000 3.3623000000 2.9915000000
1.4980000000 0.4451000000 0.4769000000
1.4976000000 2.8666000000 3.0019000000
1.4975000000 1.3521000000 1.4758000000
1.4970000000 4.3652000000 2.0176000000
1.2621000000 1.2285000000 1.3338000000
1.2619000000 5.7972000000 0.4397000000
1.2601000000 4.5666000000 1.7997000000
1.2599000000 3.5776000000 2.6418000000
1.2592000000 4.4984000000 1.8726000000
1.2591000000 5.7168000000 0.5292000000
1.2590000000 2.4196000000 2.5208000000
1.2583000000 4.8608000000 1.4738000000
1.2579000000 3.1390000000 2.8640000000
1.2576000000 5.5958000000 0.6642000000
1.2572000000 2.9562000000 2.8194000000
1.2570000000 1.2474000000 1.3593000000
1.2570000000 3.0010000000 2.8399000000
1.2565000000 3.8727000000 2.4773000000
1.2563000000 3.9571000000 2.4103000000
1.2563000000 4.8455000000 1.4953000000
1.2561000000 2.5989000000 2.6190000000
1.2560000000 1.3620000000 1.4927000000
1.2559000000 4.5529000000 1.8158000000
1.2558000000 3.9709000000 2.4057000000
1.2557000000 3.4189000000 2.7255000000
1.2556000000 2.7260000000 2.6877000000
1.2556000000 1.5302000000 1.6715000000
1.2555000000 2.6120000000 2.6252000000
1.2553000000 2.1701000000 2.3635000000
1.2553000000 2.2596000000 2.4129000000
1.2550000000 6.0387000000 0.1715000000
1.2550000000 4.7414000000 1.6078000000
1.2549000000 5.6572000000 0.5922000000
1.2547000000 4.4908000000 1.8838000000
1.2546000000 1.3207000000 1.4438000000
1.2545000000 2.5693000000 2.6024000000
1.2544000000 5.4431000000 0.8352000000
1.2543000000 4.0699000000 2.3342000000
1.2543000000 4.0967000000 2.3008000000
1.2540000000 2.9043000000 2.7890000000
1.2538000000 2.3347000000 2.4665000000
1.2537000000 3.9974000000 2.3872000000
1.2538000000 6.0303000000 0.1823000000
1.2536000000 4.7348000000 1.6114000000
1.2536000000 3.5916000000 2.6244000000
1.2535000000 5.1721000000 1.1234000000
1.2532000000 6.0939000000 0.1123000000
1.2529000000 0.9711000000 1.0492000000
1.2528000000 2.9811000000 2.8320000000
1.2528000000 5.4014000000 0.8740000000
1.2527000000 4.2297000000 2.1789000000
1.2526000000 0.3101000000 0.3204000000
1.2523000000 1.4641000000 1.6029000000
1.2520000000 1.9224000000 2.1072000000
1.2519000000 0.5388000000 0.5756000000
1.2520000000 4.1627000000 2.2435000000
1.2518000000 5.3611000000 0.9209000000
1.2518000000 0.4662000000 0.4981000000
1.2517000000 1.4868000000 1.6254000000
1.2516000000 2.2502000000 2.4046000000
1.2515000000 5.3622000000 0.9174000000
1.2515000000 6.0734000000 0.1277000000
1.2513000000 3.2882000000 2.7964000000
1.2513000000 4.5439000000 1.8232000000
1.2512000000 2.4973000000 2.5576000000
1.2509000000 0.4863000000 0.5188000000
1.2508000000 2.4671000000 2.5437000000
1.2508000000 4.3861000000 1.9965000000
1.2507000000 1.4383000000 1.5679000000
1.2506000000 1.2357000000 1.3424000000
1.2504000000 5.9987000000 0.2180000000
1.2500000000 0.3906000000 0.4191000000
1.2498000000 1.1800000000 1.2889000000
1.2497000000 2.1314000000 2.3168000000
1.2496000000 4.7955000000 1.5450000000
1.2493000000 1.2690000000 1.3849000000
1.2492000000 4.7627000000 1.5744000000
1.2488000000 4.5363000000 1.8281000000
1.2487000000 0.2316000000 0.2365000000
1.2485000000 2.8675000000 2.7573000000
1.2483000000 5.4539000000 0.8172000000
1.2483000000 1.5562000000 1.7014000000
1.2480000000 1.9062000000 2.0930000000
1.2479000000 3.2560000000 2.8109000000
1.2477000000 2.0619000000 2.2505000000
1.2468000000 0.2196000000 0.2280000000
1.2465000000 2.3717000000 2.4829000000
1.2458000000 0.1567000000 0.1595000000
1.2453000000 1.6070000000 1.7604000000
1.2408000000 4.7939000000 1.5405000000
1.0120000000 5.0045000000 1.3153000000
1.0108000000 5.5434000000 0.7179000000
1.0106000000 4.6749000000 1.6760000000
1.0104000000 3.1511000000 2.6224000000
1.0090000000 3.6799000000 2.3427000000
1.0089000000 6.2201000000 0.0427000000
1.0084000000 0.8837000000 0.9590000000
1.0082000000 4.1346000000 2.0960000000
1.0074000000 2.9381000000 2.5700000000
1.0073000000 4.5042000000 1.8547000000
1.0071000000 5.1655000000 1.1317000000
1.0070000000 3.1253000000 2.6309000000
1.0070000000 5.6363000000 0.6203000000
1.0069000000 4.3513000000 1.9720000000
1.0066000000 2.0390000000 2.0708000000
1.0064000000 5.4806000000 0.7892000000
1.0064000000 2.6914000000 2.4313000000
1.0063000000 1.1144000000 1.2132000000
1.0060000000 5.4947000000 0.7756000000
1.0062000000 2.0447000000 2.0736000000
1.0059000000 2.8419000000 2.5128000000
1.0060000000 2.3373000000 2.2371000000
1.0057000000 4.4244000000 1.9148000000
1.0057000000 4.8918000000 1.4339000000
1.0053000000 4.4237000000 1.9157000000
1.0052000000 3.5315000000 2.4268000000
1.0050000000 4.5788000000 1.7801000000
1.0050000000 2.6859000000 2.4278000000
1.0049000000 3.7669000000 2.2945000000
1.0048000000 3.4782000000 2.4494000000
1.0046000000 0.7916000000 0.8606000000
1.0046000000 3.3497000000 2.5202000000
1.0045000000 5.5905000000 0.6633000000
1.0044000000 2.8912000000 2.5425000000
1.0043000000 0.4913000000 0.5251000000
1.0043000000 4.5327000000 1.8197000000
1.0042000000 2.7375000000 2.4477000000
1.0041000000 1.3429000000 1.4694000000
1.0040000000 2.5970000000 2.3804000000
1.0039000000 1.1294000000 1.2269000000
1.0038000000 4.7643000000 1.5824000000
1.0037000000 5.5646000000 0.6924000000
1.0035000000 1.1153000000 1.2132000000
1.0034000000 4.1282000000 2.0904000000
1.0034000000 3.3352000000 2.5308000000
1.0033000000 2.3903000000 2.2602000000
1.0030000000 4.3739000000 1.9494000000
1.0030000000 5.7226000000 0.5193000000
1.0030000000 4.0076000000 2.1596000000
1.0029000000 0.4853000000 0.5177000000
1.0028000000 3.1064000000 2.6373000000
1.0028000000 3.4694000000 2.4529000000
1.0025000000 4.2834000000 2.0091000000
1.0023000000 1.0086000000 1.1013000000
1.0022000000 2.3775000000 2.2602000000
1.0020000000 2.1674000000 2.1387000000
1.0020000000 3.1776000000 2.6165000000
1.0017000000 0.0224000000 0.0820000000
1.0015000000 4.3900000000 1.9248000000
1.0014000000 4.7332000000 1.6178000000
1.0012000000 1.6096000000 1.7625000000
1.0011000000 3.2894000000 2.5509000000
1.0008000000 0.6754000000 0.7316000000
1.0006000000 2.0522000000 2.0758000000
1.0006000000 2.7065000000 2.4340000000
1.0005000000 2.2118000000 2.1601000000
1.0003000000 5.1363000000 1.1695000000
1.0002000000 0.8937000000 0.9709000000
1.0002000000 6.1165000000 0.0859000000
1.0001000000 0.6996000000 0.7605000000
0.9999000000 0.0784000000 0.0694000000
0.9997000000 4.3597000000 1.9626000000
0.9995000000 6.1638000000 0.1002000000
0.9989000000 4.9842000000 1.3378000000
0.9988000000 5.0533000000 1.2599000000
0.9986000000 1.7047000000 1.8474000000
0.9986000000 0.3814000000 0.4084000000
0.9985000000 0.9143000000 0.9935000000
0.9979000000 3.6647000000 2.3437000000
0.9978000000 0.3975000000 0.4178000000
0.9977000000 1.6387000000 1.7778000000
0.9974000000 2.8286000000 2.4983000000
0.9969000000 0.5024000000 0.5398000000
0.9966000000 2.2328000000 2.1707000000
0.9962000000 5.1975000000 1.0969000000
0.7624000000 3.9690000000 1.9513000000
0.7620000000 6.1451000000 0.0534000000
0.7618000000 5.6010000000 0.6588000000
0.7601000000 0.2910000000 0.3062000000
0.7593000000 6.0836000000 0.1186000000
0.7583000000 5.3008000000 0.9813000000
0.7582000000 4.7368000000 1.5182000000
0.7580000000 4.0376000000 1.9077000000
0.7576000000 2.2161000000 1.9331000000
0.7575000000 4.0983000000 1.8705000000
0.7568000000 1.7528000000 1.6727000000
0.7568000000 4.8403000000 1.4454000000
0.7567000000 0.4766000000 0.5070000000
0.7567000000 5.7590000000 0.4817000000
0.7565000000 4.1705000000 1.8304000000
0.7564000000 5.0786000000 1.2354000000
0.7563000000 3.1851000000 2.3785000000
0.7560000000 4.8708000000 1.4268000000
0.7559000000 3.3771000000 2.2723000000
0.7558000000 1.7795000000 1.6830000000
0.7557000000 3.2555000000 2.3379000000
0.7558000000 0.5020000000 0.5411000000
0.7556000000 2.4432000000 2.0517000000
0.7555000000 2.3608000000 2.0089000000
0.7555000000 4.9889000000 1.3123000000
0.7554000000 3.4136000000 2.2530000000
0.7553000000 3.7539000000 2.0634000000
0.7552000000 6.1263000000 0.0722000000
0.7551000000 5.2346000000 1.0644000000
0.7551000000 0.9575000000 1.0417000000
0.7550000000 4.6876000000 1.5452000000
0.7548000000 5.8394000000 0.3910000000
0.7544000000 0.3668000000 0.3841000000
0.7544000000 4.6476000000 1.5709000000
0.7543000000 4.1839000000 1.8212000000
0.7543000000 0.4978000000 0.5288000000
0.7541000000 0.6792000000 0.7383000000
0.7540000000 2.7638000000 2.2319000000
0.7540000000 3.9886000000 1.9317000000
0.7537000000 0.9635000000 1.0458000000
0.7536000000 3.1709000000 2.3809000000
0.7535000000 3.2285000000 2.3514000000
0.7535000000 5.9484000000 0.2697000000
0.7533000000 4.7619000000 1.4994000000
0.7533000000 0.8032000000 0.8707000000
0.7532000000 4.5608000000 1.6220000000
0.7528000000 0.2012000000 0.2091000000
0.7527000000 0.5507000000 0.5926000000
0.7527000000 5.7853000000 0.4466000000
0.7525000000 0.0271000000 0.0869000000
0.7525000000 4.2689000000 1.7696000000
0.7524000000 3.0769000000 2.3844000000
0.7523000000 5.0986000000 1.2114000000
0.7522000000 2.5418000000 2.1119000000
0.7520000000 1.0438000000 1.1391000000
0.7518000000 0.4022000000 0.4351000000
0.7517000000 4.9248000000 1.3850000000
0.7515000000 1.9924000000 1.8020000000
0.7515000000 5.0777000000 1.2394000000
0.7512000000 4.8688000000 1.4289000000
0.7511000000 0.1779000000 0.1745000000
0.7510000000 3.0534000000 2.3758000000
0.7510000000 3.7363000000 2.0625000000
0.7508000000 3.0042000000 2.3572000000
0.7508000000 6.0157000000 0.2001000000
0.7507000000 3.9487000000 1.9524000000
0.7505000000 6.0198000000 0.1889000000
0.7505000000 0.9875000000 1.0767000000
0.7500000000 4.9388000000 1.3705000000
0.7498000000 5.2435000000 1.0508000000
0.7496000000 0.2473000000 0.2545000000
0.7495000000 2.2929000000 1.9649000000
0.7490000000 3.0645000000 2.3735000000
0.7485000000 0.2434000000 0.2511000000
0.7484000000 1.6579000000 1.6197000000
0.7483000000 2.8156000000 2.2535000000
0.7482000000 1.3967000000 1.4555000000
0.7481000000 0.1213000000 0.1164000000
0.7480000000 0.6105000000 0.6569000000
0.7479000000 3.5927000000 2.1471000000
0.7473000000 2.1772000000 1.8968000000
0.7454000000 3.0136000000 2.3606000000
0.7452000000 1.7682000000 1.6720000000
0.5121000000 3.5317000000 1.9497000000
0.5112000000 3.0959000000 2.1629000000
0.5110000000 5.5089000000 0.7554000000
0.5102000000 4.2679000000 1.5413000000
0.5096000000 1.4467000000 1.2638000000
0.5085000000 2.9358000000 2.0905000000
0.5085000000 1.0067000000 1.0206000000
0.5084000000 4.7578000000 1.2740000000
0.5082000000 1.8204000000 1.4709000000
0.5078000000 1.0520000000 1.0504000000
0.5077000000 3.6681000000 1.8795000000
0.5076000000 5.0207000000 1.1224000000
0.5075000000 5.8820000000 0.3423000000
0.5075000000 5.9592000000 0.2581000000
0.5073000000 4.5881000000 1.3588000000
0.5072000000 0.2411000000 0.2458000000
0.5071000000 2.7493000000 1.9880000000
0.5071000000 5.8016000000 0.4305000000
0.5067000000 4.3092000000 1.5251000000
0.5067000000 5.5042000000 0.7648000000
0.5065000000 4.9691000000 1.1500000000
0.5066000000 4.0127000000 1.6829000000
0.5064000000 2.3822000000 1.7852000000
0.5064000000 3.4246000000 2.0125000000
0.5060000000 0.1777000000 0.1799000000
0.5056000000 3.8673000000 1.7592000000
0.5054000000 3.8898000000 1.7471000000
0.5053000000 5.3131000000 0.9456000000
0.5053000000 2.6341000000 1.9156000000
0.5052000000 2.7684000000 1.9914000000
0.5052000000 5.5247000000 0.7390000000
0.5051000000 5.2138000000 1.0144000000
0.5051000000 4.9430000000 1.1662000000
0.5049000000 1.4634000000 1.2749000000
0.5047000000 2.4071000000 1.8007000000
0.5047000000 1.3255000000 1.2030000000
0.5046000000 4.2478000000 1.5521000000
0.5045000000 4.7560000000 1.2697000000
0.5043000000 0.8419000000 0.8921000000
0.5043000000 2.3365000000 1.7600000000
0.5042000000 0.8646000000 0.9173000000
0.5043000000 5.0960000000 1.0799000000
0.5042000000 3.9759000000 1.7005000000
0.5041000000 0.1947000000 0.1950000000
0.5038000000 3.7487000000 1.8170000000
0.5038000000 4.4372000000 1.4439000000
0.5037000000 5.6416000000 0.6148000000
0.5036000000 6.0512000000 0.1561000000
0.5035000000 2.6245000000 1.9149000000
0.5034000000 2.3427000000 1.7606000000
0.5034000000 3.0428000000 2.1449000000
0.5030000000 6.1141000000 0.0888000000
0.5030000000 1.8722000000 1.5008000000
0.5028000000 0.1414000000 0.1348000000
0.5028000000 2.3132000000 1.7387000000
0.5027000000 2.0805000000 1.6092000000
0.5026000000 1.9633000000 1.5458000000
0.5024000000 4.2823000000 1.5284000000
0.5023000000 1.6835000000 1.3910000000
0.5023000000 3.8872000000 1.7495000000
0.5022000000 0.9572000000 0.9704000000
0.5020000000 3.4370000000 1.9911000000
0.5019000000 1.0431000000 1.0407000000
0.5019000000 5.0482000000 1.1089000000
0.5018000000 4.6708000000 1.3094000000
0.5015000000 3.7455000000 1.8211000000
0.5015000000 5.0788000000 1.0911000000
0.5015000000 4.1743000000 1.5832000000
0.5013000000 4.8811000000 1.1986000000
0.5010000000 2.6782000000 1.9428000000
0.5009000000 1.3691000000 1.2198000000
0.5008000000 4.5833000000 1.3614000000
0.5008000000 2.9167000000 2.0736000000
0.5007000000 2.3652000000 1.7696000000
0.5006000000 1.2109000000 1.1277000000
0.5005000000 2.5892000000 1.8915000000
0.5002000000 4.7722000000 1.2567000000
0.5000000000 0.5351000000 0.5744000000
0.4999000000 1.3813000000 1.2235000000
0.4998000000 1.5716000000 1.3229000000
0.4993000000 0.4816000000 0.5158000000
0.4991000000 2.6520000000 1.9268000000
0.4991000000 0.0753000000 0.0703000000
0.4988000000 2.3448000000 1.7550000000
0.4982000000 1.1521000000 1.0886000000
0.4981000000 0.5493000000 0.5942000000
0.4977000000 4.3697000000 1.4803000000
0.4970000000 1.5792000000 1.3290000000
0.4966000000 4.5951000000 1.3511000000
0.4953000000 5.8598000000 0.3704000000
0.4940000000 1.7027000000 1.3998000000
0.2653000000 4.2331000000 1.3326000000
0.2623000000 5.0893000000 0.8555000000
0.2609000000 4.1726000000 1.3579000000
0.2598000000 2.9425000000 1.8502000000
0.2588000000 0.0472000000 0.1107000000
0.2589000000 6.0873000000 0.1175000000
0.2584000000 4.8665000000 0.9699000000
0.2584000000 1.9391000000 1.3017000000
0.2580000000 5.9150000000 0.3099000000
0.2579000000 3.5228000000 1.7101000000
0.2577000000 1.4806000000 1.0463000000
0.2575000000 3.9576000000 1.4690000000
0.2576000000 4.9473000000 0.9308000000
0.2573000000 0.5176000000 0.4991000000
0.2571000000 1.4098000000 1.0039000000
0.2570000000 5.7534000000 0.4663000000
0.2570000000 3.0948000000 1.9126000000
0.2569000000 0.4737000000 0.4729000000
0.2568000000 3.9494000000 1.4812000000
0.2566000000 2.9377000000 1.8515000000
0.2565000000 2.5794000000 1.6549000000
0.2564000000 3.7136000000 1.6037000000
0.2563000000 0.0251000000 0.0847000000
0.2560000000 4.7656000000 1.0280000000
0.2560000000 2.5702000000 1.6448000000
0.2558000000 1.0227000000 0.7849000000
0.2558000000 0.4449000000 0.4505000000
0.2557000000 5.1968000000 0.7869000000
0.2556000000 0.1093000000 0.1005000000
0.2553000000 5.9890000000 0.2299000000
0.2553000000 3.6107000000 1.6619000000
0.2552000000 4.5203000000 1.1622000000
0.2551000000 0.8426000000 0.6941000000
0.2550000000 5.2863000000 0.7390000000
0.2549000000 6.1207000000 0.0801000000
0.2548000000 1.2626000000 0.9170000000
0.2548000000 4.0152000000 1.4328000000
0.2547000000 4.5338000000 1.1526000000
0.2546000000 0.8738000000 0.7098000000
0.2544000000 4.8667000000 0.9694000000
0.2545000000 2.1648000000 1.4172000000
0.2543000000 0.1476000000 0.1498000000
0.2542000000 5.5442000000 0.5936000000
0.2541000000 3.5702000000 1.6869000000
0.2542000000 5.5792000000 0.5742000000
0.2539000000 0.8786000000 0.7074000000
0.2539000000 0.7499000000 0.6404000000
0.2538000000 2.1688000000 1.4233000000
0.2537000000 4.2451000000 1.3131000000
0.2537000000 2.6008000000 1.6610000000
0.2536000000 4.6691000000 1.0815000000
0.2533000000 1.1567000000 0.8626000000
0.2531000000 6.1041000000 0.1015000000
0.2531000000 4.6869000000 1.0703000000
0.2530000000 5.2265000000 0.7692000000
0.2530000000 3.7906000000 1.5594000000
0.2529000000 2.6933000000 1.7126000000
0.2528000000 1.8595000000 1.2534000000
0.2528000000 1.5251000000 1.0643000000
0.2527000000 5.6614000000 0.5210000000
0.2526000000 1.9717000000 1.3101000000
0.2526000000 1.0366000000 0.7992000000
0.2525000000 0.6331000000 0.5765000000
0.2525000000 2.4713000000 1.5859000000
0.2524000000 2.0139000000 1.3391000000
0.2524000000 4.1898000000 1.3395000000
0.2523000000 2.4066000000 1.5475000000
0.2522000000 0.0980000000 0.0914000000
0.2520000000 1.4712000000 1.0381000000
0.2520000000 0.4659000000 0.4704000000
0.2519000000 5.8042000000 0.4166000000
0.2518000000 4.2821000000 1.2847000000
0.2517000000 0.6430000000 0.5801000000
0.2516000000 2.6210000000 1.6718000000
0.2510000000 3.1210000000 1.9132000000
0.2509000000 3.3365000000 1.8089000000
0.2509000000 1.5259000000 1.0667000000
0.2506000000 5.7532000000 0.4544000000
0.2504000000 1.5178000000 1.0620000000
0.2504000000 1.2364000000 0.9042000000
0.2501000000 5.0786000000 0.8480000000
0.2500000000 5.4341000000 0.6486000000
0.2500000000 1.0406000000 0.8006000000
0.2497000000 0.2937000000 0.3076000000
0.2496000000 4.8171000000 0.9974000000
0.2496000000 1.7989000000 1.2158000000
0.2493000000 3.1417000000 1.8971000000
0.2491000000 3.6737000000 1.6265000000
0.2490000000 4.9136000000 0.9375000000
0.2490000000 1.4440000000 1.0202000000
0.2489000000 1.7930000000 1.2156000000
0.2485000000 1.0767000000 0.8119000000
0.2485000000 3.0516000000 1.9000000000
0.2484000000 1.4950000000 1.0488000000
0.2483000000 2.1122000000 1.3839000000
0.2480000000 2.1978000000 1.4357000000
0.2479000000 2.5750000000 1.6450000000
0.2478000000 2.5360000000 1.6185000000
0.2478000000 3.2961000000 1.8309000000
0.2474000000 1.3407000000 0.9552000000
0.2471000000 1.6799000000 1.1444000000
0.2470000000 1.1461000000 0.8530000000
0.2459000000 0.7874000000 0.6544000000
0.2456000000 2.2166000000 1.4383000000
0.2444000000 3.2498000000 1.8530000000
0.0138000000 5.6963000000 0.2795000000
0.0116000000 4.6405000000 0.8634000000
0.0115000000 3.6171000000 1.4288000000
0.0110000000 0.6071000000 0.3327000000
0.0108000000 2.0592000000 1.1295000000
0.0100000000 3.4824000000 1.4984000000
0.0096000000 6.1893000000 0.0635000000
0.0085000000 3.1612000000 1.6670000000
0.0085000000 4.7422000000 0.7994000000
0.0083000000 2.9644000000 1.6266000000
0.0078000000 1.9562000000 1.0718000000
0.0078000000 5.4258000000 0.4264000000
0.0077000000 3.8951000000 1.2662000000
0.0075000000 3.3339000000 1.5740000000
0.0074000000 3.3320000000 1.5728000000
0.0071000000 4.2343000000 1.0804000000
0.0070000000 0.7403000000 0.3957000000
0.0069000000 3.8341000000 1.3036000000
0.0068000000 1.6191000000 0.8861000000
0.0067000000 5.0057000000 0.6596000000
0.0065000000 5.7504000000 0.2439000000
0.0063000000 4.1302000000 1.1380000000
0.0062000000 5.8072000000 0.2147000000
0.0061000000 0.9677000000 0.5242000000
0.0060000000 2.2946000000 1.2588000000
0.0059000000 0.3681000000 0.1901000000
0.0058000000 4.0514000000 1.1820000000
0.0059000000 2.4895000000 1.3648000000
0.0058000000 2.3372000000 1.2745000000
0.0057000000 5.1037000000 0.6004000000
0.0056000000 2.2630000000 1.2435000000
0.0055000000 0.6093000000 0.3278000000
0.0055000000 3.8162000000 1.3117000000
0.0054000000 3.1657000000 1.6685000000
0.0053000000 3.3777000000 1.5506000000
0.0053000000 3.0020000000 1.6536000000
0.0052000000 4.5983000000 0.8814000000
0.0050000000 4.2288000000 1.0822000000
0.0049000000 0.4468000000 0.2325000000
0.0046000000 5.3347000000 0.4747000000
0.0044000000 2.4631000000 1.3463000000
0.0044000000 4.5338000000 0.9131000000
0.0042000000 4.7320000000 0.8036000000
0.0042000000 0.6655000000 0.3527000000
0.0040000000 4.1082000000 1.1472000000
0.0040000000 2.5235000000 1.3816000000
0.0036000000 3.1988000000 1.6505000000
0.0036000000 1.9157000000 1.0458000000
0.0034000000 0.3509000000 0.1834000000
0.0032000000 3.7932000000 1.3262000000
0.0030000000 1.6868000000 0.9140000000
0.0029000000 0.3902000000 0.2087000000
0.0030000000 0.3579000000 0.1829000000
0.0029000000 0.9809000000 0.5192000000
0.0028000000 3.3517000000 1.5618000000
0.0028000000 1.4963000000 0.8117000000
0.0028000000 0.3595000000 0.1868000000
0.0025000000 3.6908000000 1.3736000000
0.0024000000 1.9482000000 1.0626000000
