5.7620000000 3.0104000000 0.0607000000
5.7600000000 2.9297000000 0.0334000000
5.7579000000 3.5067000000 0.1329000000
5.7563000000 3.6364000000 0.0855000000
5.7551000000 2.9571000000 0.0465000000
5.7534000000 3.2017000000 0.0649000000
5.7531000000 3.6091000000 0.0912000000
5.7514000000 3.1864000000 0.0628000000
5.7485000000 3.0238000000 0.0785000000
5.5093000000 3.9139000000 0.1390000000
5.5089000000 3.4426000000 0.3363000000
5.5079000000 2.7430000000 0.0555000000
5.5060000000 3.0136000000 0.1701000000
5.5056000000 3.2231000000 0.2572000000
5.5045000000 3.7724000000 0.1329000000
5.5030000000 2.9860000000 0.1579000000
5.5024000000 3.0465000000 0.1803000000
5.5015000000 2.5830000000 0.0732000000
5.5010000000 3.2816000000 0.2814000000
5.5003000000 2.7457000000 0.0657000000
5.4979000000 3.3835000000 0.3247000000
5.2629000000 3.7388000000 0.3983000000
5.2595000000 4.0415000000 0.2744000000
5.2583000000 2.9771000000 0.3317000000
5.2573000000 3.5299000000 0.4891000000
5.2569000000 4.1876000000 0.2176000000
5.2565000000 4.1953000000 0.2087000000
5.2558000000 3.5005000000 0.5009000000
5.2553000000 2.7757000000 0.2536000000
5.2551000000 3.9701000000 0.3054000000
5.2548000000 2.0219000000 0.0177000000
5.2539000000 4.8176000000 0.0274000000
5.2537000000 3.8293000000 0.3641000000
5.2535000000 4.7036000000 0.0054000000
5.2530000000 3.1812000000 0.4222000000
5.2517000000 3.3873000000 0.5025000000
5.2508000000 3.9720000000 0.2359000000
5.2502000000 2.1469000000 0.0722000000
5.2499000000 3.0590000000 0.3723000000
5.2489000000 2.1050000000 0.0472000000
5.0136000000 4.4613000000 0.2717000000
5.0115000000 4.3200000000 0.2539000000
5.0105000000 3.2106000000 0.6132000000
5.0089000000 3.9333000000 0.4991000000
5.0086000000 1.9527000000 0.0872000000
5.0081000000 4.1663000000 0.3310000000
5.0072000000 2.7145000000 0.4084000000
5.0066000000 2.2894000000 0.2247000000
5.0060000000 4.6742000000 0.1925000000
5.0058000000 2.0203000000 0.1195000000
5.0054000000 5.2023000000 0.0537000000
5.0049000000 5.1030000000 0.0132000000
5.0043000000 1.9233000000 0.0812000000
5.0040000000 4.9561000000 0.0775000000
5.0037000000 1.8241000000 0.0375000000
5.0030000000 2.6873000000 0.3977000000
5.0026000000 4.1184000000 0.4220000000
5.0023000000 2.9017000000 0.4871000000
5.0020000000 2.2023000000 0.1978000000
5.0016000000 4.3640000000 0.2503000000
5.0006000000 1.7072000000 0.0709000000
5.0002000000 3.4431000000 0.6940000000
4.7657000000 3.5769000000 0.8251000000
4.7639000000 4.7719000000 0.2430000000
4.7612000000 4.4096000000 0.4804000000
4.7605000000 5.1697000000 0.1615000000
4.7591000000 3.0039000000 0.7008000000
4.7589000000 2.6337000000 0.5471000000
4.7587000000 3.3384000000 0.8370000000
4.7585000000 5.1798000000 0.1619000000
4.7581000000 3.7507000000 0.7546000000
4.7579000000 2.6102000000 0.5387000000
4.7575000000 4.1630000000 0.5079000000
4.7570000000 2.0196000000 0.2992000000
4.7568000000 2.7869000000 0.6147000000
4.7566000000 1.8996000000 0.2436000000
4.7564000000 5.2769000000 0.1208000000
4.7562000000 2.7629000000 0.6070000000
4.7560000000 2.6562000000 0.5627000000
4.7557000000 4.6272000000 0.3146000000
4.7555000000 3.7953000000 0.7395000000
4.7553000000 2.3970000000 0.4565000000
4.7548000000 3.9451000000 0.6779000000
4.7546000000 2.6516000000 0.5640000000
4.7545000000 5.4657000000 0.0464000000
4.7540000000 5.3991000000 0.0622000000
4.7539000000 3.2479000000 0.8054000000
4.7535000000 4.4386000000 0.4672000000
4.7531000000 2.9686000000 0.6946000000
4.7527000000 1.3022000000 -0.0014000000
4.7523000000 1.2813000000 0.0647000000
4.7520000000 5.2721000000 0.1243000000
4.7517000000 3.3456000000 0.8548000000
4.7515000000 3.5409000000 0.8457000000
4.7512000000 4.3426000000 0.5148000000
4.7510000000 1.2095000000 0.0356000000
4.7506000000 3.5397000000 0.7717000000
4.7504000000 2.4216000000 0.4686000000
4.7501000000 3.7580000000 0.7584000000
4.7496000000 2.8036000000 0.6277000000
4.7494000000 2.8250000000 0.6320000000
4.7491000000 2.4597000000 0.4876000000
4.7481000000 1.6941000000 0.1689000000
4.7474000000 1.4852000000 0.0821000000
4.7468000000 4.2906000000 0.5385000000
4.7457000000 2.4660000000 0.4858000000
4.5121000000 5.6588000000 0.1398000000
4.5110000000 2.4447000000 0.6481000000
4.5109000000 3.9714000000 0.7662000000
4.5107000000 4.1246000000 0.7771000000
4.5094000000 4.7819000000 0.5035000000
4.5088000000 6.0902000000 0.0346000000
4.5081000000 2.1189000000 0.5143000000
4.5080000000 5.2764000000 0.2213000000
4.5079000000 5.6620000000 0.1396000000
4.5078000000 4.5313000000 0.6096000000
4.5075000000 6.0304000000 0.0670000000
4.5071000000 5.3826000000 0.2605000000
4.5068000000 4.0032000000 0.8312000000
4.5064000000 5.5897000000 0.1668000000
4.5062000000 6.0926000000 0.0394000000
4.5059000000 5.6291000000 0.1607000000
4.5058000000 2.9224000000 0.8493000000
4.5055000000 1.2008000000 0.1374000000
4.5053000000 4.3286000000 0.6243000000
4.5050000000 4.8029000000 0.4991000000
4.5048000000 4.2595000000 0.7247000000
4.5046000000 2.8524000000 0.8271000000
4.5045000000 2.6004000000 0.7204000000
4.5044000000 5.2586000000 0.3085000000
4.5041000000 1.4923000000 0.2554000000
4.5039000000 4.7553000000 0.5222000000
4.5038000000 2.4643000000 0.6638000000
4.5033000000 5.1843000000 0.3436000000
4.5030000000 4.3642000000 0.6781000000
4.5028000000 1.1231000000 0.1074000000
4.5026000000 5.1144000000 0.3726000000
4.5025000000 1.8642000000 0.4086000000
4.5023000000 4.3012000000 0.7093000000
4.5018000000 1.7013000000 0.3496000000
4.5017000000 2.3229000000 0.6068000000
4.5009000000 0.7572000000 0.0272000000
4.5007000000 2.0838000000 0.5023000000
4.5004000000 3.3819000000 1.0460000000
4.5003000000 1.2357000000 0.1540000000
4.5001000000 2.8320000000 0.8163000000
4.4998000000 0.9222000000 0.0267000000
4.4996000000 5.7316000000 0.1167000000
4.4994000000 3.8007000000 0.9214000000
4.4990000000 4.8373000000 0.4977000000
4.4987000000 1.6710000000 0.3362000000
4.2617000000 0.7476000000 0.1207000000
4.2605000000 4.0053000000 1.0108000000
4.2600000000 5.8287000000 0.1757000000
4.2598000000 1.4283000000 0.4098000000
4.2593000000 6.4567000000 0.0686000000
4.2591000000 4.3022000000 0.8815000000
4.2586000000 5.8146000000 0.1779000000
4.2576000000 4.6195000000 0.7545000000
4.2574000000 3.2458000000 1.1665000000
4.2571000000 0.9638000000 0.2136000000
4.2568000000 2.5895000000 0.8937000000
4.2563000000 0.9996000000 0.2329000000
4.2562000000 2.0290000000 0.6628000000
4.2561000000 1.0152000000 0.2417000000
4.2559000000 4.4904000000 0.8088000000
4.2558000000 2.4774000000 0.8486000000
4.2555000000 1.3238000000 0.3640000000
4.2553000000 5.2771000000 0.4093000000
4.2552000000 1.5618000000 0.4637000000
4.2549000000 3.3402000000 1.2086000000
4.2546000000 3.2083000000 1.1525000000
4.2544000000 4.0780000000 0.9077000000
4.2543000000 4.2746000000 0.8989000000
4.2539000000 1.6130000000 0.4900000000
4.2536000000 2.3054000000 0.7783000000
4.2534000000 2.6366000000 0.9143000000
4.2533000000 4.3687000000 0.8631000000
4.2531000000 4.8918000000 0.6403000000
4.2528000000 4.5388000000 0.7910000000
4.2527000000 2.0779000000 0.6806000000
4.2525000000 3.4738000000 1.2183000000
4.2523000000 1.3453000000 0.3802000000
4.2521000000 0.9853000000 0.2263000000
4.2517000000 3.0293000000 1.0748000000
4.2516000000 2.7272000000 0.9496000000
4.2514000000 3.4115000000 1.2197000000
4.2513000000 3.7441000000 1.1221000000
4.2512000000 0.8490000000 0.1750000000
4.2506000000 1.0335000000 0.2564000000
4.2503000000 2.4033000000 0.8207000000
4.2501000000 4.4566000000 0.8217000000
4.2496000000 0.4887000000 0.0270000000
4.0169000000 5.6158000000 0.4365000000
4.0121000000 6.8482000000 0.0684000000
4.0104000000 5.4822000000 0.5702000000
4.0097000000 5.6078000000 0.4448000000
4.0089000000 4.0165000000 1.1832000000
4.0085000000 4.8420000000 0.8426000000
4.0081000000 2.0618000000 0.8559000000
4.0079000000 1.3225000000 0.5491000000
4.0076000000 6.3983000000 0.1953000000
4.0074000000 6.0115000000 0.2775000000
4.0071000000 0.0703000000 0.0217000000
4.0068000000 4.9596000000 0.7970000000
4.0064000000 6.9002000000 0.0454000000
4.0063000000 2.9775000000 1.2357000000
4.0061000000 6.8199000000 0.0222000000
4.0058000000 3.5319000000 1.3838000000
4.0057000000 0.0415000000 0.0098000000
4.0055000000 2.2828000000 0.9502000000
4.0052000000 5.2725000000 0.5885000000
4.0051000000 3.0354000000 1.2622000000
4.0049000000 6.4420000000 0.1074000000
4.0042000000 2.8537000000 1.1840000000
4.0041000000 3.5248000000 1.3901000000
4.0039000000 4.2474000000 1.0940000000
4.0035000000 1.3457000000 0.5623000000
4.0034000000 5.8360000000 0.4294000000
4.0033000000 2.1693000000 0.8973000000
4.0031000000 3.3297000000 1.3886000000
4.0030000000 2.0637000000 0.8539000000
4.0027000000 4.4566000000 0.9979000000
4.0024000000 4.3235000000 1.0598000000
4.0023000000 3.3797000000 1.3985000000
4.0021000000 4.5116000000 0.9799000000
4.0019000000 6.7525000000 0.0533000000
4.0017000000 0.3001000000 0.1304000000
4.0015000000 4.1835000000 1.1157000000
4.0013000000 6.6548000000 0.0975000000
4.0010000000 0.5150000000 0.2095000000
4.0001000000 2.2586000000 0.9390000000
3.9999000000 0.3099000000 0.1316000000
3.9996000000 2.0552000000 0.8607000000
3.9992000000 1.1487000000 0.4775000000
3.9987000000 3.2037000000 1.3341000000
3.9983000000 3.0818000000 1.2825000000
3.9975000000 3.6690000000 1.2618000000
3.7642000000 4.5289000000 1.1484000000
3.7626000000 3.5541000000 1.5524000000
3.7620000000 6.2398000000 0.4382000000
3.7615000000 4.1821000000 1.2195000000
3.7594000000 2.0289000000 1.0130000000
3.7593000000 5.4439000000 0.7675000000
3.7589000000 6.0774000000 0.5025000000
3.7587000000 1.2375000000 0.6923000000
3.7586000000 3.7465000000 1.4771000000
3.7582000000 2.8496000000 1.3575000000
3.7576000000 1.7156000000 0.8837000000
3.7573000000 2.0399000000 1.0211000000
3.7568000000 4.6220000000 1.1154000000
3.7564000000 6.5009000000 0.3261000000
3.7560000000 4.8092000000 1.0352000000
3.7560000000 5.9139000000 0.5782000000
3.7558000000 2.8251000000 1.3532000000
3.7555000000 5.7343000000 0.5803000000
3.7552000000 5.7182000000 0.5803000000
3.7550000000 5.4835000000 0.7611000000
3.7546000000 1.6628000000 0.8714000000
3.7544000000 6.2958000000 0.4174000000
3.7540000000 4.2234000000 1.2806000000
3.7541000000 6.4365000000 0.3466000000
3.7538000000 1.2455000000 0.6949000000
3.7538000000 1.2888000000 0.7115000000
3.7536000000 3.2138000000 1.5147000000
3.7535000000 2.7806000000 1.3369000000
3.7532000000 2.9528000000 1.4094000000
3.7530000000 1.7029000000 0.8831000000
3.7529000000 2.5922000000 1.2605000000
3.7526000000 0.3397000000 0.2924000000
3.7523000000 6.4980000000 0.3243000000
3.7522000000 0.5398000000 0.4036000000
3.7520000000 4.6151000000 1.1218000000
3.7517000000 4.5438000000 1.0692000000
3.7514000000 0.0001000000 0.0248000000
3.7515000000 0.9289000000 0.5719000000
3.7513000000 0.6031000000 0.4292000000
3.7512000000 1.3037000000 0.7225000000
3.7507000000 3.2787000000 1.5413000000
3.7506000000 1.0046000000 0.6032000000
3.7504000000 5.3589000000 0.8138000000
3.7501000000 2.7862000000 1.3390000000
3.7500000000 1.2539000000 0.6967000000
3.7495000000 1.6939000000 0.8884000000
3.7488000000 3.6424000000 1.4515000000
3.7483000000 2.9599000000 1.4181000000
3.7479000000 2.4062000000 1.1791000000
3.7476000000 4.4263000000 1.2022000000
3.7469000000 1.2619000000 0.7089000000
3.5149000000 3.8090000000 1.5504000000
3.5127000000 5.7002000000 0.8381000000
3.5111000000 5.4405000000 0.9570000000
3.5107000000 5.2425000000 1.0352000000
3.5105000000 2.5906000000 1.4289000000
3.5095000000 2.1913000000 1.2607000000
3.5092000000 1.8407000000 1.1160000000
3.5090000000 0.2040000000 0.1956000000
3.5087000000 6.3077000000 0.4236000000
3.5084000000 4.4659000000 1.3596000000
3.5083000000 6.1025000000 0.6551000000
3.5081000000 3.8528000000 1.6105000000
3.5076000000 4.7039000000 1.2618000000
3.5073000000 6.3824000000 0.3618000000
3.5071000000 3.7028000000 1.6754000000
3.5068000000 6.1507000000 0.6135000000
3.5063000000 3.9889000000 1.5538000000
3.5061000000 6.2790000000 0.4494000000
3.5059000000 0.8976000000 0.7211000000
3.5058000000 4.5745000000 1.3097000000
3.5055000000 3.8251000000 1.6280000000
3.5054000000 1.9997000000 1.1872000000
3.5053000000 1.7731000000 1.0920000000
3.5050000000 2.2387000000 1.2907000000
3.5045000000 3.4565000000 1.7714000000
3.5044000000 4.1428000000 1.4969000000
3.5042000000 6.8725000000 0.0318000000
3.5040000000 2.1854000000 1.2688000000
3.5039000000 4.1402000000 1.4973000000
3.5035000000 2.9944000000 1.6023000000
3.5034000000 4.7518000000 1.2416000000
3.5032000000 1.9546000000 1.1720000000
3.5031000000 5.5598000000 0.9150000000
3.5030000000 3.0877000000 1.6430000000
3.5027000000 2.9340000000 1.5802000000
3.5025000000 5.0635000000 1.1138000000
3.5024000000 3.6888000000 1.6859000000
3.5023000000 1.6279000000 1.0392000000
3.5021000000 0.2227000000 0.2121000000
3.5017000000 4.2384000000 1.4643000000
3.5015000000 2.9609000000 1.5903000000
3.5014000000 2.1767000000 1.2683000000
3.5010000000 4.8919000000 1.1857000000
3.5004000000 0.6399000000 0.5561000000
3.5002000000 1.1102000000 0.8251000000
3.4998000000 3.1858000000 1.6854000000
3.4993000000 0.3677000000 0.3308000000
3.4989000000 2.0604000000 1.2245000000
3.4980000000 1.1406000000 0.8395000000
3.4977000000 3.8529000000 1.6199000000
3.4963000000 1.1752000000 0.8558000000
3.2622000000 5.2440000000 1.2105000000
3.2607000000 3.9586000000 1.7410000000
3.2604000000 6.4956000000 0.2652000000
3.2592000000 3.3974000000 1.9388000000
3.2589000000 3.3537000000 1.9265000000
3.2584000000 6.2836000000 0.4388000000
3.2583000000 2.4348000000 1.5498000000
3.2577000000 1.6448000000 1.2246000000
3.2575000000 5.2577000000 1.2107000000
3.2572000000 5.5411000000 1.0837000000
3.2571000000 3.7296000000 1.8381000000
3.2570000000 4.0839000000 1.7001000000
3.2566000000 6.1372000000 0.5649000000
3.2562000000 1.8099000000 1.2883000000
3.2560000000 6.2827000000 0.4424000000
3.2558000000 5.7712000000 0.8679000000
3.2557000000 2.7584000000 1.6902000000
3.2554000000 6.5302000000 0.2312000000
3.2550000000 4.0446000000 1.6374000000
3.2547000000 2.2637000000 1.4828000000
3.2545000000 0.2288000000 0.2170000000
3.2543000000 3.0709000000 1.8136000000
3.2541000000 5.7428000000 0.9653000000
3.2539000000 6.6458000000 0.1426000000
3.2538000000 3.6717000000 1.8788000000
3.2536000000 5.9026000000 0.7599000000
3.2534000000 4.6138000000 1.4848000000
3.2533000000 1.8504000000 1.3099000000
3.2531000000 2.8933000000 1.7439000000
3.2527000000 4.1513000000 1.6731000000
3.2524000000 3.5592000000 1.9142000000
3.2523000000 2.6566000000 1.6469000000
3.2520000000 4.5733000000 1.4991000000
3.2515000000 4.8651000000 1.3775000000
3.2515000000 1.0616000000 0.9133000000
3.2513000000 4.8035000000 1.4012000000
3.2512000000 0.6266000000 0.5453000000
3.2509000000 4.9074000000 1.3579000000
3.2505000000 4.1780000000 1.6650000000
3.2505000000 5.5310000000 1.0932000000
3.2502000000 4.9913000000 1.2602000000
3.2500000000 2.2154000000 1.4631000000
3.2497000000 0.7347000000 0.6376000000
3.2495000000 4.8181000000 1.3967000000
3.2493000000 0.9080000000 0.7786000000
3.2487000000 5.6075000000 1.0558000000
3.2486000000 1.4052000000 1.1254000000
3.2473000000 0.8687000000 0.7451000000
3.2464000000 1.2646000000 1.0643000000
3.0128000000 6.0626000000 0.6297000000
3.0106000000 4.4929000000 1.7074000000
3.0095000000 4.0216000000 1.8990000000
3.0090000000 5.9154000000 0.7443000000
3.0086000000 4.1850000000 1.8343000000
3.0082000000 1.9399000000 1.5251000000
3.0082000000 1.8625000000 1.4933000000
3.0076000000 3.3839000000 2.1176000000
3.0072000000 1.6875000000 1.4020000000
3.0065000000 0.0174000000 0.0405000000
3.0063000000 3.2336000000 2.0584000000
3.0061000000 5.9310000000 0.7334000000
3.0058000000 3.3779000000 2.1186000000
3.0057000000 1.0958000000 0.9343000000
3.0056000000 3.0888000000 1.9988000000
3.0052000000 6.8849000000 0.0174000000
3.0051000000 6.7366000000 0.0667000000
3.0050000000 4.7029000000 1.6253000000
3.0046000000 1.2176000000 1.0393000000
3.0045000000 4.7649000000 1.5944000000
3.0043000000 5.8603000000 0.7941000000
3.0039000000 3.6432000000 2.0584000000
3.0036000000 1.2855000000 1.0896000000
3.0035000000 1.6161000000 1.3525000000
3.0035000000 2.3010000000 1.6755000000
3.0034000000 0.4418000000 0.3906000000
3.0031000000 5.3046000000 1.3174000000
3.0029000000 6.7900000000 0.0965000000
3.0029000000 1.3431000000 1.1370000000
3.0028000000 4.3700000000 1.7631000000
3.0024000000 4.1021000000 1.8656000000
3.0020000000 2.1584000000 1.6171000000
3.0018000000 2.2454000000 1.6581000000
3.0015000000 2.4016000000 1.7170000000
3.0014000000 0.6063000000 0.5287000000
3.0012000000 3.1661000000 2.0424000000
3.0010000000 3.5959000000 2.0848000000
3.0007000000 6.4266000000 0.3228000000
3.0000000000 0.1483000000 0.1497000000
2.9995000000 3.2422000000 2.0731000000
2.9992000000 3.6886000000 2.0494000000
2.9988000000 1.9354000000 1.5315000000
2.9983000000 3.4826000000 2.1234000000
2.9977000000 2.6108000000 1.8087000000
2.9970000000 4.2600000000 1.8125000000
2.9964000000 6.0378000000 0.6491000000
2.9959000000 1.4649000000 1.2484000000
2.7648000000 4.5994000000 1.8351000000
2.7620000000 5.8129000000 0.8290000000
2.7610000000 1.1165000000 0.9542000000
2.7601000000 5.4400000000 1.1435000000
2.7596000000 6.8189000000 0.0676000000
2.7592000000 4.8995000000 1.5976000000
2.7589000000 4.6709000000 1.8081000000
2.7585000000 4.6788000000 1.8068000000
2.7583000000 0.2289000000 0.2164000000
2.7580000000 6.4049000000 0.3423000000
2.7575000000 6.3372000000 0.3960000000
2.7572000000 5.2368000000 1.3116000000
2.7569000000 3.5877000000 2.2652000000
2.7568000000 6.8274000000 0.0639000000
2.7567000000 3.3515000000 2.2894000000
2.7564000000 1.3408000000 1.1366000000
2.7563000000 6.8163000000 0.0727000000
2.7561000000 1.6348000000 1.3840000000
2.7556000000 1.2830000000 1.0956000000
2.7553000000 3.0158000000 2.1554000000
2.7550000000 0.4322000000 0.3883000000
2.7548000000 2.1016000000 1.7573000000
2.7547000000 2.9934000000 2.1444000000
2.7546000000 1.1890000000 1.0165000000
2.7545000000 3.5996000000 2.2609000000
2.7544000000 5.0684000000 1.4523000000
2.7543000000 1.4221000000 1.2095000000
2.7541000000 6.3835000000 0.3594000000
2.7538000000 5.9216000000 0.7444000000
2.7538000000 5.4733000000 1.1173000000
2.7534000000 0.4275000000 0.3823000000
2.7533000000 6.8671000000 0.0321000000
2.7533000000 1.0223000000 0.8755000000
2.7529000000 1.7096000000 1.4428000000
2.7525000000 1.5053000000 1.2773000000
2.7524000000 1.0889000000 0.9312000000
2.7522000000 3.5687000000 2.2760000000
2.7518000000 1.0681000000 0.9154000000
2.7517000000 4.0846000000 2.0638000000
2.7516000000 0.2495000000 0.2283000000
2.7509000000 1.3004000000 1.1057000000
2.7508000000 1.4744000000 1.2462000000
2.7503000000 4.9065000000 1.5916000000
2.7501000000 0.9818000000 0.8413000000
2.7499000000 4.0725000000 2.0653000000
2.7497000000 1.7322000000 1.4637000000
2.7492000000 4.0396000000 2.0859000000
2.7489000000 2.2526000000 1.8364000000
2.7482000000 0.0077000000 0.0325000000
2.7479000000 2.7399000000 2.0459000000
2.7477000000 4.9584000000 1.5385000000
2.7471000000 4.4287000000 1.9235000000
2.7461000000 1.4093000000 1.1976000000
2.7454000000 0.3521000000 0.3190000000
2.7441000000 0.2063000000 0.2019000000
2.5134000000 5.8662000000 0.7898000000
2.5115000000 5.7615000000 0.8733000000
2.5104000000 4.8933000000 1.5978000000
2.5098000000 6.8017000000 0.0878000000
2.5081000000 0.7710000000 0.6674000000
2.5078000000 6.8594000000 0.0366000000
2.5076000000 1.7763000000 1.4998000000
2.5074000000 3.3748000000 2.4764000000
2.5070000000 3.8660000000 2.3327000000
2.5068000000 3.7618000000 2.3722000000
2.5065000000 4.7094000000 1.7562000000
2.5063000000 1.5709000000 1.3357000000
2.5061000000 5.6727000000 0.9525000000
2.5060000000 4.9455000000 1.5575000000
2.5058000000 5.5957000000 1.0913000000
2.5057000000 5.6947000000 0.9326000000
2.5056000000 4.5378000000 1.9696000000
2.5053000000 6.6503000000 0.1336000000
2.5051000000 5.3804000000 1.1976000000
2.5048000000 5.6311000000 0.9875000000
2.5045000000 5.1627000000 1.3766000000
2.5041000000 4.2723000000 2.1490000000
2.5040000000 0.7920000000 0.6817000000
2.5039000000 2.4260000000 2.0407000000
2.5036000000 6.0679000000 0.6236000000
2.5035000000 5.5589000000 1.0437000000
2.5033000000 3.4143000000 2.4847000000
2.5031000000 0.0298000000 0.0474000000
2.5030000000 0.2466000000 0.2310000000
2.5028000000 3.3530000000 2.4736000000
2.5026000000 1.4642000000 1.2440000000
2.5023000000 4.4309000000 2.0457000000
2.5021000000 5.1988000000 1.3463000000
2.5019000000 4.2010000000 2.1915000000
2.5018000000 1.9462000000 1.6450000000
2.5013000000 2.0882000000 1.7597000000
2.5010000000 6.3924000000 0.3543000000
2.5009000000 1.5384000000 1.3018000000
2.5008000000 5.1203000000 1.4054000000
2.5000000000 1.0545000000 0.9004000000
2.4993000000 1.5035000000 1.2810000000
2.4992000000 1.8209000000 1.5438000000
2.4987000000 3.6124000000 2.4443000000
2.4984000000 1.2059000000 1.0266000000
2.4974000000 1.9627000000 1.6540000000
2.2635000000 5.5250000000 1.0762000000
2.2610000000 5.8121000000 0.8279000000
2.2604000000 6.0952000000 0.6026000000
2.2603000000 5.9161000000 0.7482000000
2.2597000000 5.0270000000 1.4830000000
2.2588000000 4.5466000000 1.9658000000
2.2584000000 6.6757000000 0.1176000000
2.2580000000 0.5815000000 0.5067000000
2.2579000000 6.5778000000 0.1995000000
2.2576000000 0.7181000000 0.6201000000
2.2575000000 3.5370000000 2.6471000000
2.2571000000 2.5546000000 2.1494000000
2.2570000000 1.8700000000 1.5791000000
2.2567000000 6.8483000000 0.0427000000
2.2565000000 1.7517000000 1.4822000000
2.2560000000 6.7265000000 0.0768000000
2.2559000000 4.6718000000 1.7818000000
2.2558000000 2.4271000000 2.0426000000
2.2556000000 6.8855000000 0.0127000000
2.2555000000 0.5010000000 0.4374000000
2.2553000000 2.2034000000 1.8591000000
2.2550000000 5.9535000000 0.7217000000
2.2548000000 0.4429000000 0.3964000000
2.2547000000 5.0654000000 1.4526000000
2.2545000000 4.7611000000 1.7068000000
2.2543000000 5.4687000000 1.1886000000
2.2542000000 0.5631000000 0.4949000000
2.2540000000 0.7928000000 0.6847000000
2.2539000000 5.5472000000 1.0559000000
2.2537000000 6.7949000000 0.0890000000
2.2534000000 1.0647000000 0.9137000000
2.2533000000 3.3829000000 2.6594000000
2.2531000000 0.7375000000 0.6364000000
2.2529000000 3.6690000000 2.5941000000
2.2527000000 3.2296000000 2.6021000000
2.2525000000 2.7028000000 2.2707000000
2.2522000000 0.0249000000 0.0442000000
2.2521000000 5.2789000000 1.2818000000
2.2520000000 0.2587000000 0.2369000000
2.2517000000 0.4642000000 0.4124000000
2.2514000000 3.7164000000 2.5710000000
2.2513000000 5.6177000000 0.9936000000
2.2506000000 2.5181000000 2.1185000000
2.2503000000 2.6575000000 2.2330000000
2.2499000000 0.9588000000 0.8223000000
2.2497000000 0.9402000000 0.8070000000
2.2492000000 2.9607000000 2.4689000000
2.2488000000 3.4349000000 2.6794000000
2.2485000000 3.9137000000 2.4710000000
2.2467000000 0.7454000000 0.6457000000
2.2462000000 4.6328000000 1.8116000000
2.0122000000 5.6127000000 0.9989000000
2.0117000000 6.5846000000 0.1909000000
2.0107000000 0.4785000000 0.4213000000
2.0104000000 4.0941000000 2.2603000000
2.0100000000 5.1459000000 1.3869000000
2.0098000000 0.4324000000 0.3829000000
2.0094000000 3.1813000000 2.6658000000
2.0092000000 5.9007000000 0.8348000000
2.0085000000 6.1415000000 0.5594000000
2.0084000000 5.3346000000 1.2297000000
2.0083000000 5.1570000000 1.3734000000
2.0079000000 4.5045000000 1.9212000000
2.0078000000 2.8296000000 2.3826000000
2.0076000000 4.8305000000 1.6483000000
2.0076000000 1.6776000000 1.4208000000
2.0071000000 5.1946000000 1.3423000000
2.0069000000 5.4003000000 1.1772000000
2.0068000000 1.8510000000 1.5615000000
2.0067000000 1.4780000000 1.2583000000
2.0067000000 5.5662000000 1.0362000000
2.0063000000 3.9026000000 2.4267000000
2.0062000000 5.2574000000 1.2972000000
2.0059000000 5.1420000000 1.3870000000
2.0058000000 4.5226000000 1.9086000000
2.0053000000 2.6820000000 2.2560000000
2.0049000000 1.2517000000 1.0654000000
2.0046000000 3.1886000000 2.6704000000
2.0045000000 5.9620000000 0.7138000000
2.0045000000 4.7458000000 1.7213000000
2.0042000000 2.9378000000 2.4681000000
2.0039000000 0.7014000000 0.6070000000
2.0038000000 4.8631000000 1.6238000000
2.0035000000 5.8094000000 0.8365000000
2.0034000000 3.3772000000 2.7637000000
2.0033000000 6.3265000000 0.4077000000
2.0032000000 5.9609000000 0.7085000000
2.0030000000 1.6521000000 1.4024000000
2.0027000000 2.7768000000 2.3363000000
2.0026000000 5.2042000000 1.3434000000
2.0024000000 0.3487000000 0.3132000000
2.0020000000 5.4765000000 1.1135000000
2.0018000000 1.4036000000 1.1912000000
2.0015000000 5.3481000000 1.2238000000
2.0013000000 0.9556000000 0.8182000000
2.0008000000 1.5111000000 1.2790000000
2.0005000000 0.7116000000 0.6138000000
2.0000000000 4.4112000000 1.9986000000
1.9999000000 2.8195000000 2.3695000000
1.9993000000 0.4188000000 0.3714000000
1.9987000000 0.5843000000 0.5108000000
1.9984000000 0.9815000000 0.8393000000
1.9978000000 2.9061000000 2.4416000000
1.7622000000 5.8588000000 0.7931000000
1.7615000000 6.1380000000 0.5663000000
1.7592000000 0.9753000000 0.8326000000
1.7590000000 4.4176000000 1.9938000000
1.7587000000 3.8914000000 2.4925000000
1.7586000000 5.0622000000 1.4549000000
1.7585000000 3.6808000000 2.6169000000
1.7584000000 1.5708000000 1.3291000000
1.7570000000 2.5480000000 2.1405000000
1.7569000000 1.8180000000 1.5310000000
1.7568000000 4.8913000000 1.6704000000
1.7567000000 2.9397000000 2.4566000000
1.7565000000 6.5602000000 0.2105000000
1.7564000000 0.5429000000 0.4808000000
1.7561000000 0.0535000000 0.0714000000
1.7560000000 5.4138000000 1.1630000000
1.7555000000 4.5559000000 1.8809000000
1.7550000000 0.6611000000 0.5714000000
1.7548000000 6.4662000000 0.2886000000
1.7545000000 5.4979000000 1.0960000000
1.7544000000 1.2210000000 1.0341000000
1.7542000000 1.0959000000 0.9328000000
1.7540000000 6.5016000000 0.2594000000
1.7539000000 4.7258000000 1.7417000000
1.7538000000 3.9832000000 2.4299000000
1.7537000000 6.7528000000 0.1268000000
1.7536000000 3.5191000000 2.6837000000
1.7533000000 2.3052000000 1.9437000000
1.7529000000 2.8537000000 2.4011000000
1.7527000000 0.4884000000 0.4297000000
1.7525000000 1.6793000000 1.4201000000
1.7523000000 6.8366000000 0.0498000000
1.7521000000 1.7930000000 1.5158000000
1.7520000000 1.5518000000 1.3158000000
1.7517000000 3.7386000000 2.5819000000
1.7514000000 1.1332000000 0.9689000000
1.7512000000 1.7134000000 1.4510000000
1.7508000000 0.0582000000 0.0705000000
1.7502000000 3.6138000000 2.6453000000
1.7493000000 4.0526000000 2.3716000000
1.7488000000 3.2243000000 2.6287000000
1.7487000000 0.3272000000 0.2990000000
1.7480000000 0.3108000000 0.2831000000
1.7476000000 1.0446000000 0.8985000000
1.7471000000 0.6266000000 0.5506000000
1.7468000000 2.2903000000 1.9298000000
1.7456000000 2.7670000000 2.3309000000
1.7446000000 1.0955000000 0.9394000000
1.5104000000 3.2191000000 2.4541000000
1.5102000000 1.6738000000 1.4174000000
1.5095000000 6.1132000000 0.5819000000
1.5088000000 5.4605000000 1.1272000000
1.5079000000 2.3079000000 1.9509000000
1.5077000000 3.5119000000 2.5110000000
1.5074000000 4.4942000000 1.9326000000
1.5067000000 4.1527000000 2.2386000000
1.5063000000 6.7064000000 0.0867000000
1.5060000000 3.7540000000 2.3392000000
1.5059000000 3.6517000000 2.4508000000
1.5057000000 5.5183000000 1.0790000000
1.5054000000 5.2239000000 1.3250000000
1.5052000000 3.9448000000 2.3249000000
1.5049000000 3.5360000000 2.4965000000
1.5045000000 4.4026000000 2.0041000000
1.5041000000 2.3895000000 2.0091000000
1.5039000000 6.8895000000 0.0122000000
1.5036000000 5.8314000000 0.8176000000
1.5036000000 4.2135000000 2.2053000000
1.5034000000 5.2531000000 1.3034000000
1.5030000000 2.1145000000 1.7830000000
1.5029000000 2.0250000000 1.7085000000
1.5025000000 3.4731000000 2.5071000000
1.5023000000 6.5580000000 0.2098000000
1.5023000000 3.8086000000 2.3803000000
1.5021000000 2.1750000000 1.8332000000
1.5017000000 3.1709000000 2.4224000000
1.5016000000 1.0042000000 0.8583000000
1.5015000000 2.8002000000 2.2696000000
1.5010000000 0.3315000000 0.3044000000
1.5008000000 1.1079000000 0.9484000000
1.5004000000 1.1087000000 0.9472000000
1.4998000000 0.0103000000 0.0334000000
1.4997000000 2.2803000000 1.9176000000
1.4991000000 3.9845000000 2.2988000000
1.4989000000 6.2110000000 0.5028000000
1.4982000000 0.2641000000 0.2403000000
1.4975000000 3.4857000000 2.5042000000
1.4971000000 3.7548000000 2.3294000000
1.2618000000 5.0226000000 1.4948000000
1.2613000000 5.9252000000 0.7382000000
1.2588000000 1.7383000000 1.4698000000
1.2580000000 5.1185000000 1.4100000000
1.2580000000 0.7663000000 0.6634000000
1.2574000000 2.6439000000 2.0275000000
1.2572000000 2.2715000000 1.8632000000
1.2565000000 1.7160000000 1.4509000000
1.2563000000 0.7140000000 0.6166000000
1.2559000000 6.7577000000 0.1240000000
1.2558000000 3.5420000000 2.2412000000
1.2556000000 1.1929000000 1.0127000000
1.2555000000 5.7358000000 0.8984000000
1.2554000000 2.5057000000 1.9697000000
1.2553000000 0.8133000000 0.7028000000
1.2551000000 4.1332000000 1.9925000000
1.2549000000 0.0480000000 0.0645000000
1.2546000000 3.1720000000 2.2469000000
1.2545000000 1.9372000000 1.6363000000
1.2544000000 1.6181000000 1.3701000000
1.2544000000 1.3411000000 1.1386000000
1.2541000000 0.3440000000 0.3097000000
1.2540000000 6.4484000000 0.3028000000
1.2539000000 2.9655000000 2.1583000000
1.2537000000 4.1834000000 2.0510000000
1.2536000000 3.6698000000 2.2626000000
1.2534000000 1.9325000000 1.6334000000
1.2530000000 4.4053000000 1.8803000000
1.2529000000 2.2121000000 1.8390000000
1.2527000000 3.9381000000 2.1479000000
1.2525000000 5.0693000000 1.4523000000
1.2524000000 2.4460000000 1.9397000000
1.2522000000 1.5747000000 1.3313000000
1.2519000000 4.7730000000 1.7619000000
1.2518000000 4.5865000000 1.8015000000
1.2517000000 4.1617000000 2.0583000000
1.2515000000 5.3545000000 1.2147000000
1.2511000000 0.8447000000 0.7214000000
1.2507000000 1.6653000000 1.4080000000
1.2503000000 3.6765000000 2.2591000000
1.2502000000 5.4421000000 1.1426000000
1.2500000000 0.7886000000 0.6826000000
1.2495000000 1.0084000000 0.8635000000
1.2489000000 0.9421000000 0.8009000000
1.2482000000 2.0759000000 1.7373000000
1.2477000000 1.9775000000 1.6667000000
1.2474000000 5.3958000000 1.1832000000
1.2468000000 1.6324000000 1.3842000000
1.2463000000 1.5247000000 1.2928000000
1.2440000000 3.0976000000 2.2121000000
1.2403000000 1.6354000000 1.3849000000
1.0105000000 2.5380000000 1.8036000000
1.0103000000 4.2611000000 1.8457000000
1.0088000000 3.3533000000 2.1483000000
1.0082000000 3.6206000000 2.0339000000
1.0078000000 2.5133000000 1.7906000000
1.0076000000 6.0480000000 0.6385000000
1.0075000000 5.5872000000 1.0215000000
1.0069000000 6.6069000000 0.1727000000
1.0068000000 1.7657000000 1.4643000000
1.0064000000 3.0198000000 2.0099000000
1.0063000000 5.9415000000 0.7273000000
1.0062000000 3.6324000000 2.0997000000
1.0055000000 0.6175000000 0.5343000000
1.0053000000 2.9693000000 1.9814000000
1.0052000000 4.6458000000 1.6004000000
1.0050000000 5.8669000000 0.7904000000
1.0049000000 4.9192000000 1.5664000000
1.0046000000 2.0302000000 1.5923000000
1.0043000000 3.6005000000 2.1144000000
1.0040000000 6.6496000000 0.1372000000
1.0036000000 1.9567000000 1.5596000000
1.0035000000 0.2918000000 0.2650000000
1.0034000000 3.9203000000 1.9032000000
1.0033000000 0.7470000000 0.6395000000
1.0032000000 3.5609000000 2.1268000000
1.0030000000 4.6814000000 1.5879000000
1.0030000000 0.0331000000 0.0500000000
1.0028000000 6.0824000000 0.6078000000
1.0026000000 2.3640000000 1.7296000000
1.0025000000 1.5003000000 1.2710000000
1.0023000000 2.3143000000 1.7112000000
1.0021000000 0.9652000000 0.8308000000
1.0019000000 3.3205000000 2.1285000000
1.0018000000 1.3139000000 1.1139000000
1.0014000000 4.0419000000 1.9274000000
1.0012000000 1.7954000000 1.4804000000
1.0010000000 6.4497000000 0.3021000000
1.0007000000 5.7971000000 0.8492000000
1.0002000000 1.9015000000 1.5291000000
0.9997000000 2.4082000000 1.7421000000
0.9994000000 2.4935000000 1.7816000000
0.9993000000 3.0492000000 2.0124000000
0.9991000000 6.7496000000 0.0560000000
0.9988000000 0.5150000000 0.4561000000
0.9977000000 0.9703000000 0.8320000000
0.9962000000 2.1823000000 1.6522000000
0.9960000000 4.4354000000 1.7518000000
0.9947000000 2.8178000000 1.9128000000
0.7614000000 4.0060000000 1.6934000000
0.7608000000 3.4045000000 1.9732000000
0.7598000000 6.5379000000 0.2364000000
0.7585000000 2.6157000000 1.6556000000
0.7583000000 6.6653000000 0.1300000000
0.7572000000 5.5128000000 1.1211000000
0.7570000000 2.1534000000 1.4684000000
0.7567000000 4.7536000000 1.3768000000
0.7566000000 6.3121000000 0.4197000000
0.7563000000 4.6282000000 1.4323000000
0.7562000000 5.6300000000 1.0444000000
0.7560000000 2.9869000000 1.8132000000
0.7560000000 6.8879000000 0.0163000000
0.7557000000 4.8367000000 1.4175000000
0.7555000000 0.1038000000 0.1095000000
0.7553000000 6.5920000000 0.1879000000
0.7552000000 4.2718000000 1.5782000000
0.7551000000 6.6723000000 0.1191000000
0.7550000000 1.3785000000 1.1345000000
0.7547000000 6.1110000000 0.5852000000
0.7545000000 2.6804000000 1.6883000000
0.7544000000 5.3050000000 1.1417000000
0.7543000000 3.3244000000 1.9516000000
0.7541000000 1.4955000000 1.1897000000
0.7540000000 2.2608000000 1.5092000000
0.7537000000 4.3054000000 1.5633000000
0.7536000000 4.7331000000 1.3771000000
0.7535000000 0.5439000000 0.4785000000
0.7534000000 3.3819000000 1.9715000000
0.7532000000 0.3116000000 0.2817000000
0.7531000000 4.1256000000 1.6305000000
0.7528000000 2.6804000000 1.6831000000
0.7527000000 1.7939000000 1.3102000000
0.7524000000 4.6091000000 1.5098000000
0.7522000000 3.8390000000 1.8281000000
0.7520000000 5.3100000000 1.1381000000
0.7516000000 2.4953000000 1.6030000000
0.7515000000 5.5769000000 1.0967000000
0.7506000000 3.6958000000 1.8138000000
0.7505000000 4.1330000000 1.6298000000
0.7505000000 4.0303000000 1.7502000000
0.7504000000 1.7824000000 1.3016000000
0.7503000000 1.1689000000 0.9976000000
0.7500000000 5.4062000000 1.1776000000
0.7497000000 2.9404000000 1.7859000000
0.7477000000 5.0915000000 1.2367000000
0.7472000000 1.2321000000 1.0382000000
0.7460000000 0.0339000000 0.0542000000
0.7443000000 0.3992000000 0.3518000000
0.5121000000 2.4390000000 1.4063000000
0.5099000000 0.2413000000 0.2208000000
0.5097000000 6.8261000000 0.0723000000
0.5095000000 2.5733000000 1.4635000000
0.5091000000 6.8736000000 0.0257000000
0.5088000000 2.0608000000 1.2495000000
0.5081000000 5.1040000000 1.0544000000
0.5077000000 5.9071000000 0.7790000000
0.5076000000 5.6856000000 0.8846000000
0.5070000000 3.0117000000 1.6421000000
0.5069000000 6.3307000000 0.4075000000
0.5067000000 5.5803000000 0.8507000000
0.5065000000 5.4178000000 0.9193000000
0.5063000000 1.5151000000 1.0234000000
0.5060000000 3.5950000000 1.6795000000
0.5058000000 2.5085000000 1.4277000000
0.5055000000 4.9877000000 1.0960000000
0.5054000000 4.5005000000 1.3035000000
0.5050000000 6.4709000000 0.2921000000
0.5047000000 1.8349000000 1.1537000000
0.5046000000 6.3433000000 0.3928000000
0.5045000000 2.8469000000 1.5685000000
0.5043000000 1.5004000000 1.0119000000
0.5041000000 6.0683000000 0.6778000000
0.5040000000 1.3515000000 0.9519000000
0.5038000000 5.1527000000 1.0285000000
0.5037000000 0.7315000000 0.6323000000
0.5035000000 3.1169000000 1.6829000000
0.5034000000 3.5850000000 1.7518000000
0.5033000000 0.4923000000 0.4319000000
0.5031000000 6.6555000000 0.1284000000
0.5030000000 3.0024000000 1.6343000000
0.5028000000 0.6861000000 0.5956000000
0.5027000000 3.1357000000 1.6900000000
0.5025000000 0.1695000000 0.1642000000
0.5021000000 6.3462000000 0.3962000000
0.5020000000 5.6150000000 0.8389000000
0.5018000000 4.6552000000 1.3081000000
0.5016000000 5.5250000000 0.8719000000
0.5014000000 3.7228000000 1.6252000000
0.5012000000 0.7128000000 0.6206000000
0.5009000000 4.5333000000 1.2851000000
0.5007000000 0.5566000000 0.4858000000
0.5002000000 6.0104000000 0.7339000000
0.4994000000 4.7722000000 1.2584000000
0.4990000000 5.2240000000 0.9985000000
0.4988000000 2.4624000000 1.4091000000
0.4977000000 5.4394000000 0.9002000000
0.4970000000 1.2272000000 0.8943000000
0.4963000000 4.5748000000 1.2673000000
0.4951000000 1.8700000000 1.1609000000
0.2621000000 5.4681000000 0.7971000000
0.2619000000 2.3748000000 1.2025000000
0.2608000000 1.1306000000 0.6848000000
0.2600000000 6.2792000000 0.3873000000
0.2597000000 4.6503000000 1.1383000000
0.2595000000 4.8204000000 0.9896000000
0.2588000000 0.8468000000 0.5662000000
0.2583000000 3.2764000000 1.5729000000
0.2580000000 5.9764000000 0.5089000000
0.2578000000 4.3966000000 1.1699000000
0.2577000000 3.6711000000 1.4715000000
0.2574000000 6.8837000000 0.0194000000
0.2573000000 6.5862000000 0.1940000000
0.2569000000 4.9685000000 0.9290000000
0.2567000000 6.0812000000 0.4631000000
0.2565000000 6.5927000000 0.1814000000
0.2564000000 0.6359000000 0.4736000000
0.2558000000 3.7935000000 1.4189000000
0.2557000000 1.8130000000 0.9686000000
0.2553000000 6.1543000000 0.4355000000
0.2552000000 2.3569000000 1.1849000000
0.2551000000 6.6960000000 0.1027000000
0.2548000000 5.0711000000 0.9567000000
0.2547000000 2.3094000000 1.1711000000
0.2545000000 1.4658000000 0.8175000000
0.2542000000 5.3159000000 0.7835000000
0.2540000000 3.1315000000 1.5152000000
0.2539000000 4.4103000000 1.1589000000
0.2538000000 6.4602000000 0.3536000000
0.2537000000 6.7168000000 0.0842000000
0.2535000000 1.6986000000 0.9103000000
0.2534000000 0.3216000000 0.2901000000
0.2533000000 4.6961000000 1.1139000000
0.2531000000 2.4159000000 1.2126000000
0.2530000000 4.9455000000 0.9355000000
0.2529000000 5.3046000000 0.8562000000
0.2527000000 2.4078000000 1.2042000000
0.2526000000 1.9442000000 1.0167000000
0.2524000000 3.4726000000 1.6090000000
0.2521000000 6.6089000000 0.1685000000
0.2518000000 1.7415000000 0.9328000000
0.2519000000 0.5141000000 0.4075000000
0.2516000000 1.4246000000 0.8017000000
0.2515000000 1.5019000000 0.8310000000
0.2510000000 0.2643000000 0.2436000000
0.2508000000 3.1593000000 1.5108000000
0.2505000000 5.6187000000 0.6575000000
0.2504000000 5.9474000000 0.5148000000
0.2503000000 3.6269000000 1.5562000000
0.2498000000 2.0173000000 1.0430000000
0.2497000000 4.3817000000 1.1673000000
0.2494000000 3.6286000000 1.4754000000
0.2488000000 5.7618000000 0.5920000000
0.2473000000 1.8792000000 0.9829000000
0.2472000000 0.2918000000 0.2666000000
0.2468000000 5.5761000000 0.7411000000
0.2452000000 3.0970000000 1.4868000000
0.0119000000 6.5756000000 0.0872000000
0.0096000000 6.6795000000 0.0386000000
0.0090000000 5.7707000000 0.4153000000
0.0083000000 2.9536000000 1.2628000000
0.0077000000 3.9503000000 1.2413000000
0.0075000000 0.0951000000 0.0605000000
0.0070000000 0.3148000000 0.1625000000
0.0066000000 1.6396000000 0.7081000000
0.0065000000 4.1006000000 1.1100000000
0.0064000000 3.9434000000 1.1764000000
0.0063000000 2.4975000000 1.0622000000
0.0062000000 6.8566000000 0.0229000000
0.0061000000 4.2781000000 1.1067000000
0.0060000000 3.9274000000 1.1811000000
0.0056000000 2.4089000000 1.0329000000
0.0055000000 5.8305000000 0.3876000000
0.0053000000 1.5999000000 0.6920000000
0.0050000000 3.9658000000 1.1679000000
0.0048000000 4.1563000000 1.0838000000
0.0046000000 0.7534000000 0.3427000000
0.0043000000 4.7813000000 0.8218000000
0.0042000000 3.6058000000 1.3809000000
0.0041000000 3.0048000000 1.2753000000
0.0040000000 2.5577000000 1.0926000000
0.0039000000 5.4957000000 0.5279000000
0.0037000000 3.6985000000 1.3466000000
0.0034000000 5.9904000000 0.3199000000
0.0033000000 2.5417000000 1.0778000000
0.0030000000 6.3507000000 0.1674000000
0.0029000000 1.7891000000 0.7703000000
0.0027000000 2.4879000000 1.0625000000
0.0025000000 4.0352000000 1.1298000000
0.0023000000 1.1452000000 0.5039000000
0.0018000000 6.6722000000 0.1113000000
0.0017000000 3.5629000000 1.4041000000
0.0016000000 0.6105000000 0.2825000000
0.0015000000 0.3219000000 0.1596000000
0.0012000000 4.8590000000 0.7886000000
0.0010000000 2.8693000000 1.2191000000
0.0008000000 6.8380000000 0.0249000000
0.0007000000 1.8813000000 0.8058000000
0.0005000000 6.4782000000 0.1164000000
0.0004000000 1.3490000000 0.5848000000
0.0002000000 6.1502000000 0.2538000000
0.0000000000 0.2823000000 0.1427000000
-0.0002000000 0.4542000000 0.2130000000
-0.0008000000 3.7490000000 1.3223000000
-0.0014000000 2.8571000000 1.2113000000
-0.0017000000 1.3308000000 0.5739000000
-0.0020000000 1.1821000000 0.5152000000
-0.0027000000 2.8035000000 1.1872000000
-0.0033000000 0.7326000000 0.3299000000
-0.0073000000 1.1126000000 0.4800000000
-0.2391000000 3.3696000000 1.2581000000
-0.2400000000 0.6090000000 0.1041000000
-0.2409000000 3.9895000000 0.9787000000
-0.2419000000 4.2514000000 0.9399000000
-0.2423000000 6.1417000000 0.0828000000
-0.2424000000 4.9963000000 0.5587000000
-0.2427000000 3.5220000000 1.1685000000
-0.2430000000 4.4796000000 0.7703000000
-0.2432000000 2.6178000000 0.9304000000
-0.2434000000 4.4528000000 0.7805000000
-0.2438000000 2.5025000000 0.8889000000
-0.2440000000 3.0134000000 1.1053000000
-0.2442000000 1.1322000000 0.3194000000
-0.2447000000 5.4467000000 0.3667000000
-0.2449000000 5.4527000000 0.3659000000
-0.2451000000 2.4628000000 0.8713000000
-0.2452000000 2.3992000000 0.8437000000
-0.2453000000 6.3301000000 0.0709000000
-0.2458000000 4.2190000000 0.9462000000
-0.2459000000 3.7155000000 1.1632000000
-0.2460000000 3.7262000000 1.0821000000
-0.2462000000 2.5670000000 0.9147000000
-0.2463000000 5.2792000000 0.4395000000
-0.2467000000 0.2357000000 0.0181000000
-0.2467000000 3.8336000000 1.1145000000
-0.2468000000 1.5779000000 0.5020000000
-0.2472000000 2.3523000000 0.8205000000
-0.2474000000 3.8066000000 1.1255000000
-0.2476000000 4.2989000000 0.8392000000
-0.2477000000 2.6345000000 0.9373000000
-0.2480000000 4.9532000000 0.5670000000
-0.2481000000 2.1108000000 0.7270000000
-0.2485000000 0.3101000000 0.0552000000
-0.2486000000 2.2468000000 0.7790000000
-0.2487000000 4.6149000000 0.7111000000
-0.2490000000 0.5701000000 0.0806000000
-0.2492000000 1.8671000000 0.6247000000
-0.2495000000 1.7004000000 0.5507000000
-0.2498000000 3.1780000000 1.1682000000
-0.2505000000 1.5946000000 0.5049000000
-0.2515000000 2.7836000000 1.0021000000
-0.2519000000 3.4149000000 1.2467000000
-0.2527000000 0.6533000000 0.1098000000
-0.2534000000 4.0407000000 1.0216000000
-0.2537000000 1.6572000000 0.5280000000
-0.4895000000 4.5739000000 0.5582000000
-0.4896000000 5.1678000000 0.3113000000
-0.4900000000 5.1752000000 0.3067000000
-0.4906000000 2.8091000000 0.8404000000
-0.4912000000 1.5726000000 0.3266000000
-0.4921000000 5.4966000000 0.1703000000
-0.4922000000 5.6826000000 0.0934000000
-0.4925000000 6.0046000000 0.0282000000
-0.4927000000 1.9934000000 0.4964000000
-0.4930000000 2.9044000000 0.8753000000
-0.4933000000 4.2608000000 0.6803000000
-0.4935000000 3.6198000000 0.9443000000
-0.4940000000 3.1455000000 0.9794000000
-0.4942000000 2.4886000000 0.7029000000
-0.4945000000 1.2156000000 0.1721000000
-0.4950000000 4.6442000000 0.5233000000
-0.4955000000 5.0110000000 0.3651000000
-0.4959000000 1.8947000000 0.4595000000
-0.4962000000 1.2882000000 0.2005000000
-0.4966000000 0.6786000000 0.0264000000
-0.4967000000 3.8064000000 0.9398000000
-0.4967000000 5.8809000000 0.0813000000
-0.4971000000 0.8673000000 0.0300000000
-0.4973000000 2.4393000000 0.6825000000
-0.4976000000 6.0671000000 0.0057000000
-0.4978000000 5.3295000000 0.3083000000
-0.4982000000 4.7741000000 0.4651000000
-0.4989000000 6.0681000000 -0.0027000000
-0.4991000000 4.9845000000 0.4516000000
-0.4994000000 3.1513000000 0.9746000000
-0.4996000000 3.7953000000 0.8702000000
-0.5001000000 2.9083000000 0.8684000000
-0.5007000000 1.5220000000 0.3019000000
-0.5015000000 6.0355000000 0.0124000000
-0.5020000000 1.3585000000 0.2266000000
-0.5029000000 0.8745000000 0.0258000000
-0.5053000000 1.0352000000 0.0897000000
-0.7387000000 5.3389000000 0.0545000000
-0.7408000000 3.2398000000 0.8412000000
-0.7414000000 3.6452000000 0.7583000000
-0.7425000000 4.1925000000 0.5291000000
-0.7428000000 4.7537000000 0.2966000000
-0.7431000000 5.5557000000 0.0451000000
-0.7433000000 5.7513000000 0.0331000000
-0.7437000000 1.1069000000 0.0220000000
-0.7441000000 1.1569000000 0.0444000000
-0.7445000000 4.0293000000 0.6710000000
-0.7451000000 3.8372000000 0.7517000000
-0.7455000000 3.2118000000 0.8233000000
-0.7459000000 2.1957000000 0.4040000000
-0.7463000000 4.6920000000 0.3893000000
-0.7465000000 1.7011000000 0.2004000000
-0.7471000000 3.9321000000 0.7125000000
-0.7475000000 4.5759000000 0.3711000000
-0.7477000000 3.2216000000 0.8250000000
-0.7478000000 5.1771000000 0.1184000000
-0.7480000000 4.0170000000 0.5985000000
-0.7480000000 3.0434000000 0.7477000000
-0.7489000000 4.8642000000 0.3216000000
-0.7490000000 5.1792000000 0.1185000000
-0.7497000000 5.6113000000 0.0072000000
-0.7499000000 2.0069000000 0.3157000000
-0.7503000000 1.9749000000 0.3046000000
-0.7505000000 3.7795000000 0.6990000000
-0.7510000000 4.4316000000 0.5015000000
-0.7514000000 4.8195000000 0.2617000000
-0.7519000000 2.3603000000 0.4666000000
-0.7524000000 4.8962000000 0.3014000000
-0.9887000000 1.8051000000 0.0697000000
-0.9898000000 5.1517000000 0.0267000000
-0.9904000000 4.6558000000 0.1571000000
-0.9921000000 3.5917000000 0.6758000000
-0.9930000000 4.9302000000 0.1083000000
-0.9932000000 2.3621000000 0.2869000000
-0.9934000000 2.6060000000 0.3901000000
-0.9937000000 5.1831000000 0.0107000000
-0.9944000000 4.3000000000 0.3025000000
-0.9945000000 2.2911000000 0.2603000000
-0.9947000000 4.1281000000 0.3735000000
-0.9950000000 4.7180000000 0.2100000000
-0.9951000000 3.6413000000 0.5792000000
-0.9953000000 3.5422000000 0.6200000000
-0.9955000000 5.2703000000 0.0491000000
-0.9955000000 3.8225000000 0.5009000000
-0.9957000000 4.4363000000 0.2463000000
-0.9959000000 4.8490000000 0.1527000000
-0.9963000000 3.5652000000 0.6816000000
-0.9966000000 3.9371000000 0.5288000000
-0.9968000000 3.9933000000 0.5029000000
-0.9970000000 5.3355000000 0.0194000000
-0.9973000000 1.8743000000 0.0860000000
-0.9979000000 2.2042000000 0.2213000000
-0.9980000000 2.8138000000 0.4758000000
-0.9984000000 1.7913000000 0.0428000000
-0.9992000000 4.9445000000 0.1064000000
-1.0001000000 1.7230000000 0.0190000000
-1.0013000000 4.3420000000 0.3511000000
-1.0015000000 3.6020000000 0.6589000000
-1.0028000000 2.1149000000 0.1829000000
-1.0037000000 2.8349000000 0.4806000000
-1.0068000000 2.9226000000 0.5169000000
-1.2404000000 2.1286000000 0.0927000000
-1.2420000000 2.0387000000 0.0520000000
-1.2421000000 2.7849000000 0.2912000000
-1.2430000000 4.6486000000 0.0552000000
-1.2433000000 2.8906000000 0.3300000000
-1.2442000000 3.8516000000 0.3888000000
-1.2447000000 4.5508000000 0.0922000000
-1.2453000000 3.5292000000 0.5191000000
-1.2455000000 4.2349000000 0.1492000000
-1.2462000000 2.3673000000 0.1119000000
-1.2464000000 3.5632000000 0.5050000000
-1.2470000000 3.1481000000 0.4397000000
-1.2472000000 3.5929000000 0.4153000000
-1.2474000000 2.8363000000 0.3048000000
-1.2477000000 2.4721000000 0.1526000000
-1.2488000000 4.7689000000 -0.0030000000
-1.2492000000 2.9690000000 0.3554000000
-1.2498000000 2.1878000000 0.0315000000
-1.2505000000 2.6975000000 0.2461000000
-1.2515000000 3.6994000000 0.4458000000
-1.2544000000 2.1160000000 0.0004000000
-1.4918000000 4.0582000000 0.1208000000
-1.4928000000 2.8808000000 0.1477000000
-1.4938000000 4.1561000000 0.0774000000
-1.4946000000 4.0422000000 0.1310000000
-1.4956000000 2.4815000000 0.0546000000
-1.4969000000 2.9942000000 0.1909000000
-1.4974000000 4.1887000000 0.0611000000
-1.4993000000 4.4370000000 0.0363000000
-1.4999000000 3.9595000000 0.0817000000
-1.5002000000 2.6223000000 0.0395000000
-1.5015000000 2.8163000000 0.1112000000
-1.5020000000 3.2818000000 0.3122000000
-1.7399000000 3.5276000000 0.0942000000
-1.7424000000 2.8769000000 0.0429000000
-1.7441000000 3.4961000000 0.1703000000
-1.7451000000 3.0733000000 0.0486000000
-1.7466000000 2.9410000000 0.0620000000
-1.7480000000 3.9891000000 0.0341000000
-1.7482000000 3.4676000000 0.1699000000
-1.7492000000 3.4544000000 0.1722000000
-1.7499000000 4.0230000000 0.0248000000
