5.5127000000 3.6033000000 0.0752000000
5.5078000000 3.0452000000 0.0571000000
5.5065000000 3.5908000000 0.0912000000
5.5053000000 2.9898000000 0.0359000000
5.5040000000 3.4605000000 0.0826000000
5.5020000000 3.1109000000 0.0976000000
5.4978000000 3.1511000000 0.1249000000
5.2600000000 4.0615000000 0.0642000000
5.2584000000 3.1342000000 0.2469000000
5.2575000000 3.9902000000 0.0304000000
5.2557000000 4.0726000000 0.0638000000
5.2554000000 3.4272000000 0.2362000000
5.2550000000 3.7012000000 0.1002000000
5.2545000000 2.4754000000 0.0763000000
5.2540000000 3.7018000000 0.1004000000
5.2533000000 3.7319000000 0.1596000000
5.2520000000 4.0250000000 0.0141000000
5.2515000000 2.8584000000 0.1146000000
5.2513000000 3.9092000000 0.0772000000
5.2503000000 3.1656000000 0.2622000000
5.2498000000 3.5683000000 0.1684000000
5.2495000000 3.1896000000 0.2770000000
5.2493000000 3.3125000000 0.2790000000
5.2488000000 2.9917000000 0.1830000000
5.0119000000 2.6987000000 0.2406000000
5.0098000000 3.9467000000 0.1897000000
5.0093000000 2.8903000000 0.3323000000
5.0082000000 3.3866000000 0.4663000000
5.0080000000 3.5115000000 0.4049000000
5.0076000000 2.5005000000 0.1396000000
5.0068000000 2.1754000000 0.0610000000
5.0062000000 4.3845000000 0.0492000000
5.0058000000 4.0666000000 0.1336000000
5.0053000000 3.6416000000 0.3459000000
5.0045000000 3.6975000000 0.3169000000
5.0039000000 2.6553000000 0.2182000000
5.0037000000 2.4540000000 0.1279000000
5.0030000000 2.2408000000 0.0923000000
5.0029000000 2.8415000000 0.3181000000
5.0015000000 3.0160000000 0.4044000000
5.0011000000 2.8866000000 0.3353000000
5.0006000000 3.3473000000 0.4920000000
5.0005000000 3.5606000000 0.3942000000
4.9994000000 2.1358000000 0.0543000000
4.9987000000 2.7801000000 0.2914000000
4.9981000000 3.6059000000 0.3699000000
4.9965000000 2.1558000000 0.0628000000
4.9935000000 2.1295000000 0.0457000000
4.7633000000 3.4527000000 0.6385000000
4.7599000000 5.0492000000 0.0037000000
4.7581000000 3.4778000000 0.6336000000
4.7569000000 3.2507000000 0.7197000000
4.7566000000 5.0632000000 0.0019000000
4.7561000000 2.3672000000 0.2983000000
4.7559000000 3.0856000000 0.6458000000
4.7556000000 1.6191000000 0.0790000000
4.7552000000 2.9174000000 0.5686000000
4.7550000000 3.0026000000 0.6119000000
4.7546000000 5.0007000000 0.0316000000
4.7544000000 3.9450000000 0.4114000000
4.7542000000 4.6218000000 0.1463000000
4.7539000000 5.0411000000 0.0195000000
4.7538000000 2.1670000000 0.1953000000
4.7537000000 3.4560000000 0.6538000000
4.7534000000 5.0401000000 0.0133000000
4.7529000000 4.6157000000 0.0742000000
4.7526000000 3.7632000000 0.4974000000
4.7521000000 1.6766000000 0.0361000000
4.7520000000 2.3272000000 0.2785000000
4.7515000000 3.6967000000 0.5346000000
4.7512000000 5.0755000000 0.0004000000
4.7510000000 3.3461000000 0.7038000000
4.7505000000 3.6337000000 0.5681000000
4.7502000000 4.1648000000 0.2967000000
4.7498000000 2.2404000000 0.2389000000
4.5154000000 3.6207000000 0.7712000000
4.5128000000 4.3075000000 0.4364000000
4.5106000000 5.3807000000 0.0544000000
4.5093000000 4.4562000000 0.3659000000
4.5088000000 3.3850000000 0.8953000000
4.5083000000 3.4437000000 0.8603000000
4.5078000000 4.7686000000 0.2116000000
4.5070000000 2.4703000000 0.5599000000
4.5068000000 2.0596000000 0.3630000000
4.5066000000 1.3442000000 0.0809000000
4.5059000000 4.4936000000 0.3462000000
4.5058000000 5.3159000000 0.0160000000
4.5055000000 2.9829000000 0.8142000000
4.5050000000 3.7508000000 0.7134000000
4.5045000000 4.2034000000 0.4933000000
4.5035000000 1.8431000000 0.2532000000
4.5033000000 2.8128000000 0.7325000000
4.5031000000 2.4486000000 0.5468000000
4.5028000000 1.2730000000 0.0436000000
4.5018000000 4.5882000000 0.3056000000
4.5013000000 5.2153000000 0.0650000000
4.5010000000 3.4434000000 0.8660000000
4.5009000000 5.2560000000 0.0486000000
4.5000000000 1.2401000000 0.0350000000
4.4997000000 4.9217000000 0.1413000000
4.4993000000 2.5794000000 0.6193000000
4.4989000000 1.5993000000 0.1356000000
4.4982000000 2.6612000000 0.6560000000
4.4967000000 1.8175000000 0.2426000000
4.2611000000 1.6005000000 0.3413000000
4.2607000000 5.1708000000 0.2224000000
4.2602000000 4.5186000000 0.5497000000
4.2600000000 3.9696000000 0.8189000000
4.2583000000 3.5281000000 1.0405000000
4.2575000000 4.2094000000 0.6943000000
4.2573000000 3.8235000000 0.8919000000
4.2570000000 4.7490000000 0.4349000000
4.2568000000 5.6221000000 0.0830000000
4.2563000000 5.8864000000 0.0204000000
4.2555000000 4.1282000000 0.7443000000
4.2552000000 3.9856000000 0.8120000000
4.2550000000 1.2574000000 0.1778000000
4.2549000000 3.1701000000 1.1196000000
4.2546000000 3.5124000000 1.0549000000
4.2543000000 0.7520000000 0.0752000000
4.2540000000 3.4559000000 1.0814000000
4.2538000000 4.5492000000 0.5356000000
4.2533000000 1.6299000000 0.3606000000
4.2530000000 5.2366000000 0.1978000000
4.2527000000 2.7752000000 0.9292000000
4.2526000000 3.8998000000 0.8601000000
4.2525000000 1.4901000000 0.2962000000
4.2524000000 3.3683000000 1.1217000000
4.2520000000 2.1482000000 0.6212000000
4.2519000000 2.0549000000 0.5776000000
4.2517000000 1.5715000000 0.3329000000
4.2514000000 4.1358000000 0.7472000000
4.2510000000 3.9591000000 0.8308000000
4.2506000000 1.4261000000 0.2611000000
4.2502000000 2.6340000000 0.8576000000
4.2499000000 1.1781000000 0.1408000000
4.2492000000 5.3018000000 0.1667000000
4.2485000000 4.1908000000 0.7197000000
4.2479000000 1.0911000000 0.0988000000
4.2477000000 4.4986000000 0.5647000000
4.2474000000 2.1346000000 0.6158000000
4.2458000000 1.1339000000 0.1263000000
4.0120000000 3.9077000000 1.0619000000
4.0112000000 0.8220000000 0.1655000000
4.0105000000 0.7279000000 0.1189000000
4.0101000000 4.3133000000 0.8599000000
4.0095000000 2.1583000000 0.8302000000
4.0090000000 6.1442000000 0.0306000000
4.0087000000 3.9820000000 1.0287000000
4.0081000000 1.4483000000 0.4798000000
4.0078000000 2.5428000000 1.0243000000
4.0072000000 2.8164000000 1.1588000000
4.0071000000 4.7209000000 0.6650000000
4.0067000000 3.7420000000 1.1451000000
4.0066000000 2.2256000000 0.8707000000
4.0064000000 3.5374000000 1.2486000000
4.0063000000 4.0841000000 0.9792000000
4.0060000000 3.5873000000 1.2271000000
4.0058000000 1.1264000000 0.3252000000
4.0056000000 5.2998000000 0.3753000000
4.0053000000 3.8063000000 1.1233000000
4.0050000000 2.9902000000 1.2433000000
4.0049000000 3.3789000000 1.3312000000
4.0048000000 0.6025000000 0.1428000000
4.0046000000 4.5448000000 0.7485000000
4.0044000000 2.0622000000 0.7946000000
4.0039000000 2.0360000000 0.7756000000
4.0037000000 5.2684000000 0.3930000000
4.0035000000 5.2525000000 0.4056000000
4.0033000000 3.9942000000 1.0321000000
4.0033000000 6.0143000000 0.1031000000
4.0031000000 2.6195000000 1.0681000000
4.0031000000 1.2451000000 0.3895000000
4.0029000000 1.7553000000 0.6350000000
4.0028000000 2.8388000000 1.1786000000
4.0025000000 0.1939000000 0.0186000000
4.0023000000 1.5119000000 0.5209000000
4.0021000000 6.0123000000 0.1052000000
4.0017000000 4.0856000000 0.9798000000
4.0013000000 5.7150000000 0.1786000000
4.0012000000 2.6902000000 1.1046000000
4.0008000000 1.2735000000 0.4076000000
4.0009000000 2.7040000000 1.1066000000
4.0006000000 5.8005000000 0.1397000000
4.0000000000 5.5838000000 0.2448000000
3.9999000000 4.7666000000 0.6481000000
3.9996000000 5.5528000000 0.2598000000
3.9995000000 1.1973000000 0.3676000000
3.9994000000 5.7874000000 0.1402000000
3.9986000000 3.0736000000 1.2954000000
3.9976000000 2.5517000000 1.0394000000
3.9964000000 4.3060000000 0.8774000000
3.7616000000 4.3052000000 1.0771000000
3.7604000000 4.8664000000 0.7998000000
3.7601000000 5.4612000000 0.5136000000
3.7599000000 4.2807000000 1.0967000000
3.7591000000 5.8061000000 0.3351000000
3.7587000000 4.6142000000 0.9294000000
3.7579000000 3.5794000000 1.4378000000
3.7575000000 6.4129000000 0.1096000000
3.7571000000 0.6607000000 0.3143000000
3.7569000000 3.2171000000 1.5584000000
3.7568000000 5.1571000000 0.6641000000
3.7567000000 2.6601000000 1.2993000000
3.7564000000 0.9583000000 0.4536000000
3.7562000000 2.3007000000 1.1197000000
3.7561000000 2.8207000000 1.3778000000
3.7560000000 3.2291000000 1.5598000000
3.7556000000 0.7933000000 0.3781000000
3.7555000000 3.4050000000 1.5253000000
3.7554000000 5.3644000000 0.5636000000
3.7552000000 2.5156000000 1.2179000000
3.7551000000 2.3935000000 1.1647000000
3.7548000000 1.1480000000 0.5491000000
3.7545000000 5.4200000000 0.5321000000
3.7543000000 0.5011000000 0.2349000000
3.7542000000 3.1608000000 1.5442000000
3.7541000000 3.3326000000 1.5708000000
3.7539000000 5.4458000000 0.5231000000
3.7537000000 0.7006000000 0.3236000000
3.7533000000 3.9059000000 1.2872000000
3.7532000000 3.0921000000 1.5105000000
3.7529000000 2.8020000000 1.3657000000
3.7531000000 0.2114000000 0.0923000000
3.7528000000 1.6015000000 0.7757000000
3.7525000000 6.2501000000 0.1288000000
3.7520000000 4.4568000000 1.0163000000
3.7518000000 1.4920000000 0.7258000000
3.7513000000 3.5602000000 1.4548000000
3.7507000000 3.8860000000 1.2942000000
3.7505000000 4.8450000000 0.8149000000
3.7500000000 3.4225000000 1.5227000000
3.7498000000 4.0408000000 1.2219000000
3.7494000000 0.3013000000 0.1383000000
3.7487000000 1.1739000000 0.5683000000
3.7483000000 3.0708000000 1.5014000000
3.7480000000 0.6054000000 0.2902000000
3.7456000000 3.4482000000 1.5118000000
3.5119000000 0.9334000000 0.6584000000
3.5101000000 2.1525000000 1.2552000000
3.5085000000 2.8148000000 1.5844000000
3.5082000000 3.0982000000 1.7270000000
3.5075000000 2.7968000000 1.5762000000
3.5073000000 1.7227000000 1.0442000000
3.5067000000 3.6757000000 1.6037000000
3.5062000000 4.1469000000 1.3737000000
3.5060000000 4.3922000000 1.2543000000
3.5055000000 4.7516000000 1.0792000000
3.5053000000 1.1726000000 0.7790000000
3.5052000000 3.9352000000 1.4802000000
3.5049000000 5.3297000000 0.7889000000
3.5047000000 2.2017000000 1.2861000000
3.5044000000 6.3310000000 0.1667000000
3.5043000000 1.9599000000 1.1650000000
3.5041000000 6.1383000000 0.3444000000
3.5039000000 2.2018000000 1.2896000000
3.5038000000 0.4326000000 0.3868000000
3.5037000000 6.3713000000 0.1262000000
3.5035000000 0.5422000000 0.4460000000
3.5033000000 5.3790000000 0.7741000000
3.5029000000 5.1093000000 0.9013000000
3.5028000000 1.2804000000 0.8287000000
3.5021000000 5.0034000000 0.9524000000
3.5019000000 1.6932000000 1.0386000000
3.5017000000 4.4811000000 1.2158000000
3.5018000000 3.2803000000 1.7927000000
3.5015000000 2.9807000000 1.6739000000
3.5012000000 2.3078000000 1.3388000000
3.5003000000 2.5526000000 1.4599000000
3.5001000000 3.7967000000 1.5584000000
3.4995000000 1.2045000000 0.7963000000
3.4992000000 0.5095000000 0.4373000000
3.4989000000 1.3460000000 0.8687000000
3.4986000000 0.2315000000 0.1954000000
3.4978000000 1.7128000000 1.0527000000
3.4954000000 4.4064000000 1.2564000000
3.2641000000 6.3473000000 0.1517000000
3.2604000000 6.4354000000 0.0662000000
3.2602000000 6.5414000000 0.0399000000
3.2597000000 2.8484000000 1.8138000000
3.2594000000 5.9140000000 0.5884000000
3.2592000000 0.0396000000 0.0847000000
3.2582000000 4.6701000000 1.3293000000
3.2579000000 0.9986000000 0.8962000000
3.2571000000 2.0711000000 1.4333000000
3.2569000000 5.8254000000 0.6727000000
3.2568000000 1.8774000000 1.3347000000
3.2568000000 5.3756000000 0.9775000000
3.2564000000 5.4181000000 0.9650000000
3.2560000000 1.4395000000 1.1197000000
3.2557000000 6.5632000000 0.0886000000
3.2555000000 6.4729000000 0.1067000000
3.2554000000 0.2350000000 0.2040000000
3.2551000000 1.8557000000 1.3278000000
3.2551000000 2.4805000000 1.6347000000
3.2547000000 2.0392000000 1.4255000000
3.2545000000 5.7342000000 0.7513000000
3.2545000000 1.4686000000 1.1375000000
3.2541000000 5.0714000000 1.1358000000
3.2540000000 0.1176000000 0.1615000000
3.2539000000 1.3606000000 1.0817000000
3.2537000000 5.5613000000 0.8743000000
3.2535000000 4.7551000000 1.2920000000
3.2533000000 6.2330000000 0.2636000000
3.2531000000 3.5112000000 1.9068000000
3.2530000000 3.6530000000 1.8344000000
3.2527000000 3.1040000000 1.9466000000
3.2526000000 4.5120000000 1.4150000000
3.2522000000 5.2707000000 1.0397000000
3.2521000000 0.9529000000 0.8642000000
3.2516000000 5.4432000000 0.9532000000
3.2515000000 0.4280000000 0.3882000000
3.2513000000 1.1932000000 1.0035000000
3.2508000000 0.3310000000 0.2967000000
3.2506000000 2.3995000000 1.6046000000
3.2502000000 3.9983000000 1.6682000000
3.2499000000 4.7629000000 1.2877000000
3.2495000000 5.6689000000 0.8104000000
3.2491000000 1.7729000000 1.2867000000
3.2485000000 1.9649000000 1.3853000000
3.2480000000 3.5348000000 1.9007000000
3.2475000000 1.5931000000 1.2026000000
3.2474000000 0.1674000000 0.1358000000
3.2451000000 0.5242000000 0.4922000000
3.0108000000 6.3091000000 0.1942000000
3.0100000000 4.0386000000 1.8559000000
3.0089000000 5.3213000000 1.1636000000
3.0083000000 2.4860000000 1.8475000000
3.0082000000 4.2266000000 1.7603000000
3.0080000000 5.9016000000 0.5893000000
3.0077000000 5.6554000000 0.8394000000
3.0073000000 4.0751000000 1.8377000000
3.0070000000 3.3755000000 2.1780000000
3.0068000000 6.0419000000 0.4525000000
3.0066000000 4.3888000000 1.6864000000
3.0064000000 4.8958000000 1.4366000000
3.0063000000 5.4744000000 1.0205000000
3.0060000000 2.5133000000 1.8670000000
3.0058000000 4.8521000000 1.4542000000
3.0055000000 3.3006000000 2.2063000000
3.0054000000 4.5296000000 1.6140000000
3.0052000000 2.7177000000 1.9658000000
3.0050000000 1.6378000000 1.4331000000
3.0047000000 1.4700000000 1.3496000000
3.0045000000 2.5278000000 1.8713000000
3.0043000000 1.3952000000 1.3039000000
3.0042000000 4.9416000000 1.4109000000
3.0040000000 0.2215000000 0.1856000000
3.0039000000 4.5583000000 1.6034000000
3.0038000000 0.9108000000 0.8741000000
3.0032000000 2.4451000000 1.8350000000
3.0030000000 1.8730000000 1.5513000000
3.0029000000 1.9008000000 1.5675000000
3.0028000000 4.2033000000 1.7778000000
3.0026000000 3.6175000000 2.0639000000
3.0025000000 0.8860000000 0.8409000000
3.0022000000 2.9700000000 2.0930000000
3.0017000000 2.8728000000 2.0479000000
3.0014000000 6.0991000000 0.4022000000
3.0011000000 4.7022000000 1.5341000000
3.0010000000 2.3916000000 1.8066000000
3.0008000000 5.0242000000 1.3777000000
3.0005000000 2.1529000000 1.6973000000
3.0003000000 0.2060000000 0.1744000000
2.9998000000 3.6675000000 2.0482000000
2.9995000000 5.8148000000 0.6807000000
2.9992000000 4.6074000000 1.5835000000
2.9988000000 4.9541000000 1.4177000000
2.9983000000 0.9195000000 0.8773000000
2.9981000000 1.0952000000 1.0552000000
2.9977000000 3.9472000000 1.9086000000
2.9949000000 1.6422000000 1.4523000000
2.9933000000 3.7456000000 2.0160000000
2.7623000000 4.5996000000 1.7916000000
2.7601000000 3.7727000000 2.2033000000
2.7598000000 5.6862000000 0.8064000000
2.7588000000 2.8255000000 2.2330000000
2.7580000000 2.8049000000 2.2222000000
2.7577000000 2.6748000000 2.1587000000
2.7575000000 5.8497000000 0.6490000000
2.7572000000 6.0525000000 0.4465000000
2.7568000000 0.5135000000 0.4735000000
2.7565000000 2.0173000000 1.8366000000
2.7563000000 6.4707000000 0.0278000000
2.7561000000 5.1804000000 1.3070000000
2.7560000000 6.2047000000 0.2960000000
2.7555000000 1.2646000000 1.2161000000
2.7552000000 1.8070000000 1.7163000000
2.7550000000 6.3565000000 0.1497000000
2.7548000000 2.0803000000 1.8697000000
2.7545000000 2.5355000000 2.0964000000
2.7544000000 0.3404000000 0.3072000000
2.7543000000 5.3169000000 1.1757000000
2.7541000000 3.3239000000 2.4241000000
2.7540000000 2.1096000000 1.8779000000
2.7538000000 0.0375000000 0.0780000000
2.7537000000 6.0620000000 0.4365000000
2.7536000000 1.0046000000 0.9623000000
2.7535000000 5.1025000000 1.3851000000
2.7533000000 0.1408000000 0.1070000000
2.7532000000 4.3938000000 1.9024000000
2.7532000000 0.5517000000 0.5158000000
2.7530000000 0.3620000000 0.3311000000
2.7528000000 2.4740000000 2.0622000000
2.7526000000 0.9624000000 0.9181000000
2.7523000000 5.5826000000 0.9090000000
2.7522000000 5.4759000000 1.0153000000
2.7518000000 2.4697000000 2.0623000000
2.7517000000 0.8968000000 0.8565000000
2.7514000000 0.2922000000 0.2615000000
2.7513000000 3.2150000000 2.4200000000
2.7510000000 4.9431000000 1.5401000000
2.7507000000 6.1424000000 0.3583000000
2.7503000000 2.4084000000 2.0353000000
2.7505000000 2.5897000000 2.1226000000
2.7500000000 4.1426000000 2.0233000000
2.7499000000 5.0991000000 1.3892000000
2.7495000000 2.6776000000 2.1627000000
2.7492000000 0.7038000000 0.6597000000
2.7481000000 2.0101000000 1.8384000000
2.7469000000 3.9916000000 2.1024000000
2.7459000000 0.9481000000 0.9026000000
2.5103000000 5.4278000000 1.0663000000
2.5098000000 4.4246000000 2.0408000000
2.5094000000 2.1388000000 2.0661000000
2.5090000000 2.1505000000 2.0791000000
2.5086000000 5.5989000000 0.8957000000
2.5083000000 4.3765000000 2.0842000000
2.5076000000 2.0314000000 1.9736000000
2.5074000000 3.6938000000 2.4591000000
2.5073000000 6.1141000000 0.3832000000
2.5071000000 0.3959000000 0.3618000000
2.5068000000 4.0334000000 2.2878000000
2.5067000000 4.4110000000 2.0525000000
2.5065000000 2.3703000000 2.2219000000
2.5060000000 4.6311000000 1.8527000000
2.5060000000 0.6270000000 0.5919000000
2.5057000000 5.8400000000 0.6622000000
2.5055000000 6.5202000000 0.0605000000
2.5053000000 2.8092000000 2.4427000000
2.5050000000 4.1198000000 2.2409000000
2.5048000000 6.0806000000 0.4130000000
2.5047000000 0.8063000000 0.7697000000
2.5045000000 2.0324000000 1.9782000000
2.5043000000 2.7224000000 2.3972000000
2.5042000000 1.0790000000 1.0320000000
2.5039000000 3.6460000000 2.4823000000
2.5038000000 2.1871000000 2.1117000000
2.5036000000 2.2015000000 2.1226000000
2.5034000000 4.8465000000 1.6390000000
2.5033000000 2.6877000000 2.3858000000
2.5029000000 4.7029000000 1.7799000000
2.5026000000 3.2370000000 2.6401000000
2.5025000000 0.3876000000 0.3541000000
2.5022000000 0.7444000000 0.7063000000
2.5021000000 3.3362000000 2.6378000000
2.5019000000 5.1869000000 1.3002000000
2.5018000000 1.1493000000 1.1028000000
2.5018000000 1.9897000000 1.9331000000
2.5016000000 2.7199000000 2.4043000000
2.5013000000 2.0224000000 1.9697000000
2.5010000000 1.7651000000 1.7073000000
2.5004000000 2.3870000000 2.2348000000
2.5002000000 0.4905000000 0.4506000000
2.4999000000 1.3670000000 1.3178000000
2.4997000000 2.4121000000 2.2469000000
2.4992000000 6.0963000000 0.4034000000
2.4990000000 4.2531000000 2.1747000000
2.4983000000 2.1391000000 2.0692000000
2.4982000000 1.1880000000 1.1465000000
2.4975000000 0.6867000000 0.6483000000
2.4965000000 1.7047000000 1.6542000000
2.4963000000 4.0619000000 2.2843000000
2.5068000000 4.5453000000 1.9362000000
2.2646000000 4.8434000000 1.6410000000
2.2602000000 2.4205000000 2.3593000000
2.2600000000 6.5481000000 0.0274000000
2.2598000000 2.7407000000 2.6198000000
2.2596000000 5.6962000000 0.8016000000
2.2581000000 6.4037000000 0.0913000000
2.2579000000 3.8290000000 2.5882000000
2.2572000000 6.0283000000 0.4721000000
2.2569000000 1.6755000000 1.6214000000
2.2565000000 5.6325000000 0.8646000000
2.2563000000 1.3123000000 1.2651000000
2.2561000000 2.7366000000 2.6181000000
2.2558000000 0.6359000000 0.5941000000
2.2557000000 0.3913000000 0.3541000000
2.2555000000 4.5410000000 1.9437000000
2.2553000000 1.9196000000 1.8630000000
2.2550000000 3.5427000000 2.7498000000
2.2547000000 0.2191000000 0.1854000000
2.2545000000 1.0346000000 0.9877000000
2.2543000000 3.5836000000 2.7264000000
2.2542000000 2.9239000000 2.7135000000
2.2540000000 1.0969000000 1.0563000000
2.2535000000 5.2827000000 1.2043000000
2.2534000000 4.8084000000 1.6825000000
2.2531000000 1.1499000000 1.1054000000
2.2529000000 2.1828000000 2.1239000000
2.2528000000 1.5519000000 1.5009000000
2.2526000000 6.0689000000 0.4264000000
2.2523000000 3.9015000000 2.5532000000
2.2520000000 0.2702000000 0.2351000000
2.2519000000 4.8919000000 1.5929000000
2.2516000000 2.5067000000 2.4428000000
2.2512000000 1.9913000000 1.9321000000
2.2511000000 4.4653000000 2.0134000000
2.2506000000 0.9480000000 0.9073000000
2.2505000000 3.7453000000 2.6529000000
2.2502000000 1.8944000000 1.8437000000
2.2500000000 4.6104000000 1.8727000000
2.2498000000 4.4534000000 2.0254000000
2.2496000000 1.7601000000 1.7141000000
2.2493000000 0.3858000000 0.3489000000
2.2491000000 1.6087000000 1.5683000000
2.2486000000 0.5060000000 0.4734000000
2.2485000000 1.0256000000 0.9819000000
2.2481000000 2.0138000000 1.9603000000
2.2476000000 2.6427000000 2.5622000000
2.2451000000 0.1802000000 0.1486000000
2.0121000000 5.7886000000 0.7082000000
2.0101000000 4.4774000000 2.0012000000
2.0090000000 3.6733000000 2.7976000000
2.0088000000 4.0129000000 2.4633000000
2.0079000000 4.9341000000 1.5508000000
2.0078000000 2.8944000000 2.8307000000
2.0075000000 4.2131000000 2.2644000000
2.0068000000 2.4997000000 2.4384000000
2.0062000000 5.5494000000 0.9450000000
2.0060000000 5.4442000000 1.0490000000
2.0057000000 5.4888000000 1.0004000000
2.0055000000 1.9124000000 1.8571000000
2.0053000000 4.9231000000 1.5620000000
2.0049000000 0.5936000000 0.5552000000
2.0046000000 3.8901000000 2.5807000000
2.0044000000 2.5154000000 2.4506000000
2.0042000000 6.0446000000 0.4511000000
2.0039000000 0.9750000000 0.9320000000
2.0037000000 3.1787000000 3.0536000000
2.0035000000 3.5831000000 2.8838000000
2.0033000000 0.7484000000 0.7075000000
2.0031000000 2.3571000000 2.3052000000
2.0030000000 6.0916000000 0.4087000000
2.0028000000 2.8657000000 2.8030000000
2.0027000000 2.5072000000 2.4477000000
2.0023000000 2.8140000000 2.7511000000
2.0021000000 0.6199000000 0.5803000000
2.0014000000 4.2641000000 2.2143000000
2.0012000000 4.5070000000 1.9710000000
2.0011000000 3.7258000000 2.7476000000
2.0009000000 1.8748000000 1.8221000000
2.0007000000 1.2928000000 1.2458000000
2.0005000000 4.4769000000 2.0034000000
2.0003000000 2.1527000000 2.1000000000
1.9998000000 3.7889000000 2.6858000000
1.9993000000 0.8633000000 0.8211000000
1.9990000000 4.0210000000 2.4541000000
1.9983000000 3.1942000000 3.0586000000
1.9980000000 2.1277000000 2.0707000000
1.9975000000 5.2804000000 1.2169000000
1.9961000000 0.6551000000 0.6149000000
1.7618000000 5.9870000000 0.5138000000
1.7613000000 3.9897000000 2.4811000000
1.7597000000 4.8080000000 1.6766000000
1.7593000000 1.6084000000 1.5558000000
1.7590000000 4.7488000000 1.7358000000
1.7587000000 6.1758000000 0.3238000000
1.7583000000 1.0998000000 1.0547000000
1.7580000000 4.8423000000 1.6441000000
1.7578000000 2.8618000000 2.7941000000
1.7575000000 1.3372000000 1.2899000000
1.7572000000 0.6770000000 0.6371000000
1.7569000000 3.1036000000 2.9868000000
1.7567000000 2.8885000000 2.8218000000
1.7566000000 3.7034000000 2.7685000000
1.7562000000 2.9477000000 2.8739000000
1.7557000000 1.9995000000 1.9409000000
1.7555000000 2.8854000000 2.8210000000
1.7554000000 3.2527000000 3.0642000000
1.7552000000 6.2629000000 0.2430000000
1.7550000000 5.8447000000 0.6509000000
1.7545000000 0.7920000000 0.7490000000
1.7543000000 0.7772000000 0.7376000000
1.7542000000 5.3343000000 1.1573000000
1.7539000000 2.3423000000 2.2782000000
1.7537000000 2.5210000000 2.4606000000
1.7533000000 2.2843000000 2.2277000000
1.7530000000 0.7466000000 0.7056000000
1.7528000000 1.1399000000 1.0904000000
1.7525000000 2.8632000000 2.7948000000
1.7524000000 6.2664000000 0.2352000000
1.7523000000 5.8931000000 0.5965000000
1.7520000000 0.0528000000 0.0989000000
1.7519000000 3.9381000000 2.5336000000
1.7517000000 3.6501000000 2.8181000000
1.7515000000 4.1526000000 2.3224000000
1.7510000000 3.1959000000 3.0482000000
1.7507000000 1.7717000000 1.7220000000
1.7506000000 5.4132000000 1.0843000000
1.7505000000 5.3162000000 1.1706000000
1.7503000000 5.5220000000 0.9652000000
1.7502000000 2.9339000000 2.8546000000
1.7498000000 0.7680000000 0.7215000000
1.7496000000 0.1417000000 0.1036000000
1.7495000000 2.1574000000 2.0963000000
1.7490000000 0.1777000000 0.1450000000
1.7487000000 0.7437000000 0.7082000000
1.7486000000 0.0706000000 0.1101000000
1.7483000000 2.5526000000 2.4925000000
1.7473000000 5.4102000000 1.0837000000
1.7468000000 1.4594000000 1.4100000000
1.7460000000 1.5650000000 1.5156000000
1.7445000000 2.5821000000 2.5262000000
1.5141000000 6.2270000000 0.2755000000
1.5119000000 3.1273000000 2.8068000000
1.5090000000 3.8194000000 2.5972000000
1.5087000000 5.1958000000 1.2913000000
1.5084000000 4.3174000000 2.1568000000
1.5079000000 6.4972000000 0.0809000000
1.5077000000 1.5796000000 1.5258000000
1.5073000000 0.4059000000 0.3726000000
1.5070000000 2.8928000000 2.6878000000
1.5068000000 2.1257000000 2.0649000000
1.5066000000 2.3783000000 2.3158000000
1.5065000000 2.3977000000 2.3382000000
1.5064000000 1.0093000000 0.9722000000
1.5063000000 6.0831000000 0.4156000000
1.5060000000 0.3748000000 0.3344000000
1.5058000000 4.3889000000 2.0907000000
1.5056000000 6.3457000000 0.1599000000
1.5054000000 3.2528000000 2.8534000000
1.5050000000 1.3686000000 1.3207000000
1.5050000000 4.5966000000 1.8845000000
1.5046000000 4.6293000000 1.8480000000
1.5044000000 2.5347000000 2.4576000000
1.5042000000 3.8702000000 2.5553000000
1.5039000000 4.1860000000 2.2874000000
1.5038000000 5.8573000000 0.6463000000
1.5036000000 5.6922000000 0.8053000000
1.5033000000 2.5035000000 2.4312000000
1.5032000000 2.8780000000 2.6823000000
1.5030000000 5.3693000000 1.1215000000
1.5028000000 4.2492000000 2.2236000000
1.5025000000 3.9651000000 2.4943000000
1.5025000000 3.0863000000 2.7815000000
1.5023000000 2.2518000000 2.1927000000
1.5022000000 4.1752000000 2.3020000000
1.5020000000 5.5373000000 0.9485000000
1.5017000000 3.3184000000 2.8367000000
1.5017000000 5.0214000000 1.4619000000
1.5015000000 3.8845000000 2.5504000000
1.5013000000 2.0990000000 2.0456000000
1.5012000000 0.5489000000 0.5110000000
1.5011000000 0.6017000000 0.5588000000
1.5007000000 4.1046000000 2.3715000000
1.5005000000 4.9592000000 1.5232000000
1.5003000000 5.6681000000 0.8288000000
1.4997000000 0.2026000000 0.1668000000
1.4991000000 2.8959000000 2.6817000000
1.4990000000 3.6325000000 2.6910000000
1.4988000000 1.4513000000 1.4066000000
1.4980000000 0.0196000000 0.0651000000
1.4976000000 0.0904000000 0.1372000000
1.4971000000 6.0827000000 0.4198000000
1.2630000000 3.4656000000 2.5659000000
1.2610000000 3.9177000000 2.3469000000
1.2591000000 1.5216000000 1.4796000000
1.2588000000 4.6466000000 1.8360000000
1.2586000000 2.8185000000 2.4322000000
1.2581000000 0.9480000000 0.9033000000
1.2575000000 2.9428000000 2.5035000000
1.2570000000 0.0334000000 0.0754000000
1.2568000000 0.3839000000 0.3564000000
1.2559000000 3.2944000000 2.6242000000
1.2558000000 4.4394000000 2.0264000000
1.2556000000 5.4984000000 0.9932000000
1.2553000000 3.1843000000 2.6196000000
1.2549000000 1.1545000000 1.1143000000
1.2547000000 2.1748000000 2.1002000000
1.2545000000 0.9653000000 0.9228000000
1.2543000000 5.4387000000 1.0549000000
1.2541000000 0.0774000000 0.0486000000
1.2537000000 3.6316000000 2.4833000000
1.2536000000 1.9994000000 1.9451000000
1.2535000000 5.2497000000 1.2412000000
1.2535000000 3.6019000000 2.4946000000
1.2532000000 4.4448000000 2.0219000000
1.2530000000 0.9922000000 0.9539000000
1.2527000000 5.8002000000 0.6940000000
1.2525000000 2.2611000000 2.1406000000
1.2524000000 3.2294000000 2.6209000000
1.2523000000 4.8557000000 1.6289000000
1.2521000000 4.1888000000 2.2010000000
1.2520000000 4.1073000000 2.2370000000
1.2519000000 4.2322000000 2.1805000000
1.2518000000 0.7291000000 0.6849000000
1.2517000000 2.3377000000 2.1916000000
1.2514000000 5.9188000000 0.5760000000
1.2509000000 5.1365000000 1.3539000000
1.2508000000 0.6365000000 0.5910000000
1.2507000000 0.0629000000 0.1068000000
1.2505000000 0.6746000000 0.6326000000
1.2500000000 6.1959000000 0.3040000000
1.2498000000 6.0915000000 0.4057000000
1.2496000000 6.0062000000 0.4903000000
1.2489000000 5.7499000000 0.7459000000
1.2488000000 0.2840000000 0.2486000000
1.2485000000 5.4595000000 1.0349000000
1.2478000000 3.0162000000 2.5283000000
1.2476000000 0.5153000000 0.4814000000
1.2474000000 2.9421000000 2.4908000000
1.2468000000 2.0437000000 1.9830000000
1.2460000000 0.7449000000 0.7100000000
1.2446000000 0.2448000000 0.2120000000
1.0100000000 2.4571000000 2.0522000000
1.0097000000 5.6734000000 0.8189000000
1.0092000000 3.9680000000 2.1021000000
1.0083000000 1.4726000000 1.4247000000
1.0081000000 3.4595000000 2.3515000000
1.0080000000 3.7169000000 2.2280000000
1.0075000000 4.7642000000 1.6924000000
1.0074000000 1.7125000000 1.6410000000
1.0071000000 2.0366000000 1.8384000000
1.0069000000 1.1023000000 1.0560000000
1.0065000000 4.1767000000 1.9946000000
1.0061000000 0.2287000000 0.1897000000
1.0059000000 5.1839000000 1.3042000000
1.0057000000 4.7062000000 1.7220000000
1.0055000000 2.1497000000 1.8929000000
1.0054000000 2.2523000000 1.9432000000
1.0052000000 3.8477000000 2.1581000000
1.0050000000 6.4080000000 0.0937000000
1.0048000000 0.6646000000 0.6260000000
1.0047000000 4.1812000000 1.9821000000
1.0044000000 5.2122000000 1.2783000000
1.0042000000 4.5356000000 1.8159000000
1.0040000000 4.9541000000 1.5264000000
1.0039000000 0.0280000000 0.0745000000
1.0036000000 3.2598000000 2.4264000000
1.0034000000 1.2597000000 1.2133000000
1.0033000000 2.1607000000 1.9006000000
1.0032000000 3.5517000000 2.3045000000
1.0027000000 1.4545000000 1.4061000000
1.0024000000 1.9342000000 1.7790000000
1.0023000000 5.1023000000 1.3809000000
1.0021000000 1.7140000000 1.6456000000
1.0020000000 3.8383000000 2.1608000000
1.0018000000 2.8413000000 2.2296000000
1.0013000000 3.4883000000 2.3322000000
1.0007000000 4.9086000000 1.5718000000
1.0005000000 3.6627000000 2.2427000000
1.0003000000 3.5499000000 2.3037000000
1.0002000000 2.6904000000 2.1601000000
1.0000000000 4.8193000000 1.6471000000
0.9995000000 0.9658000000 0.9279000000
0.9990000000 5.8065000000 0.6865000000
0.9986000000 1.2836000000 1.2374000000
0.9981000000 4.2629000000 1.9469000000
0.9977000000 1.1530000000 1.1081000000
0.9973000000 0.1900000000 0.1607000000
0.9952000000 1.2760000000 1.2316000000
0.7630000000 5.1359000000 1.2974000000
0.7609000000 4.6205000000 1.5739000000
0.7605000000 5.7478000000 0.7473000000
0.7595000000 6.5383000000 0.0370000000
0.7590000000 3.5818000000 2.0807000000
0.7583000000 1.8069000000 1.5053000000
0.7578000000 1.6559000000 1.4406000000
0.7569000000 6.0538000000 0.4441000000
0.7567000000 4.1863000000 1.7767000000
0.7561000000 1.5745000000 1.3929000000
0.7559000000 3.8400000000 1.9495000000
0.7558000000 6.1432000000 0.3554000000
0.7556000000 2.0261000000 1.6195000000
0.7555000000 0.3327000000 0.3003000000
0.7552000000 0.4798000000 0.4448000000
0.7550000000 3.6482000000 2.0420000000
0.7549000000 5.7689000000 0.7276000000
0.7547000000 1.9763000000 1.5902000000
0.7545000000 5.3724000000 1.1135000000
0.7542000000 5.5931000000 0.9002000000
0.7540000000 1.9519000000 1.5768000000
0.7536000000 5.4222000000 1.0742000000
0.7535000000 4.2106000000 1.7660000000
0.7531000000 2.0216000000 1.6076000000
0.7527000000 0.2605000000 0.2206000000
0.7526000000 2.5734000000 1.8906000000
0.7523000000 2.0612000000 1.6362000000
0.7522000000 3.5588000000 2.0851000000
0.7521000000 1.8120000000 1.5059000000
0.7518000000 2.6646000000 1.9289000000
0.7517000000 3.4491000000 2.1387000000
0.7512000000 2.4457000000 1.8243000000
0.7511000000 3.2695000000 2.2087000000
0.7510000000 0.9978000000 0.9538000000
0.7509000000 0.2260000000 0.1938000000
0.7508000000 3.0355000000 2.1170000000
0.7507000000 1.5226000000 1.3592000000
0.7505000000 1.8876000000 1.5455000000
0.7501000000 5.9155000000 0.5897000000
0.7499000000 3.5043000000 2.1078000000
0.7493000000 2.3103000000 1.7551000000
0.7490000000 1.4318000000 1.3223000000
0.7484000000 3.0949000000 2.1367000000
0.7483000000 1.5742000000 1.3882000000
0.7478000000 2.0436000000 1.6189000000
0.7470000000 2.6956000000 1.9425000000
0.5103000000 6.1534000000 0.3466000000
0.5098000000 2.8011000000 1.7886000000
0.5089000000 5.9906000000 0.5096000000
0.5082000000 5.3876000000 0.9738000000
0.5078000000 2.9925000000 1.8819000000
0.5076000000 4.4790000000 1.4208000000
0.5068000000 5.7108000000 0.7706000000
0.5066000000 5.4467000000 0.9480000000
0.5064000000 0.1119000000 0.1577000000
0.5063000000 0.6413000000 0.6042000000
0.5058000000 3.5347000000 1.8884000000
0.5054000000 5.8169000000 0.6796000000
0.5052000000 0.2322000000 0.1965000000
0.5048000000 2.1153000000 1.4473000000
0.5047000000 0.4937000000 0.4560000000
0.5044000000 0.3410000000 0.3069000000
0.5042000000 5.8016000000 0.6926000000
0.5041000000 1.1640000000 0.9767000000
0.5038000000 5.7869000000 0.7101000000
0.5037000000 0.9615000000 0.8582000000
0.5035000000 0.7028000000 0.6649000000
0.5032000000 1.8713000000 1.3277000000
0.5030000000 1.7787000000 1.2811000000
0.5025000000 1.8303000000 1.3068000000
0.5024000000 3.0392000000 1.9017000000
0.5022000000 1.3407000000 1.0648000000
0.5019000000 6.3348000000 0.1664000000
0.5017000000 0.3848000000 0.3457000000
0.5015000000 1.0886000000 0.9458000000
0.5010000000 3.6968000000 1.7980000000
0.5006000000 0.1678000000 0.1347000000
0.5004000000 2.0823000000 1.4301000000
0.4993000000 0.3269000000 0.2934000000
0.4986000000 0.2179000000 0.1815000000
0.4984000000 0.2667000000 0.2363000000
0.4983000000 0.4006000000 0.3631000000
0.4959000000 3.9263000000 1.6822000000
0.4945000000 0.0544000000 0.0986000000
0.2598000000 3.9348000000 1.4777000000
0.2594000000 2.4812000000 1.4178000000
0.2591000000 0.2122000000 0.1822000000
0.2585000000 5.4647000000 0.7185000000
0.2583000000 4.7378000000 1.0760000000
0.2575000000 4.8947000000 1.0004000000
0.2574000000 0.4018000000 0.3538000000
0.2570000000 0.4152000000 0.3648000000
0.2568000000 3.8396000000 1.5260000000
0.2567000000 1.9249000000 1.1392000000
0.2566000000 6.1445000000 0.3408000000
0.2562000000 2.6654000000 1.5071000000
0.2559000000 2.1555000000 1.2582000000
0.2558000000 5.6988000000 0.6059000000
0.2556000000 3.7117000000 1.5836000000
0.2553000000 5.6372000000 0.6311000000
0.2550000000 5.3391000000 0.7766000000
0.2548000000 5.6764000000 0.6205000000
0.2546000000 0.5874000000 0.4766000000
0.2545000000 6.0921000000 0.3899000000
0.2539000000 5.6788000000 0.6120000000
0.2537000000 6.3486000000 0.1532000000
0.2535000000 5.3717000000 0.7579000000
0.2533000000 4.1003000000 1.3900000000
0.2531000000 2.1540000000 1.2562000000
0.2530000000 0.2333000000 0.1969000000
0.2526000000 6.2963000000 0.2027000000
0.2523000000 2.1117000000 1.2277000000
0.2520000000 2.2754000000 1.3127000000
0.2520000000 4.1405000000 1.3709000000
0.2516000000 6.4799000000 0.0983000000
0.2514000000 3.2389000000 1.7675000000
0.2506000000 1.1402000000 0.7473000000
0.2505000000 5.1202000000 0.8837000000
0.2502000000 1.9845000000 1.1618000000
0.2495000000 0.4232000000 0.3720000000
0.2492000000 1.0847000000 0.7192000000
0.2487000000 0.7660000000 0.5622000000
0.2485000000 3.1299000000 1.7279000000
0.2483000000 2.8773000000 1.6037000000
0.2481000000 2.9790000000 1.6520000000
0.2479000000 2.5630000000 1.4457000000
0.2473000000 1.2787000000 0.8138000000
0.2471000000 1.9690000000 1.1538000000
0.2453000000 2.0745000000 1.2019000000
0.0125000000 5.6452000000 0.4247000000
0.0123000000 2.5748000000 1.2498000000
0.0099000000 5.7100000000 0.3882000000
0.0096000000 5.8508000000 0.3173000000
0.0086000000 5.9425000000 0.2691000000
0.0083000000 5.6348000000 0.4241000000
0.0078000000 4.8628000000 0.8013000000
0.0076000000 3.1720000000 1.5417000000
0.0075000000 1.0627000000 0.5018000000
0.0070000000 0.6751000000 0.3054000000
0.0064000000 1.5783000000 0.7598000000
0.0061000000 0.3513000000 0.1463000000
0.0057000000 3.2110000000 1.5607000000
0.0056000000 6.4532000000 0.0751000000
0.0053000000 4.0337000000 1.2090000000
0.0051000000 5.8273000000 0.3215000000
0.0050000000 0.0142000000 0.0450000000
0.0048000000 4.4440000000 1.0045000000
0.0044000000 6.0379000000 0.2162000000
0.0042000000 6.0320000000 0.2279000000
0.0039000000 5.3741000000 0.5447000000
0.0036000000 6.2626000000 0.1061000000
0.0035000000 0.1948000000 0.1446000000
0.0034000000 4.5848000000 0.9343000000
0.0030000000 1.2452000000 0.5830000000
0.0030000000 0.6049000000 0.2710000000
0.0028000000 0.7438000000 0.3394000000
0.0026000000 1.1578000000 0.5401000000
0.0025000000 6.1217000000 0.1772000000
0.0023000000 4.2400000000 1.1060000000
0.0020000000 0.7077000000 0.3222000000
0.0018000000 5.6410000000 0.4120000000
0.0017000000 4.8177000000 0.8154000000
0.0014000000 0.7578000000 0.3508000000
0.0012000000 1.4286000000 0.6790000000
0.0009000000 0.8660000000 0.3986000000
0.0006000000 0.9802000000 0.4515000000
0.0004000000 3.3185000000 1.5497000000
0.0003000000 6.5301000000 0.0278000000
-0.0002000000 5.5205000000 0.4688000000
-0.0008000000 2.4062000000 1.1584000000
-0.0009000000 4.4000000000 1.0229000000
-0.0014000000 1.2496000000 0.5821000000
-0.0020000000 6.1367000000 0.1652000000
-0.0034000000 0.6160000000 0.2715000000
-0.0063000000 2.7222000000 1.3065000000
-0.2392000000 3.3439000000 1.3436000000
-0.2399000000 4.2657000000 0.8872000000
-0.2418000000 4.5782000000 0.7301000000
-0.2421000000 4.2689000000 0.8811000000
-0.2423000000 2.3899000000 0.9428000000
-0.2425000000 3.3658000000 1.3294000000
-0.2427000000 2.9634000000 1.2282000000
-0.2431000000 4.3189000000 0.8546000000
-0.2433000000 4.8333000000 0.6026000000
-0.2437000000 4.1870000000 0.9206000000
-0.2439000000 5.3196000000 0.3641000000
-0.2441000000 3.7267000000 1.1509000000
-0.2442000000 3.9153000000 1.0554000000
-0.2442000000 2.0027000000 0.7514000000
-0.2447000000 4.6041000000 0.7173000000
-0.2450000000 2.8621000000 1.1718000000
-0.2451000000 5.5365000000 0.2528000000
-0.2453000000 5.6813000000 0.1849000000
-0.2455000000 3.3828000000 1.3192000000
-0.2457000000 2.2188000000 0.8551000000
-0.2460000000 4.5028000000 0.7610000000
-0.2462000000 1.6428000000 0.5736000000
-0.2465000000 1.6666000000 0.5817000000
-0.2468000000 4.9262000000 0.5522000000
-0.2473000000 4.3106000000 0.8527000000
-0.2474000000 4.3185000000 0.8529000000
-0.2480000000 1.3083000000 0.4053000000
-0.2483000000 4.2011000000 0.9094000000
-0.2485000000 5.6097000000 0.2129000000
-0.2490000000 5.9913000000 0.0973000000
-0.2490000000 3.7790000000 1.1208000000
-0.2493000000 3.7720000000 1.1208000000
-0.2494000000 0.2437000000 0.0270000000
-0.2498000000 0.7277000000 0.1128000000
-0.2499000000 0.3235000000 0.0645000000
-0.2500000000 1.1245000000 0.3061000000
-0.2503000000 6.0500000000 0.0676000000
-0.2507000000 1.5691000000 0.5315000000
-0.2515000000 1.0303000000 0.2603000000
-0.2518000000 5.8141000000 0.1082000000
-0.2520000000 4.8868000000 0.5673000000
-0.2532000000 2.8561000000 1.1671000000
-0.2555000000 0.5471000000 0.0966000000
-0.2587000000 1.3006000000 0.3987000000
-0.4894000000 5.6056000000 0.0849000000
-0.4896000000 4.3688000000 0.6187000000
-0.4901000000 3.6902000000 0.9573000000
-0.4903000000 1.1253000000 0.0998000000
-0.4913000000 5.3904000000 0.1101000000
-0.4915000000 3.1372000000 1.1001000000
-0.4926000000 3.8802000000 0.8680000000
-0.4927000000 3.9903000000 0.8072000000
-0.4933000000 5.9124000000 -0.0024000000
-0.4935000000 3.5993000000 0.9983000000
-0.4937000000 4.4816000000 0.5676000000
-0.4940000000 0.8974000000 0.0630000000
-0.4940000000 3.7221000000 0.9389000000
-0.4942000000 5.4701000000 0.0719000000
-0.4945000000 1.9075000000 0.4867000000
-0.4947000000 1.6613000000 0.3651000000
-0.4950000000 4.4782000000 0.5621000000
-0.4951000000 2.5587000000 0.8070000000
-0.4952000000 1.1998000000 0.1344000000
-0.4955000000 4.0543000000 0.7751000000
-0.4957000000 3.9291000000 0.8339000000
-0.4960000000 2.4409000000 0.7479000000
-0.4960000000 4.0429000000 0.7742000000
-0.4962000000 2.3448000000 0.7023000000
-0.4963000000 3.4200000000 1.0805000000
-0.4964000000 5.1762000000 0.2102000000
-0.4966000000 5.7067000000 0.0242000000
-0.4968000000 0.7711000000 0.0679000000
-0.4970000000 0.9603000000 0.0976000000
-0.4972000000 4.3183000000 0.6378000000
-0.4976000000 1.3201000000 0.1892000000
-0.4977000000 4.3570000000 0.6198000000
-0.4980000000 5.1063000000 0.2471000000
-0.4982000000 2.0001000000 0.5335000000
-0.4986000000 3.4074000000 1.0897000000
-0.4992000000 2.7644000000 0.9080000000
-0.4995000000 2.6088000000 0.8312000000
-0.4997000000 3.8931000000 0.8481000000
-0.5001000000 2.7648000000 0.9084000000
-0.5004000000 3.8304000000 0.8742000000
-0.5006000000 1.9109000000 0.4835000000
-0.5007000000 1.2712000000 0.1686000000
-0.5012000000 2.7395000000 0.8902000000
-0.5017000000 0.9814000000 0.0979000000
-0.5029000000 2.0105000000 0.5318000000
-0.5033000000 2.6920000000 0.8684000000
-0.5046000000 1.1758000000 0.1186000000
-0.5118000000 0.7038000000 0.0252000000
-0.7398000000 2.4691000000 0.5526000000
-0.7417000000 3.2520000000 0.9210000000
-0.7422000000 2.9526000000 0.7919000000
-0.7426000000 4.1153000000 0.5249000000
-0.7428000000 3.4885000000 0.8350000000
-0.7439000000 1.8788000000 0.2612000000
-0.7440000000 4.7220000000 0.2299000000
-0.7446000000 2.2377000000 0.4365000000
-0.7447000000 5.1053000000 0.0396000000
-0.7449000000 1.0890000000 0.0178000000
-0.7452000000 4.5356000000 0.3193000000
-0.7452000000 5.3270000000 0.0759000000
-0.7456000000 4.8754000000 0.1480000000
-0.7462000000 5.4197000000 0.0310000000
-0.7466000000 1.3307000000 0.0629000000
-0.7468000000 2.6863000000 0.6524000000
-0.7470000000 1.0542000000 0.0058000000
-0.7472000000 3.5940000000 0.7874000000
-0.7474000000 1.4010000000 0.1008000000
-0.7477000000 2.0777000000 0.3535000000
-0.7481000000 1.0638000000 0.0069000000
-0.7489000000 2.0083000000 0.3141000000
-0.7490000000 4.8101000000 0.1818000000
-0.7492000000 2.9200000000 0.7664000000
-0.7496000000 3.8558000000 0.6541000000
-0.7500000000 4.5265000000 0.3164000000
-0.7510000000 2.0551000000 0.3414000000
-0.7520000000 2.7633000000 0.6922000000
-0.7522000000 1.9038000000 0.2656000000
-0.7537000000 1.7157000000 0.1688000000
-0.7554000000 4.1987000000 0.4755000000
-0.9903000000 3.2468000000 0.7082000000
-0.9917000000 2.5606000000 0.3852000000
-0.9926000000 4.9010000000 0.0731000000
-0.9931000000 3.9667000000 0.3864000000
-0.9934000000 4.3334000000 0.2121000000
-0.9935000000 3.6221000000 0.5557000000
-0.9940000000 4.4991000000 0.1247000000
-0.9942000000 2.1048000000 0.1628000000
-0.9945000000 1.7560000000 0.0632000000
-0.9947000000 4.4922000000 0.1309000000
-0.9952000000 3.6763000000 0.5273000000
-0.9956000000 2.6224000000 0.4134000000
-0.9959000000 1.6341000000 0.0775000000
-0.9961000000 4.5506000000 0.0921000000
-0.9963000000 1.7779000000 0.0746000000
-0.9977000000 4.4219000000 0.1591000000
-0.9984000000 3.9847000000 0.3760000000
-0.9987000000 4.0212000000 0.3501000000
-0.9990000000 4.5296000000 0.1038000000
-0.9993000000 4.3280000000 0.2079000000
-0.9999000000 2.7773000000 0.4879000000
-1.0000000000 3.1532000000 0.6687000000
-1.0005000000 4.5171000000 0.1103000000
-1.0013000000 1.8130000000 0.0891000000
-1.0017000000 2.3957000000 0.2987000000
-1.0025000000 2.6760000000 0.4390000000
-1.0038000000 3.6798000000 0.5204000000
-1.0073000000 1.9145000000 0.1259000000
-1.2401000000 3.1357000000 0.4546000000
-1.2420000000 3.2185000000 0.4818000000
-1.2423000000 3.9688000000 0.1712000000
-1.2432000000 2.7944000000 0.2857000000
-1.2438000000 2.2916000000 0.1093000000
-1.2449000000 4.1244000000 0.0895000000
-1.2451000000 2.3960000000 0.1590000000
-1.2452000000 3.8239000000 0.2451000000
-1.2456000000 2.0142000000 0.0464000000
-1.2459000000 2.3954000000 0.1539000000
-1.2462000000 3.7606000000 0.2722000000
-1.2463000000 4.0706000000 0.1186000000
-1.2467000000 3.8622000000 0.2282000000
-1.2486000000 3.6286000000 0.3369000000
-1.2496000000 3.5211000000 0.3837000000
-1.2503000000 4.2501000000 0.1034000000
-1.2509000000 1.9943000000 0.0318000000
-1.4897000000 3.7987000000 0.1236000000
-1.4909000000 4.0549000000 0.0633000000
-1.4932000000 3.6007000000 0.1418000000
-1.4944000000 2.3998000000 0.0251000000
-1.4963000000 3.6091000000 0.1352000000
-1.4977000000 3.4879000000 0.1975000000
-1.4982000000 2.8287000000 0.1530000000
-1.4990000000 4.1254000000 0.0265000000
-1.5018000000 3.2211000000 0.2627000000
-1.5032000000 4.0616000000 0.0560000000
-1.7462000000 2.8621000000 0.0384000000
-1.7466000000 2.8198000000 0.0170000000
-1.7476000000 3.6060000000 0.0670000000
-1.7541000000 3.5471000000 0.0209000000
